ply
format ascii 1.0
comment VCGLIB generated
element vertex 1037
property float x
property float y
property float z
property float nx
property float ny
property float nz
property uchar red
property uchar green
property uchar blue
property uchar alpha
element face 0
property list uchar int vertex_indices
end_header
0.379481 2.36388 2.88636 0 0 0 128 128 128 255
1.54755 2.45973 2.88732 0 0 0 128 128 128 255
1.51267 2.45686 2.88732 0 0 0 128 128 128 255
0.903732 2.40674 2.88732 0 0 0 128 128 128 255
0.886813 2.40505 2.88827 0 0 0 128 128 128 255
2.85418 2.5667 2.88923 0 0 0 128 128 128 255
2.40769 2.52995 2.88923 0 0 0 128 128 128 255
0.901787 2.40599 2.88923 0 0 0 128 128 128 255
2.79341 2.56141 2.89019 0 0 0 128 128 128 255
1.49182 2.45427 2.89019 0 0 0 128 128 128 255
2.6051 2.54532 2.8921 0 0 0 128 128 128 255
2.59414 2.54442 2.8921 0 0 0 128 128 128 255
1.08225 2.41997 2.8921 0 0 0 128 128 128 255
0.848041 2.40069 2.8921 0 0 0 128 128 128 255
0.577954 2.37846 2.8921 0 0 0 128 128 128 255
0.357699 2.36032 2.8921 0 0 0 128 128 128 255
2.60415 2.54466 2.89401 0 0 0 128 128 128 255
1.49191 2.4531 2.89401 0 0 0 128 128 128 255
0.548103 2.37541 2.89401 0 0 0 128 128 128 255
0.513245 2.37225 2.89497 0 0 0 128 128 128 255
1.53681 2.45621 2.89592 0 0 0 128 128 128 255
1.47008 2.45013 2.89784 0 0 0 128 128 128 255
0.919942 2.40485 2.89784 0 0 0 128 128 128 255
0.858151 2.39976 2.89784 0 0 0 128 128 128 255
0.595041 2.3781 2.89784 0 0 0 128 128 128 255
0.569128 2.37597 2.89784 0 0 0 128 128 128 255
2.39201 2.52543 2.89975 0 0 0 128 128 128 255
0.57117 2.37555 2.89975 0 0 0 128 128 128 255
2.96809 2.57256 2.90071 0 0 0 128 128 128 255
2.84251 2.56222 2.90071 0 0 0 128 128 128 255
2.35516 2.52211 2.90071 0 0 0 128 128 128 255
1.18412 2.42571 2.90071 0 0 0 128 128 128 255
0.563221 2.3746 2.90071 0 0 0 128 128 128 255
2.23661 2.51176 2.90262 0 0 0 128 128 128 255
0.580211 2.37542 2.90262 0 0 0 128 128 128 255
2.60838 2.54207 2.90357 0 0 0 128 128 128 255
0.968921 2.40712 2.90357 0 0 0 128 128 128 255
0.942012 2.4049 2.90357 0 0 0 128 128 128 255
0.601164 2.37685 2.90357 0 0 0 128 128 128 255
1.49217 2.4499 2.90453 0 0 0 128 128 128 255
1.47324 2.44834 2.90453 0 0 0 128 128 128 255
2.7639 2.55429 2.90549 0 0 0 128 128 128 255
2.75692 2.55371 2.90549 0 0 0 128 128 128 255
2.67021 2.54658 2.90549 0 0 0 128 128 128 255
1.51313 2.45133 2.90549 0 0 0 128 128 128 255
1.14041 2.42036 2.90644 0 0 0 128 128 128 255
2.84866 2.56068 2.9074 0 0 0 128 128 128 255
0.378039 2.35701 2.90836 0 0 0 128 128 128 255
0.623258 2.37661 2.91027 0 0 0 128 128 128 255
2.18301 2.50471 2.91123 0 0 0 128 128 128 255
2.18201 2.50463 2.91123 0 0 0 128 128 128 255
2.24183 2.50926 2.91218 0 0 0 128 128 128 255
1.24122 2.42689 2.91218 0 0 0 128 128 128 255
1.17743 2.42164 2.91218 0 0 0 128 128 128 255
2.64449 2.54211 2.91314 0 0 0 128 128 128 255
1.25719 2.42792 2.91314 0 0 0 128 128 128 255
2.97739 2.56922 2.91409 0 0 0 128 128 128 255
2.2658 2.51065 2.91409 0 0 0 128 128 128 255
1.37681 2.43747 2.91409 0 0 0 128 128 128 255
0.638303 2.37668 2.91409 0 0 0 128 128 128 255
2.24888 2.50896 2.91505 0 0 0 128 128 128 255
1.49344 2.44678 2.91505 0 0 0 128 128 128 255
0.329372 2.35096 2.91505 0 0 0 128 128 128 255
2.27282 2.51064 2.91601 0 0 0 128 128 128 255
1.18151 2.42081 2.91601 0 0 0 128 128 128 255
2.71037 2.54636 2.91696 0 0 0 128 128 128 255
2.27484 2.51051 2.91696 0 0 0 128 128 128 255
0.616449 2.374 2.91696 0 0 0 128 128 128 255
2.77019 2.55099 2.91792 0 0 0 128 128 128 255
1.45364 2.44262 2.91792 0 0 0 128 128 128 255
1.54336 2.44971 2.91888 0 0 0 128 128 128 255
0.327475 2.34963 2.91888 0 0 0 128 128 128 255
2.73436 2.54746 2.91983 0 0 0 128 128 128 255
0.622501 2.37362 2.91983 0 0 0 128 128 128 255
0.603565 2.37206 2.91983 0 0 0 128 128 128 255
2.9058 2.56128 2.92079 0 0 0 128 128 128 255
1.53942 2.4488 2.92079 0 0 0 128 128 128 255
0.634485 2.37431 2.92079 0 0 0 128 128 128 255
0.647465 2.37509 2.92175 0 0 0 128 128 128 255
2.25505 2.50712 2.9227 0 0 0 128 128 128 255
2.90288 2.56016 2.92366 0 0 0 128 128 128 255
2.18332 2.50093 2.92366 0 0 0 128 128 128 255
1.47073 2.44227 2.92366 0 0 0 128 128 128 255
0.865774 2.39247 2.92366 0 0 0 128 128 128 255
0.599674 2.37057 2.92366 0 0 0 128 128 128 255
2.26108 2.50703 2.92461 0 0 0 128 128 128 255
1.50962 2.44518 2.92461 0 0 0 128 128 128 255
1.18472 2.41843 2.92461 0 0 0 128 128 128 255
0.858822 2.39161 2.92461 0 0 0 128 128 128 255
1.24853 2.42339 2.92557 0 0 0 128 128 128 255
1.24653 2.42323 2.92557 0 0 0 128 128 128 255
0.288774 2.34439 2.92557 0 0 0 128 128 128 255
1.50568 2.44427 2.92653 0 0 0 128 128 128 255
1.3293 2.42945 2.92748 0 0 0 128 128 128 255
1.28744 2.42601 2.92748 0 0 0 128 128 128 255
0.571865 2.3671 2.92748 0 0 0 128 128 128 255
2.9927 2.56608 2.92844 0 0 0 128 128 128 255
1.50075 2.44327 2.92844 0 0 0 128 128 128 255
0.330705 2.34696 2.92844 0 0 0 128 128 128 255
0.286853 2.34335 2.92844 0 0 0 128 128 128 255
2.09476 2.49188 2.9294 0 0 0 128 128 128 255
1.48084 2.44134 2.9294 0 0 0 128 128 128 255
2.7705 2.54721 2.93035 0 0 0 128 128 128 255
1.27057 2.42374 2.93035 0 0 0 128 128 128 255
2.16657 2.4972 2.93131 0 0 0 128 128 128 255
1.46992 2.43986 2.93131 0 0 0 128 128 128 255
1.05333 2.40556 2.93131 0 0 0 128 128 128 255
3.06854 2.57115 2.93227 0 0 0 128 128 128 255
0.934758 2.39551 2.93227 0 0 0 128 128 128 255
0.664671 2.37328 2.93227 0 0 0 128 128 128 255
1.54273 2.44526 2.93322 0 0 0 128 128 128 255
0.313882 2.34411 2.93322 0 0 0 128 128 128 255
2.85431 2.55293 2.93418 0 0 0 128 128 128 255
1.52483 2.4432 2.93513 0 0 0 128 128 128 255
1.46603 2.43836 2.93513 0 0 0 128 128 128 255
1.47204 2.43856 2.93609 0 0 0 128 128 128 255
0.306977 2.34266 2.93609 0 0 0 128 128 128 255
2.89726 2.5553 2.938 0 0 0 128 128 128 255
0.608007 2.36685 2.938 0 0 0 128 128 128 255
0.306028 2.342 2.938 0 0 0 128 128 128 255
2.69996 2.53876 2.93896 0 0 0 128 128 128 255
2.67504 2.53671 2.93896 0 0 0 128 128 128 255
1.57379 2.44577 2.93992 0 0 0 128 128 128 255
1.50004 2.4397 2.93992 0 0 0 128 128 128 255
0.591112 2.36488 2.93992 0 0 0 128 128 128 255
2.79369 2.54589 2.94087 0 0 0 128 128 128 255
2.79169 2.54573 2.94087 0 0 0 128 128 128 255
2.16282 2.49396 2.94087 0 0 0 128 128 128 255
1.51202 2.44039 2.94087 0 0 0 128 128 128 255
1.24094 2.41807 2.94087 0 0 0 128 128 128 255
2.78773 2.54511 2.94183 0 0 0 128 128 128 255
2.26151 2.50179 2.94183 0 0 0 128 128 128 255
2.19673 2.49646 2.94183 0 0 0 128 128 128 255
1.49809 2.43895 2.94183 0 0 0 128 128 128 255
1.26289 2.41959 2.94183 0 0 0 128 128 128 255
0.711752 2.37422 2.94183 0 0 0 128 128 128 255
0.34599 2.34411 2.94183 0 0 0 128 128 128 255
0.327054 2.34255 2.94183 0 0 0 128 128 128 255
2.69507 2.53719 2.94279 0 0 0 128 128 128 255
0.925055 2.39149 2.94279 0 0 0 128 128 128 255
0.863264 2.3864 2.94279 0 0 0 128 128 128 255
1.23304 2.41654 2.94374 0 0 0 128 128 128 255
0.679908 2.37101 2.94374 0 0 0 128 128 128 255
0.44869 2.35198 2.94374 0 0 0 128 128 128 255
2.8765 2.55153 2.9447 0 0 0 128 128 128 255
2.1988 2.49575 2.9447 0 0 0 128 128 128 255
0.965965 2.39427 2.9447 0 0 0 128 128 128 255
2.11012 2.48816 2.94565 0 0 0 128 128 128 255
2.17293 2.49303 2.94661 0 0 0 128 128 128 255
2.07127 2.48467 2.94661 0 0 0 128 128 128 255
0.643105 2.3671 2.94661 0 0 0 128 128 128 255
1.42548 2.43121 2.94757 0 0 0 128 128 128 255
1.21021 2.41349 2.94757 0 0 0 128 128 128 255
0.920192 2.38962 2.94757 0 0 0 128 128 128 255
1.21223 2.41337 2.94852 0 0 0 128 128 128 255
2.88659 2.5509 2.94948 0 0 0 128 128 128 255
2.74407 2.53917 2.94948 0 0 0 128 128 128 255
1.58599 2.44384 2.94948 0 0 0 128 128 128 255
0.373138 2.34342 2.95139 0 0 0 128 128 128 255
2.79599 2.54227 2.9533 0 0 0 128 128 128 255
1.28112 2.41757 2.9533 0 0 0 128 128 128 255
2.69635 2.53377 2.95426 0 0 0 128 128 128 255
0.936306 2.38889 2.95426 0 0 0 128 128 128 255
3.01928 2.56006 2.95522 0 0 0 128 128 128 255
2.28577 2.49968 2.95522 0 0 0 128 128 128 255
1.42966 2.42921 2.95522 0 0 0 128 128 128 255
0.961245 2.39065 2.95522 0 0 0 128 128 128 255
3.01034 2.55903 2.95617 0 0 0 128 128 128 255
1.25727 2.41473 2.95617 0 0 0 128 128 128 255
1.24431 2.41366 2.95617 0 0 0 128 128 128 255
0.994182 2.39278 2.95713 0 0 0 128 128 128 255
2.87186 2.54705 2.95809 0 0 0 128 128 128 255
0.3454 2.33908 2.95809 0 0 0 128 128 128 255
1.60317 2.44232 2.95904 0 0 0 128 128 128 255
1.5065 2.43436 2.95904 0 0 0 128 128 128 255
2.92173 2.55057 2.96 0 0 0 128 128 128 255
1.30321 2.41734 2.96 0 0 0 128 128 128 255
0.430162 2.34547 2.96 0 0 0 128 128 128 255
1.21154 2.4095 2.96096 0 0 0 128 128 128 255
1.00524 2.39252 2.96096 0 0 0 128 128 128 255
0.656445 2.36351 2.96191 0 0 0 128 128 128 255
0.603623 2.35916 2.96191 0 0 0 128 128 128 255
2.80121 2.53977 2.96287 0 0 0 128 128 128 255
2.70056 2.53148 2.96287 0 0 0 128 128 128 255
0.386382 2.34099 2.96287 0 0 0 128 128 128 255
2.0737 2.47959 2.96382 0 0 0 128 128 128 255
1.25646 2.41232 2.96382 0 0 0 128 128 128 255
1.03023 2.39369 2.96382 0 0 0 128 128 128 255
1.53953 2.43532 2.96478 0 0 0 128 128 128 255
0.401379 2.34164 2.96478 0 0 0 128 128 128 255
2.80428 2.53914 2.96574 0 0 0 128 128 128 255
2.2641 2.49467 2.96574 0 0 0 128 128 128 255
2.07377 2.47871 2.96669 0 0 0 128 128 128 255
1.0074 2.39064 2.96765 0 0 0 128 128 128 255
2.99872 2.55397 2.96956 0 0 0 128 128 128 255
2.95686 2.55052 2.96956 0 0 0 128 128 128 255
0.414456 2.34125 2.96956 0 0 0 128 128 128 255
0.456338 2.3444 2.97052 0 0 0 128 128 128 255
2.95591 2.54986 2.97148 0 0 0 128 128 128 255
2.7805 2.53542 2.97148 0 0 0 128 128 128 255
3.02071 2.5549 2.97243 0 0 0 128 128 128 255
1.32644 2.41544 2.97243 0 0 0 128 128 128 255
3.02472 2.55494 2.97339 0 0 0 128 128 128 255
2.15766 2.48357 2.97339 0 0 0 128 128 128 255
1.30454 2.41334 2.97339 0 0 0 128 128 128 255
0.35874 2.33549 2.97339 0 0 0 128 128 128 255
2.89818 2.54423 2.97434 0 0 0 128 128 128 255
2.19157 2.48606 2.97434 0 0 0 128 128 128 255
0.977671 2.38614 2.97434 0 0 0 128 128 128 255
0.403613 2.33889 2.97434 0 0 0 128 128 128 255
3.00883 2.55304 2.9753 0 0 0 128 128 128 255
2.1896 2.48561 2.9753 0 0 0 128 128 128 255
2.97895 2.55029 2.97626 0 0 0 128 128 128 255
2.96201 2.5489 2.97626 0 0 0 128 128 128 255
2.85238 2.53987 2.97626 0 0 0 128 128 128 255
2.17367 2.484 2.97626 0 0 0 128 128 128 255
2.09893 2.47785 2.97626 0 0 0 128 128 128 255
0.68172 2.36119 2.97626 0 0 0 128 128 128 255
0.729582 2.36484 2.97721 0 0 0 128 128 128 255
0.937902 2.38169 2.97817 0 0 0 128 128 128 255
3.00593 2.55163 2.97913 0 0 0 128 128 128 255
2.81259 2.53572 2.97913 0 0 0 128 128 128 255
2.13986 2.48034 2.97913 0 0 0 128 128 128 255
1.17712 2.40109 2.97913 0 0 0 128 128 128 255
2.71992 2.5278 2.98008 0 0 0 128 128 128 255
1.32267 2.41249 2.98104 0 0 0 128 128 128 255
1.03963 2.38919 2.98104 0 0 0 128 128 128 255
2.89837 2.5419 2.982 0 0 0 128 128 128 255
2.05823 2.47245 2.98295 0 0 0 128 128 128 255
1.37156 2.41593 2.98295 0 0 0 128 128 128 255
1.35561 2.41461 2.98295 0 0 0 128 128 128 255
2.12204 2.47741 2.98391 0 0 0 128 128 128 255
2.11008 2.47642 2.98391 0 0 0 128 128 128 255
1.25697 2.4062 2.98391 0 0 0 128 128 128 255
0.783568 2.36723 2.98391 0 0 0 128 128 128 255
0.366977 2.33294 2.98391 0 0 0 128 128 128 255
0.683953 2.35844 2.98582 0 0 0 128 128 128 255
1.55005 2.42944 2.98678 0 0 0 128 128 128 255
1.50423 2.42538 2.98773 0 0 0 128 128 128 255
1.03083 2.38641 2.98773 0 0 0 128 128 128 255
1.0099 2.38469 2.98773 0 0 0 128 128 128 255
0.492648 2.34211 2.98773 0 0 0 128 128 128 255
2.91249 2.54101 2.98869 0 0 0 128 128 128 255
2.90551 2.54043 2.98869 0 0 0 128 128 128 255
0.789668 2.36627 2.98869 0 0 0 128 128 128 255
0.414935 2.33542 2.98869 0 0 0 128 128 128 255
2.2966 2.49002 2.98965 0 0 0 128 128 128 255
1.37073 2.4138 2.98965 0 0 0 128 128 128 255
0.678069 2.35679 2.98965 0 0 0 128 128 128 255
0.687063 2.35723 2.9906 0 0 0 128 128 128 255
2.7232 2.52455 2.99156 0 0 0 128 128 128 255
2.10531 2.47339 2.99252 0 0 0 128 128 128 255
1.00803 2.38307 2.99252 0 0 0 128 128 128 255
0.991083 2.38167 2.99252 0 0 0 128 128 128 255
2.30965 2.48992 2.99347 0 0 0 128 128 128 255
0.961208 2.37892 2.99347 0 0 0 128 128 128 255
2.81197 2.53098 2.99443 0 0 0 128 128 128 255
0.711078 2.35804 2.99443 0 0 0 128 128 128 255
2.811 2.5306 2.99538 0 0 0 128 128 128 255
1.06889 2.3872 2.99538 0 0 0 128 128 128 255
0.828704 2.36743 2.99538 0 0 0 128 128 128 255
0.745984 2.36062 2.99538 0 0 0 128 128 128 255
2.3157 2.48954 2.99634 0 0 0 128 128 128 255
1.35694 2.41062 2.99634 0 0 0 128 128 128 255
0.749994 2.36066 2.99634 0 0 0 128 128 128 255
0.41114 2.33276 2.99634 0 0 0 128 128 128 255
2.31973 2.48928 2.99825 0 0 0 128 128 128 255
2.33371 2.49014 2.99921 0 0 0 128 128 128 255
1.00421 2.3807 2.99921 0 0 0 128 128 128 255
0.774982 2.36183 2.99921 0 0 0 128 128 128 255
2.33174 2.48969 3.00017 0 0 0 128 128 128 255
2.19919 2.47877 3.00017 0 0 0 128 128 128 255
1.36705 2.40969 3.00208 0 0 0 128 128 128 255
0.990326 2.37868 3.00208 0 0 0 128 128 128 255
0.114289 2.30657 3.00208 0 0 0 128 128 128 255
2.33181 2.48881 3.00304 0 0 0 128 128 128 255
1.59929 2.42851 3.00304 0 0 0 128 128 128 255
0.980479 2.3764 3.00686 0 0 0 128 128 128 255
0.733315 2.35606 3.00686 0 0 0 128 128 128 255
0.490138 2.33604 3.00686 0 0 0 128 128 128 255
0.127365 2.30618 3.00686 0 0 0 128 128 128 255
1.06023 2.38267 3.00782 0 0 0 128 128 128 255
0.750306 2.35687 3.00877 0 0 0 128 128 128 255
0.544004 2.33989 3.00877 0 0 0 128 128 128 255
2.919 2.53509 3.00973 0 0 0 128 128 128 255
2.2084 2.4766 3.00973 0 0 0 128 128 128 255
2.20342 2.47619 3.00973 0 0 0 128 128 128 255
1.39615 2.40974 3.00973 0 0 0 128 128 128 255
2.91703 2.53464 3.01069 0 0 0 128 128 128 255
0.922771 2.37048 3.01069 0 0 0 128 128 128 255
0.146397 2.30657 3.01069 0 0 0 128 128 128 255
2.31409 2.48471 3.01164 0 0 0 128 128 128 255
1.93238 2.45329 3.01164 0 0 0 128 128 128 255
1.63439 2.42876 3.01164 0 0 0 128 128 128 255
2.32009 2.48491 3.0126 0 0 0 128 128 128 255
0.672665 2.34931 3.0126 0 0 0 128 128 128 255
2.32012 2.48462 3.01355 0 0 0 128 128 128 255
2.95699 2.53675 3.01451 0 0 0 128 128 128 255
1.62449 2.42707 3.01451 0 0 0 128 128 128 255
1.33746 2.40344 3.01451 0 0 0 128 128 128 255
1.0913 2.38318 3.01451 0 0 0 128 128 128 255
1.01655 2.37703 3.01451 0 0 0 128 128 128 255
0.720551 2.35266 3.01451 0 0 0 128 128 128 255
0.666733 2.34823 3.01451 0 0 0 128 128 128 255
0.165429 2.30697 3.01451 0 0 0 128 128 128 255
2.10689 2.46648 3.01547 0 0 0 128 128 128 255
1.93846 2.45262 3.01547 0 0 0 128 128 128 255
1.26673 2.39733 3.01547 0 0 0 128 128 128 255
2.18664 2.47276 3.01642 0 0 0 128 128 128 255
1.41126 2.40893 3.01642 0 0 0 128 128 128 255
0.443536 2.32927 3.01642 0 0 0 128 128 128 255
1.07941 2.38132 3.01738 0 0 0 128 128 128 255
1.32762 2.40117 3.01929 0 0 0 128 128 128 255
1.11135 2.38336 3.01929 0 0 0 128 128 128 255
1.6127 2.42405 3.02121 0 0 0 128 128 128 255
1.0217 2.3754 3.02121 0 0 0 128 128 128 255
0.753631 2.35304 3.02216 0 0 0 128 128 128 255
1.94164 2.45054 3.02312 0 0 0 128 128 128 255
1.11942 2.38285 3.02312 0 0 0 128 128 128 255
0.774585 2.35447 3.02312 0 0 0 128 128 128 255
1.12246 2.38252 3.02503 0 0 0 128 128 128 255
0.48262 2.32985 3.02503 0 0 0 128 128 128 255
0.482644 2.32956 3.02599 0 0 0 128 128 128 255
2.12412 2.46438 3.02694 0 0 0 128 128 128 255
2.12314 2.46401 3.0279 0 0 0 128 128 128 255
2.0464 2.45769 3.0279 0 0 0 128 128 128 255
0.46276 2.32734 3.0279 0 0 0 128 128 128 255
1.4046 2.40457 3.02886 0 0 0 128 128 128 255
1.13252 2.38217 3.02886 0 0 0 128 128 128 255
0.755792 2.35116 3.02886 0 0 0 128 128 128 255
1.3289 2.39775 3.03077 0 0 0 128 128 128 255
0.857497 2.35895 3.03077 0 0 0 128 128 128 255
0.508677 2.33024 3.03077 0 0 0 128 128 128 255
2.90863 2.52691 3.03364 0 0 0 128 128 128 255
1.10972 2.37883 3.03364 0 0 0 128 128 128 255
0.498782 2.32854 3.03364 0 0 0 128 128 128 255
0.477853 2.32682 3.03364 0 0 0 128 128 128 255
2.12331 2.46197 3.03459 0 0 0 128 128 128 255
2.02066 2.45352 3.03459 0 0 0 128 128 128 255
2.01767 2.45328 3.03459 0 0 0 128 128 128 255
1.36488 2.39954 3.03459 0 0 0 128 128 128 255
1.13266 2.38043 3.03459 0 0 0 128 128 128 255
1.40678 2.4024 3.03651 0 0 0 128 128 128 255
0.441074 2.32262 3.03746 0 0 0 128 128 128 255
2.9247 2.52677 3.03842 0 0 0 128 128 128 255
1.37893 2.39952 3.03842 0 0 0 128 128 128 255
1.12678 2.37877 3.03842 0 0 0 128 128 128 255
0.494915 2.32676 3.03842 0 0 0 128 128 128 255
1.28128 2.39119 3.03938 0 0 0 128 128 128 255
1.16467 2.3816 3.03938 0 0 0 128 128 128 255
0.799908 2.35157 3.03938 0 0 0 128 128 128 255
2.04173 2.4535 3.04033 0 0 0 128 128 128 255
1.38899 2.39918 3.04225 0 0 0 128 128 128 255
0.859802 2.35533 3.0432 0 0 0 128 128 128 255
2.9358 2.52592 3.04416 0 0 0 128 128 128 255
2.05279 2.45324 3.04416 0 0 0 128 128 128 255
2.04282 2.45241 3.04416 0 0 0 128 128 128 255
2.01691 2.45028 3.04416 0 0 0 128 128 128 255
2.04484 2.45229 3.04511 0 0 0 128 128 128 255
1.06715 2.37181 3.04511 0 0 0 128 128 128 255
0.757197 2.34629 3.04511 0 0 0 128 128 128 255
0.748251 2.34526 3.04607 0 0 0 128 128 128 255
2.85814 2.51865 3.04703 0 0 0 128 128 128 255
1.41303 2.39969 3.04703 0 0 0 128 128 128 255
2.01601 2.44903 3.04798 0 0 0 128 128 128 255
2.01501 2.44895 3.04798 0 0 0 128 128 128 255
1.05725 2.37011 3.04798 0 0 0 128 128 128 255
0.764245 2.34599 3.04798 0 0 0 128 128 128 255
0.755275 2.34526 3.04798 0 0 0 128 128 128 255
0.745333 2.34415 3.04894 0 0 0 128 128 128 255
1.37822 2.39595 3.0499 0 0 0 128 128 128 255
0.838044 2.35148 3.0499 0 0 0 128 128 128 255
2.06492 2.45218 3.05085 0 0 0 128 128 128 255
2.05097 2.45103 3.05085 0 0 0 128 128 128 255
0.697543 2.33962 3.05085 0 0 0 128 128 128 255
2.05697 2.45123 3.05181 0 0 0 128 128 128 255
1.47394 2.40324 3.05181 0 0 0 128 128 128 255
0.822145 2.34959 3.05181 0 0 0 128 128 128 255
0.230148 2.30086 3.05181 0 0 0 128 128 128 255
2.01115 2.44717 3.05276 0 0 0 128 128 128 255
1.08034 2.36996 3.05468 0 0 0 128 128 128 255
0.466421 2.31943 3.05468 0 0 0 128 128 128 255
1.14814 2.37525 3.05563 0 0 0 128 128 128 255
0.515279 2.32316 3.05563 0 0 0 128 128 128 255
1.43121 2.39826 3.05659 0 0 0 128 128 128 255
1.08239 2.36954 3.05659 0 0 0 128 128 128 255
0.665794 2.33525 3.05659 0 0 0 128 128 128 255
0.495371 2.32122 3.05659 0 0 0 128 128 128 255
1.51096 2.40453 3.05755 0 0 0 128 128 128 255
0.451567 2.31703 3.0585 0 0 0 128 128 128 255
1.55685 2.40772 3.05946 0 0 0 128 128 128 255
2.90133 2.5181 3.06042 0 0 0 128 128 128 255
1.4034 2.3948 3.06042 0 0 0 128 128 128 255
1.09942 2.36977 3.06042 0 0 0 128 128 128 255
0.527359 2.32268 3.06042 0 0 0 128 128 128 255
3.11164 2.53512 3.06137 0 0 0 128 128 128 255
2.0014 2.44373 3.06137 0 0 0 128 128 128 255
0.489511 2.31928 3.06137 0 0 0 128 128 128 255
2.90835 2.51809 3.06233 0 0 0 128 128 128 255
2.19377 2.45927 3.06233 0 0 0 128 128 128 255
2.03531 2.44622 3.06233 0 0 0 128 128 128 255
1.16625 2.37469 3.06233 0 0 0 128 128 128 255
2.82865 2.51124 3.06328 0 0 0 128 128 128 255
1.41742 2.39507 3.06328 0 0 0 128 128 128 255
0.237412 2.29794 3.06328 0 0 0 128 128 128 255
2.20279 2.45942 3.06424 0 0 0 128 128 128 255
1.11945 2.37025 3.06424 0 0 0 128 128 128 255
1.50019 2.4013 3.0652 0 0 0 128 128 128 255
1.37862 2.391 3.06615 0 0 0 128 128 128 255
1.1504 2.37221 3.06615 0 0 0 128 128 128 255
0.245481 2.29743 3.06711 0 0 0 128 128 128 255
2.96334 2.52056 3.06902 0 0 0 128 128 128 255
1.34481 2.38733 3.06902 0 0 0 128 128 128 255
0.503656 2.31809 3.06902 0 0 0 128 128 128 255
1.33487 2.38622 3.06998 0 0 0 128 128 128 255
1.47841 2.39774 3.07094 0 0 0 128 128 128 255
1.3917 2.39061 3.07094 0 0 0 128 128 128 255
0.438923 2.31218 3.07094 0 0 0 128 128 128 255
0.684118 2.33207 3.07189 0 0 0 128 128 128 255
1.13462 2.36886 3.07285 0 0 0 128 128 128 255
0.874498 2.34745 3.07285 0 0 0 128 128 128 255
0.238648 2.29511 3.07285 0 0 0 128 128 128 255
0.248639 2.29564 3.0738 0 0 0 128 128 128 255
1.1257 2.36754 3.07476 0 0 0 128 128 128 255
2.06654 2.44469 3.07572 0 0 0 128 128 128 255
1.19249 2.37274 3.07572 0 0 0 128 128 128 255
0.548696 2.31946 3.07667 0 0 0 128 128 128 255
1.36097 2.38603 3.07763 0 0 0 128 128 128 255
0.241758 2.2939 3.07763 0 0 0 128 128 128 255
2.0686 2.44398 3.07859 0 0 0 128 128 128 255
1.95598 2.43471 3.07859 0 0 0 128 128 128 255
1.14473 2.36793 3.07859 0 0 0 128 128 128 255
2.14138 2.44968 3.07954 0 0 0 128 128 128 255
1.39291 2.38807 3.07954 0 0 0 128 128 128 255
1.34009 2.38372 3.07954 0 0 0 128 128 128 255
1.2195 2.37379 3.07954 0 0 0 128 128 128 255
2.97758 2.51822 3.0805 0 0 0 128 128 128 255
1.39792 2.38819 3.0805 0 0 0 128 128 128 255
2.91382 2.51268 3.08146 0 0 0 128 128 128 255
1.40691 2.38863 3.08146 0 0 0 128 128 128 255
2.97065 2.51706 3.08241 0 0 0 128 128 128 255
2.13248 2.44807 3.08241 0 0 0 128 128 128 255
1.36807 2.38514 3.08241 0 0 0 128 128 128 255
2.91386 2.51209 3.08337 0 0 0 128 128 128 255
0.819947 2.33973 3.08337 0 0 0 128 128 128 255
1.39901 2.3871 3.08432 0 0 0 128 128 128 255
2.0608 2.44129 3.08528 0 0 0 128 128 128 255
1.50568 2.39559 3.08528 0 0 0 128 128 128 255
1.41598 2.38821 3.08528 0 0 0 128 128 128 255
1.1738 2.36827 3.08528 0 0 0 128 128 128 255
1.11998 2.36384 3.08528 0 0 0 128 128 128 255
0.565854 2.31823 3.08528 0 0 0 128 128 128 255
2.20932 2.45322 3.08624 0 0 0 128 128 128 255
2.06284 2.44087 3.08719 0 0 0 128 128 128 255
0.557929 2.31699 3.08719 0 0 0 128 128 128 255
0.830033 2.3391 3.08815 0 0 0 128 128 128 255
2.02404 2.43679 3.09006 0 0 0 128 128 128 255
1.12209 2.36255 3.09006 0 0 0 128 128 128 255
0.88193 2.34249 3.09102 0 0 0 128 128 128 255
0.871963 2.34167 3.09102 0 0 0 128 128 128 255
0.578954 2.31755 3.09102 0 0 0 128 128 128 255
0.523143 2.31295 3.09102 0 0 0 128 128 128 255
1.16001 2.36508 3.09198 0 0 0 128 128 128 255
1.22183 2.36988 3.09293 0 0 0 128 128 128 255
1.21087 2.36898 3.09293 0 0 0 128 128 128 255
1.13911 2.36307 3.09293 0 0 0 128 128 128 255
2.04905 2.43768 3.09389 0 0 0 128 128 128 255
1.2368 2.37082 3.09389 0 0 0 128 128 128 255
1.38333 2.38259 3.09484 0 0 0 128 128 128 255
1.2448 2.37118 3.09484 0 0 0 128 128 128 255
2.13182 2.44391 3.0958 0 0 0 128 128 128 255
2.17869 2.44747 3.09676 0 0 0 128 128 128 255
2.0581 2.43754 3.09676 0 0 0 128 128 128 255
1.37441 2.38127 3.09676 0 0 0 128 128 128 255
1.18804 2.36593 3.09676 0 0 0 128 128 128 255
2.36511 2.46223 3.09867 0 0 0 128 128 128 255
0.846243 2.3372 3.09867 0 0 0 128 128 128 255
2.81461 2.49894 3.09963 0 0 0 128 128 128 255
1.22698 2.36825 3.09963 0 0 0 128 128 128 255
0.901081 2.34142 3.09963 0 0 0 128 128 128 255
2.35718 2.46099 3.10058 0 0 0 128 128 128 255
1.55888 2.39528 3.10058 0 0 0 128 128 128 255
1.4363 2.38519 3.10058 0 0 0 128 128 128 255
0.866223 2.33826 3.10058 0 0 0 128 128 128 255
0.857253 2.33752 3.10058 0 0 0 128 128 128 255
1.15826 2.36201 3.10154 0 0 0 128 128 128 255
0.895149 2.34035 3.10154 0 0 0 128 128 128 255
2.20873 2.44818 3.1025 0 0 0 128 128 128 255
2.1789 2.44485 3.10536 0 0 0 128 128 128 255
1.52113 2.39071 3.10536 0 0 0 128 128 128 255
1.18232 2.36223 3.10728 0 0 0 128 128 128 255
0.880344 2.33737 3.10728 0 0 0 128 128 128 255
2.18595 2.44455 3.10823 0 0 0 128 128 128 255
2.18398 2.4441 3.10919 0 0 0 128 128 128 255
1.97868 2.4272 3.10919 0 0 0 128 128 128 255
1.55312 2.39217 3.10919 0 0 0 128 128 128 255
1.95578 2.42502 3.11015 0 0 0 128 128 128 255
1.55314 2.39187 3.11015 0 0 0 128 128 128 255
1.20033 2.36283 3.11015 0 0 0 128 128 128 255
1.14452 2.35824 3.11015 0 0 0 128 128 128 255
2.21592 2.44614 3.1111 0 0 0 128 128 128 255
2.83685 2.49696 3.11206 0 0 0 128 128 128 255
0.978157 2.34366 3.11301 0 0 0 128 128 128 255
0.92835 2.33927 3.11397 0 0 0 128 128 128 255
0.872539 2.33468 3.11397 0 0 0 128 128 128 255
1.38483 2.37655 3.11493 0 0 0 128 128 128 255
1.53634 2.38873 3.11588 0 0 0 128 128 128 255
0.914445 2.33754 3.11588 0 0 0 128 128 128 255
1.97189 2.42429 3.11684 0 0 0 128 128 128 255
1.12874 2.35489 3.11684 0 0 0 128 128 128 255
2.19616 2.44246 3.1178 0 0 0 128 128 128 255
2.01079 2.4272 3.1178 0 0 0 128 128 128 255
1.54439 2.38851 3.11875 0 0 0 128 128 128 255
1.94605 2.42128 3.11971 0 0 0 128 128 128 255
2.18427 2.4406 3.12067 0 0 0 128 128 128 255
0.914565 2.33608 3.12067 0 0 0 128 128 128 255
0.900612 2.33494 3.12067 0 0 0 128 128 128 255
0.573742 2.30774 3.12162 0 0 0 128 128 128 255
0.948498 2.33829 3.12258 0 0 0 128 128 128 255
1.99897 2.42447 3.12353 0 0 0 128 128 128 255
1.55248 2.38771 3.12353 0 0 0 128 128 128 255
0.899711 2.33369 3.12449 0 0 0 128 128 128 255
2.88901 2.49715 3.12545 0 0 0 128 128 128 255
1.24058 2.36145 3.12545 0 0 0 128 128 128 255
0.627656 2.311 3.12545 0 0 0 128 128 128 255
2.37975 2.45493 3.1264 0 0 0 128 128 128 255
1.96017 2.42039 3.1264 0 0 0 128 128 128 255
1.25655 2.36248 3.1264 0 0 0 128 128 128 255
0.651599 2.31268 3.1264 0 0 0 128 128 128 255
1.2187 2.35907 3.12736 0 0 0 128 128 128 255
0.64467 2.31152 3.12832 0 0 0 128 128 128 255
2.00312 2.42276 3.13023 0 0 0 128 128 128 255
1.2108 2.35754 3.13023 0 0 0 128 128 128 255
0.597877 2.30708 3.13023 0 0 0 128 128 128 255
0.569971 2.30479 3.13023 0 0 0 128 128 128 255
2.08188 2.42895 3.13119 0 0 0 128 128 128 255
1.98919 2.42132 3.13119 0 0 0 128 128 128 255
0.643769 2.31027 3.13214 0 0 0 128 128 128 255
2.07894 2.42812 3.1331 0 0 0 128 128 128 255
0.643793 2.30998 3.1331 0 0 0 128 128 128 255
0.983668 2.33767 3.13405 0 0 0 128 128 128 255
0.378714 2.28787 3.13405 0 0 0 128 128 128 255
0.591044 2.30476 3.13597 0 0 0 128 128 128 255
0.91699 2.33101 3.13788 0 0 0 128 128 128 255
0.615011 2.30615 3.13788 0 0 0 128 128 128 255
0.970832 2.33514 3.13884 0 0 0 128 128 128 255
0.586133 2.30348 3.13884 0 0 0 128 128 128 255
1.18613 2.35257 3.13979 0 0 0 128 128 128 255
1.30874 2.36237 3.14075 0 0 0 128 128 128 255
0.625049 2.30609 3.14075 0 0 0 128 128 128 255
1.38749 2.36856 3.14171 0 0 0 128 128 128 255
2.79675 2.48427 3.14266 0 0 0 128 128 128 255
0.873258 2.32594 3.14266 0 0 0 128 128 128 255
2.85956 2.48915 3.14362 0 0 0 128 128 128 255
2.85159 2.48849 3.14362 0 0 0 128 128 128 255
1.0447 2.33976 3.14362 0 0 0 128 128 128 255
2.1769 2.43266 3.14457 0 0 0 128 128 128 255
2.90446 2.49226 3.14553 0 0 0 128 128 128 255
1.99454 2.41736 3.14553 0 0 0 128 128 128 255
1.2959 2.35985 3.14553 0 0 0 128 128 128 255
2.35335 2.4466 3.14649 0 0 0 128 128 128 255
0.649112 2.30632 3.14649 0 0 0 128 128 128 255
0.915236 2.32793 3.14744 0 0 0 128 128 128 255
1.27106 2.35693 3.1484 0 0 0 128 128 128 255
2.21788 2.43457 3.14936 0 0 0 128 128 128 255
2.17004 2.43063 3.14936 0 0 0 128 128 128 255
1.93384 2.41119 3.14936 0 0 0 128 128 128 255
2.21691 2.4342 3.15031 0 0 0 128 128 128 255
2.15016 2.42841 3.15127 0 0 0 128 128 128 255
1.39272 2.36606 3.15127 0 0 0 128 128 128 255
1.22431 2.3519 3.15223 0 0 0 128 128 128 255
0.877484 2.32336 3.15223 0 0 0 128 128 128 255
0.666199 2.30596 3.15223 0 0 0 128 128 128 255
1.25324 2.35399 3.15318 0 0 0 128 128 128 255
1.23928 2.35284 3.15318 0 0 0 128 128 128 255
0.698115 2.3083 3.15318 0 0 0 128 128 128 255
3.01032 2.49833 3.15414 0 0 0 128 128 128 255
2.11335 2.4245 3.15414 0 0 0 128 128 128 255
2.01274 2.41563 3.15605 0 0 0 128 128 128 255
1.94198 2.40981 3.15605 0 0 0 128 128 128 255
0.915452 2.32531 3.15605 0 0 0 128 128 128 255
0.650373 2.30319 3.15701 0 0 0 128 128 128 255
2.40546 2.44737 3.15796 0 0 0 128 128 128 255
0.697238 2.30676 3.15796 0 0 0 128 128 128 255
2.91377 2.48892 3.15892 0 0 0 128 128 128 255
2.37858 2.44487 3.15892 0 0 0 128 128 128 255
2.3706 2.44421 3.15892 0 0 0 128 128 128 255
2.35867 2.44293 3.15988 0 0 0 128 128 128 255
2.52014 2.45593 3.16083 0 0 0 128 128 128 255
1.00826 2.33148 3.16083 0 0 0 128 128 128 255
0.678374 2.30433 3.16083 0 0 0 128 128 128 255
2.78729 2.47734 3.16274 0 0 0 128 128 128 255
2.21522 2.43025 3.16274 0 0 0 128 128 128 255
1.35115 2.35912 3.16274 0 0 0 128 128 128 255
1.33321 2.35764 3.16274 0 0 0 128 128 128 255
2.49931 2.45305 3.16466 0 0 0 128 128 128 255
2.38472 2.44332 3.16561 0 0 0 128 128 128 255
0.61573 2.29741 3.16657 0 0 0 128 128 128 255
2.30105 2.43585 3.16753 0 0 0 128 128 128 255
1.29448 2.3527 3.16848 0 0 0 128 128 128 255
2.17054 2.42452 3.16944 0 0 0 128 128 128 255
2.90209 2.48444 3.1704 0 0 0 128 128 128 255
2.8991 2.48419 3.1704 0 0 0 128 128 128 255
2.34996 2.43899 3.1704 0 0 0 128 128 128 255
2.16758 2.42398 3.1704 0 0 0 128 128 128 255
1.9832 2.4088 3.1704 0 0 0 128 128 128 255
2.30912 2.43534 3.17135 0 0 0 128 128 128 255
1.32246 2.35412 3.17135 0 0 0 128 128 128 255
2.15666 2.42249 3.17231 0 0 0 128 128 128 255
1.36235 2.35711 3.17231 0 0 0 128 128 128 255
1.27965 2.35001 3.17326 0 0 0 128 128 128 255
1.25673 2.34812 3.17326 0 0 0 128 128 128 255
1.03349 2.32975 3.17326 0 0 0 128 128 128 255
0.718551 2.30382 3.17326 0 0 0 128 128 128 255
0.703601 2.30259 3.17326 0 0 0 128 128 128 255
0.618912 2.29533 3.17422 0 0 0 128 128 128 255
2.39294 2.44106 3.17518 0 0 0 128 128 128 255
2.34211 2.43688 3.17518 0 0 0 128 128 128 255
2.38897 2.44044 3.17613 0 0 0 128 128 128 255
0.729586 2.30385 3.17613 0 0 0 128 128 128 255
2.88034 2.4806 3.17709 0 0 0 128 128 128 255
2.36909 2.43822 3.17805 0 0 0 128 128 128 255
1.99336 2.40729 3.17805 0 0 0 128 128 128 255
0.967828 2.32288 3.17805 0 0 0 128 128 128 255
2.8764 2.47969 3.179 0 0 0 128 128 128 255
1.25787 2.34646 3.179 0 0 0 128 128 128 255
2.4997 2.44839 3.17996 0 0 0 128 128 128 255
2.47976 2.44674 3.17996 0 0 0 128 128 128 255
2.39804 2.44002 3.17996 0 0 0 128 128 128 255
1.27583 2.34764 3.17996 0 0 0 128 128 128 255
2.16286 2.42037 3.18092 0 0 0 128 128 128 255
0.414771 2.27647 3.18092 0 0 0 128 128 128 255
1.30179 2.34919 3.18187 0 0 0 128 128 128 255
0.671949 2.29705 3.18283 0 0 0 128 128 128 255
2.49182 2.44656 3.18378 0 0 0 128 128 128 255
2.41906 2.44058 3.18378 0 0 0 128 128 128 255
2.41308 2.44008 3.18378 0 0 0 128 128 128 255
1.30483 2.34886 3.18378 0 0 0 128 128 128 255
0.745748 2.30254 3.18474 0 0 0 128 128 128 255
2.30251 2.43039 3.1857 0 0 0 128 128 128 255
2.84868 2.47506 3.18665 0 0 0 128 128 128 255
2.47295 2.44413 3.18665 0 0 0 128 128 128 255
0.660085 2.2949 3.18665 0 0 0 128 128 128 255
0.964081 2.31963 3.18761 0 0 0 128 128 128 255
1.32389 2.34896 3.18857 0 0 0 128 128 128 255
2.15211 2.41684 3.18952 0 0 0 128 128 128 255
1.08572 2.32906 3.18952 0 0 0 128 128 128 255
2.92253 2.47997 3.19048 0 0 0 128 128 128 255
1.04488 2.32541 3.19048 0 0 0 128 128 128 255
0.662175 2.2939 3.19048 0 0 0 128 128 128 255
2.34451 2.43209 3.19144 0 0 0 128 128 128 255
1.89503 2.39509 3.19144 0 0 0 128 128 128 255
1.32496 2.34817 3.19144 0 0 0 128 128 128 255
0.667182 2.29402 3.19144 0 0 0 128 128 128 255
1.34093 2.34919 3.19239 0 0 0 128 128 128 255
0.508741 2.28069 3.19239 0 0 0 128 128 128 255
1.32899 2.34791 3.19335 0 0 0 128 128 128 255
1.30507 2.34594 3.19335 0 0 0 128 128 128 255
2.87479 2.47486 3.1943 0 0 0 128 128 128 255
2.93262 2.47933 3.19526 0 0 0 128 128 128 255
2.87381 2.47449 3.19526 0 0 0 128 128 128 255
2.41537 2.43675 3.19526 0 0 0 128 128 128 255
2.40241 2.43569 3.19526 0 0 0 128 128 128 255
1.06294 2.32543 3.19526 0 0 0 128 128 128 255
1.04201 2.3237 3.19526 0 0 0 128 128 128 255
0.438053 2.27399 3.19526 0 0 0 128 128 128 255
2.40943 2.43568 3.19717 0 0 0 128 128 128 255
1.0002 2.31968 3.19717 0 0 0 128 128 128 255
0.458033 2.27505 3.19717 0 0 0 128 128 128 255
0.428135 2.27259 3.19717 0 0 0 128 128 128 255
2.3068 2.42694 3.19813 0 0 0 128 128 128 255
1.24838 2.33981 3.19813 0 0 0 128 128 128 255
2.40649 2.43485 3.19909 0 0 0 128 128 128 255
1.22549 2.33763 3.19909 0 0 0 128 128 128 255
0.434162 2.2725 3.19909 0 0 0 128 128 128 255
2.41651 2.43509 3.201 0 0 0 128 128 128 255
1.37204 2.34911 3.201 0 0 0 128 128 128 255
1.27736 2.34132 3.201 0 0 0 128 128 128 255
1.3023 2.34308 3.20196 0 0 0 128 128 128 255
1.28336 2.34152 3.20196 0 0 0 128 128 128 255
2.26706 2.4222 3.20291 0 0 0 128 128 128 255
1.26744 2.33991 3.20291 0 0 0 128 128 128 255
1.09403 2.32564 3.20291 0 0 0 128 128 128 255
1.01131 2.31883 3.20291 0 0 0 128 128 128 255
0.773112 2.29922 3.20291 0 0 0 128 128 128 255
2.97569 2.48024 3.20387 0 0 0 128 128 128 255
2.26708 2.42191 3.20387 0 0 0 128 128 128 255
1.91627 2.39303 3.20387 0 0 0 128 128 128 255
0.978442 2.31583 3.20387 0 0 0 128 128 128 255
2.40963 2.43335 3.20482 0 0 0 128 128 128 255
2.28505 2.42309 3.20482 0 0 0 128 128 128 255
2.88404 2.47211 3.20578 0 0 0 128 128 128 255
2.84617 2.46899 3.20578 0 0 0 128 128 128 255
2.76545 2.46234 3.20578 0 0 0 128 128 128 255
2.49237 2.43987 3.20578 0 0 0 128 128 128 255
0.79212 2.29991 3.20578 0 0 0 128 128 128 255
0.731326 2.2949 3.20578 0 0 0 128 128 128 255
0.521037 2.27759 3.20578 0 0 0 128 128 128 255
2.90001 2.47313 3.20674 0 0 0 128 128 128 255
2.36283 2.42891 3.20674 0 0 0 128 128 128 255
2.03893 2.40225 3.20674 0 0 0 128 128 128 255
2.36585 2.42886 3.20769 0 0 0 128 128 128 255
1.07421 2.32254 3.20769 0 0 0 128 128 128 255
1.05129 2.32066 3.20769 0 0 0 128 128 128 255
1.0483 2.32041 3.20769 0 0 0 128 128 128 255
0.841999 2.30343 3.20769 0 0 0 128 128 128 255
1.27655 2.33891 3.20865 0 0 0 128 128 128 255
1.22373 2.33456 3.20865 0 0 0 128 128 128 255
1.26761 2.33788 3.20961 0 0 0 128 128 128 255
1.03041 2.31835 3.20961 0 0 0 128 128 128 255
2.91705 2.47336 3.21056 0 0 0 128 128 128 255
2.50647 2.43927 3.21152 0 0 0 128 128 128 255
1.21184 2.3327 3.21152 0 0 0 128 128 128 255
2.88122 2.46982 3.21248 0 0 0 128 128 128 255
1.30256 2.33987 3.21248 0 0 0 128 128 128 255
0.829163 2.3009 3.21248 0 0 0 128 128 128 255
0.45742 2.2703 3.21248 0 0 0 128 128 128 255
2.51252 2.43888 3.21439 0 0 0 128 128 128 255
1.36639 2.34454 3.21439 0 0 0 128 128 128 255
1.07139 2.32026 3.21439 0 0 0 128 128 128 255
1.06843 2.31972 3.21534 0 0 0 128 128 128 255
1.38737 2.34568 3.2163 0 0 0 128 128 128 255
1.26279 2.33543 3.2163 0 0 0 128 128 128 255
2.89133 2.46889 3.21821 0 0 0 128 128 128 255
2.92724 2.47156 3.21917 0 0 0 128 128 128 255
1.29675 2.33734 3.21917 0 0 0 128 128 128 255
2.89636 2.46872 3.22013 0 0 0 128 128 128 255
2.83059 2.46331 3.22013 0 0 0 128 128 128 255
2.51269 2.43685 3.22108 0 0 0 128 128 128 255
1.07355 2.31838 3.22108 0 0 0 128 128 128 255
2.83562 2.46314 3.22204 0 0 0 128 128 128 255
0.788541 2.29463 3.22204 0 0 0 128 128 128 255
1.28688 2.33536 3.223 0 0 0 128 128 128 255
1.40251 2.34458 3.22395 0 0 0 128 128 128 255
1.32577 2.33826 3.22395 0 0 0 128 128 128 255
0.772643 2.29273 3.22395 0 0 0 128 128 128 255
2.83768 2.46243 3.22491 0 0 0 128 128 128 255
1.24108 2.331 3.22491 0 0 0 128 128 128 255
1.11451 2.32058 3.22491 0 0 0 128 128 128 255
0.756721 2.29113 3.22491 0 0 0 128 128 128 255
1.03181 2.31348 3.22586 0 0 0 128 128 128 255
1.38963 2.34264 3.22682 0 0 0 128 128 128 255
1.29395 2.33477 3.22682 0 0 0 128 128 128 255
1.0428 2.31409 3.22682 0 0 0 128 128 128 255
2.91649 2.46803 3.22778 0 0 0 128 128 128 255
2.29061 2.41651 3.22778 0 0 0 128 128 128 255
1.0797 2.31684 3.22778 0 0 0 128 128 128 255
1.05877 2.31511 3.22778 0 0 0 128 128 128 255
1.0209 2.312 3.22778 0 0 0 128 128 128 255
2.8966 2.46581 3.22969 0 0 0 128 128 128 255
1.32492 2.33644 3.22969 0 0 0 128 128 128 255
3.00725 2.47462 3.23065 0 0 0 128 128 128 255
1.25518 2.3304 3.23065 0 0 0 128 128 128 255
1.2482 2.32983 3.23065 0 0 0 128 128 128 255
1.01798 2.31088 3.23065 0 0 0 128 128 128 255
0.804703 2.29332 3.23065 0 0 0 128 128 128 255
0.691087 2.28397 3.23065 0 0 0 128 128 128 255
1.43559 2.34496 3.2316 0 0 0 128 128 128 255
2.49005 2.43146 3.23256 0 0 0 128 128 128 255
1.28513 2.33228 3.23256 0 0 0 128 128 128 255
2.83391 2.45948 3.23351 0 0 0 128 128 128 255
2.47911 2.43027 3.23351 0 0 0 128 128 128 255
0.791842 2.29109 3.23447 0 0 0 128 128 128 255
0.760947 2.28855 3.23447 0 0 0 128 128 128 255
2.89077 2.46357 3.23543 0 0 0 128 128 128 255
1.30214 2.3328 3.23543 0 0 0 128 128 128 255
0.794856 2.29104 3.23543 0 0 0 128 128 128 255
0.775921 2.28948 3.23543 0 0 0 128 128 128 255
1.055 2.31216 3.23638 0 0 0 128 128 128 255
2.50412 2.43116 3.23734 0 0 0 128 128 128 255
2.44433 2.42623 3.23734 0 0 0 128 128 128 255
2.2141 2.40728 3.23734 0 0 0 128 128 128 255
1.40088 2.34005 3.2383 0 0 0 128 128 128 255
0.561717 2.27097 3.2383 0 0 0 128 128 128 255
1.27533 2.32942 3.23925 0 0 0 128 128 128 255
1.09394 2.31449 3.23925 0 0 0 128 128 128 255
2.21816 2.40674 3.24021 0 0 0 128 128 128 255
1.32618 2.33331 3.24021 0 0 0 128 128 128 255
1.29229 2.33052 3.24021 0 0 0 128 128 128 255
1.01922 2.30805 3.24021 0 0 0 128 128 128 255
2.74441 2.44976 3.24117 0 0 0 128 128 128 255
2.51917 2.43122 3.24117 0 0 0 128 128 128 255
0.54385 2.26862 3.24117 0 0 0 128 128 128 255
0.484076 2.26341 3.24212 0 0 0 128 128 128 255
2.87103 2.4596 3.24308 0 0 0 128 128 128 255
1.39507 2.33752 3.24499 0 0 0 128 128 128 255
0.730315 2.2828 3.24499 0 0 0 128 128 128 255
0.531986 2.26647 3.24499 0 0 0 128 128 128 255
0.517037 2.26524 3.24499 0 0 0 128 128 128 255
2.54819 2.43215 3.24595 0 0 0 128 128 128 255
2.54121 2.43157 3.24595 0 0 0 128 128 128 255
2.48441 2.42689 3.24595 0 0 0 128 128 128 255
0.722366 2.28185 3.24595 0 0 0 128 128 128 255
2.73359 2.44711 3.2469 0 0 0 128 128 128 255
0.55396 2.2677 3.2469 0 0 0 128 128 128 255
2.87613 2.45855 3.24786 0 0 0 128 128 128 255
2.48645 2.42648 3.24786 0 0 0 128 128 128 255
2.96386 2.46548 3.24882 0 0 0 128 128 128 255
1.0583 2.30862 3.24882 0 0 0 128 128 128 255
0.84602 2.29115 3.24882 0 0 0 128 128 128 255
0.538062 2.2658 3.24882 0 0 0 128 128 128 255
2.5134 2.42811 3.24977 0 0 0 128 128 128 255
0.993545 2.303 3.24977 0 0 0 128 128 128 255
1.11316 2.31255 3.25073 0 0 0 128 128 128 255
1.27467 2.32526 3.25264 0 0 0 128 128 128 255
0.996607 2.30237 3.25264 0 0 0 128 128 128 255
2.73276 2.44499 3.2536 0 0 0 128 128 128 255
1.17204 2.31652 3.2536 0 0 0 128 128 128 255
1.1551 2.31513 3.2536 0 0 0 128 128 128 255
2.88028 2.45684 3.25455 0 0 0 128 128 128 255
2.94609 2.46197 3.25551 0 0 0 128 128 128 255
1.07143 2.30765 3.25551 0 0 0 128 128 128 255
0.794411 2.28426 3.25742 0 0 0 128 128 128 255
0.792418 2.2841 3.25742 0 0 0 128 128 128 255
2.73886 2.44403 3.25838 0 0 0 128 128 128 255
1.85086 2.37093 3.25838 0 0 0 128 128 128 255
0.795432 2.28405 3.25838 0 0 0 128 128 128 255
0.553251 2.26412 3.25838 0 0 0 128 128 128 255
1.85986 2.37138 3.25934 0 0 0 128 128 128 255
1.15726 2.31325 3.26029 0 0 0 128 128 128 255
0.803453 2.28413 3.26029 0 0 0 128 128 128 255
0.773554 2.28167 3.26029 0 0 0 128 128 128 255
0.528383 2.26149 3.26029 0 0 0 128 128 128 255
0.817429 2.28499 3.26125 0 0 0 128 128 128 255
2.96918 2.46181 3.26221 0 0 0 128 128 128 255
2.56056 2.42818 3.26221 0 0 0 128 128 128 255
2.95026 2.45996 3.26316 0 0 0 128 128 128 255
2.94528 2.45955 3.26316 0 0 0 128 128 128 255
2.75193 2.44364 3.26316 0 0 0 128 128 128 255
2.50676 2.42346 3.26316 0 0 0 128 128 128 255
2.87853 2.45377 3.26412 0 0 0 128 128 128 255
2.5327 2.4253 3.26412 0 0 0 128 128 128 255
1.37362 2.32989 3.26412 0 0 0 128 128 128 255
2.5108 2.4232 3.26507 0 0 0 128 128 128 255
1.43245 2.33444 3.26507 0 0 0 128 128 128 255
1.16934 2.31278 3.26507 0 0 0 128 128 128 255
0.539466 2.26093 3.26507 0 0 0 128 128 128 255
2.85665 2.45138 3.26603 0 0 0 128 128 128 255
1.14245 2.31027 3.26603 0 0 0 128 128 128 255
0.763731 2.2791 3.26603 0 0 0 128 128 128 255
2.85468 2.45092 3.26699 0 0 0 128 128 128 255
1.06775 2.30354 3.26794 0 0 0 128 128 128 255
2.54877 2.42516 3.2689 0 0 0 128 128 128 255
1.38271 2.32917 3.2689 0 0 0 128 128 128 255
1.13156 2.3085 3.2689 0 0 0 128 128 128 255
2.93847 2.45694 3.26986 0 0 0 128 128 128 255
2.73416 2.44012 3.26986 0 0 0 128 128 128 255
2.36441 2.40969 3.26986 0 0 0 128 128 128 255
1.85912 2.36809 3.26986 0 0 0 128 128 128 255
0.836581 2.28392 3.26986 0 0 0 128 128 128 255
0.78675 2.27982 3.26986 0 0 0 128 128 128 255
2.51892 2.42211 3.27081 0 0 0 128 128 128 255
1.84021 2.36624 3.27081 0 0 0 128 128 128 255
1.39671 2.32974 3.27081 0 0 0 128 128 128 255
1.14755 2.30923 3.27081 0 0 0 128 128 128 255
3.05214 2.46571 3.27177 0 0 0 128 128 128 255
2.8847 2.45193 3.27177 0 0 0 128 128 128 255
1.85917 2.36751 3.27177 0 0 0 128 128 128 255
2.9515 2.45713 3.27273 0 0 0 128 128 128 255
2.86978 2.45041 3.27273 0 0 0 128 128 128 255
2.69636 2.43613 3.27273 0 0 0 128 128 128 255
0.539658 2.2586 3.27273 0 0 0 128 128 128 255
1.1845 2.31139 3.27368 0 0 0 128 128 128 255
2.76219 2.44096 3.27464 0 0 0 128 128 128 255
0.836701 2.28247 3.27464 0 0 0 128 128 128 255
2.93463 2.45487 3.27559 0 0 0 128 128 128 255
2.7363 2.43854 3.27559 0 0 0 128 128 128 255
2.60076 2.42738 3.27559 0 0 0 128 128 128 255
2.72536 2.43735 3.27655 0 0 0 128 128 128 255
2.43634 2.41355 3.27655 0 0 0 128 128 128 255
2.26891 2.39977 3.27655 0 0 0 128 128 128 255
1.8563 2.36581 3.27655 0 0 0 128 128 128 255
0.89854 2.28697 3.27655 0 0 0 128 128 128 255
2.93268 2.45412 3.27751 0 0 0 128 128 128 255
3.0533 2.46375 3.27846 0 0 0 128 128 128 255
2.96859 2.45678 3.27846 0 0 0 128 128 128 255
2.71345 2.43578 3.27846 0 0 0 128 128 128 255
2.9427 2.45436 3.27942 0 0 0 128 128 128 255
2.7932 2.44205 3.27942 0 0 0 128 128 128 255
1.19364 2.31009 3.28038 0 0 0 128 128 128 255
2.56901 2.42301 3.28133 0 0 0 128 128 128 255
1.43285 2.32949 3.28133 0 0 0 128 128 128 255
0.856825 2.28178 3.28229 0 0 0 128 128 128 255
0.824933 2.27915 3.28229 0 0 0 128 128 128 255
1.41895 2.32776 3.28324 0 0 0 128 128 128 255
1.79273 2.35794 3.28516 0 0 0 128 128 128 255
2.74553 2.43607 3.28611 0 0 0 128 128 128 255
2.59106 2.42336 3.28611 0 0 0 128 128 128 255
2.35884 2.40424 3.28611 0 0 0 128 128 128 255
1.78386 2.35603 3.28898 0 0 0 128 128 128 255
1.13605 2.30271 3.28898 0 0 0 128 128 128 255
1.80586 2.35696 3.29185 0 0 0 128 128 128 255
1.12217 2.30069 3.29185 0 0 0 128 128 128 255
2.76264 2.43543 3.29281 0 0 0 128 128 128 255
0.890975 2.28136 3.29281 0 0 0 128 128 128 255
0.879015 2.28038 3.29281 0 0 0 128 128 128 255
2.83443 2.44105 3.29376 0 0 0 128 128 128 255
2.34608 2.40085 3.29376 0 0 0 128 128 128 255
2.72786 2.43139 3.29663 0 0 0 128 128 128 255
2.43784 2.40752 3.29663 0 0 0 128 128 128 255
2.31326 2.39727 3.29663 0 0 0 128 128 128 255
1.42925 2.3245 3.29663 0 0 0 128 128 128 255
2.83751 2.44013 3.29759 0 0 0 128 128 128 255
2.76575 2.43422 3.29759 0 0 0 128 128 128 255
1.36948 2.31928 3.29759 0 0 0 128 128 128 255
1.29772 2.31338 3.29759 0 0 0 128 128 128 255
2.96809 2.45058 3.29855 0 0 0 128 128 128 255
2.84053 2.44008 3.29855 0 0 0 128 128 128 255
2.99004 2.4521 3.2995 0 0 0 128 128 128 255
2.80766 2.43708 3.2995 0 0 0 128 128 128 255
1.25192 2.30902 3.2995 0 0 0 128 128 128 255
2.78277 2.43474 3.30046 0 0 0 128 128 128 255
2.75387 2.43236 3.30046 0 0 0 128 128 128 255
1.19718 2.30364 3.30237 0 0 0 128 128 128 255
3.16056 2.46496 3.30333 0 0 0 128 128 128 255
0.961002 2.2839 3.30333 0 0 0 128 128 128 255
2.73303 2.42947 3.30428 0 0 0 128 128 128 255
2.34534 2.39756 3.30428 0 0 0 128 128 128 255
1.23012 2.30576 3.30428 0 0 0 128 128 128 255
1.15936 2.29994 3.30428 0 0 0 128 128 128 255
1.19625 2.30268 3.30524 0 0 0 128 128 128 255
1.17134 2.30063 3.30524 0 0 0 128 128 128 255
0.934141 2.2811 3.30524 0 0 0 128 128 128 255
1.79625 2.35178 3.3062 0 0 0 128 128 128 255
0.922206 2.27983 3.3062 0 0 0 128 128 128 255
0.90327 2.27827 3.3062 0 0 0 128 128 128 255
2.45305 2.40555 3.30715 0 0 0 128 128 128 255
1.1963 2.3021 3.30715 0 0 0 128 128 128 255
2.5358 2.41207 3.30811 0 0 0 128 128 128 255
1.21626 2.30345 3.30811 0 0 0 128 128 128 255
3.31219 2.47568 3.30907 0 0 0 128 128 128 255
2.9853 2.44877 3.30907 0 0 0 128 128 128 255
1.41262 2.31932 3.30907 0 0 0 128 128 128 255
0.915301 2.27838 3.30907 0 0 0 128 128 128 255
3.06605 2.45513 3.31002 0 0 0 128 128 128 255
2.78201 2.43175 3.31002 0 0 0 128 128 128 255
2.4611 2.40533 3.31002 0 0 0 128 128 128 255
2.34349 2.39565 3.31002 0 0 0 128 128 128 255
1.2193 2.30311 3.31002 0 0 0 128 128 128 255
2.99232 2.44877 3.31098 0 0 0 128 128 128 255
2.58271 2.41505 3.31098 0 0 0 128 128 128 255
2.54882 2.41226 3.31098 0 0 0 128 128 128 255
2.9475 2.44478 3.31194 0 0 0 128 128 128 255
1.17549 2.29892 3.31194 0 0 0 128 128 128 255
3.01131 2.44974 3.31289 0 0 0 128 128 128 255
2.78208 2.43087 3.31289 0 0 0 128 128 128 255
2.5997 2.41586 3.31289 0 0 0 128 128 128 255
0.84663 2.27155 3.31289 0 0 0 128 128 128 255
0.805768 2.26819 3.31289 0 0 0 128 128 128 255
2.55787 2.41212 3.31385 0 0 0 128 128 128 255
1.28617 2.30744 3.31385 0 0 0 128 128 128 255
0.695166 2.25879 3.31385 0 0 0 128 128 128 255
2.77316 2.42955 3.3148 0 0 0 128 128 128 255
1.78351 2.34809 3.3148 0 0 0 128 128 128 255
1.38984 2.31568 3.3148 0 0 0 128 128 128 255
1.04501 2.2873 3.3148 0 0 0 128 128 128 255
0.949331 2.27942 3.3148 0 0 0 128 128 128 255
0.35534 2.23053 3.3148 0 0 0 128 128 128 255
2.98048 2.44632 3.31576 0 0 0 128 128 128 255
2.80408 2.4318 3.31576 0 0 0 128 128 128 255
0.831752 2.26945 3.31576 0 0 0 128 128 128 255
0.925459 2.27687 3.31672 0 0 0 128 128 128 255
2.99947 2.4473 3.31767 0 0 0 128 128 128 255
2.46328 2.40316 3.31767 0 0 0 128 128 128 255
2.3397 2.39299 3.31767 0 0 0 128 128 128 255
1.40088 2.31571 3.31767 0 0 0 128 128 128 255
2.95766 2.44327 3.31959 0 0 0 128 128 128 255
2.63674 2.41686 3.31959 0 0 0 128 128 128 255
2.3826 2.39594 3.31959 0 0 0 128 128 128 255
0.858781 2.27021 3.32054 0 0 0 128 128 128 255
2.94774 2.44187 3.3215 0 0 0 128 128 128 255
1.78368 2.34605 3.3215 0 0 0 128 128 128 255
3.15606 2.45872 3.32246 0 0 0 128 128 128 255
2.58499 2.41172 3.32246 0 0 0 128 128 128 255
2.36872 2.39391 3.32246 0 0 0 128 128 128 255
1.21562 2.299 3.32246 0 0 0 128 128 128 255
2.98466 2.44432 3.32341 0 0 0 128 128 128 255
2.56409 2.4097 3.32341 0 0 0 128 128 128 255
1.94717 2.35892 3.32341 0 0 0 128 128 128 255
3.23285 2.46446 3.32437 0 0 0 128 128 128 255
2.36877 2.39333 3.32437 0 0 0 128 128 128 255
1.25653 2.30178 3.32437 0 0 0 128 128 128 255
3.02757 2.44727 3.32532 0 0 0 128 128 128 255
2.77243 2.42627 3.32532 0 0 0 128 128 128 255
1.18181 2.29533 3.32532 0 0 0 128 128 128 255
3.35249 2.47372 3.32628 0 0 0 128 128 128 255
3.00068 2.44476 3.32628 0 0 0 128 128 128 255
1.23465 2.29939 3.32628 0 0 0 128 128 128 255
1.23468 2.2991 3.32724 0 0 0 128 128 128 255
1.20478 2.29664 3.32724 0 0 0 128 128 128 255
0.930706 2.27408 3.32724 0 0 0 128 128 128 255
1.81773 2.3468 3.32819 0 0 0 128 128 128 255
2.7805 2.42576 3.32915 0 0 0 128 128 128 255
1.22576 2.29778 3.32915 0 0 0 128 128 128 255
1.19386 2.29515 3.32915 0 0 0 128 128 128 255
0.894875 2.27054 3.32915 0 0 0 128 128 128 255
1.20385 2.29568 3.33011 0 0 0 128 128 128 255
1.00754 2.27923 3.33106 0 0 0 128 128 128 255
0.945752 2.27414 3.33106 0 0 0 128 128 128 255
2.77658 2.42456 3.33202 0 0 0 128 128 128 255
2.33209 2.38797 3.33202 0 0 0 128 128 128 255
0.884981 2.26885 3.33202 0 0 0 128 128 128 255
2.6012 2.40983 3.33297 0 0 0 128 128 128 255
1.82782 2.34616 3.33297 0 0 0 128 128 128 255
0.968722 2.27545 3.33297 0 0 0 128 128 128 255
1.83183 2.3462 3.33393 0 0 0 128 128 128 255
1.28069 2.30083 3.33393 0 0 0 128 128 128 255
0.944827 2.27319 3.33393 0 0 0 128 128 128 255
1.20796 2.29455 3.33489 0 0 0 128 128 128 255
1.20198 2.29406 3.33489 0 0 0 128 128 128 255
1.17806 2.29209 3.33489 0 0 0 128 128 128 255
0.96279 2.27437 3.33489 0 0 0 128 128 128 255
2.77967 2.42364 3.33584 0 0 0 128 128 128 255
0.973777 2.27498 3.33584 0 0 0 128 128 128 255
2.97503 2.43942 3.3368 0 0 0 128 128 128 255
0.970811 2.27445 3.3368 0 0 0 128 128 128 255
3.20827 2.45833 3.33776 0 0 0 128 128 128 255
3.23321 2.46009 3.33871 0 0 0 128 128 128 255
0.941957 2.27148 3.33871 0 0 0 128 128 128 255
3.21031 2.45791 3.33967 0 0 0 128 128 128 255
2.32829 2.38531 3.33967 0 0 0 128 128 128 255
1.75722 2.3383 3.33967 0 0 0 128 128 128 255
1.42634 2.31106 3.33967 0 0 0 128 128 128 255
2.8655 2.42924 3.34063 0 0 0 128 128 128 255
2.6054 2.40753 3.34158 0 0 0 128 128 128 255
2.32734 2.38464 3.34158 0 0 0 128 128 128 255
1.76425 2.33829 3.34158 0 0 0 128 128 128 255
3.02202 2.44153 3.34254 0 0 0 128 128 128 255
1.65365 2.32889 3.34254 0 0 0 128 128 128 255
0.946039 2.27065 3.34254 0 0 0 128 128 128 255
2.6513 2.41072 3.34349 0 0 0 128 128 128 255
2.59349 2.40597 3.34349 0 0 0 128 128 128 255
1.66663 2.32967 3.34349 0 0 0 128 128 128 255
1.16333 2.28824 3.34349 0 0 0 128 128 128 255
0.924137 2.26855 3.34349 0 0 0 128 128 128 255
0.909188 2.26732 3.34349 0 0 0 128 128 128 255
2.97622 2.43718 3.34445 0 0 0 128 128 128 255
