ply
format ascii 1.0
comment VCGLIB generated
element vertex 77
property float x
property float y
property float z
property float nx
property float ny
property float nz
property uchar red
property uchar green
property uchar blue
property uchar alpha
element face 0
property list uchar int vertex_indices
end_header
-0.757784 0.673457 3.91406 0 0 0 255 255 0 255
-0.758683 0.729441 3.91998 0 0 0 255 255 0 255
-0.757052 0.730534 3.92036 0 0 0 255 255 0 255
-0.74693 0.7313 3.92208 0 0 0 255 255 0 255
-0.753255 0.758362 3.92399 0 0 0 255 255 0 255
-0.752698 0.757531 3.92399 0 0 0 255 255 0 255
-0.758645 0.775215 3.92495 0 0 0 255 255 0 255
-0.752064 0.798891 3.92858 0 0 0 255 255 0 255
-0.750674 0.821494 3.93125 0 0 0 255 255 0 255
-0.753876 0.83861 3.93259 0 0 0 255 255 0 255
-0.7541 0.932367 3.94271 0 0 0 255 255 0 255
-0.758337 0.943974 3.94328 0 0 0 255 255 0 255
-0.756131 0.967124 3.94615 0 0 0 255 255 0 255
-0.758937 0.99775 3.94902 0 0 0 255 255 0 255
-0.754623 1.02833 3.95303 0 0 0 255 255 0 255
-0.750229 1.05175 3.95627 0 0 0 255 255 0 255
-0.75753 1.0926 3.95952 0 0 0 255 255 0 255
-0.749039 1.09227 3.96086 0 0 0 255 255 0 255
-0.765526 1.12215 3.96143 0 0 0 255 255 0 255
-0.576989 0.86209 3.96372 0 0 0 255 255 0 255
-0.574801 0.862352 3.96411 0 0 0 255 255 0 255
-0.759243 1.14804 3.96525 0 0 0 255 255 0 255
-0.578204 0.897393 3.96735 0 0 0 255 255 0 255
-0.763504 1.23548 3.97404 0 0 0 255 255 0 255
-0.472704 0.840506 3.97824 0 0 0 255 255 0 255
-0.471331 0.840222 3.97843 0 0 0 255 255 0 255
-0.766371 1.29616 3.98015 0 0 0 255 255 0 255
-0.462305 0.865537 3.98264 0 0 0 255 255 0 255
-0.763728 1.32923 3.98416 0 0 0 255 255 0 255
-0.451069 0.864643 3.98435 0 0 0 255 255 0 255
-0.435775 0.843594 3.98455 0 0 0 255 255 0 255
-0.53078 0.990589 3.98512 0 0 0 255 255 0 255
-0.462366 0.895595 3.98588 0 0 0 255 255 0 255
-0.769358 1.3676 3.98741 0 0 0 255 255 0 255
-0.766614 1.36703 3.98779 0 0 0 255 255 0 255
-0.762199 1.36397 3.98818 0 0 0 255 255 0 255
-0.563697 1.06965 3.98837 0 0 0 255 255 0 255
-0.558448 1.09003 3.99142 0 0 0 255 255 0 255
-0.774034 1.41864 3.99219 0 0 0 255 255 0 255
-0.772345 1.43904 3.99467 0 0 0 255 255 0 255
-0.775726 1.4476 3.99505 0 0 0 255 255 0 255
-0.768567 1.44398 3.99582 0 0 0 255 255 0 255
-0.770478 1.46798 3.99811 0 0 0 255 255 0 255
-0.433614 0.969048 3.99849 0 0 0 255 255 0 255
-0.45396 1.00116 3.99868 0 0 0 255 255 0 255
-0.435882 0.975956 3.99887 0 0 0 255 255 0 255
-0.346451 0.935986 4.009 0 0 0 255 255 0 255
-0.789755 1.60073 4.00938 0 0 0 255 255 0 255
-0.83192 1.69888 4.0132 0 0 0 255 255 0 255
-0.77156 1.61413 4.01377 0 0 0 255 255 0 255
-0.192885 0.865574 4.02619 0 0 0 255 255 0 255
-0.774073 1.74127 4.02714 0 0 0 255 255 0 255
-0.431822 1.27485 4.03192 0 0 0 255 255 0 255
-0.772227 1.79669 4.03345 0 0 0 255 255 0 255
-0.423669 1.28031 4.03383 0 0 0 255 255 0 255
-0.144462 0.869144 4.0344 0 0 0 255 255 0 255
-0.406865 1.27111 4.03555 0 0 0 255 255 0 255
-0.072826 0.779921 4.03631 0 0 0 255 255 0 255
-0.0681925 0.781824 4.03727 0 0 0 255 255 0 255
-0.103693 0.847114 4.03861 0 0 0 255 255 0 255
-0.0728472 0.806394 4.03918 0 0 0 255 255 0 255
-0.118252 0.87588 4.03937 0 0 0 255 255 0 255
-0.0742594 0.810263 4.03937 0 0 0 255 255 0 255
-0.266975 1.10124 4.03975 0 0 0 255 255 0 255
-0.805703 1.92594 4.04204 0 0 0 255 255 0 255
-0.781321 1.90015 4.04319 0 0 0 255 255 0 255
-0.777881 1.91088 4.04491 0 0 0 255 255 0 255
-0.776807 1.91281 4.04529 0 0 0 255 255 0 255
-0.47115 1.48686 4.04854 0 0 0 255 255 0 255
-0.771638 1.94035 4.04911 0 0 0 255 255 0 255
0.0505525 0.715757 4.0493 0 0 0 255 255 0 255
-0.0444528 0.862752 4.04988 0 0 0 255 255 0 255
-0.0386257 0.855824 4.05007 0 0 0 255 255 0 255
-0.710791 2.03291 4.06898 0 0 0 255 255 0 255
-0.712025 2.04533 4.07012 0 0 0 255 255 0 255
-0.706456 2.03702 4.07012 0 0 0 255 255 0 255
-0.697109 2.03366 4.07127 0 0 0 255 255 0 255
