ply
format ascii 1.0
comment VCGLIB generated
element vertex 934
property float x
property float y
property float z
property float nx
property float ny
property float nz
property uchar red
property uchar green
property uchar blue
property uchar alpha
element face 0
property list uchar int vertex_indices
end_header
-0.603812 0.83371 3.83316 0 0 0 0 128 0 255
-0.668549 1.17384 3.8428 0 0 0 0 128 0 255
-0.576874 0.794738 3.84641 0 0 0 0 128 0 255
-0.701052 1.3767 3.85303 0 0 0 0 128 0 255
-0.701836 1.3837 3.85363 0 0 0 0 128 0 255
-0.5662 0.798206 3.85484 0 0 0 0 128 0 255
-0.581599 0.872647 3.85604 0 0 0 0 128 0 255
-0.565873 0.807514 3.85664 0 0 0 0 128 0 255
-0.697845 1.40206 3.85966 0 0 0 0 128 0 255
-0.580737 0.911827 3.86327 0 0 0 0 128 0 255
-0.567024 0.862646 3.86507 0 0 0 0 128 0 255
-0.552974 0.808414 3.86628 0 0 0 0 128 0 255
-0.713492 1.51337 3.86688 0 0 0 0 128 0 255
-0.712153 1.50752 3.86688 0 0 0 0 128 0 255
-0.706135 1.48838 3.86808 0 0 0 0 128 0 255
-0.560456 0.851839 3.86808 0 0 0 0 128 0 255
-0.583662 0.960398 3.86929 0 0 0 0 128 0 255
-0.707375 1.51169 3.87109 0 0 0 0 128 0 255
-0.713626 1.54617 3.8723 0 0 0 0 128 0 255
-0.554898 0.856189 3.8729 0 0 0 0 128 0 255
-0.619942 1.15829 3.87591 0 0 0 0 128 0 255
-0.733834 1.65952 3.87651 0 0 0 0 128 0 255
-0.531162 0.784682 3.87832 0 0 0 0 128 0 255
-0.572216 0.971225 3.87952 0 0 0 0 128 0 255
-0.696379 1.53165 3.88253 0 0 0 0 128 0 255
-0.527721 0.794702 3.88253 0 0 0 0 128 0 255
-0.61038 1.15945 3.88314 0 0 0 0 128 0 255
-0.689027 1.51384 3.88494 0 0 0 0 128 0 255
-0.546917 0.892894 3.88494 0 0 0 0 128 0 255
-0.601813 1.15423 3.88856 0 0 0 0 128 0 255
-0.534117 0.876333 3.89157 0 0 0 0 128 0 255
-0.55197 0.961496 3.89277 0 0 0 0 128 0 255
-0.55253 0.967523 3.89337 0 0 0 0 128 0 255
-0.687952 1.5664 3.89458 0 0 0 0 128 0 255
-0.6584 1.44801 3.89638 0 0 0 0 128 0 255
-0.591695 1.15655 3.89638 0 0 0 0 128 0 255
-0.663199 1.47256 3.89699 0 0 0 0 128 0 255
-0.513504 0.818473 3.89699 0 0 0 0 128 0 255
-0.523211 0.864467 3.89759 0 0 0 0 128 0 255
-0.533924 0.918437 3.89879 0 0 0 0 128 0 255
-0.522324 0.867747 3.89879 0 0 0 0 128 0 255
-0.509607 0.812184 3.89879 0 0 0 0 128 0 255
-0.517094 0.862789 3.9018 0 0 0 0 128 0 255
-0.657092 1.48524 3.90361 0 0 0 0 128 0 255
-0.537182 0.96488 3.90421 0 0 0 0 128 0 255
-0.554697 1.04499 3.90481 0 0 0 0 128 0 255
-0.641371 1.42729 3.90541 0 0 0 0 128 0 255
-0.557265 1.05979 3.90541 0 0 0 0 128 0 255
-0.527594 0.930144 3.90541 0 0 0 0 128 0 255
-0.64327 1.43917 3.90602 0 0 0 0 128 0 255
-0.533062 0.957617 3.90602 0 0 0 0 128 0 255
-0.641376 1.43447 3.90662 0 0 0 0 128 0 255
-0.538198 0.987217 3.90722 0 0 0 0 128 0 255
-0.556606 1.07123 3.90782 0 0 0 0 128 0 255
-0.520019 0.911361 3.90782 0 0 0 0 128 0 255
-0.547127 1.03339 3.90842 0 0 0 0 128 0 255
-0.635809 1.42446 3.90903 0 0 0 0 128 0 255
-0.667161 1.57219 3.91083 0 0 0 0 128 0 255
-0.666715 1.57024 3.91083 0 0 0 0 128 0 255
-0.50185 0.849864 3.91083 0 0 0 0 128 0 255
-0.547698 1.05377 3.91144 0 0 0 0 128 0 255
-0.492043 0.821333 3.91324 0 0 0 0 128 0 255
-0.512236 0.913142 3.91384 0 0 0 0 128 0 255
-0.508666 0.897545 3.91384 0 0 0 0 128 0 255
-0.493496 0.831259 3.91384 0 0 0 0 128 0 255
-0.531204 1.00318 3.91505 0 0 0 0 128 0 255
-0.636062 1.46851 3.91625 0 0 0 0 128 0 255
-0.540133 1.04935 3.91625 0 0 0 0 128 0 255
-0.521616 0.968443 3.91625 0 0 0 0 128 0 255
-0.518617 0.973233 3.91926 0 0 0 0 128 0 255
-0.504785 0.912795 3.91926 0 0 0 0 128 0 255
-0.530555 1.02897 3.91986 0 0 0 0 128 0 255
-0.537362 1.0623 3.92047 0 0 0 0 128 0 255
-0.50602 0.928926 3.92107 0 0 0 0 128 0 255
-0.505687 0.931054 3.92167 0 0 0 0 128 0 255
-0.535141 1.06691 3.92287 0 0 0 0 128 0 255
-0.517963 0.991848 3.92287 0 0 0 0 128 0 255
-0.517516 0.989898 3.92287 0 0 0 0 128 0 255
-0.501231 0.918738 3.92287 0 0 0 0 128 0 255
-0.500115 0.913864 3.92287 0 0 0 0 128 0 255
-0.535478 1.07196 3.92348 0 0 0 0 128 0 255
-0.625721 1.46985 3.92408 0 0 0 0 128 0 255
-0.51239 0.974658 3.92408 0 0 0 0 128 0 255
-0.497894 0.918476 3.92528 0 0 0 0 128 0 255
-0.510279 0.976167 3.92589 0 0 0 0 128 0 255
-0.505817 0.956671 3.92589 0 0 0 0 128 0 255
-0.498231 0.923528 3.92589 0 0 0 0 128 0 255
-0.548318 1.14596 3.92649 0 0 0 0 128 0 255
-0.493438 0.90616 3.92649 0 0 0 0 128 0 255
-0.514522 1.00187 3.92709 0 0 0 0 128 0 255
-0.609674 1.42121 3.92769 0 0 0 0 128 0 255
-0.499917 0.948788 3.9289 0 0 0 0 128 0 255
-0.617824 1.46756 3.9295 0 0 0 0 128 0 255
-0.648502 1.60518 3.9301 0 0 0 0 128 0 255
-0.503492 0.971565 3.9301 0 0 0 0 128 0 255
-0.517884 1.03803 3.9307 0 0 0 0 128 0 255
-0.5441 1.15616 3.9313 0 0 0 0 128 0 255
-0.617502 1.48405 3.93251 0 0 0 0 128 0 255
-0.603229 1.42884 3.93371 0 0 0 0 128 0 255
-0.465581 0.827389 3.93371 0 0 0 0 128 0 255
-0.592635 1.38613 3.93431 0 0 0 0 128 0 255
-0.60257 1.44027 3.93612 0 0 0 0 128 0 255
-0.528171 1.11877 3.93672 0 0 0 0 128 0 255
-0.536991 1.16804 3.93853 0 0 0 0 128 0 255
-0.531305 1.14678 3.93913 0 0 0 0 128 0 255
-0.523719 1.11363 3.93913 0 0 0 0 128 0 255
-0.596116 1.43354 3.93973 0 0 0 0 128 0 255
-0.447982 0.786279 3.93973 0 0 0 0 128 0 255
-0.52016 1.1124 3.94154 0 0 0 0 128 0 255
-0.584079 1.39527 3.94214 0 0 0 0 128 0 255
-0.532212 1.17221 3.94274 0 0 0 0 128 0 255
-0.514811 1.09618 3.94274 0 0 0 0 128 0 255
-0.586092 1.41122 3.94335 0 0 0 0 128 0 255
-0.556866 1.28352 3.94335 0 0 0 0 128 0 255
-0.482135 0.964142 3.94455 0 0 0 0 128 0 255
-0.596919 1.46927 3.94515 0 0 0 0 128 0 255
-0.581863 1.40706 3.94575 0 0 0 0 128 0 255
-0.50378 1.06588 3.94575 0 0 0 0 128 0 255
-0.463069 0.891567 3.94636 0 0 0 0 128 0 255
-0.50914 1.09645 3.94696 0 0 0 0 128 0 255
-0.44422 0.812787 3.94696 0 0 0 0 128 0 255
-0.451364 0.85116 3.94816 0 0 0 0 128 0 255
-0.579087 1.41282 3.94876 0 0 0 0 128 0 255
-0.550645 1.29212 3.94937 0 0 0 0 128 0 255
-0.519412 1.15565 3.94937 0 0 0 0 128 0 255
-0.515843 1.14006 3.94937 0 0 0 0 128 0 255
-0.451369 0.85834 3.94937 0 0 0 0 128 0 255
-0.591808 1.47556 3.94997 0 0 0 0 128 0 255
-0.590469 1.46972 3.94997 0 0 0 0 128 0 255
-0.549311 1.29346 3.95057 0 0 0 0 128 0 255
-0.498446 1.0712 3.95057 0 0 0 0 128 0 255
-0.444458 0.835301 3.95057 0 0 0 0 128 0 255
-0.544746 1.28424 3.95238 0 0 0 0 128 0 255
-0.436328 0.81767 3.95358 0 0 0 0 128 0 255
-0.582567 1.46024 3.95418 0 0 0 0 128 0 255
-0.437334 0.825647 3.95418 0 0 0 0 128 0 255
-0.48932 1.05995 3.95539 0 0 0 0 128 0 255
-0.451394 0.894239 3.95539 0 0 0 0 128 0 255
-0.514197 1.17223 3.95599 0 0 0 0 128 0 255
-0.384803 0.606852 3.95599 0 0 0 0 128 0 255
-0.543313 1.30304 3.95659 0 0 0 0 128 0 255
-0.451622 0.902393 3.95659 0 0 0 0 128 0 255
-0.43612 0.838235 3.95719 0 0 0 0 128 0 255
-0.441593 0.872887 3.959 0 0 0 0 128 0 255
-0.426646 0.807576 3.959 0 0 0 0 128 0 255
-0.418168 0.770533 3.959 0 0 0 0 128 0 255
-0.504842 1.15283 3.9596 0 0 0 0 128 0 255
-0.48934 1.08867 3.9602 0 0 0 0 128 0 255
-0.417281 0.773814 3.9602 0 0 0 0 128 0 255
-0.583599 1.50412 3.96081 0 0 0 0 128 0 255
-0.506523 1.17091 3.96141 0 0 0 0 128 0 255
-0.504961 1.16409 3.96141 0 0 0 0 128 0 255
-0.470828 1.01495 3.96141 0 0 0 0 128 0 255
-0.580927 1.4996 3.96201 0 0 0 0 128 0 255
-0.375246 0.615194 3.96442 0 0 0 0 128 0 255
-0.607822 1.63501 3.96502 0 0 0 0 128 0 255
-0.49405 1.14504 3.96623 0 0 0 0 128 0 255
-0.490257 1.12847 3.96623 0 0 0 0 128 0 255
-0.450106 0.960188 3.96743 0 0 0 0 128 0 255
-0.449551 0.961341 3.96803 0 0 0 0 128 0 255
-0.44732 0.951593 3.96803 0 0 0 0 128 0 255
-0.484913 1.11944 3.96863 0 0 0 0 128 0 255
-0.449333 0.967546 3.96924 0 0 0 0 128 0 255
-0.400589 0.758143 3.96984 0 0 0 0 128 0 255
-0.400143 0.756193 3.96984 0 0 0 0 128 0 255
-0.585984 1.57538 3.97104 0 0 0 0 128 0 255
-0.451574 0.991654 3.97164 0 0 0 0 128 0 255
-0.413202 0.823989 3.97164 0 0 0 0 128 0 255
-0.413767 0.837195 3.97345 0 0 0 0 128 0 255
-0.444222 0.973845 3.97405 0 0 0 0 128 0 255
-0.445451 0.982797 3.97465 0 0 0 0 128 0 255
-0.388563 0.734223 3.97465 0 0 0 0 128 0 255
-0.380977 0.70108 3.97465 0 0 0 0 128 0 255
-0.57128 1.53976 3.97586 0 0 0 0 128 0 255
-0.486059 1.16739 3.97586 0 0 0 0 128 0 255
-0.482043 1.14984 3.97586 0 0 0 0 128 0 255
-0.479589 1.13912 3.97586 0 0 0 0 128 0 255
-0.385444 0.727756 3.97586 0 0 0 0 128 0 255
-0.37485 0.685043 3.97646 0 0 0 0 128 0 255
-0.405419 0.82577 3.97767 0 0 0 0 128 0 255
-0.3772 0.706048 3.97827 0 0 0 0 128 0 255
-0.420371 0.898261 3.97887 0 0 0 0 128 0 255
-0.573303 1.57007 3.97947 0 0 0 0 128 0 255
-0.451718 1.03881 3.97947 0 0 0 0 128 0 255
-0.369065 0.681238 3.98007 0 0 0 0 128 0 255
-0.439681 1.00053 3.98188 0 0 0 0 128 0 255
-0.416598 0.910409 3.98369 0 0 0 0 128 0 255
-0.552467 1.51124 3.98489 0 0 0 0 128 0 255
-0.350791 0.630024 3.98489 0 0 0 0 128 0 255
-0.57144 1.60846 3.9873 0 0 0 0 128 0 255
-0.536414 1.45541 3.9873 0 0 0 0 128 0 255
-0.407021 0.890032 3.9873 0 0 0 0 128 0 255
-0.365193 0.710848 3.9879 0 0 0 0 128 0 255
-0.565868 1.59127 3.9885 0 0 0 0 128 0 255
-0.531848 1.4462 3.98911 0 0 0 0 128 0 255
-0.465144 1.15474 3.98911 0 0 0 0 128 0 255
-0.468158 1.17149 3.98971 0 0 0 0 128 0 255
-0.542785 1.50115 3.99031 0 0 0 0 128 0 255
-0.413396 0.942943 3.99151 0 0 0 0 128 0 255
-0.526732 1.44532 3.99272 0 0 0 0 128 0 255
-0.459919 1.15696 3.99332 0 0 0 0 128 0 255
-0.418984 0.981673 3.99392 0 0 0 0 128 0 255
-0.39199 0.863722 3.99392 0 0 0 0 128 0 255
-0.380166 0.812058 3.99392 0 0 0 0 128 0 255
-0.458585 1.15829 3.99452 0 0 0 0 128 0 255
-0.364668 0.75508 3.99573 0 0 0 0 128 0 255
-0.451565 1.13835 3.99633 0 0 0 0 128 0 255
-0.419886 0.999932 3.99633 0 0 0 0 128 0 255
-0.415424 0.980436 3.99633 0 0 0 0 128 0 255
-0.555417 1.59571 3.99693 0 0 0 0 128 0 255
-0.376051 0.811974 3.99693 0 0 0 0 128 0 255
-0.368689 0.779806 3.99693 0 0 0 0 128 0 255
-0.546831 1.56177 3.99753 0 0 0 0 128 0 255
-0.35219 0.72203 3.99934 0 0 0 0 128 0 255
-0.412539 0.989303 3.99994 0 0 0 0 128 0 255
-0.526322 1.49363 4.00115 0 0 0 0 128 0 255
-0.546405 1.58854 4.00235 0 0 0 0 128 0 255
-0.54284 1.58012 4.00356 0 0 0 0 128 0 255
-0.358462 0.785224 4.00536 0 0 0 0 128 0 255
-0.363484 0.810747 4.00596 0 0 0 0 128 0 255
-0.527348 1.53033 4.00657 0 0 0 0 128 0 255
-0.402862 0.986388 4.00657 0 0 0 0 128 0 255
-0.354456 0.782037 4.00777 0 0 0 0 128 0 255
-0.433991 1.13314 4.00837 0 0 0 0 128 0 255
-0.525573 1.53689 4.00897 0 0 0 0 128 0 255
-0.531265 1.56533 4.00958 0 0 0 0 128 0 255
-0.499923 1.43196 4.01018 0 0 0 0 128 0 255
-0.434334 1.14537 4.01018 0 0 0 0 128 0 255
-0.332941 0.705919 4.01078 0 0 0 0 128 0 255
-0.522683 1.53857 4.01138 0 0 0 0 128 0 255
-0.520899 1.53078 4.01138 0 0 0 0 128 0 255
-0.524141 1.55568 4.01319 0 0 0 0 128 0 255
-0.502501 1.46112 4.01319 0 0 0 0 128 0 255
-0.513884 1.51802 4.01439 0 0 0 0 128 0 255
-0.513438 1.51607 4.01439 0 0 0 0 128 0 255
-0.431563 1.15832 4.01439 0 0 0 0 128 0 255
-0.397876 1.01112 4.01439 0 0 0 0 128 0 255
-0.376013 0.915594 4.01439 0 0 0 0 128 0 255
-0.497935 1.45191 4.015 0 0 0 0 128 0 255
-0.328831 0.713014 4.015 0 0 0 0 128 0 255
-0.337983 0.760161 4.0162 0 0 0 0 128 0 255
-0.329952 0.725068 4.0162 0 0 0 0 128 0 255
-0.418633 1.11614 4.0168 0 0 0 0 128 0 255
-0.414841 1.09957 4.0168 0 0 0 0 128 0 255
-0.34189 0.78081 4.0168 0 0 0 0 128 0 255
-0.329064 0.728349 4.0174 0 0 0 0 128 0 255
-0.490028 1.43525 4.01801 0 0 0 0 128 0 255
-0.413061 1.09895 4.01801 0 0 0 0 128 0 255
-0.47698 1.38182 4.01861 0 0 0 0 128 0 255
-0.339778 0.782319 4.01861 0 0 0 0 128 0 255
-0.531305 1.62277 4.01921 0 0 0 0 128 0 255
-0.490702 1.44536 4.01921 0 0 0 0 128 0 255
-0.413512 1.10808 4.01921 0 0 0 0 128 0 255
-0.325837 0.724984 4.01921 0 0 0 0 128 0 255
-0.333759 0.763179 4.01981 0 0 0 0 128 0 255
-0.501416 1.49933 4.02041 0 0 0 0 128 0 255
-0.314687 0.683424 4.02041 0 0 0 0 128 0 255
-0.419209 1.14371 4.02102 0 0 0 0 128 0 255
-0.50031 1.50881 4.02282 0 0 0 0 128 0 255
-0.392671 1.04207 4.02342 0 0 0 0 128 0 255
-0.388878 1.02549 4.02342 0 0 0 0 128 0 255
-0.360322 0.90072 4.02342 0 0 0 0 128 0 255
-0.444988 1.27425 4.02403 0 0 0 0 128 0 255
-0.403047 1.09098 4.02403 0 0 0 0 128 0 255
-0.400147 1.07831 4.02403 0 0 0 0 128 0 255
-0.371591 0.953537 4.02403 0 0 0 0 128 0 255
-0.405169 1.10383 4.02463 0 0 0 0 128 0 255
-0.37639 0.978085 4.02463 0 0 0 0 128 0 255
-0.326194 0.758755 4.02463 0 0 0 0 128 0 255
-0.401267 1.09036 4.02523 0 0 0 0 128 0 255
-0.388997 1.03675 4.02523 0 0 0 0 128 0 255
-0.307792 0.681925 4.02523 0 0 0 0 128 0 255
-0.487495 1.47071 4.02583 0 0 0 0 128 0 255
-0.391119 1.0496 4.02583 0 0 0 0 128 0 255
-0.37171 0.964794 4.02583 0 0 0 0 128 0 255
-0.357878 0.904356 4.02583 0 0 0 0 128 0 255
-0.400603 1.09462 4.02643 0 0 0 0 128 0 255
-0.493861 1.50927 4.02764 0 0 0 0 128 0 255
-0.49052 1.50182 4.02884 0 0 0 0 128 0 255
-0.394367 1.08169 4.02884 0 0 0 0 128 0 255
-0.362911 0.944239 4.02884 0 0 0 0 128 0 255
-0.31093 0.717111 4.02884 0 0 0 0 128 0 255
-0.395596 1.09064 4.02945 0 0 0 0 128 0 255
-0.309706 0.71534 4.02945 0 0 0 0 128 0 255
-0.481051 1.47834 4.03185 0 0 0 0 128 0 255
-0.464993 1.41534 4.03306 0 0 0 0 128 0 255
-0.354785 0.933788 4.03306 0 0 0 0 128 0 255
-0.315298 0.761249 4.03306 0 0 0 0 128 0 255
-0.304366 0.713484 4.03306 0 0 0 0 128 0 255
-0.498571 1.56563 4.03366 0 0 0 0 128 0 255
-0.403534 1.15037 4.03366 0 0 0 0 128 0 255
-0.400856 1.13867 4.03366 0 0 0 0 128 0 255
-0.471245 1.44981 4.03426 0 0 0 0 128 0 255
-0.463883 1.41764 4.03426 0 0 0 0 128 0 255
-0.400078 1.13885 4.03426 0 0 0 0 128 0 255
-0.305487 0.725538 4.03426 0 0 0 0 128 0 255
-0.31453 0.775787 4.03607 0 0 0 0 128 0 255
-0.469584 1.46045 4.03727 0 0 0 0 128 0 255
-0.461667 1.42944 4.03787 0 0 0 0 128 0 255
-0.307401 0.758953 4.03848 0 0 0 0 128 0 255
-0.385265 1.10634 4.03968 0 0 0 0 128 0 255
-0.360502 0.998135 4.03968 0 0 0 0 128 0 255
-0.325253 0.844117 4.03968 0 0 0 0 128 0 255
-0.375791 1.07568 4.04149 0 0 0 0 128 0 255
-0.366198 1.03376 4.04149 0 0 0 0 128 0 255
-0.35259 0.974299 4.04149 0 0 0 0 128 0 255
-0.470943 1.49502 4.04209 0 0 0 0 128 0 255
-0.389068 1.13727 4.04209 0 0 0 0 128 0 255
-0.387506 1.13044 4.04209 0 0 0 0 128 0 255
-0.385722 1.12265 4.04209 0 0 0 0 128 0 255
-0.352258 0.976427 4.04209 0 0 0 0 128 0 255
-0.456224 1.43786 4.04329 0 0 0 0 128 0 255
-0.452208 1.42032 4.04329 0 0 0 0 128 0 255
-0.436592 1.35208 4.04329 0 0 0 0 128 0 255
-0.458346 1.45071 4.0439 0 0 0 0 128 0 255
-0.345238 0.95649 4.0439 0 0 0 0 128 0 255
-0.292588 0.726438 4.0439 0 0 0 0 128 0 255
-0.301517 0.77261 4.0451 0 0 0 0 128 0 255
-0.305646 0.794234 4.0457 0 0 0 0 128 0 255
-0.376927 1.10927 4.0463 0 0 0 0 128 0 255
-0.472748 1.53154 4.04691 0 0 0 0 128 0 255
-0.463378 1.4906 4.04691 0 0 0 0 128 0 255
-0.369124 1.08233 4.04751 0 0 0 0 128 0 255
-0.459481 1.48431 4.04871 0 0 0 0 128 0 255
-0.336111 0.945243 4.04871 0 0 0 0 128 0 255
-0.342249 0.97564 4.04931 0 0 0 0 128 0 255
-0.4403 1.40765 4.04992 0 0 0 0 128 0 255
-0.377834 1.13471 4.04992 0 0 0 0 128 0 255
-0.335001 0.947549 4.04992 0 0 0 0 128 0 255
-0.462278 1.50726 4.05052 0 0 0 0 128 0 255
-0.340915 0.976971 4.05052 0 0 0 0 128 0 255
-0.288042 0.745944 4.05052 0 0 0 0 128 0 255
-0.372708 1.11947 4.05112 0 0 0 0 128 0 255
-0.274325 0.689584 4.05112 0 0 0 0 128 0 255
-0.426588 1.35847 4.05172 0 0 0 0 128 0 255
-0.379515 1.15279 4.05172 0 0 0 0 128 0 255
-0.460835 1.51169 4.05232 0 0 0 0 128 0 255
-0.40997 1.28944 4.05232 0 0 0 0 128 0 255
-0.331664 0.947287 4.05232 0 0 0 0 128 0 255
-0.327203 0.927791 4.05232 0 0 0 0 128 0 255
-0.290511 0.778206 4.05413 0 0 0 0 128 0 255
-0.32164 0.92496 4.05594 0 0 0 0 128 0 255
-0.318299 0.917518 4.05714 0 0 0 0 128 0 255
-0.315622 0.90582 4.05714 0 0 0 0 128 0 255
-0.288742 0.791947 4.05774 0 0 0 0 128 0 255
-0.280934 0.757829 4.05774 0 0 0 0 128 0 255
-0.436097 1.43939 4.05835 0 0 0 0 128 0 255
-0.410664 1.32826 4.05835 0 0 0 0 128 0 255
-0.272124 0.722915 4.05835 0 0 0 0 128 0 255
-0.258961 0.665402 4.05835 0 0 0 0 128 0 255
-0.258738 0.664427 4.05835 0 0 0 0 128 0 255
-0.437326 1.44834 4.05895 0 0 0 0 128 0 255
-0.355005 1.08864 4.05895 0 0 0 0 128 0 255
-0.451163 1.51596 4.06015 0 0 0 0 128 0 255
-0.358134 1.10947 4.06015 0 0 0 0 128 0 255
-0.25741 0.672938 4.06075 0 0 0 0 128 0 255
-0.449383 1.51534 4.06136 0 0 0 0 128 0 255
-0.423059 1.40031 4.06136 0 0 0 0 128 0 255
-0.257301 0.67604 4.06136 0 0 0 0 128 0 255
-0.235661 0.581485 4.06136 0 0 0 0 128 0 255
-0.25563 0.672319 4.06196 0 0 0 0 128 0 255
-0.442696 1.49328 4.06256 0 0 0 0 128 0 255
-0.346766 1.07411 4.06256 0 0 0 0 128 0 255
-0.278054 0.773876 4.06256 0 0 0 0 128 0 255
-0.277384 0.770952 4.06256 0 0 0 0 128 0 255
-0.438462 1.48194 4.06376 0 0 0 0 128 0 255
-0.406005 1.34369 4.06437 0 0 0 0 128 0 255
-0.393958 1.29105 4.06437 0 0 0 0 128 0 255
-0.254193 0.683933 4.06497 0 0 0 0 128 0 255
-0.257653 0.702632 4.06557 0 0 0 0 128 0 255
-0.25163 0.676312 4.06557 0 0 0 0 128 0 255
-0.234228 0.600278 4.06557 0 0 0 0 128 0 255
-0.455318 1.57348 4.06677 0 0 0 0 128 0 255
-0.444278 1.52882 4.06738 0 0 0 0 128 0 255
-0.437362 1.4986 4.06738 0 0 0 0 128 0 255
-0.338983 1.0759 4.06858 0 0 0 0 128 0 255
-0.350475 1.12969 4.06918 0 0 0 0 128 0 255
-0.348913 1.12286 4.06918 0 0 0 0 128 0 255
-0.348467 1.12091 4.06918 0 0 0 0 128 0 255
-0.351927 1.13961 4.06979 0 0 0 0 128 0 255
-0.350366 1.13279 4.06979 0 0 0 0 128 0 255
-0.43704 1.51509 4.07039 0 0 0 0 128 0 255
-0.350926 1.13882 4.07039 0 0 0 0 128 0 255
-0.352602 1.14972 4.07099 0 0 0 0 128 0 255
-0.348586 1.13217 4.07099 0 0 0 0 128 0 255
-0.29259 0.887497 4.07099 0 0 0 0 128 0 255
-0.295718 0.908324 4.07219 0 0 0 0 128 0 255
-0.248319 0.711949 4.074 0 0 0 0 128 0 255
-0.220432 0.5901 4.074 0 0 0 0 128 0 255
-0.4423 1.56313 4.0746 0 0 0 0 128 0 255
-0.290151 0.898314 4.0746 0 0 0 0 128 0 255
-0.39088 1.34202 4.0752 0 0 0 0 128 0 255
-0.21832 0.591609 4.07581 0 0 0 0 128 0 255
-0.435731 1.55232 4.07761 0 0 0 0 128 0 255
-0.256811 0.770531 4.07761 0 0 0 0 128 0 255
-0.256588 0.769556 4.07761 0 0 0 0 128 0 255
-0.287603 0.912233 4.07882 0 0 0 0 128 0 255
-0.406739 1.43995 4.08002 0 0 0 0 128 0 255
-0.212203 0.589931 4.08002 0 0 0 0 128 0 255
-0.415108 1.4801 4.08062 0 0 0 0 128 0 255
-0.382313 1.3368 4.08062 0 0 0 0 128 0 255
-0.431062 1.55339 4.08123 0 0 0 0 128 0 255
-0.394697 1.3945 4.08123 0 0 0 0 128 0 255
-0.334016 1.12935 4.08123 0 0 0 0 128 0 255
-0.278912 0.888575 4.08123 0 0 0 0 128 0 255
-0.276578 0.88911 4.08303 0 0 0 0 128 0 255
-0.404861 1.4568 4.08424 0 0 0 0 128 0 255
-0.23944 0.737576 4.08484 0 0 0 0 128 0 255
-0.403304 1.45715 4.08544 0 0 0 0 128 0 255
-0.240224 0.744578 4.08544 0 0 0 0 128 0 255
-0.422832 1.55322 4.08725 0 0 0 0 128 0 255
-0.32891 1.14283 4.08725 0 0 0 0 128 0 255
-0.320656 1.10676 4.08725 0 0 0 0 128 0 255
-0.40209 1.46974 4.08845 0 0 0 0 128 0 255
-0.321107 1.11589 4.08845 0 0 0 0 128 0 255
-0.320661 1.11394 4.08845 0 0 0 0 128 0 255
-0.405327 1.48747 4.08905 0 0 0 0 128 0 255
-0.412471 1.52584 4.09026 0 0 0 0 128 0 255
-0.39976 1.47746 4.09146 0 0 0 0 128 0 255
-0.321454 1.1353 4.09146 0 0 0 0 128 0 255
-0.399428 1.47958 4.09206 0 0 0 0 128 0 255
-0.401327 1.49146 4.09267 0 0 0 0 128 0 255
-0.289894 1.00814 4.09327 0 0 0 0 128 0 255
-0.240368 0.791734 4.09327 0 0 0 0 128 0 255
-0.397653 1.48615 4.09447 0 0 0 0 128 0 255
-0.314777 1.1276 4.09507 0 0 0 0 128 0 255
-0.289349 1.02365 4.09628 0 0 0 0 128 0 255
-0.224652 0.74096 4.09628 0 0 0 0 128 0 255
-0.216512 0.70897 4.09688 0 0 0 0 128 0 255
-0.309433 1.11856 4.09748 0 0 0 0 128 0 255
-0.307108 1.13346 4.1017 0 0 0 0 128 0 255
-0.276891 1.01932 4.10471 0 0 0 0 128 0 255
-0.279236 1.03315 4.10531 0 0 0 0 128 0 255
-0.354086 1.36378 4.10591 0 0 0 0 128 0 255
-0.191006 0.651204 4.10591 0 0 0 0 128 0 255
-0.237969 0.859989 4.10651 0 0 0 0 128 0 255
-0.220791 0.78493 4.10651 0 0 0 0 128 0 255
-0.374398 1.46685 4.10832 0 0 0 0 128 0 255
-0.197163 0.710321 4.11133 0 0 0 0 128 0 255
-0.353219 1.39578 4.11193 0 0 0 0 128 0 255
-0.36193 1.44816 4.11434 0 0 0 0 128 0 255
-0.357914 1.43061 4.11434 0 0 0 0 128 0 255
-0.366174 1.47386 4.11554 0 0 0 0 128 0 255
-0.364617 1.47422 4.11675 0 0 0 0 128 0 255
-0.342085 1.37576 4.11675 0 0 0 0 128 0 255
-0.358038 1.44905 4.11735 0 0 0 0 128 0 255
-0.159045 0.586709 4.11856 0 0 0 0 128 0 255
-0.160954 0.612944 4.12157 0 0 0 0 128 0 255
-0.182708 0.711577 4.12217 0 0 0 0 128 0 255
-0.27195 1.10868 4.12337 0 0 0 0 128 0 255
-0.32628 1.35681 4.12518 0 0 0 0 128 0 255
-0.271177 1.11603 4.12518 0 0 0 0 128 0 255
-0.270845 1.11816 4.12578 0 0 0 0 128 0 255
-0.334332 1.42062 4.12999 0 0 0 0 128 0 255
-0.348174 1.49542 4.1324 0 0 0 0 128 0 255
-0.161783 0.684565 4.13301 0 0 0 0 128 0 255
-0.336484 1.47655 4.13782 0 0 0 0 128 0 255
-0.250708 1.10533 4.13842 0 0 0 0 128 0 255
-0.334486 1.48214 4.14023 0 0 0 0 128 0 255
-0.254619 1.13316 4.14023 0 0 0 0 128 0 255
-0.252388 1.12341 4.14023 0 0 0 0 128 0 255
-0.208439 0.931376 4.14023 0 0 0 0 128 0 255
-0.242354 1.08673 4.14143 0 0 0 0 128 0 255
-0.140961 0.64727 4.14204 0 0 0 0 128 0 255
-0.332494 1.4949 4.14384 0 0 0 0 128 0 255
-0.125251 0.603676 4.14625 0 0 0 0 128 0 255
-0.320794 1.46168 4.14685 0 0 0 0 128 0 255
-0.186502 0.889207 4.14926 0 0 0 0 128 0 255
-0.17914 0.857039 4.14926 0 0 0 0 128 0 255
-0.324934 1.49766 4.14986 0 0 0 0 128 0 255
-0.32071 1.50068 4.15348 0 0 0 0 128 0 255
-0.16633 0.826118 4.15348 0 0 0 0 128 0 255
-0.294727 1.39788 4.15528 0 0 0 0 128 0 255
-0.228583 1.11245 4.15588 0 0 0 0 128 0 255
-0.23015 1.12645 4.15709 0 0 0 0 128 0 255
-0.303111 1.45957 4.1595 0 0 0 0 128 0 255
-0.226367 1.12424 4.1595 0 0 0 0 128 0 255
-0.319848 1.53986 4.1607 0 0 0 0 128 0 255
-0.168036 0.880097 4.1613 0 0 0 0 128 0 255
-0.106239 0.610079 4.1613 0 0 0 0 128 0 255
-0.306472 1.49573 4.16311 0 0 0 0 128 0 255
-0.110488 0.642959 4.16371 0 0 0 0 128 0 255
-0.109373 0.638085 4.16371 0 0 0 0 128 0 255
-0.247358 1.24459 4.16431 0 0 0 0 128 0 255
-0.364596 1.76043 4.16492 0 0 0 0 128 0 255
-0.280044 1.39099 4.16492 0 0 0 0 128 0 255
-0.211455 1.10918 4.16793 0 0 0 0 128 0 255
-0.289875 1.45542 4.16853 0 0 0 0 128 0 255
-0.160258 0.889059 4.16853 0 0 0 0 128 0 255
-0.166172 0.918481 4.16913 0 0 0 0 128 0 255
-0.2794 1.42396 4.17094 0 0 0 0 128 0 255
-0.161726 0.920524 4.17274 0 0 0 0 128 0 255
-0.15247 0.88366 4.17335 0 0 0 0 128 0 255
-0.248073 1.31213 4.17515 0 0 0 0 128 0 255
-0.276301 1.44621 4.17696 0 0 0 0 128 0 255
-0.276078 1.44524 4.17696 0 0 0 0 128 0 255
-0.19521 1.09546 4.17756 0 0 0 0 128 0 255
-0.228679 1.24886 4.17876 0 0 0 0 128 0 255
-0.268617 1.43053 4.17997 0 0 0 0 128 0 255
-0.147032 0.899266 4.17997 0 0 0 0 128 0 255
-0.246432 1.35149 4.18298 0 0 0 0 128 0 255
-0.191556 1.11887 4.18418 0 0 0 0 128 0 255
-0.101873 0.726999 4.18418 0 0 0 0 128 0 255
-0.0799012 0.634572 4.18479 0 0 0 0 128 0 255
-0.127757 0.847256 4.18539 0 0 0 0 128 0 255
-0.264627 1.44888 4.18599 0 0 0 0 128 0 255
-0.242318 1.3514 4.18599 0 0 0 0 128 0 255
-0.0997614 0.728509 4.18599 0 0 0 0 128 0 255
-0.0819141 0.650525 4.18599 0 0 0 0 128 0 255
-0.184765 1.10709 4.18719 0 0 0 0 128 0 255
-0.137697 0.908584 4.1884 0 0 0 0 128 0 255
-0.123866 0.848146 4.1884 0 0 0 0 128 0 255
-0.0890631 0.696078 4.1884 0 0 0 0 128 0 255
-0.212661 1.2433 4.1896 0 0 0 0 128 0 255
-0.129453 0.886876 4.19081 0 0 0 0 128 0 255
-0.0985571 0.755456 4.19141 0 0 0 0 128 0 255
-0.25551 1.452 4.19321 0 0 0 0 128 0 255
-0.131248 0.909034 4.19321 0 0 0 0 128 0 255
-0.121883 0.875272 4.19442 0 0 0 0 128 0 255
-0.202533 1.23125 4.19502 0 0 0 0 128 0 255
-0.17309 1.10976 4.19623 0 0 0 0 128 0 255
-0.115309 0.857285 4.19623 0 0 0 0 128 0 255
-0.200645 1.23374 4.19683 0 0 0 0 128 0 255
-0.12814 0.916926 4.19683 0 0 0 0 128 0 255
-0.206336 1.26218 4.19743 0 0 0 0 128 0 255
-0.0859801 0.739869 4.19803 0 0 0 0 128 0 255
-0.223965 1.34637 4.19863 0 0 0 0 128 0 255
-0.0916715 0.768317 4.19863 0 0 0 0 128 0 255
-0.0653466 0.653291 4.19863 0 0 0 0 128 0 255
-0.116663 0.884674 4.19984 0 0 0 0 128 0 255
-0.111086 0.860304 4.19984 0 0 0 0 128 0 255
-0.168088 1.11295 4.20044 0 0 0 0 128 0 255
-0.0833131 0.742531 4.20044 0 0 0 0 128 0 255
-0.147901 1.02833 4.20104 0 0 0 0 128 0 255
-0.112989 0.879359 4.20164 0 0 0 0 128 0 255
-0.210372 1.30845 4.20225 0 0 0 0 128 0 255
-0.212717 1.32227 4.20285 0 0 0 0 128 0 255
-0.197214 1.25812 4.20345 0 0 0 0 128 0 255
-0.247971 1.48347 4.20405 0 0 0 0 128 0 255
-0.0759662 0.731903 4.20405 0 0 0 0 128 0 255
-0.106644 0.869527 4.20465 0 0 0 0 128 0 255
-0.186179 1.22063 4.20526 0 0 0 0 128 0 255
-0.141114 1.02372 4.20526 0 0 0 0 128 0 255
-0.126613 0.960361 4.20526 0 0 0 0 128 0 255
-0.0877951 0.790747 4.20526 0 0 0 0 128 0 255
-0.0975021 0.83674 4.20586 0 0 0 0 128 0 255
-0.137104 1.01336 4.20646 0 0 0 0 128 0 255
-0.125057 0.960718 4.20646 0 0 0 0 128 0 255
-0.119484 0.943528 4.20766 0 0 0 0 128 0 255
-0.260261 1.5658 4.20887 0 0 0 0 128 0 255
-0.24286 1.48977 4.20887 0 0 0 0 128 0 255
-0.122836 0.965329 4.20887 0 0 0 0 128 0 255
-0.231819 1.44511 4.20947 0 0 0 0 128 0 255
-0.154629 1.10783 4.20947 0 0 0 0 128 0 255
-0.217878 1.38777 4.21007 0 0 0 0 128 0 255
-0.119941 0.959837 4.21007 0 0 0 0 128 0 255
-0.0862587 0.819822 4.21128 0 0 0 0 128 0 255
-0.109574 0.925278 4.21188 0 0 0 0 128 0 255
-0.0890498 0.835597 4.21188 0 0 0 0 128 0 255
-0.126088 1.00459 4.21308 0 0 0 0 128 0 255
-0.0799131 0.80999 4.21429 0 0 0 0 128 0 255
-0.0792438 0.807066 4.21429 0 0 0 0 128 0 255
-0.224487 1.45602 4.2167 0 0 0 0 128 0 255
-0.187231 1.29323 4.2167 0 0 0 0 128 0 255
-0.124319 1.01833 4.2167 0 0 0 0 128 0 255
-0.0640836 0.755139 4.2167 0 0 0 0 128 0 255
-0.14228 1.1004 4.2173 0 0 0 0 128 0 255
-0.109262 0.956125 4.2173 0 0 0 0 128 0 255
-0.102123 0.924932 4.2173 0 0 0 0 128 0 255
-0.11016 0.967205 4.2185 0 0 0 0 128 0 255
-0.0954357 0.902868 4.2185 0 0 0 0 128 0 255
-0.0753574 0.815136 4.2185 0 0 0 0 128 0 255
-0.0731265 0.805388 4.2185 0 0 0 0 128 0 255
-0.140391 1.10288 4.2191 0 0 0 0 128 0 255
-0.188138 1.31867 4.22031 0 0 0 0 128 0 255
-0.0732456 0.816645 4.22031 0 0 0 0 128 0 255
-0.0615357 0.769058 4.22091 0 0 0 0 128 0 255
-0.176766 1.27613 4.22151 0 0 0 0 128 0 255
-0.0992434 0.940979 4.22212 0 0 0 0 128 0 255
-0.0955649 0.928485 4.22272 0 0 0 0 128 0 255
-0.160822 1.2172 4.22332 0 0 0 0 128 0 255
-0.195292 1.3714 4.22392 0 0 0 0 128 0 255
-0.0995856 0.953211 4.22392 0 0 0 0 128 0 255
-0.0991444 0.958441 4.22513 0 0 0 0 128 0 255
-0.182695 1.32709 4.22573 0 0 0 0 128 0 255
-0.192625 1.37406 4.22633 0 0 0 0 128 0 255
-0.178575 1.31983 4.22753 0 0 0 0 128 0 255
-0.17044 1.29502 4.22934 0 0 0 0 128 0 255
-0.090573 0.946041 4.22934 0 0 0 0 128 0 255
-0.0617941 0.820292 4.22934 0 0 0 0 128 0 255
-0.0921397 0.960044 4.23054 0 0 0 0 128 0 255
-0.172344 1.31407 4.23115 0 0 0 0 128 0 255
-0.0876829 0.947728 4.23175 0 0 0 0 128 0 255
-0.194658 1.41873 4.23235 0 0 0 0 128 0 255
-0.122267 1.106 4.23295 0 0 0 0 128 0 255
-0.176484 1.35006 4.23416 0 0 0 0 128 0 255
-0.10554 1.04007 4.23416 0 0 0 0 128 0 255
-0.179275 1.36583 4.23476 0 0 0 0 128 0 255
-0.123725 1.12311 4.23476 0 0 0 0 128 0 255
-0.116363 1.09094 4.23476 0 0 0 0 128 0 255
-0.213299 1.51808 4.23536 0 0 0 0 128 0 255
-0.0985205 1.02014 4.23596 0 0 0 0 128 0 255
-0.0968499 1.01641 4.23657 0 0 0 0 128 0 255
-0.224018 1.57923 4.23777 0 0 0 0 128 0 255
-0.0950702 1.0158 4.23777 0 0 0 0 128 0 255
-0.155642 1.28404 4.23837 0 0 0 0 128 0 255
-0.143486 1.23451 4.23897 0 0 0 0 128 0 255
-0.0836975 0.973261 4.23897 0 0 0 0 128 0 255
-0.0676348 0.903075 4.23897 0 0 0 0 128 0 255
-0.21499 1.55052 4.23958 0 0 0 0 128 0 255
-0.0670796 0.904228 4.23958 0 0 0 0 128 0 255
-0.0957495 1.03308 4.24018 0 0 0 0 128 0 255
-0.109026 1.09467 4.24078 0 0 0 0 128 0 255
-0.150303 1.28219 4.24198 0 0 0 0 128 0 255
-0.0857305 1.01793 4.24499 0 0 0 0 128 0 255
-0.0387721 0.816328 4.2456 0 0 0 0 128 0 255
-0.0390002 0.824483 4.2468 0 0 0 0 128 0 255
-0.102587 1.10948 4.248 0 0 0 0 128 0 255
-0.0473737 0.871807 4.24861 0 0 0 0 128 0 255
-0.0446966 0.86011 4.24861 0 0 0 0 128 0 255
-0.192052 1.50755 4.24921 0 0 0 0 128 0 255
-0.161939 1.38314 4.25041 0 0 0 0 128 0 255
-0.0994734 1.11019 4.25041 0 0 0 0 128 0 255
-0.0742639 1.00004 4.25041 0 0 0 0 128 0 255
-0.0399077 0.849921 4.25041 0 0 0 0 128 0 255
-0.0370125 0.844429 4.25162 0 0 0 0 128 0 255
-0.181135 1.48133 4.25282 0 0 0 0 128 0 255
-0.173218 1.45031 4.25342 0 0 0 0 128 0 255
-0.0761728 1.02628 4.25342 0 0 0 0 128 0 255
-0.0353519 0.855067 4.25463 0 0 0 0 128 0 255
-0.199776 1.58067 4.25583 0 0 0 0 128 0 255
-0.177244 1.48222 4.25583 0 0 0 0 128 0 255
-0.0876747 1.09443 4.25643 0 0 0 0 128 0 255
-0.066595 1.0059 4.25704 0 0 0 0 128 0 255
-0.183168 1.526 4.25884 0 0 0 0 128 0 255
-0.181721 1.52325 4.25944 0 0 0 0 128 0 255
-0.178151 1.50766 4.25944 0 0 0 0 128 0 255
-0.15138 1.39068 4.25944 0 0 0 0 128 0 255
-0.0661589 1.01831 4.25944 0 0 0 0 128 0 255
-0.146809 1.37429 4.26005 0 0 0 0 128 0 255
-0.137107 1.33547 4.26065 0 0 0 0 128 0 255
-0.0171976 0.815111 4.26125 0 0 0 0 128 0 255
-0.0634918 1.02097 4.26185 0 0 0 0 128 0 255
-0.127187 1.30287 4.26245 0 0 0 0 128 0 255
-0.0174257 0.823265 4.26245 0 0 0 0 128 0 255
-0.0136332 0.806694 4.26245 0 0 0 0 128 0 255
-0.12574 1.30012 4.26306 0 0 0 0 128 0 255
-0.0652816 1.03595 4.26306 0 0 0 0 128 0 255
-0.0796736 1.10241 4.26366 0 0 0 0 128 0 255
-0.00917633 0.794378 4.26366 0 0 0 0 128 0 255
-0.168132 1.49251 4.26426 0 0 0 0 128 0 255
-0.00817494 0.793581 4.26426 0 0 0 0 128 0 255
-0.163452 1.47922 4.26547 0 0 0 0 128 0 255
-0.148951 1.41586 4.26547 0 0 0 0 128 0 255
-0.0751179 1.10756 4.26787 0 0 0 0 128 0 255
-0.00952865 0.820969 4.26787 0 0 0 0 128 0 255
-0.00618227 0.806347 4.26787 0 0 0 0 128 0 255
-0.156438 1.46646 4.26848 0 0 0 0 128 0 255
-0.0856082 1.16055 4.26908 0 0 0 0 128 0 255
-0.1328 1.37749 4.27088 0 0 0 0 128 0 255
0.026042 0.683438 4.27088 0 0 0 0 128 0 255
0.0301667 0.668995 4.27149 0 0 0 0 128 0 255
-0.132701 1.39496 4.27389 0 0 0 0 128 0 255
-0.115077 1.31795 4.27389 0 0 0 0 128 0 255
-0.0596457 1.08648 4.2757 0 0 0 0 128 0 255
0.0115158 0.782699 4.27691 0 0 0 0 128 0 255
-0.112529 1.33187 4.27811 0 0 0 0 128 0 255
-0.116882 1.35447 4.27871 0 0 0 0 128 0 255
0.0150752 0.781462 4.27931 0 0 0 0 128 0 255
0.0132854 0.79644 4.28052 0 0 0 0 128 0 255
-0.174673 1.6213 4.28112 0 0 0 0 128 0 255
-0.11589 1.36803 4.28172 0 0 0 0 128 0 255
0.0184115 0.7812 4.28172 0 0 0 0 128 0 255
0.0454057 0.66325 4.28172 0 0 0 0 128 0 255
0.0474135 0.654476 4.28172 0 0 0 0 128 0 255
-0.102396 1.31264 4.28232 0 0 0 0 128 0 255
-0.111994 1.36174 4.28353 0 0 0 0 128 0 255
-0.0762988 1.20577 4.28353 0 0 0 0 128 0 255
0.0223081 0.774911 4.28353 0 0 0 0 128 0 255
-0.0496418 1.09287 4.28413 0 0 0 0 128 0 255
0.00277989 0.870975 4.28533 0 0 0 0 128 0 255
-0.0120633 0.946569 4.28714 0 0 0 0 128 0 255
-0.131869 1.47722 4.28835 0 0 0 0 128 0 255
0.0114654 0.854498 4.28895 0 0 0 0 128 0 255
-0.0684068 1.21065 4.29015 0 0 0 0 128 0 255
-0.133218 1.49742 4.29075 0 0 0 0 128 0 255
-0.106223 1.37947 4.29075 0 0 0 0 128 0 255
-0.0725365 1.23228 4.29075 0 0 0 0 128 0 255
-0.0384033 1.08313 4.29075 0 0 0 0 128 0 255
-0.00594588 0.944892 4.29136 0 0 0 0 128 0 255
0.0373341 0.755781 4.29136 0 0 0 0 128 0 255
0.032421 0.784406 4.29256 0 0 0 0 128 0 255
0.0344288 0.775633 4.29256 0 0 0 0 128 0 255
-0.0375211 1.0936 4.29316 0 0 0 0 128 0 255
-0.037298 1.09262 4.29316 0 0 0 0 128 0 255
0.0262834 0.814803 4.29316 0 0 0 0 128 0 255
-0.109585 1.41563 4.29437 0 0 0 0 128 0 255
0.0352021 0.782991 4.29437 0 0 0 0 128 0 255
0.0369868 0.775193 4.29437 0 0 0 0 128 0 255
-0.108251 1.41697 4.29557 0 0 0 0 128 0 255
-0.0643023 1.22493 4.29557 0 0 0 0 128 0 255
-0.000720859 0.947113 4.29557 0 0 0 0 128 0 255
0.0308442 0.812769 4.29617 0 0 0 0 128 0 255
0.00306162 0.944901 4.29798 0 0 0 0 128 0 255
0.0599502 0.696328 4.29798 0 0 0 0 128 0 255
-0.117969 1.47732 4.29858 0 0 0 0 128 0 255
4.7341e-05 0.961651 4.29858 0 0 0 0 128 0 255
-0.119644 1.48822 4.29918 0 0 0 0 128 0 255
-0.00742878 0.997897 4.29918 0 0 0 0 128 0 255
-0.0570693 1.21838 4.29979 0 0 0 0 128 0 255
-0.0427914 1.15599 4.29979 0 0 0 0 128 0 255
-0.104038 1.43434 4.30159 0 0 0 0 128 0 255
-0.0293019 1.10779 4.30159 0 0 0 0 128 0 255
-0.0260696 1.09724 4.30219 0 0 0 0 128 0 255
-0.00197561 0.991964 4.30219 0 0 0 0 128 0 255
-0.00152943 0.990014 4.30219 0 0 0 0 128 0 255
0.0571439 0.733642 4.30219 0 0 0 0 128 0 255
-0.0592064 1.25277 4.304 0 0 0 0 128 0 255
0.0556863 0.750748 4.304 0 0 0 0 128 0 255
0.0581353 0.747205 4.3052 0 0 0 0 128 0 255
0.0171952 0.929671 4.30581 0 0 0 0 128 0 255
-0.0518544 1.23496 4.30641 0 0 0 0 128 0 255
-0.0956996 1.43728 4.30821 0 0 0 0 128 0 255
-0.0505259 1.24347 4.30882 0 0 0 0 128 0 255
-0.00501506 1.04461 4.30882 0 0 0 0 128 0 255
0.0213099 0.929586 4.30882 0 0 0 0 128 0 255
0.0179483 0.965748 4.31243 0 0 0 0 128 0 255
0.106516 0.578753 4.31243 0 0 0 0 128 0 255
-0.0896963 1.43968 4.31303 0 0 0 0 128 0 255
0.0282056 0.928087 4.31363 0 0 0 0 128 0 255
-0.00157981 1.06181 4.31424 0 0 0 0 128 0 255
-0.0435263 1.25225 4.31544 0 0 0 0 128 0 255
-0.0414094 1.24658 4.31604 0 0 0 0 128 0 255
0.065675 0.778681 4.31604 0 0 0 0 128 0 255
0.0817377 0.708495 4.31604 0 0 0 0 128 0 255
0.0231683 0.975149 4.31785 0 0 0 0 128 0 255
0.0817276 0.722855 4.31845 0 0 0 0 128 0 255
0.0349872 0.930665 4.31905 0 0 0 0 128 0 255
0.11541 0.58284 4.31965 0 0 0 0 128 0 255
-0.0333982 1.24021 4.32086 0 0 0 0 128 0 255
0.0455765 0.895132 4.32086 0 0 0 0 128 0 255
0.0365388 0.938201 4.32146 0 0 0 0 128 0 255
-0.0100926 1.14911 4.32266 0 0 0 0 128 0 255
0.0309564 0.969751 4.32266 0 0 0 0 128 0 255
0.101553 0.679177 4.32568 0 0 0 0 128 0 255
0.121631 0.591445 4.32568 0 0 0 0 128 0 255
-0.115854 1.63271 4.32628 0 0 0 0 128 0 255
0.00907822 1.08682 4.32628 0 0 0 0 128 0 255
0.0177788 1.0488 4.32628 0 0 0 0 128 0 255
0.0465578 0.923054 4.32628 0 0 0 0 128 0 255
-0.111843 1.62234 4.32748 0 0 0 0 128 0 255
0.0822475 0.774267 4.32748 0 0 0 0 128 0 255
-0.112849 1.63032 4.32808 0 0 0 0 128 0 255
-0.113633 1.63732 4.32869 0 0 0 0 128 0 255
0.0188842 1.05829 4.32869 0 0 0 0 128 0 255
-0.0258484 1.25733 4.32929 0 0 0 0 128 0 255
0.0175406 1.07132 4.32989 0 0 0 0 128 0 255
0.037728 0.986688 4.33049 0 0 0 0 128 0 255
-0.105289 1.63307 4.3341 0 0 0 0 128 0 255
0.128834 0.627973 4.33711 0 0 0 0 128 0 255
0.0235289 1.09526 4.33832 0 0 0 0 128 0 255
0.0293242 1.07709 4.33952 0 0 0 0 128 0 255
-0.17425 1.97018 4.34013 0 0 0 0 128 0 255
0.123132 0.67078 4.34013 0 0 0 0 128 0 255
0.134956 0.619115 4.34013 0 0 0 0 128 0 255
0.126587 0.65926 4.34073 0 0 0 0 128 0 255
0.0373455 1.05636 4.34193 0 0 0 0 128 0 255
0.0503939 1.00292 4.34253 0 0 0 0 128 0 255
0.0389021 1.05672 4.34314 0 0 0 0 128 0 255
0.00643955 1.20214 4.34374 0 0 0 0 128 0 255
0.129249 0.669102 4.34434 0 0 0 0 128 0 255
0.0408897 1.07666 4.34795 0 0 0 0 128 0 255
0.0329624 1.12204 4.34976 0 0 0 0 128 0 255
0.136477 0.66973 4.34976 0 0 0 0 128 0 255
0.0694355 0.966247 4.35036 0 0 0 0 128 0 255
0.0342959 1.12337 4.35096 0 0 0 0 128 0 255
0.0337356 1.12939 4.35156 0 0 0 0 128 0 255
-0.124333 1.83081 4.35337 0 0 0 0 128 0 255
0.142149 0.670002 4.35397 0 0 0 0 128 0 255
-0.123892 1.83604 4.35458 0 0 0 0 128 0 255
0.0832471 0.934529 4.35518 0 0 0 0 128 0 255
0.0539079 1.0663 4.35578 0 0 0 0 128 0 255
0.056694 1.05771 4.35638 0 0 0 0 128 0 255
-0.120556 1.83578 4.35698 0 0 0 0 128 0 255
0.0650524 1.03192 4.35819 0 0 0 0 128 0 255
-0.117899 1.8528 4.3618 0 0 0 0 128 0 255
0.0200766 1.26066 4.36361 0 0 0 0 128 0 255
-0.1101 1.83304 4.36421 0 0 0 0 128 0 255
0.0679274 1.05515 4.36421 0 0 0 0 128 0 255
0.0713778 1.05081 4.36601 0 0 0 0 128 0 255
0.0276466 1.24905 4.36722 0 0 0 0 128 0 255
0.0286379 1.26261 4.37023 0 0 0 0 128 0 255
0.101475 0.947933 4.37083 0 0 0 0 128 0 255
0.0647688 1.11906 4.37264 0 0 0 0 128 0 255
0.0389992 1.23524 4.37324 0 0 0 0 128 0 255
0.0974444 0.987019 4.37444 0 0 0 0 128 0 255
0.0261587 1.30924 4.37625 0 0 0 0 128 0 255
-0.093533 1.8358 4.37685 0 0 0 0 128 0 255
-0.00887184 1.46946 4.37745 0 0 0 0 128 0 255
0.113938 0.936423 4.37806 0 0 0 0 128 0 255
-0.0920955 1.84742 4.37986 0 0 0 0 128 0 255
-0.0842973 1.82766 4.38227 0 0 0 0 128 0 255
-0.0820865 1.84663 4.38709 0 0 0 0 128 0 255
0.120928 0.959566 4.38709 0 0 0 0 128 0 255
-0.0846546 1.86143 4.38769 0 0 0 0 128 0 255
0.00714545 1.46389 4.38829 0 0 0 0 128 0 255
0.000779763 1.50244 4.3901 0 0 0 0 128 0 255
0.00702134 1.48233 4.3913 0 0 0 0 128 0 255
0.00757654 1.48348 4.39191 0 0 0 0 128 0 255
0.0454972 1.32495 4.39311 0 0 0 0 128 0 255
0.0765071 1.18945 4.39311 0 0 0 0 128 0 255
0.0126976 1.47542 4.39431 0 0 0 0 128 0 255
0.132716 0.958161 4.39552 0 0 0 0 128 0 255
0.0457052 1.34551 4.39672 0 0 0 0 128 0 255
0.132711 0.96534 4.39672 0 0 0 0 128 0 255
0.0508313 1.33027 4.39793 0 0 0 0 128 0 255
0.181553 0.773399 4.40033 0 0 0 0 128 0 255
0.130128 1.00168 4.40094 0 0 0 0 128 0 255
-0.0727821 1.89903 4.40274 0 0 0 0 128 0 255
0.257172 0.457303 4.40274 0 0 0 0 128 0 255
0.0152253 1.51806 4.40335 0 0 0 0 128 0 255
0.0910768 1.18663 4.40335 0 0 0 0 128 0 255
-0.0548308 1.83133 4.40455 0 0 0 0 128 0 255
0.0563733 1.35616 4.40636 0 0 0 0 128 0 255
0.188667 0.778105 4.40636 0 0 0 0 128 0 255
0.0329385 1.47287 4.40876 0 0 0 0 128 0 255
0.036508 1.45728 4.40876 0 0 0 0 128 0 255
0.0604879 1.35608 4.40937 0 0 0 0 128 0 255
0.0254574 1.5163 4.41057 0 0 0 0 128 0 255
0.268851 0.452795 4.41057 0 0 0 0 128 0 255
0.0361557 1.48387 4.41298 0 0 0 0 128 0 255
0.0937035 1.24673 4.41539 0 0 0 0 128 0 255
-0.0397109 1.83684 4.41659 0 0 0 0 128 0 255
-0.0348028 1.81539 4.41659 0 0 0 0 128 0 255
-0.0391557 1.83799 4.41719 0 0 0 0 128 0 255
-0.0341487 1.83401 4.4202 0 0 0 0 128 0 255
0.224302 0.708295 4.42081 0 0 0 0 128 0 255
0.225526 0.706524 4.42141 0 0 0 0 128 0 255
0.224956 0.72691 4.42442 0 0 0 0 128 0 255
0.244022 0.654335 4.42622 0 0 0 0 128 0 255
0.0857358 1.34954 4.42683 0 0 0 0 128 0 255
0.0880758 1.3429 4.42743 0 0 0 0 128 0 255
0.233304 0.715485 4.42863 0 0 0 0 128 0 255
0.232069 0.731616 4.43044 0 0 0 0 128 0 255
0.214658 0.82201 4.43285 0 0 0 0 128 0 255
-0.0113397 1.81666 4.43405 0 0 0 0 128 0 255
0.230483 0.774339 4.43646 0 0 0 0 128 0 255
-0.00455296 1.81206 4.43827 0 0 0 0 128 0 255
0.246872 0.713461 4.43827 0 0 0 0 128 0 255
0.248211 0.707612 4.43827 0 0 0 0 128 0 255
0.250863 0.731814 4.44429 0 0 0 0 128 0 255
0.255434 0.71542 4.44489 0 0 0 0 128 0 255
0.130834 1.26343 4.44549 0 0 0 0 128 0 255
0.248508 0.759999 4.4473 0 0 0 0 128 0 255
0.00443941 1.83361 4.4485 0 0 0 0 128 0 255
0.247818 0.791642 4.45211 0 0 0 0 128 0 255
0.326119 0.456668 4.45332 0 0 0 0 128 0 255
0.250817 0.796432 4.45512 0 0 0 0 128 0 255
0.338369 0.431774 4.45814 0 0 0 0 128 0 255
0.0252507 1.81067 4.45994 0 0 0 0 128 0 255
0.159101 1.23297 4.46115 0 0 0 0 128 0 255
0.361054 0.432862 4.47499 0 0 0 0 128 0 255
0.356016 0.479924 4.47921 0 0 0 0 128 0 255
0.417253 0.215932 4.47981 0 0 0 0 128 0 255
0.357573 0.48028 4.48041 0 0 0 0 128 0 255
0.446022 0.104543 4.48222 0 0 0 0 128 0 255
0.4468 0.104721 4.48282 0 0 0 0 128 0 255
0.424039 0.21133 4.48403 0 0 0 0 128 0 255
0.199821 1.20536 4.48643 0 0 0 0 128 0 255
0.260725 0.939242 4.48643 0 0 0 0 128 0 255
0.417778 0.260164 4.48764 0 0 0 0 128 0 255
0.454811 0.0983477 4.48764 0 0 0 0 128 0 255
0.409067 0.312541 4.49005 0 0 0 0 128 0 255
0.452347 0.12343 4.49005 0 0 0 0 128 0 255
0.45435 0.121837 4.49125 0 0 0 0 128 0 255
0.210822 1.21814 4.49667 0 0 0 0 128 0 255
0.467824 0.0951709 4.49667 0 0 0 0 128 0 255
0.361835 0.586919 4.50149 0 0 0 0 128 0 255
0.362504 0.583994 4.50149 0 0 0 0 128 0 255
0.47873 0.0833048 4.50269 0 0 0 0 128 0 255
0.47526 0.116364 4.5057 0 0 0 0 128 0 255
0.485289 0.0868576 4.50811 0 0 0 0 128 0 255
0.183777 1.40789 4.50871 0 0 0 0 128 0 255
0.178978 1.43243 4.50931 0 0 0 0 128 0 255
0.366038 0.618657 4.50992 0 0 0 0 128 0 255
0.376737 0.586226 4.51232 0 0 0 0 128 0 255
0.37696 0.585251 4.51232 0 0 0 0 128 0 255
0.402611 0.480329 4.51353 0 0 0 0 128 0 255
0.379518 0.584811 4.51413 0 0 0 0 128 0 255
0.1939 1.40302 4.51533 0 0 0 0 128 0 255
0.199794 1.40232 4.51955 0 0 0 0 128 0 255
0.295357 1.03129 4.52738 0 0 0 0 128 0 255
0.365512 0.735483 4.52918 0 0 0 0 128 0 255
0.352012 0.798048 4.52978 0 0 0 0 128 0 255
0.365616 0.745766 4.53099 0 0 0 0 128 0 255
0.278703 1.15058 4.5352 0 0 0 0 128 0 255
0.269729 1.26137 4.54725 0 0 0 0 128 0 255
0.277855 1.25092 4.55146 0 0 0 0 128 0 255
0.275281 1.2729 4.55327 0 0 0 0 128 0 255
0.280631 1.25668 4.55447 0 0 0 0 128 0 255
0.318655 1.10843 4.55748 0 0 0 0 128 0 255
0.280834 1.28443 4.55929 0 0 0 0 128 0 255
0.30693 1.17756 4.56049 0 0 0 0 128 0 255
0.285285 1.27929 4.5617 0 0 0 0 128 0 255
0.313722 1.16577 4.5635 0 0 0 0 128 0 255
0.307917 1.1983 4.56471 0 0 0 0 128 0 255
0.321069 1.15515 4.56711 0 0 0 0 128 0 255
0.315933 1.18475 4.56832 0 0 0 0 128 0 255
0.307004 1.23092 4.56952 0 0 0 0 128 0 255
0.302626 1.28941 4.57615 0 0 0 0 128 0 255
0.295031 1.33692 4.57855 0 0 0 0 128 0 255
0.306404 1.29438 4.57976 0 0 0 0 128 0 255
0.305164 1.31769 4.58277 0 0 0 0 128 0 255
0.355568 1.11893 4.58638 0 0 0 0 128 0 255
0.315515 1.30467 4.58819 0 0 0 0 128 0 255
0.309933 1.33622 4.58939 0 0 0 0 128 0 255
0.353431 1.15332 4.5906 0 0 0 0 128 0 255
0.314608 1.33011 4.5918 0 0 0 0 128 0 255
0.310364 1.35581 4.593 0 0 0 0 128 0 255
0.325747 1.30291 4.59541 0 0 0 0 128 0 255
0.373474 1.11585 4.59902 0 0 0 0 128 0 255
0.363544 1.16281 4.59963 0 0 0 0 128 0 255
0.31768 1.38826 4.60384 0 0 0 0 128 0 255
0.346186 1.33529 4.61588 0 0 0 0 128 0 255
0.360667 1.30065 4.6207 0 0 0 0 128 0 255
0.311244 1.52733 4.62251 0 0 0 0 128 0 255
0.363671 1.29826 4.62251 0 0 0 0 128 0 255
0.368787 1.29738 4.62612 0 0 0 0 128 0 255
0.370006 1.30278 4.62793 0 0 0 0 128 0 255
0.383164 1.25245 4.62913 0 0 0 0 128 0 255
0.363958 1.365 4.63395 0 0 0 0 128 0 255
0.371799 1.44168 4.65261 0 0 0 0 128 0 255
0.371868 1.50223 4.66285 0 0 0 0 128 0 255
0.397374 1.44446 4.67188 0 0 0 0 128 0 255
