ply
format ascii 1.0
comment VCGLIB generated
element vertex 467
property float x
property float y
property float z
property float nx
property float ny
property float nz
property uchar red
property uchar green
property uchar blue
property uchar alpha
element face 0
property list uchar int vertex_indices
end_header
2.65 0.793053 4.03114 0 0 0 255 255 0 255
2.64832 0.454203 4.02117 0 0 0 255 255 0 255
2.64824 0.459006 4.02733 0 0 0 255 255 0 255
2.64746 0.333912 4.02828 0 0 0 255 255 0 255
2.64716 0.33372 4.03427 0 0 0 255 255 0 255
2.64625 0.350296 4.04777 0 0 0 255 255 0 255
2.6341 0.352291 4.11162 0 0 0 255 255 0 255
1.95935 0.903882 4.08167 0 0 0 255 255 0 255
1.95678 0.887643 4.05827 0 0 0 255 255 0 255
1.95596 0.835964 4.04761 0 0 0 255 255 0 255
1.95566 0.824166 4.04123 0 0 0 255 255 0 255
1.95449 0.603382 4.03108 0 0 0 255 255 0 255
1.95276 0.269723 4.01527 0 0 0 255 255 0 255
1.95573 0.872432 4.03379 0 0 0 255 255 0 255
1.95426 0.575591 4.02417 0 0 0 255 255 0 255
1.95426 0.571788 4.01805 0 0 0 255 255 0 255
1.95526 0.768747 4.02242 0 0 0 255 255 0 255
1.95313 0.337978 4.00848 0 0 0 255 255 0 255
1.95463 0.596097 4.00883 0 0 0 255 255 0 255
1.95593 0.843029 4.01483 0 0 0 255 255 0 255
1.95439 0.499309 4.0007 0 0 0 255 255 0 255
1.95537 0.592515 3.99573 0 0 0 255 255 0 255
1.95556 0.597576 3.9939 0 0 0 255 255 0 255
1.9556 0.474865 3.98296 0 0 0 255 255 0 255
1.95652 0.549983 3.98042 0 0 0 255 255 0 255
1.95663 0.471151 3.97389 0 0 0 255 255 0 255
1.95622 0.361241 3.96934 0 0 0 255 255 0 255
1.95773 0.498356 3.96784 0 0 0 255 255 0 255
1.95774 0.374547 3.95987 0 0 0 255 255 0 255
1.9584 0.407623 3.95798 0 0 0 255 255 0 255
1.95893 0.337816 3.9508 0 0 0 255 255 0 255
1.96053 0.390003 3.94562 0 0 0 255 255 0 255
1.9622 0.380253 3.93748 0 0 0 255 255 0 255
1.9638 0.660133 3.94557 0 0 0 255 255 0 255
1.96287 0.377346 3.93447 0 0 0 255 255 0 255
1.96585 0.935077 3.95155 0 0 0 255 255 0 255
1.96339 0.386402 3.93282 0 0 0 255 255 0 255
1.96435 0.533353 3.9366 0 0 0 255 255 0 255
1.96426 0.415477 3.93085 0 0 0 255 255 0 255
1.96516 0.444551 3.92888 0 0 0 255 255 0 255
1.96774 0.916328 3.94319 0 0 0 255 255 0 255
1.96806 0.927352 3.94258 0 0 0 255 255 0 255
1.96585 0.37271 3.92269 0 0 0 255 255 0 255
1.96706 0.508697 3.92517 0 0 0 255 255 0 255
1.96745 0.362894 3.9166 0 0 0 255 255 0 255
1.9744 0.511399 3.9024 0 0 0 255 255 0 255
1.9777 0.54064 3.89491 0 0 0 255 255 0 255
1.97774 0.474704 3.89184 0 0 0 255 255 0 255
1.97901 0.658634 3.89687 0 0 0 255 255 0 255
1.98189 0.548945 3.88499 0 0 0 255 255 0 255
1.99572 0.920506 3.87172 0 0 0 255 255 0 255
2.0634 1.20689 3.7925 0 0 0 255 255 0 255
2.06623 1.04807 3.7839 0 0 0 255 255 0 255
2.06904 1.17206 3.78587 0 0 0 255 255 0 255
2.06675 0.557405 3.76529 0 0 0 255 255 0 255
2.06886 0.38557 3.75704 0 0 0 255 255 0 255
2.07531 1.08527 3.77705 0 0 0 255 255 0 255
2.07397 0.50861 3.75706 0 0 0 255 255 0 255
2.0757 0.396722 3.75148 0 0 0 255 255 0 255
2.07647 0.397739 3.75087 0 0 0 255 255 0 255
2.08261 0.550775 3.75136 0 0 0 255 255 0 255
2.08443 0.44588 3.74608 0 0 0 255 255 0 255
2.09065 0.427018 3.74055 0 0 0 255 255 0 255
2.09609 0.555042 3.74111 0 0 0 255 255 0 255
2.10018 1.0568 3.75618 0 0 0 255 255 0 255
2.10107 0.412223 3.7324 0 0 0 255 255 0 255
2.10246 0.527176 3.73555 0 0 0 255 255 0 255
2.10192 0.418234 3.73202 0 0 0 255 255 0 255
2.10179 0.391249 3.73115 0 0 0 255 255 0 255
2.10396 0.49922 3.7335 0 0 0 255 255 0 255
2.10389 0.485227 3.73305 0 0 0 255 255 0 255
2.10446 0.433269 3.7308 0 0 0 255 255 0 255
2.10537 0.450274 3.73079 0 0 0 255 255 0 255
2.10734 0.513269 3.7317 0 0 0 255 255 0 255
2.11249 1.05102 3.74745 0 0 0 255 255 0 255
2.11253 0.380436 3.72355 0 0 0 255 255 0 255
2.11746 0.524424 3.72554 0 0 0 255 255 0 255
2.11691 0.413484 3.72194 0 0 0 255 255 0 255
2.12097 1.06315 3.74245 0 0 0 255 255 0 255
2.12302 1.13414 3.7437 0 0 0 255 255 0 255
2.12072 0.494492 3.72247 0 0 0 255 255 0 255
2.1202 0.388548 3.71904 0 0 0 255 255 0 255
2.12185 0.549475 3.72373 0 0 0 255 255 0 255
2.12606 1.05523 3.73908 0 0 0 255 255 0 255
2.1289 0.405661 3.71452 0 0 0 255 255 0 255
2.1298 0.412669 3.71425 0 0 0 255 255 0 255
2.13382 1.05034 3.73441 0 0 0 255 255 0 255
2.1348 0.538658 3.7159 0 0 0 255 255 0 255
2.13463 0.504677 3.7148 0 0 0 255 255 0 255
2.13424 0.426718 3.71228 0 0 0 255 255 0 255
2.14325 1.18038 3.73385 0 0 0 255 255 0 255
2.1415 0.465784 3.70978 0 0 0 255 255 0 255
2.14149 0.464785 3.70975 0 0 0 255 255 0 255
2.14644 0.38289 3.70439 0 0 0 255 255 0 255
2.14796 0.508833 3.70802 0 0 0 255 255 0 255
2.14776 0.467854 3.7067 0 0 0 255 255 0 255
2.14998 0.553828 3.7086 0 0 0 255 255 0 255
2.15087 0.550839 3.70807 0 0 0 255 255 0 255
2.15143 0.481886 3.70541 0 0 0 255 255 0 255
2.1528 0.393952 3.7017 0 0 0 255 255 0 255
2.15975 1.06763 3.72183 0 0 0 255 255 0 255
2.16076 1.08763 3.72207 0 0 0 255 255 0 255
2.15805 0.53792 3.70427 0 0 0 255 255 0 255
2.1624 1.05066 3.72005 0 0 0 255 255 0 255
2.16487 1.3655 3.72984 0 0 0 255 255 0 255
2.16327 1.04168 3.71935 0 0 0 255 255 0 255
2.1749 1.15871 3.71847 0 0 0 255 255 0 255
2.17195 0.559031 3.69906 0 0 0 255 255 0 255
2.17176 0.522051 3.69786 0 0 0 255 255 0 255
2.17205 0.391129 3.69325 0 0 0 255 255 0 255
2.18244 0.413193 3.69005 0 0 0 255 255 0 255
2.18235 0.395203 3.68947 0 0 0 255 255 0 255
2.1891 0.42423 3.68809 0 0 0 255 255 0 255
2.18987 0.388255 3.6866 0 0 0 255 255 0 255
2.19259 0.556176 3.69141 0 0 0 255 255 0 255
2.19309 0.271339 3.68156 0 0 0 255 255 0 255
2.2014 1.37676 3.71645 0 0 0 255 255 0 255
2.19993 0.303357 3.68051 0 0 0 255 255 0 255
2.20466 1.06895 3.70501 0 0 0 255 255 0 255
2.20553 1.05196 3.70418 0 0 0 255 255 0 255
2.20307 0.551233 3.68797 0 0 0 255 255 0 255
2.20162 0.25739 3.67845 0 0 0 255 255 0 255
2.20754 1.06896 3.70417 0 0 0 255 255 0 255
2.20479 0.512262 3.68614 0 0 0 255 255 0 255
2.20859 1.08696 3.70447 0 0 0 255 255 0 255
2.20465 0.288387 3.67862 0 0 0 255 255 0 255
2.20551 0.267402 3.67766 0 0 0 255 255 0 255
2.20781 0.53926 3.6862 0 0 0 255 255 0 255
2.20662 0.298389 3.6784 0 0 0 255 255 0 255
2.21262 1.12295 3.70456 0 0 0 255 255 0 255
2.21139 0.483305 3.68333 0 0 0 255 255 0 255
2.21532 1.08299 3.70249 0 0 0 255 255 0 255
2.21509 1.03701 3.701 0 0 0 255 255 0 255
2.21258 0.527285 3.6845 0 0 0 255 255 0 255
2.21765 1.16295 3.70457 0 0 0 255 255 0 255
2.21568 0.764165 3.69166 0 0 0 255 255 0 255
2.2144 0.504305 3.68325 0 0 0 255 255 0 255
2.2181 1.05901 3.70096 0 0 0 255 255 0 255
2.2155 0.531293 3.68387 0 0 0 255 255 0 255
2.21416 0.259439 3.67507 0 0 0 255 255 0 255
2.22076 1.40083 3.71178 0 0 0 255 255 0 255
2.21642 0.520302 3.68327 0 0 0 255 255 0 255
2.21629 0.495316 3.68246 0 0 0 255 255 0 255
2.21755 0.554287 3.68413 0 0 0 255 255 0 255
2.2189 0.433358 3.67973 0 0 0 255 255 0 255
2.22199 0.270456 3.67354 0 0 0 255 255 0 255
2.22849 1.39086 3.70959 0 0 0 255 255 0 255
2.22608 0.704228 3.68714 0 0 0 255 255 0 255
2.22525 0.537318 3.68173 0 0 0 255 255 0 255
2.22721 0.736213 3.68796 0 0 0 255 255 0 255
2.22596 0.285457 3.67315 0 0 0 255 255 0 255
2.22701 0.298452 3.67335 0 0 0 255 255 0 255
2.23177 1.06704 3.69803 0 0 0 255 255 0 255
2.23025 0.757208 3.688 0 0 0 255 255 0 255
2.23267 1.05105 3.69731 0 0 0 255 255 0 255
2.22991 0.490353 3.67915 0 0 0 255 255 0 255
2.23185 0.68525 3.68526 0 0 0 255 255 0 255
2.23002 0.314449 3.67325 0 0 0 255 255 0 255
2.23555 1.23796 3.70296 0 0 0 255 255 0 255
2.23394 0.712239 3.68573 0 0 0 255 255 0 255
2.23416 0.558323 3.68056 0 0 0 255 255 0 255
2.24005 0.557331 3.67941 0 0 0 255 255 0 255
2.24098 0.545338 3.67885 0 0 0 255 255 0 255
2.24389 0.736237 3.68469 0 0 0 255 255 0 255
2.24954 1.08105 3.6952 0 0 0 255 255 0 255
2.25037 1.05007 3.69404 0 0 0 255 255 0 255
2.24895 0.761225 3.68469 0 0 0 255 255 0 255
2.25199 1.177 3.698 0 0 0 255 255 0 255
2.24953 0.67827 3.68185 0 0 0 255 255 0 255
2.24861 0.291477 3.66918 0 0 0 255 255 0 255
2.25465 0.714249 3.68229 0 0 0 255 255 0 255
2.25568 0.722245 3.68242 0 0 0 255 255 0 255
2.25463 0.308466 3.66889 0 0 0 255 255 0 255
2.26234 0.260484 3.66637 0 0 0 255 255 0 255
2.26561 0.721235 3.68119 0 0 0 255 255 0 255
2.26645 0.489356 3.67347 0 0 0 255 255 0 255
2.26853 0.507343 3.67386 0 0 0 255 255 0 255
2.26743 0.283463 3.66661 0 0 0 255 255 0 255
2.27495 1.20296 3.69612 0 0 0 255 255 0 255
2.27321 0.648259 3.67807 0 0 0 255 255 0 255
2.27251 0.506335 3.67348 0 0 0 255 255 0 255
2.27725 1.26493 3.69796 0 0 0 255 255 0 255
2.27463 0.734211 3.68077 0 0 0 255 255 0 255
2.27391 0.385396 3.6694 0 0 0 255 255 0 255
2.27752 0.308426 3.66662 0 0 0 255 255 0 255
2.28231 1.07701 3.69145 0 0 0 255 255 0 255
2.27956 0.51931 3.67339 0 0 0 255 255 0 255
2.27922 0.451347 3.67119 0 0 0 255 255 0 255
2.28328 1.07101 3.69119 0 0 0 255 255 0 255
2.28032 0.471333 3.67177 0 0 0 255 255 0 255
2.28278 0.768171 3.68133 0 0 0 255 255 0 255
2.28522 1.06101 3.69075 0 0 0 255 255 0 255
2.28264 0.537292 3.67379 0 0 0 255 255 0 255
2.28198 0.403364 3.66946 0 0 0 255 255 0 255
2.28712 1.24391 3.69662 0 0 0 255 255 0 255
2.28373 0.555279 3.67432 0 0 0 255 255 0 255
2.28457 0.524292 3.67327 0 0 0 255 255 0 255
2.2834 0.28542 3.66554 0 0 0 255 255 0 255
2.28325 0.255436 3.66457 0 0 0 255 255 0 255
2.28928 1.07399 3.69098 0 0 0 255 255 0 255
2.28911 1.04001 3.68988 0 0 0 255 255 0 255
2.28592 0.391357 3.66888 0 0 0 255 255 0 255
2.28711 0.431331 3.67013 0 0 0 255 255 0 255
2.28693 0.394351 3.66893 0 0 0 255 255 0 255
2.28632 0.270418 3.66492 0 0 0 255 255 0 255
2.28787 0.382354 3.66851 0 0 0 255 255 0 255
2.29067 0.748154 3.68032 0 0 0 255 255 0 255
2.29075 0.561251 3.67423 0 0 0 255 255 0 255
2.29447 0.505264 3.67232 0 0 0 255 255 0 255
2.29817 1.05297 3.69004 0 0 0 255 255 0 255
2.29527 0.463282 3.67094 0 0 0 255 255 0 255
2.29751 0.716142 3.67911 0 0 0 255 255 0 255
2.30212 1.04095 3.6896 0 0 0 255 255 0 255
2.30175 0.765097 3.68067 0 0 0 255 255 0 255
2.2999 0.388299 3.66847 0 0 0 255 255 0 255
2.30149 0.306333 3.66581 0 0 0 255 255 0 255
2.30717 1.05292 3.69 0 0 0 255 255 0 255
2.30349 0.305324 3.66579 0 0 0 255 255 0 255
2.30933 1.08489 3.69106 0 0 0 255 255 0 255
2.30644 0.499209 3.6721 0 0 0 255 255 0 255
2.31198 1.41871 3.70189 0 0 0 255 255 0 255
2.30642 0.291315 3.66538 0 0 0 255 255 0 255
2.31318 1.05489 3.69017 0 0 0 255 255 0 255
2.30924 0.254318 3.66425 0 0 0 255 255 0 255
2.31429 1.07587 3.69088 0 0 0 255 255 0 255
2.31412 1.04189 3.68978 0 0 0 255 255 0 255
2.31126 0.260303 3.6645 0 0 0 255 255 0 255
2.31237 0.282285 3.66525 0 0 0 255 255 0 255
2.31422 0.251289 3.66432 0 0 0 255 255 0 255
2.31598 0.4062 3.66938 0 0 0 255 255 0 255
2.31873 0.559105 3.67443 0 0 0 255 255 0 255
2.32049 0.30722 3.66643 0 0 0 255 255 0 255
2.32649 1.11977 3.69287 0 0 0 255 255 0 255
2.32805 0.829905 3.68369 0 0 0 255 255 0 255
2.32533 0.278201 3.66582 0 0 0 255 255 0 255
2.32526 0.264208 3.66537 0 0 0 255 255 0 255
2.33166 1.15671 3.69442 0 0 0 255 255 0 255
2.32807 0.428105 3.67083 0 0 0 255 255 0 255
2.32832 0.278178 3.66605 0 0 0 255 255 0 255
2.33147 0.714936 3.68028 0 0 0 255 255 0 255
2.33066 0.550025 3.67494 0 0 0 255 255 0 255
2.33523 1.07273 3.69204 0 0 0 255 255 0 255
2.33297 0.412076 3.67074 0 0 0 255 255 0 255
2.33567 0.757882 3.68203 0 0 0 255 255 0 255
2.33729 0.481006 3.67336 0 0 0 255 255 0 255
2.33699 0.420039 3.67139 0 0 0 255 255 0 255
2.34309 1.05267 3.6922 0 0 0 255 255 0 255
2.34005 0.437005 3.67226 0 0 0 255 255 0 255
2.34482 1.20159 3.69714 0 0 0 255 255 0 255
2.34087 0.400016 3.67118 0 0 0 255 255 0 255
2.34261 0.552925 3.67625 0 0 0 255 255 0 255
2.34316 0.462965 3.67346 0 0 0 255 255 0 255
2.34214 0.255076 3.66672 0 0 0 255 255 0 255
2.34555 0.745804 3.68274 0 0 0 255 255 0 255
2.35011 1.0666 3.69351 0 0 0 255 255 0 255
2.34833 0.303995 3.66909 0 0 0 255 255 0 255
2.35356 1.16452 3.69709 0 0 0 255 255 0 255
2.35156 0.759741 3.68399 0 0 0 255 255 0 255
2.34916 0.273002 3.66823 0 0 0 255 255 0 255
2.3541 1.07256 3.69426 0 0 0 255 255 0 255
2.35408 1.06857 3.69413 0 0 0 255 255 0 255
2.35484 0.822679 3.68646 0 0 0 255 255 0 255
2.35436 0.723732 3.68326 0 0 0 255 255 0 255
2.35542 0.738714 3.68389 0 0 0 255 255 0 255
2.35552 0.558801 3.67822 0 0 0 255 255 0 255
2.35587 0.430859 3.67424 0 0 0 255 255 0 255
2.36108 1.08549 3.69576 0 0 0 255 255 0 255
2.35813 0.286906 3.67006 0 0 0 255 255 0 255
2.36022 0.512775 3.67755 0 0 0 255 255 0 255
2.36244 0.76263 3.68581 0 0 0 255 255 0 255
2.36237 0.748638 3.68535 0 0 0 255 255 0 255
2.36144 0.559739 3.67924 0 0 0 255 255 0 255
2.36131 0.532754 3.67836 0 0 0 255 255 0 255
2.36371 0.421781 3.6753 0 0 0 255 255 0 255
2.36622 0.729606 3.68545 0 0 0 255 255 0 255
2.36617 0.719611 3.68513 0 0 0 255 255 0 255
2.36385 0.250862 3.66995 0 0 0 255 255 0 255
2.36637 0.561685 3.6802 0 0 0 255 255 0 255
2.36726 0.543684 3.67981 0 0 0 255 255 0 255
2.36774 0.441727 3.6767 0 0 0 255 255 0 255
2.36707 0.304801 3.67226 0 0 0 255 255 0 255
2.36686 0.262823 3.6709 0 0 0 255 255 0 255
2.37245 1.19731 3.70136 0 0 0 255 255 0 255
2.3702 0.741555 3.6866 0 0 0 255 255 0 255
2.37948 1.23321 3.70396 0 0 0 255 255 0 255
2.37909 1.15525 3.70143 0 0 0 255 255 0 255
2.3771 0.552565 3.68213 0 0 0 255 255 0 255
2.37851 0.4426 3.67901 0 0 0 255 255 0 255
2.38205 0.765402 3.68992 0 0 0 255 255 0 255
2.38182 0.719427 3.68843 0 0 0 255 255 0 255
2.38036 0.422586 3.67882 0 0 0 255 255 0 255
2.37974 0.298653 3.67481 0 0 0 255 255 0 255
2.38191 0.539511 3.68283 0 0 0 255 255 0 255
2.3808 0.314632 3.67555 0 0 0 255 255 0 255
2.38531 1.03223 3.69902 0 0 0 255 255 0 255
2.38491 0.951278 3.6964 0 0 0 255 255 0 255
2.38215 0.392578 3.67831 0 0 0 255 255 0 255
2.38383 0.536488 3.68321 0 0 0 255 255 0 255
2.3861 0.799334 3.69196 0 0 0 255 255 0 255
2.38918 1.22609 3.70602 0 0 0 255 255 0 255
2.38921 1.03618 3.70011 0 0 0 255 255 0 255
2.38733 0.261572 3.67553 0 0 0 255 255 0 255
2.38726 0.248579 3.67511 0 0 0 255 255 0 255
2.38874 0.351511 3.67869 0 0 0 255 255 0 255
2.38839 0.280549 3.6764 0 0 0 255 255 0 255
2.38936 0.281535 3.67668 0 0 0 255 255 0 255
2.39227 0.67631 3.68972 0 0 0 255 255 0 255
2.39521 1.07608 3.70293 0 0 0 255 255 0 255
2.39139 0.301498 3.67785 0 0 0 255 255 0 255
2.39244 0.319475 3.6787 0 0 0 255 255 0 255
2.39222 0.2735 3.67721 0 0 0 255 255 0 255
2.39767 1.183 3.70692 0 0 0 255 255 0 255
2.39691 1.02908 3.70194 0 0 0 255 255 0 255
2.39408 0.455389 3.68336 0 0 0 255 255 0 255
2.39475 0.397407 3.68176 0 0 0 255 255 0 255
2.40006 1.08301 3.7045 0 0 0 255 255 0 255
2.3999 1.05103 3.70347 0 0 0 255 255 0 255
2.39734 0.532307 3.68667 0 0 0 255 255 0 255
2.3971 0.288424 3.67905 0 0 0 255 255 0 255
2.40363 1.4178 3.7159 0 0 0 255 255 0 255
2.40254 1.19692 3.70875 0 0 0 255 255 0 255
2.40003 0.687196 3.69225 0 0 0 255 255 0 255
2.39935 0.54927 3.68778 0 0 0 255 255 0 255
2.40369 1.23489 3.71026 0 0 0 255 255 0 255
2.40276 1.04699 3.70418 0 0 0 255 255 0 255
2.40489 1.09094 3.70618 0 0 0 255 255 0 255
2.40461 1.03397 3.70433 0 0 0 255 255 0 255
2.40334 0.776107 3.69598 0 0 0 255 255 0 255
2.40152 0.407305 3.68404 0 0 0 255 255 0 255
2.40082 0.264381 3.67941 0 0 0 255 255 0 255
2.40265 0.441272 3.68543 0 0 0 255 255 0 255
2.40475 0.481222 3.68732 0 0 0 255 255 0 255
2.4048 0.297306 3.68166 0 0 0 255 255 0 255
2.40621 0.389243 3.68494 0 0 0 255 255 0 255
2.40985 0.548113 3.69101 0 0 0 255 255 0 255
2.40962 0.502138 3.68952 0 0 0 255 255 0 255
2.41185 0.762983 3.69828 0 0 0 255 255 0 255
2.41418 1.04282 3.70766 0 0 0 255 255 0 255
2.41149 0.496112 3.68996 0 0 0 255 255 0 255
2.41214 0.437128 3.68837 0 0 0 255 255 0 255
2.41289 0.397135 3.68739 0 0 0 255 255 0 255
2.41219 0.254211 3.68277 0 0 0 255 255 0 255
2.41889 1.42157 3.72089 0 0 0 255 255 0 255
2.41717 1.07176 3.70956 0 0 0 255 255 0 255
2.41552 0.547024 3.6929 0 0 0 255 255 0 255
2.41604 0.461054 3.69045 0 0 0 255 255 0 255
2.416 0.452059 3.69015 0 0 0 255 255 0 255
2.42169 1.41553 3.72169 0 0 0 255 255 0 255
2.42262 1.41251 3.72192 0 0 0 255 255 0 255
2.41691 0.255134 3.68445 0 0 0 255 255 0 255
2.41921 0.528972 3.69365 0 0 0 255 255 0 255
2.41867 0.42003 3.69012 0 0 0 255 255 0 255
2.41985 0.468988 3.69205 0 0 0 255 255 0 255
2.41943 0.383034 3.68927 0 0 0 255 255 0 255
2.42049 0.409004 3.69045 0 0 0 255 255 0 255
2.42213 0.550913 3.69539 0 0 0 255 255 0 255
2.42201 0.525926 3.69458 0 0 0 255 255 0 255
2.42286 0.50792 3.69435 0 0 0 255 255 0 255
2.42428 0.416936 3.69211 0 0 0 255 255 0 255
2.42924 1.04357 3.71312 0 0 0 255 255 0 255
2.42682 0.552831 3.69723 0 0 0 255 255 0 255
2.432 1.41435 3.72549 0 0 0 255 255 0 255
2.43502 1.08445 3.71666 0 0 0 255 255 0 255
2.4324 0.553731 3.69947 0 0 0 255 255 0 255
2.43342 0.384788 3.69476 0 0 0 255 255 0 255
2.43599 0.532675 3.70032 0 0 0 255 255 0 255
2.43538 0.409741 3.69634 0 0 0 255 255 0 255
2.43804 0.387701 3.6968 0 0 0 255 255 0 255
2.4427 0.405604 3.69939 0 0 0 255 255 0 255
2.44695 1.08222 3.72171 0 0 0 255 255 0 255
2.44524 0.55149 3.70494 0 0 0 255 255 0 255
2.44971 1.08817 3.72315 0 0 0 255 255 0 255
2.44699 0.537462 3.70532 0 0 0 255 255 0 255
2.44895 0.38249 3.70157 0 0 0 255 255 0 255
2.45042 0.49741 3.70572 0 0 0 255 255 0 255
2.45158 0.550363 3.70787 0 0 0 255 255 0 255
2.45164 0.380436 3.7028 0 0 0 255 255 0 255
2.45601 0.536278 3.70961 0 0 0 255 255 0 255
2.45533 0.398352 3.70514 0 0 0 255 255 0 255
2.45637 0.429316 3.70659 0 0 0 255 255 0 255
2.45718 0.411307 3.70646 0 0 0 255 255 0 255
2.45951 0.523209 3.71099 0 0 0 255 255 0 255
2.46383 1.03789 3.72857 0 0 0 255 255 0 255
2.46465 1.02488 3.72861 0 0 0 255 255 0 255
2.4683 1.04879 3.73126 0 0 0 255 255 0 255
2.47081 1.20067 3.73713 0 0 0 255 255 0 255
2.47285 1.08067 3.73469 0 0 0 255 255 0 255
2.47722 1.08357 3.73725 0 0 0 255 255 0 255
2.47886 1.06654 3.7377 0 0 0 255 255 0 255
2.47955 1.03054 3.73704 0 0 0 255 255 0 255
2.47929 0.279858 3.71478 0 0 0 255 255 0 255
2.48087 0.426759 3.72005 0 0 0 255 255 0 255
2.48655 1.40521 3.75225 0 0 0 255 255 0 255
2.48233 0.549672 3.72455 0 0 0 255 255 0 255
2.48104 0.287812 3.71607 0 0 0 255 255 0 255
2.48492 0.384675 3.72131 0 0 0 255 255 0 255
2.48741 0.546546 3.72762 0 0 0 255 255 0 255
2.48831 0.387588 3.72355 0 0 0 255 255 0 255
2.48998 0.386545 3.7246 0 0 0 255 255 0 255
2.49272 0.433454 3.72777 0 0 0 255 255 0 255
2.4926 0.408467 3.72696 0 0 0 255 255 0 255
2.49193 0.27254 3.72256 0 0 0 255 255 0 255
2.49413 0.550369 3.73211 0 0 0 255 255 0 255
2.49385 0.4924 3.73023 0 0 0 255 255 0 255
2.49417 0.389433 3.72745 0 0 0 255 255 0 255
2.49626 0.30941 3.72654 0 0 0 255 255 0 255
2.50203 0.480183 3.7355 0 0 0 255 255 0 255
2.50268 0.447178 3.73502 0 0 0 255 255 0 255
2.50257 0.425189 3.7343 0 0 0 255 255 0 255
2.50655 1.06782 3.75569 0 0 0 255 255 0 255
2.50358 0.466145 3.73621 0 0 0 255 255 0 255
2.50563 0.553052 3.7402 0 0 0 255 255 0 255
2.5048 0.384143 3.73473 0 0 0 255 255 0 255
2.50639 0.543034 3.74046 0 0 0 255 255 0 255
2.50583 0.428096 3.73674 0 0 0 255 255 0 255
2.50772 0.486019 3.7398 0 0 0 255 255 0 255
2.51207 1.04167 3.75899 0 0 0 255 255 0 255
2.50896 0.411012 3.73857 0 0 0 255 255 0 255
2.50892 0.403017 3.73831 0 0 0 255 255 0 255
2.50915 0.288055 3.73519 0 0 0 255 255 0 255
2.5122 0.422912 3.74137 0 0 0 255 255 0 255
2.51932 1.06645 3.76528 0 0 0 255 255 0 255
2.51611 0.414797 3.74418 0 0 0 255 255 0 255
2.5173 0.496729 3.74746 0 0 0 255 255 0 255
2.519 0.525666 3.74964 0 0 0 255 255 0 255
2.5231 1.04034 3.76757 0 0 0 255 255 0 255
2.52044 0.50163 3.75012 0 0 0 255 255 0 255
2.51994 0.399685 3.74682 0 0 0 255 255 0 255
2.5218 0.306662 3.74572 0 0 0 255 255 0 255
2.53522 1.02995 3.77762 0 0 0 255 255 0 255
2.53377 0.435219 3.7597 0 0 0 255 255 0 255
2.53892 1.02882 3.78094 0 0 0 255 255 0 255
2.53656 0.401135 3.7613 0 0 0 255 255 0 255
2.53897 0.446034 3.7648 0 0 0 255 255 0 255
2.5397 0.445009 3.76545 0 0 0 255 255 0 255
2.54049 0.458976 3.76659 0 0 0 255 255 0 255
2.54012 0.384016 3.76416 0 0 0 255 255 0 255
2.54162 0.394958 3.7659 0 0 0 255 255 0 255
2.5451 0.374838 3.76875 0 0 0 255 255 0 255
2.55016 0.544588 3.77851 0 0 0 255 255 0 255
2.55414 1.07025 3.79697 0 0 0 255 255 0 255
2.5577 0.542293 3.78644 0 0 0 255 255 0 255
2.55894 0.52125 3.78723 0 0 0 255 255 0 255
2.56565 0.543962 3.79549 0 0 0 255 255 0 255
2.56549 0.379023 3.79091 0 0 0 255 255 0 255
2.57375 0.26269 3.798 0 0 0 255 255 0 255
2.60914 0.906588 3.86823 0 0 0 255 255 0 255
2.62256 0.900621 3.89598 0 0 0 255 255 0 255
2.6233 0.892561 3.89756 0 0 0 255 255 0 255
2.6249 0.907426 3.90174 0 0 0 255 255 0 255
2.62631 0.891307 3.90493 0 0 0 255 255 0 255
2.63206 0.872772 3.9203 0 0 0 255 255 0 255
2.63652 0.752286 3.93264 0 0 0 255 255 0 255
2.64027 1.03484 3.95048 0 0 0 255 255 0 255
2.63939 0.380866 3.93903 0 0 0 255 255 0 255
2.64 0.415782 3.94211 0 0 0 255 255 0 255
2.64175 0.728581 3.95322 0 0 0 255 255 0 255
2.64311 0.422255 3.95803 0 0 0 255 255 0 255
2.64464 0.386913 3.96776 0 0 0 255 255 0 255
2.64552 0.407706 3.97439 0 0 0 255 255 0 255
2.64571 0.398645 3.97608 0 0 0 255 255 0 255
2.64628 0.383457 3.98156 0 0 0 255 255 0 255
2.64738 0.421077 3.99374 0 0 0 255 255 0 255
2.6482 0.443544 4.01046 0 0 0 255 255 0 255
2.6483 0.453442 4.01378 0 0 0 255 255 0 255
2.64824 0.439417 4.01433 0 0 0 255 255 0 255
2.65 0.793194 4.02678 0 0 0 255 255 0 255
