ply
format ascii 1.0
comment VCGLIB generated
element vertex 435
property float x
property float y
property float z
property float nx
property float ny
property float nz
property uchar red
property uchar green
property uchar blue
property uchar alpha
element face 0
property list uchar int vertex_indices
end_header
1.14647 0.0590932 5.01959 0 0 0 128 0 0 255
1.12132 0.0723703 5.12316 0 0 0 128 0 0 255
1.10993 0.0449299 5.14834 0 0 0 128 0 0 255
1.10419 0.0872153 5.16237 0 0 0 128 0 0 255
1.09951 0.159611 5.17525 0 0 0 128 0 0 255
1.076 0.134514 5.21226 0 0 0 128 0 0 255
0.3296 1.3921 4.99557 0 0 0 128 0 0 255
0.329723 1.40314 4.99519 0 0 0 128 0 0 255
0.335079 0.0637855 4.8923 0 0 0 128 0 0 255
0.338555 0.0896129 4.87809 0 0 0 128 0 0 255
0.341286 0.128145 4.86956 0 0 0 128 0 0 255
0.346134 1.4022 4.92195 0 0 0 128 0 0 255
0.357524 1.38595 4.89003 0 0 0 128 0 0 255
0.365757 0.115864 4.80222 0 0 0 128 0 0 255
0.366168 0.150861 4.80326 0 0 0 128 0 0 255
0.366184 0.114916 4.80126 0 0 0 128 0 0 255
0.367458 0.151012 4.80055 0 0 0 128 0 0 255
0.368333 0.143124 4.79831 0 0 0 128 0 0 255
0.372381 0.0996384 4.78784 0 0 0 128 0 0 255
0.373192 1.38681 4.85652 0 0 0 128 0 0 255
0.375167 0.0949415 4.78226 0 0 0 128 0 0 255
0.375628 0.117955 4.78265 0 0 0 128 0 0 255
0.379472 0.12833 4.7762 0 0 0 128 0 0 255
0.387139 1.10959 4.81678 0 0 0 128 0 0 255
0.396127 0.310569 4.75899 0 0 0 128 0 0 255
0.39788 1.40707 4.81646 0 0 0 128 0 0 255
0.402456 1.40644 4.80985 0 0 0 128 0 0 255
0.405155 0.588873 4.76128 0 0 0 128 0 0 255
0.407515 0.603031 4.75883 0 0 0 128 0 0 255
0.407519 0.594045 4.75833 0 0 0 128 0 0 255
0.415142 1.23564 4.78357 0 0 0 128 0 0 255
0.416335 1.35254 4.78848 0 0 0 128 0 0 255
0.422471 0.366446 4.72684 0 0 0 128 0 0 255
0.424062 1.13739 4.76728 0 0 0 128 0 0 255
0.427018 0.341781 4.72013 0 0 0 128 0 0 255
0.427931 1.24148 4.76849 0 0 0 128 0 0 255
0.428302 0.407764 4.72228 0 0 0 128 0 0 255
0.437634 0.543136 4.71939 0 0 0 128 0 0 255
0.438373 0.419367 4.7118 0 0 0 128 0 0 255
0.439417 1.16131 4.75147 0 0 0 128 0 0 255
0.4408 1.1574 4.7498 0 0 0 128 0 0 255
0.442281 0.948796 4.73679 0 0 0 128 0 0 255
0.444276 1.17257 4.74705 0 0 0 128 0 0 255
0.446317 1.32945 4.75361 0 0 0 128 0 0 255
0.4499 1.26175 4.74633 0 0 0 128 0 0 255
0.450194 0.598769 4.70958 0 0 0 128 0 0 255
0.45162 0.615821 4.70913 0 0 0 128 0 0 255
0.454986 1.16817 4.73628 0 0 0 128 0 0 255
0.455315 0.427304 4.69522 0 0 0 128 0 0 255
0.456809 0.342511 4.68915 0 0 0 128 0 0 255
0.45712 1.2871 4.74082 0 0 0 128 0 0 255
0.459051 0.242778 4.68157 0 0 0 128 0 0 255
0.460083 1.23433 4.73518 0 0 0 128 0 0 255
0.461858 0.568429 4.69692 0 0 0 128 0 0 255
0.463475 0.273956 4.67926 0 0 0 128 0 0 255
0.463483 0.256982 4.67831 0 0 0 128 0 0 255
0.464241 0.228063 4.67604 0 0 0 128 0 0 255
0.465668 0.383899 4.68335 0 0 0 128 0 0 255
0.468317 1.1978 4.72583 0 0 0 128 0 0 255
0.468325 1.17982 4.72483 0 0 0 128 0 0 255
0.469425 0.406048 4.68129 0 0 0 128 0 0 255
0.470708 0.936307 4.70938 0 0 0 128 0 0 255
0.471708 0.39817 4.6789 0 0 0 128 0 0 255
0.472417 0.521017 4.68506 0 0 0 128 0 0 255
0.474021 0.355344 4.67459 0 0 0 128 0 0 255
0.475313 0.907567 4.70392 0 0 0 128 0 0 255
0.476385 0.228645 4.66564 0 0 0 128 0 0 255
0.477526 1.14231 4.71502 0 0 0 128 0 0 255
0.478623 0.41846 4.67426 0 0 0 128 0 0 255
0.479971 0.884815 4.69885 0 0 0 128 0 0 255
0.48104 0.234848 4.6622 0 0 0 128 0 0 255
0.489667 0.354043 4.66204 0 0 0 128 0 0 255
0.490347 0.619669 4.67616 0 0 0 128 0 0 255
0.490521 0.227271 4.65441 0 0 0 128 0 0 255
0.49817 1.15218 4.69975 0 0 0 128 0 0 255
0.499384 0.251598 4.64925 0 0 0 128 0 0 255
0.499905 0.912616 4.68531 0 0 0 128 0 0 255
0.50014 0.383428 4.65597 0 0 0 128 0 0 255
0.501543 0.90669 4.68383 0 0 0 128 0 0 255
0.502445 0.720008 4.6729 0 0 0 128 0 0 255
0.503323 0.59024 4.66514 0 0 0 128 0 0 255
0.503348 0.534325 4.66204 0 0 0 128 0 0 255
0.503353 0.524341 4.66149 0 0 0 128 0 0 255
0.504162 0.553328 4.66252 0 0 0 128 0 0 255
0.505805 0.566372 4.66211 0 0 0 128 0 0 255
0.511706 0.368894 4.64726 0 0 0 128 0 0 255
0.51252 0.417849 4.64942 0 0 0 128 0 0 255
0.513117 0.958051 4.67882 0 0 0 128 0 0 255
0.519321 0.267323 4.63675 0 0 0 128 0 0 255
0.52443 0.257515 4.63305 0 0 0 128 0 0 255
0.525291 0.245562 4.63187 0 0 0 128 0 0 255
0.526706 0.917588 4.66809 0 0 0 128 0 0 255
0.529516 0.403464 4.63806 0 0 0 128 0 0 255
0.529523 0.38649 4.63712 0 0 0 128 0 0 255
0.533751 0.60829 4.6469 0 0 0 128 0 0 255
0.534789 0.227902 4.62532 0 0 0 128 0 0 255
0.535643 0.262876 4.62677 0 0 0 128 0 0 255
0.537829 1.23547 4.67921 0 0 0 128 0 0 255
0.541372 1.1507 4.67258 0 0 0 128 0 0 255
0.543364 0.630556 4.6428 0 0 0 128 0 0 255
0.546172 0.271186 4.62147 0 0 0 128 0 0 255
0.546778 0.899248 4.65582 0 0 0 128 0 0 255
0.547662 0.904267 4.65563 0 0 0 128 0 0 255
0.551306 0.70867 4.64296 0 0 0 128 0 0 255
0.551454 0.374184 4.62441 0 0 0 128 0 0 255
0.553108 0.668782 4.63984 0 0 0 128 0 0 255
0.553143 0.5919 4.63558 0 0 0 128 0 0 255
0.554028 0.610896 4.63618 0 0 0 128 0 0 255
0.554191 0.244459 4.61587 0 0 0 128 0 0 255
0.555785 0.688827 4.63961 0 0 0 128 0 0 255
0.556702 0.644919 4.63674 0 0 0 128 0 0 255
0.563136 0.367516 4.61833 0 0 0 128 0 0 255
0.563159 0.317592 4.61556 0 0 0 128 0 0 255
0.56405 0.350565 4.61696 0 0 0 128 0 0 255
0.566769 0.359623 4.6162 0 0 0 128 0 0 255
0.569262 0.898864 4.64486 0 0 0 128 0 0 255
0.570164 0.922851 4.64578 0 0 0 128 0 0 255
0.570975 1.15352 4.65816 0 0 0 128 0 0 255
0.571071 0.937851 4.6462 0 0 0 128 0 0 255
0.571079 0.920877 4.64526 0 0 0 128 0 0 255
0.573819 0.93692 4.64494 0 0 0 128 0 0 255
0.574061 0.391757 4.61472 0 0 0 128 0 0 255
0.575508 1.26846 4.66253 0 0 0 128 0 0 255
0.576687 0.684375 4.62976 0 0 0 128 0 0 255
0.580491 0.423862 4.61377 0 0 0 128 0 0 255
0.583353 0.231222 4.60195 0 0 0 128 0 0 255
0.586073 0.374066 4.60875 0 0 0 128 0 0 255
0.586083 0.353098 4.60758 0 0 0 128 0 0 255
0.590793 0.235382 4.59924 0 0 0 128 0 0 255
0.60111 0.250574 4.59628 0 0 0 128 0 0 255
0.603898 0.350476 4.60083 0 0 0 128 0 0 255
0.606714 0.40345 4.60279 0 0 0 128 0 0 255
0.612475 0.267764 4.5934 0 0 0 128 0 0 255
0.613381 0.373619 4.59896 0 0 0 128 0 0 255
0.613401 0.32769 4.59642 0 0 0 128 0 0 255
0.620065 0.385718 4.59757 0 0 0 128 0 0 255
0.635549 0.229202 4.5846 0 0 0 128 0 0 255
0.63839 0.381011 4.59228 0 0 0 128 0 0 255
0.640314 0.421976 4.59407 0 0 0 128 0 0 255
0.641307 0.373064 4.59112 0 0 0 128 0 0 255
0.643256 0.365103 4.59022 0 0 0 128 0 0 255
0.643834 1.25675 4.63941 0 0 0 128 0 0 255
0.644222 0.38209 4.59093 0 0 0 128 0 0 255
0.652029 0.383189 4.58924 0 0 0 128 0 0 255
0.652089 0.247397 4.58171 0 0 0 128 0 0 255
0.65593 0.417184 4.59031 0 0 0 128 0 0 255
0.656975 0.27042 4.58197 0 0 0 128 0 0 255
0.657884 0.431185 4.59069 0 0 0 128 0 0 255
0.659853 0.417228 4.58953 0 0 0 128 0 0 255
0.668736 0.355416 4.58449 0 0 0 128 0 0 255
0.668792 0.228611 4.57747 0 0 0 128 0 0 255
0.6697 0.403352 4.58698 0 0 0 128 0 0 255
0.669738 0.318483 4.58228 0 0 0 128 0 0 255
0.670712 0.347448 4.58372 0 0 0 128 0 0 255
0.677674 0.242672 4.57683 0 0 0 128 0 0 255
0.684469 0.553252 4.59308 0 0 0 128 0 0 255
0.684529 0.416462 4.58549 0 0 0 128 0 0 255
0.685458 0.558252 4.59322 0 0 0 128 0 0 255
0.68644 0.581224 4.59437 0 0 0 128 0 0 255
0.68849 0.434464 4.58599 0 0 0 128 0 0 255
0.688528 0.348595 4.58123 0 0 0 128 0 0 255
0.690501 0.379562 4.58271 0 0 0 128 0 0 255
0.692408 0.559299 4.59245 0 0 0 128 0 0 255
0.695478 0.36262 4.58123 0 0 0 128 0 0 255
0.699434 0.418558 4.58393 0 0 0 128 0 0 255
0.700095 1.1734 4.62568 0 0 0 128 0 0 255
0.705488 0.246853 4.5739 0 0 0 128 0 0 255
0.706487 0.242863 4.5736 0 0 0 128 0 0 255
0.714068 1.14451 4.62305 0 0 0 128 0 0 255
0.714328 0.561407 4.59072 0 0 0 128 0 0 255
0.71701 1.26634 4.62964 0 0 0 128 0 0 255
0.719444 0.284848 4.57514 0 0 0 128 0 0 255
0.719452 0.265878 4.57409 0 0 0 128 0 0 255
0.719475 0.215954 4.57132 0 0 0 128 0 0 255
0.72241 0.355748 4.57895 0 0 0 128 0 0 255
0.724395 0.386705 4.58059 0 0 0 128 0 0 255
0.729257 0.693244 4.59745 0 0 0 128 0 0 255
0.729463 0.228957 4.57172 0 0 0 128 0 0 255
0.731 1.27036 4.62941 0 0 0 128 0 0 255
0.737199 0.822054 4.60451 0 0 0 128 0 0 255
0.737207 0.804082 4.60351 0 0 0 128 0 0 255
0.739178 0.868983 4.60711 0 0 0 128 0 0 255
0.741179 0.865988 4.60696 0 0 0 128 0 0 255
0.743189 0.84502 4.60582 0 0 0 128 0 0 255
0.744405 0.357768 4.57882 0 0 0 128 0 0 255
0.745042 1.17451 4.62411 0 0 0 128 0 0 255
0.747189 0.842022 4.60572 0 0 0 128 0 0 255
0.74929 0.613371 4.5931 0 0 0 128 0 0 255
0.749394 0.380728 4.58021 0 0 0 128 0 0 255
0.750287 0.619361 4.59346 0 0 0 128 0 0 255
0.751393 0.380726 4.58027 0 0 0 128 0 0 255
0.754195 0.822043 4.60484 0 0 0 128 0 0 255
0.755312 0.556449 4.59016 0 0 0 128 0 0 255
0.758404 0.342771 4.57845 0 0 0 128 0 0 255
0.758412 0.324799 4.57746 0 0 0 128 0 0 255
0.760303 0.562429 4.59074 0 0 0 128 0 0 255
0.762362 0.42164 4.58305 0 0 0 128 0 0 255
0.763431 0.261882 4.57425 0 0 0 128 0 0 255
0.76617 0.834992 4.60622 0 0 0 128 0 0 255
0.767366 0.388674 4.58155 0 0 0 128 0 0 255
0.76824 0.666244 4.59701 0 0 0 128 0 0 255
0.77026 0.607327 4.5939 0 0 0 128 0 0 255
0.773215 0.686194 4.59852 0 0 0 128 0 0 255
0.773362 0.355701 4.5802 0 0 0 128 0 0 255
0.776261 0.555381 4.59154 0 0 0 128 0 0 255
0.778391 0.240854 4.57429 0 0 0 128 0 0 255
0.780224 0.594301 4.59409 0 0 0 128 0 0 255
0.780322 0.374638 4.58191 0 0 0 128 0 0 255
0.780383 0.23685 4.57427 0 0 0 128 0 0 255
0.781371 0.250823 4.57515 0 0 0 128 0 0 255
0.783106 0.821935 4.60703 0 0 0 128 0 0 255
0.78405 0.932759 4.61328 0 0 0 128 0 0 255
0.785359 0.223842 4.5741 0 0 0 128 0 0 255
0.787332 0.252785 4.57594 0 0 0 128 0 0 255
0.788143 0.660153 4.59864 0 0 0 128 0 0 255
0.790085 0.756992 4.60426 0 0 0 128 0 0 255
0.791311 0.229794 4.57517 0 0 0 128 0 0 255
0.793147 0.558276 4.59364 0 0 0 128 0 0 255
0.793275 0.269719 4.57765 0 0 0 128 0 0 255
0.794128 0.580235 4.595 0 0 0 128 0 0 255
0.795804 1.26417 4.63319 0 0 0 128 0 0 255
0.797791 1.24718 4.63253 0 0 0 128 0 0 255
0.798173 0.3885 4.58494 0 0 0 128 0 0 255
0.798183 0.365535 4.58366 0 0 0 128 0 0 255
0.800134 0.424429 4.58723 0 0 0 128 0 0 255
0.800938 0.839784 4.6104 0 0 0 128 0 0 255
0.803135 0.340533 4.58304 0 0 0 128 0 0 255
0.803907 0.82578 4.6101 0 0 0 128 0 0 255
0.805903 0.773843 4.60755 0 0 0 128 0 0 255
0.811021 0.340462 4.58439 0 0 0 128 0 0 255
0.81253 1.37086 4.64187 0 0 0 128 0 0 255
0.815813 0.614992 4.60053 0 0 0 128 0 0 255
0.817794 0.573036 4.59859 0 0 0 128 0 0 255
0.819851 0.358345 4.58708 0 0 0 128 0 0 255
0.820652 0.758719 4.60948 0 0 0 128 0 0 255
0.822666 0.633889 4.60297 0 0 0 128 0 0 255
0.822846 0.228511 4.5805 0 0 0 128 0 0 255
0.823545 0.856536 4.61552 0 0 0 128 0 0 255
0.823559 0.825584 4.6138 0 0 0 128 0 0 255
0.826515 0.768637 4.61128 0 0 0 128 0 0 255
0.826676 0.407192 4.59125 0 0 0 128 0 0 255
0.83064 0.265363 4.58427 0 0 0 128 0 0 255
0.831468 0.593846 4.60271 0 0 0 128 0 0 255
0.832426 0.62878 4.60487 0 0 0 128 0 0 255
0.832454 0.564878 4.60133 0 0 0 128 0 0 255
0.832515 0.428088 4.59375 0 0 0 128 0 0 255
0.835448 0.390109 4.59235 0 0 0 128 0 0 255
0.837232 0.746536 4.61258 0 0 0 128 0 0 255
0.83816 0.839381 4.61797 0 0 0 128 0 0 255
0.840282 0.425988 4.59555 0 0 0 128 0 0 255
0.846034 0.531743 4.60296 0 0 0 128 0 0 255
0.846121 0.337042 4.59216 0 0 0 128 0 0 255
0.847818 0.855218 4.62142 0 0 0 128 0 0 255
0.849941 0.412868 4.59744 0 0 0 128 0 0 255
0.851671 0.845175 4.62196 0 0 0 128 0 0 255
0.852635 0.838171 4.62185 0 0 0 128 0 0 255
0.853722 0.551595 4.60624 0 0 0 128 0 0 255
0.854313 1.37931 4.65241 0 0 0 128 0 0 255
0.85442 1.13768 4.63901 0 0 0 128 0 0 255
0.856319 1.17759 4.6418 0 0 0 128 0 0 255
0.856382 1.03381 4.63383 0 0 0 128 0 0 255
0.858287 1.05375 4.63552 0 0 0 128 0 0 255
0.859536 0.391747 4.59912 0 0 0 128 0 0 255
0.859601 0.245971 4.59104 0 0 0 128 0 0 255
0.86014 1.18152 4.6432 0 0 0 128 0 0 255
0.86147 0.336799 4.59667 0 0 0 128 0 0 255
0.864287 0.427611 4.60262 0 0 0 128 0 0 255
0.86505 0.850944 4.6264 0 0 0 128 0 0 255
0.866195 0.413599 4.60246 0 0 0 128 0 0 255
0.866958 0.832938 4.62602 0 0 0 128 0 0 255
0.86875 1.06754 4.63966 0 0 0 128 0 0 255
0.870058 0.257769 4.5951 0 0 0 128 0 0 255
0.872839 0.383523 4.60304 0 0 0 128 0 0 255
0.87473 0.374501 4.60321 0 0 0 128 0 0 255
0.875599 0.53923 4.61267 0 0 0 128 0 0 255
0.877206 1.16124 4.64783 0 0 0 128 0 0 255
0.881293 0.413312 4.60775 0 0 0 128 0 0 255
0.883762 1.17509 4.65103 0 0 0 128 0 0 255
0.885042 0.395263 4.60817 0 0 0 128 0 0 255
0.885103 0.259472 4.60064 0 0 0 128 0 0 255
0.899002 0.268153 4.60676 0 0 0 128 0 0 255
0.900436 1.17672 4.65791 0 0 0 128 0 0 255
0.901721 0.351959 4.61259 0 0 0 128 0 0 255
0.901771 0.238134 4.60628 0 0 0 128 0 0 255
0.903096 1.38034 4.6704 0 0 0 128 0 0 255
0.904026 1.34537 4.66886 0 0 0 128 0 0 255
0.905373 0.370843 4.61525 0 0 0 128 0 0 255
0.906879 1.0857 4.6557 0 0 0 128 0 0 255
0.907237 0.280936 4.61109 0 0 0 128 0 0 255
0.907252 0.24599 4.60915 0 0 0 128 0 0 255
0.908171 0.228993 4.60862 0 0 0 128 0 0 255
0.908578 1.36023 4.67174 0 0 0 128 0 0 255
0.909011 0.384732 4.61767 0 0 0 128 0 0 255
0.909741 0.787091 4.64039 0 0 0 128 0 0 255
0.909836 0.573419 4.62855 0 0 0 128 0 0 255
0.909941 0.337781 4.61549 0 0 0 128 0 0 255
0.910901 0.218941 4.60932 0 0 0 128 0 0 255
0.911554 0.790041 4.6414 0 0 0 128 0 0 255
0.913111 1.35912 4.6738 0 0 0 128 0 0 255
0.915372 0.335645 4.61793 0 0 0 128 0 0 255
0.916835 1.09643 4.66097 0 0 0 128 0 0 255
0.916952 0.833833 4.64641 0 0 0 128 0 0 255
0.917134 0.423463 4.62366 0 0 0 128 0 0 255
0.918595 1.18225 4.6666 0 0 0 128 0 0 255
0.919537 1.07938 4.66134 0 0 0 128 0 0 255
0.919764 0.570166 4.63312 0 0 0 128 0 0 255
0.919779 0.536218 4.63123 0 0 0 128 0 0 255
0.919902 0.258644 4.61585 0 0 0 128 0 0 255
0.920413 1.12529 4.66433 0 0 0 128 0 0 255
0.92052 0.884659 4.65099 0 0 0 128 0 0 255
0.920677 0.531202 4.6314 0 0 0 128 0 0 255
0.921666 0.319502 4.62011 0 0 0 128 0 0 255
0.926787 0.826575 4.65095 0 0 0 128 0 0 255
0.92857 0.805557 4.65071 0 0 0 128 0 0 255
0.928578 0.787585 4.64971 0 0 0 128 0 0 255
0.930518 0.402125 4.62928 0 0 0 128 0 0 255
0.931336 0.547876 4.63783 0 0 0 128 0 0 255
0.93197 1.10599 4.66924 0 0 0 128 0 0 255
0.932302 0.358141 4.62778 0 0 0 128 0 0 255
0.932845 1.11695 4.67032 0 0 0 128 0 0 255
0.934985 0.257218 4.62362 0 0 0 128 0 0 255
0.937257 1.05591 4.66934 0 0 0 128 0 0 255
0.938329 0.608573 4.64504 0 0 0 128 0 0 255
0.93834 0.583612 4.64365 0 0 0 128 0 0 255
0.939323 0.334967 4.63036 0 0 0 128 0 0 255
0.939992 0.789242 4.65603 0 0 0 128 0 0 255
0.943481 0.752191 4.65597 0 0 0 128 0 0 255
0.945059 1.09062 4.67573 0 0 0 128 0 0 255
0.947138 0.290789 4.63241 0 0 0 128 0 0 255
0.947956 0.385615 4.63818 0 0 0 128 0 0 255
0.948491 1.11447 4.6791 0 0 0 128 0 0 255
0.94883 0.350641 4.63676 0 0 0 128 0 0 255
0.949593 0.565283 4.64917 0 0 0 128 0 0 255
0.951452 0.232737 4.63177 0 0 0 128 0 0 255
0.951884 1.18025 4.68482 0 0 0 128 0 0 255
0.952915 0.778842 4.66309 0 0 0 128 0 0 255
0.956137 1.17512 4.68717 0 0 0 128 0 0 255
0.95617 1.09923 4.68296 0 0 0 128 0 0 255
0.956477 0.409293 4.64472 0 0 0 128 0 0 255
0.956539 0.26851 4.63692 0 0 0 128 0 0 255
0.956554 0.236559 4.63514 0 0 0 128 0 0 255
0.963763 1.04206 4.68467 0 0 0 128 0 0 255
0.966231 1.11086 4.69015 0 0 0 128 0 0 255
0.966565 0.360011 4.64853 0 0 0 128 0 0 255
0.973542 1.3612 4.70912 0 0 0 128 0 0 255
0.975664 0.262819 4.64939 0 0 0 128 0 0 255
0.978034 0.423476 4.66005 0 0 0 128 0 0 255
0.983695 0.385308 4.66208 0 0 0 128 0 0 255
0.984067 1.34979 4.71614 0 0 0 128 0 0 255
0.98805 1.34563 4.71894 0 0 0 128 0 0 255
0.988491 0.353159 4.66392 0 0 0 128 0 0 255
0.988832 1.36757 4.72076 0 0 0 128 0 0 255
0.990085 0.32813 4.66376 0 0 0 128 0 0 255
0.997094 0.408699 4.67384 0 0 0 128 0 0 255
0.998638 0.419613 4.67571 0 0 0 128 0 0 255
0.999447 0.336705 4.67175 0 0 0 128 0 0 255
1.00251 0.364522 4.67586 0 0 0 128 0 0 255
1.00477 0.419331 4.68084 0 0 0 128 0 0 255
1.00525 1.04034 4.71591 0 0 0 128 0 0 255
1.00643 0.111732 4.66509 0 0 0 128 0 0 255
1.00832 0.938355 4.71288 0 0 0 128 0 0 255
1.00859 0.339275 4.67968 0 0 0 128 0 0 255
1.01281 0.935141 4.7167 0 0 0 128 0 0 255
1.01306 0.378995 4.68587 0 0 0 128 0 0 255
1.01382 0.336024 4.68416 0 0 0 128 0 0 255
1.0181 0.648321 4.70554 0 0 0 128 0 0 255
1.01967 0.392638 4.69273 0 0 0 128 0 0 255
1.02157 0.997596 4.72833 0 0 0 128 0 0 255
1.0224 0.76192 4.71596 0 0 0 128 0 0 255
1.02471 0.415337 4.69884 0 0 0 128 0 0 255
1.02678 0.574977 4.7098 0 0 0 128 0 0 255
1.02748 0.593909 4.71155 0 0 0 128 0 0 255
1.02749 0.585921 4.71111 0 0 0 128 0 0 255
1.0283 0.360229 4.6993 0 0 0 128 0 0 255
1.02899 0.377164 4.70095 0 0 0 128 0 0 255
1.02974 0.283269 4.69646 0 0 0 128 0 0 255
1.03026 0.697594 4.72014 0 0 0 128 0 0 255
1.03423 1.17063 4.75066 0 0 0 128 0 0 255
1.03461 0.31195 4.70307 0 0 0 128 0 0 255
1.03653 0.659297 4.7245 0 0 0 128 0 0 255
1.03928 0.62419 4.72548 0 0 0 128 0 0 255
1.03933 0.512362 4.71928 0 0 0 128 0 0 255
1.03994 0.645117 4.72737 0 0 0 128 0 0 255
1.042 0.568114 4.72532 0 0 0 128 0 0 255
1.04343 0.376327 4.71618 0 0 0 128 0 0 255
1.04412 0.33435 4.71459 0 0 0 128 0 0 255
1.04576 1.12102 4.76045 0 0 0 128 0 0 255
1.0461 0.352199 4.71783 0 0 0 128 0 0 255
1.04638 1.21783 4.76656 0 0 0 128 0 0 255
1.04739 0.411026 4.7226 0 0 0 128 0 0 255
1.04787 0.809373 4.74543 0 0 0 128 0 0 255
1.04859 0.665552 4.73822 0 0 0 128 0 0 255
1.04967 1.18966 4.76879 0 0 0 128 0 0 255
1.0505 0.767271 4.74614 0 0 0 128 0 0 255
1.05444 0.580305 4.74037 0 0 0 128 0 0 255
1.05636 0.549225 4.74097 0 0 0 128 0 0 255
1.05708 0.3425 4.73029 0 0 0 128 0 0 255
1.05742 1.00045 4.76754 0 0 0 128 0 0 255
1.0599 1.04221 4.77298 0 0 0 128 0 0 255
1.0645 0.353963 4.74037 0 0 0 128 0 0 255
1.06499 0.611523 4.75544 0 0 0 128 0 0 255
1.06503 0.534641 4.75118 0 0 0 128 0 0 255
1.06543 0.991895 4.77733 0 0 0 128 0 0 255
1.06554 0.729299 4.76277 0 0 0 128 0 0 255
1.06737 0.666263 4.76168 0 0 0 128 0 0 255
1.07105 0.365458 4.74985 0 0 0 128 0 0 255
1.07262 0.767707 4.77459 0 0 0 128 0 0 255
1.07321 0.751686 4.77452 0 0 0 128 0 0 255
1.0761 0.695546 4.77551 0 0 0 128 0 0 255
1.07671 0.579679 4.76992 0 0 0 128 0 0 255
1.07677 0.442889 4.76233 0 0 0 128 0 0 255
1.07836 0.665411 4.77715 0 0 0 128 0 0 255
1.08005 0.619344 4.77709 0 0 0 128 0 0 255
1.08006 0.599374 4.77599 0 0 0 128 0 0 255
1.08072 0.360695 4.76359 0 0 0 128 0 0 255
1.0817 0.641172 4.78081 0 0 0 128 0 0 255
1.08438 0.707838 4.78872 0 0 0 128 0 0 255
1.08545 0.69177 4.78952 0 0 0 128 0 0 255
1.0856 0.374257 4.77192 0 0 0 128 0 0 255
1.08712 0.52189 4.78265 0 0 0 128 0 0 255
1.08807 0.750446 4.79702 0 0 0 128 0 0 255
1.0902 0.626447 4.79357 0 0 0 128 0 0 255
1.09117 0.734187 4.80127 0 0 0 128 0 0 255
1.09273 0.656164 4.79953 0 0 0 128 0 0 255
1.0972 0.60581 4.80457 0 0 0 128 0 0 255
1.1017 0.114127 4.78525 0 0 0 128 0 0 255
1.10241 0.590299 4.81342 0 0 0 128 0 0 255
1.1038 0.573178 4.81514 0 0 0 128 0 0 255
1.11685 0.544669 4.84172 0 0 0 128 0 0 255
1.12186 0.147612 4.83179 0 0 0 128 0 0 255
1.1425 0.107577 4.90376 0 0 0 128 0 0 255
1.14663 0.0900146 4.93153 0 0 0 128 0 0 255
1.14732 0.0956201 4.93882 0 0 0 128 0 0 255
1.14775 0.0723798 4.94252 0 0 0 128 0 0 255
1.14894 0.10589 4.97038 0 0 0 128 0 0 255
