ply
format ascii 1.0
comment VCGLIB generated
element vertex 430
property float x
property float y
property float z
property float nx
property float ny
property float nz
property uchar red
property uchar green
property uchar blue
property uchar alpha
element face 0
property list uchar int vertex_indices
end_header
1.14152 0.060153 5.01921 0 0 0 128 0 0 255
1.12418 0.103729 5.10511 0 0 0 128 0 0 255
1.11833 0.0721932 5.11883 0 0 0 128 0 0 255
1.10636 0.0442076 5.14533 0 0 0 128 0 0 255
1.10063 0.0866791 5.16074 0 0 0 128 0 0 255
1.09731 0.158289 5.17278 0 0 0 128 0 0 255
1.07415 0.134061 5.20938 0 0 0 128 0 0 255
0.3457 1.39174 4.99744 0 0 0 128 0 0 255
0.346073 1.40281 4.99594 0 0 0 128 0 0 255
0.328984 0.0632055 4.89138 0 0 0 128 0 0 255
0.333201 0.0888401 4.87592 0 0 0 128 0 0 255
0.358294 1.40263 4.92703 0 0 0 128 0 0 255
0.336185 0.129138 4.86898 0 0 0 128 0 0 255
0.367439 1.38582 4.8957 0 0 0 128 0 0 255
0.382947 1.38522 4.85772 0 0 0 128 0 0 255
0.360831 0.116683 4.80091 0 0 0 128 0 0 255
0.361862 0.150677 4.80151 0 0 0 128 0 0 255
0.361672 0.115748 4.79907 0 0 0 128 0 0 255
0.363178 0.151771 4.79885 0 0 0 128 0 0 255
0.363912 0.143844 4.7967 0 0 0 128 0 0 255
0.367641 0.100207 4.78584 0 0 0 128 0 0 255
0.370856 0.0964249 4.77949 0 0 0 128 0 0 255
0.371742 0.119429 4.77962 0 0 0 128 0 0 255
0.391265 1.10943 4.81975 0 0 0 128 0 0 255
0.40511 1.40559 4.81812 0 0 0 128 0 0 255
0.382968 0.130059 4.76105 0 0 0 128 0 0 255
0.409361 1.40581 4.81134 0 0 0 128 0 0 255
0.393164 0.310215 4.75803 0 0 0 128 0 0 255
0.40429 0.588192 4.76118 0 0 0 128 0 0 255
0.418085 1.23457 4.7864 0 0 0 128 0 0 255
0.40685 0.602279 4.75853 0 0 0 128 0 0 255
0.40669 0.593289 4.75814 0 0 0 128 0 0 255
0.421899 1.35051 4.78907 0 0 0 128 0 0 255
0.430219 1.24105 4.77069 0 0 0 128 0 0 255
0.430261 1.13823 4.76381 0 0 0 128 0 0 255
0.419695 0.366221 4.72591 0 0 0 128 0 0 255
0.424397 0.341427 4.71869 0 0 0 128 0 0 255
0.439603 1.16052 4.75402 0 0 0 128 0 0 255
0.426238 0.408374 4.72088 0 0 0 128 0 0 255
0.440859 1.15757 4.75238 0 0 0 128 0 0 255
0.447881 1.32951 4.75545 0 0 0 128 0 0 255
0.445077 1.17168 4.7485 0 0 0 128 0 0 255
0.442474 0.949975 4.73724 0 0 0 128 0 0 255
0.451388 1.26173 4.74729 0 0 0 128 0 0 255
0.437105 0.419696 4.70945 0 0 0 128 0 0 255
0.455195 1.16699 4.73729 0 0 0 128 0 0 255
0.460096 1.28593 4.73966 0 0 0 128 0 0 255
0.448586 0.598729 4.70867 0 0 0 128 0 0 255
0.460596 1.23503 4.73599 0 0 0 128 0 0 255
0.448224 0.538815 4.70531 0 0 0 128 0 0 255
0.450314 0.616746 4.70804 0 0 0 128 0 0 255
0.454085 0.427141 4.69268 0 0 0 128 0 0 255
0.468175 1.17931 4.72514 0 0 0 128 0 0 255
0.469237 1.19831 4.72528 0 0 0 128 0 0 255
0.454753 0.342289 4.68688 0 0 0 128 0 0 255
0.458712 0.524102 4.6942 0 0 0 128 0 0 255
0.460223 0.568069 4.69546 0 0 0 128 0 0 255
0.473385 1.14349 4.7181 0 0 0 128 0 0 255
0.470414 0.934739 4.70822 0 0 0 128 0 0 255
0.458114 0.24252 4.67772 0 0 0 128 0 0 255
0.463605 0.384426 4.68129 0 0 0 128 0 0 255
0.474383 0.906868 4.70298 0 0 0 128 0 0 255
0.463148 0.274582 4.67512 0 0 0 128 0 0 255
0.462828 0.256602 4.67433 0 0 0 128 0 0 255
0.463063 0.22765 4.67239 0 0 0 128 0 0 255
0.467745 0.40648 4.67895 0 0 0 128 0 0 255
0.479276 0.885001 4.69743 0 0 0 128 0 0 255
0.470632 0.39855 4.67599 0 0 0 128 0 0 255
0.472157 0.355644 4.67216 0 0 0 128 0 0 255
0.476347 0.418631 4.67237 0 0 0 128 0 0 255
0.474521 0.228873 4.66274 0 0 0 128 0 0 255
0.496361 1.15093 4.69898 0 0 0 128 0 0 255
0.480085 0.234963 4.65862 0 0 0 128 0 0 255
0.489316 0.621566 4.6738 0 0 0 128 0 0 255
0.486934 0.353907 4.66018 0 0 0 128 0 0 255
0.499262 0.913313 4.68301 0 0 0 128 0 0 255
0.499937 0.906333 4.6821 0 0 0 128 0 0 255
0.488685 0.228111 4.65161 0 0 0 128 0 0 255
0.50146 0.720614 4.67035 0 0 0 128 0 0 255
0.501585 0.590795 4.66287 0 0 0 128 0 0 255
0.501741 0.553848 4.66066 0 0 0 128 0 0 255
0.501386 0.53387 4.65978 0 0 0 128 0 0 255
0.501209 0.523882 4.65934 0 0 0 128 0 0 255
0.498706 0.383041 4.65313 0 0 0 128 0 0 255
0.503585 0.565856 4.66003 0 0 0 128 0 0 255
0.498012 0.25221 4.64621 0 0 0 128 0 0 255
0.51218 0.957436 4.67614 0 0 0 128 0 0 255
0.510028 0.418136 4.64729 0 0 0 128 0 0 255
0.509141 0.368193 4.64509 0 0 0 128 0 0 255
0.525585 0.916647 4.66489 0 0 0 128 0 0 255
0.517428 0.267414 4.63414 0 0 0 128 0 0 255
0.537177 1.23535 4.67521 0 0 0 128 0 0 255
0.536574 1.15345 4.67108 0 0 0 128 0 0 255
0.523217 0.257481 4.63004 0 0 0 128 0 0 255
0.526684 0.404322 4.63599 0 0 0 128 0 0 255
0.523861 0.245502 4.62899 0 0 0 128 0 0 255
0.527223 0.38635 4.63469 0 0 0 128 0 0 255
0.532041 0.609106 4.64399 0 0 0 128 0 0 255
0.539354 0.631135 4.64095 0 0 0 128 0 0 255
0.544982 0.898839 4.65226 0 0 0 128 0 0 255
0.533054 0.227596 4.62268 0 0 0 128 0 0 255
0.534547 0.262563 4.62373 0 0 0 128 0 0 255
0.5404 0.24662 4.61966 0 0 0 128 0 0 255
0.550347 0.707111 4.63901 0 0 0 128 0 0 255
0.544358 0.270613 4.61884 0 0 0 128 0 0 255
0.552327 0.669168 4.63594 0 0 0 128 0 0 255
0.55096 0.592255 4.63255 0 0 0 128 0 0 255
0.553551 0.688151 4.63631 0 0 0 128 0 0 255
0.552184 0.611238 4.63292 0 0 0 128 0 0 255
0.548848 0.373511 4.62199 0 0 0 128 0 0 255
0.555456 0.645213 4.63305 0 0 0 128 0 0 255
0.568062 1.15366 4.65365 0 0 0 128 0 0 255
0.566209 0.897954 4.64106 0 0 0 128 0 0 255
0.573711 1.26954 4.65699 0 0 0 128 0 0 255
0.568399 0.919936 4.64115 0 0 0 128 0 0 255
0.569619 0.937919 4.64151 0 0 0 128 0 0 255
0.571407 0.936926 4.64061 0 0 0 128 0 0 255
0.56129 0.367568 4.61552 0 0 0 128 0 0 255
0.561324 0.318626 4.61293 0 0 0 128 0 0 255
0.564771 0.359587 4.61347 0 0 0 128 0 0 255
0.575091 0.684231 4.62571 0 0 0 128 0 0 255
0.572652 0.392565 4.61164 0 0 0 128 0 0 255
0.578732 0.424536 4.61068 0 0 0 128 0 0 255
0.584301 0.373595 4.60577 0 0 0 128 0 0 255
0.583928 0.352619 4.60485 0 0 0 128 0 0 255
0.58178 0.231755 4.59952 0 0 0 128 0 0 255
0.590222 0.234747 4.59639 0 0 0 128 0 0 255
0.599907 0.250712 4.59369 0 0 0 128 0 0 255
0.602627 0.350597 4.59776 0 0 0 128 0 0 255
0.605459 0.403532 4.59945 0 0 0 128 0 0 255
0.61062 0.373548 4.59623 0 0 0 128 0 0 255
0.611707 0.327593 4.59359 0 0 0 128 0 0 255
0.611613 0.268656 4.59069 0 0 0 128 0 0 255
0.619423 0.3855 4.59408 0 0 0 128 0 0 255
0.641622 1.25648 4.6305 0 0 0 128 0 0 255
0.637668 0.381402 4.58885 0 0 0 128 0 0 255
0.63497 0.229573 4.58216 0 0 0 128 0 0 255
0.639366 0.422349 4.59042 0 0 0 128 0 0 255
0.640439 0.37339 4.58778 0 0 0 128 0 0 255
0.642543 0.382366 4.58771 0 0 0 128 0 0 255
0.642241 0.365385 4.58696 0 0 0 128 0 0 255
0.651356 0.384296 4.58581 0 0 0 128 0 0 255
0.655874 0.418224 4.58649 0 0 0 128 0 0 255
0.652838 0.247417 4.57896 0 0 0 128 0 0 255
0.657084 0.431201 4.58686 0 0 0 128 0 0 255
0.658797 0.417199 4.58585 0 0 0 128 0 0 255
0.656188 0.270365 4.57938 0 0 0 128 0 0 255
0.668399 0.404119 4.58346 0 0 0 128 0 0 255
0.668515 0.355164 4.58114 0 0 0 128 0 0 255
0.667876 0.319205 4.57955 0 0 0 128 0 0 255
0.669359 0.347163 4.58062 0 0 0 128 0 0 255
0.667264 0.229296 4.57542 0 0 0 128 0 0 255
0.676422 0.244182 4.5747 0 0 0 128 0 0 255
0.683905 0.55381 4.58806 0 0 0 128 0 0 255
0.685392 0.581767 4.58916 0 0 0 128 0 0 255
0.684984 0.558793 4.58814 0 0 0 128 0 0 255
0.684445 0.416929 4.58163 0 0 0 128 0 0 255
0.699883 1.17405 4.61473 0 0 0 128 0 0 255
0.68774 0.434873 4.58204 0 0 0 128 0 0 255
0.690933 0.558721 4.58737 0 0 0 128 0 0 255
0.687206 0.348958 4.57813 0 0 0 128 0 0 255
0.689742 0.379898 4.57925 0 0 0 128 0 0 255
0.694409 0.362853 4.57795 0 0 0 128 0 0 255
0.6994 0.419736 4.58006 0 0 0 128 0 0 255
0.713282 1.1449 4.61192 0 0 0 128 0 0 255
0.716443 1.26675 4.6172 0 0 0 128 0 0 255
0.704317 0.247818 4.5718 0 0 0 128 0 0 255
0.70624 0.243794 4.57148 0 0 0 128 0 0 255
0.71388 0.561406 4.58534 0 0 0 128 0 0 255
0.732471 1.27052 4.61624 0 0 0 128 0 0 255
0.721206 0.355469 4.57569 0 0 0 128 0 0 255
0.719946 0.284549 4.57257 0 0 0 128 0 0 255
0.719609 0.26557 4.57173 0 0 0 128 0 0 255
0.718739 0.216625 4.56957 0 0 0 128 0 0 255
0.728223 0.694071 4.59058 0 0 0 128 0 0 255
0.724772 0.387384 4.57699 0 0 0 128 0 0 255
0.737508 0.82281 4.59606 0 0 0 128 0 0 255
0.737189 0.80483 4.59526 0 0 0 128 0 0 255
0.739342 0.86974 4.5981 0 0 0 128 0 0 255
0.745773 1.17538 4.61156 0 0 0 128 0 0 255
0.741288 0.866709 4.59794 0 0 0 128 0 0 255
0.729964 0.229428 4.56986 0 0 0 128 0 0 255
0.742915 0.845698 4.597 0 0 0 128 0 0 255
0.746862 0.842631 4.59685 0 0 0 128 0 0 255
0.74227 0.359104 4.57558 0 0 0 128 0 0 255
0.749795 0.613762 4.58684 0 0 0 128 0 0 255
0.754505 0.822507 4.59606 0 0 0 128 0 0 255
0.750901 0.619736 4.58713 0 0 0 128 0 0 255
0.748676 0.381967 4.5767 0 0 0 128 0 0 255
0.751656 0.380911 4.57675 0 0 0 128 0 0 255
0.755779 0.556693 4.58453 0 0 0 128 0 0 255
0.760881 0.562588 4.585 0 0 0 128 0 0 255
0.766725 0.835261 4.59707 0 0 0 128 0 0 255
0.757673 0.325835 4.57462 0 0 0 128 0 0 255
0.758991 0.343795 4.57546 0 0 0 128 0 0 255
0.766738 0.66739 4.58983 0 0 0 128 0 0 255
0.762372 0.421667 4.579 0 0 0 128 0 0 255
0.763523 0.261765 4.57221 0 0 0 128 0 0 255
0.770662 0.607355 4.58751 0 0 0 128 0 0 255
0.766775 0.388602 4.57787 0 0 0 128 0 0 255
0.774058 0.686224 4.59113 0 0 0 128 0 0 255
0.770212 0.357552 4.5768 0 0 0 128 0 0 255
0.775737 0.556286 4.58573 0 0 0 128 0 0 255
0.784439 0.933817 4.60254 0 0 0 128 0 0 255
0.78446 0.822898 4.59784 0 0 0 128 0 0 255
0.78139 0.594134 4.58785 0 0 0 128 0 0 255
0.78047 0.374316 4.57847 0 0 0 128 0 0 255
0.778091 0.240467 4.57257 0 0 0 128 0 0 255
0.780275 0.25141 4.57326 0 0 0 128 0 0 255
0.78102 0.237403 4.57276 0 0 0 128 0 0 255
0.799976 1.24824 4.61741 0 0 0 128 0 0 255
0.801218 1.2622 4.61815 0 0 0 128 0 0 255
0.792236 0.756772 4.59587 0 0 0 128 0 0 255
0.790515 0.659881 4.5916 0 0 0 128 0 0 255
0.794809 0.845649 4.59991 0 0 0 128 0 0 255
0.784761 0.224327 4.57265 0 0 0 128 0 0 255
0.78726 0.253248 4.57417 0 0 0 128 0 0 255
0.794074 0.580855 4.58873 0 0 0 128 0 0 255
0.793683 0.55888 4.58777 0 0 0 128 0 0 255
0.789581 0.27218 4.57526 0 0 0 128 0 0 255
0.790817 0.230181 4.57368 0 0 0 128 0 0 255
0.804401 0.827436 4.60041 0 0 0 128 0 0 255
0.816053 1.37177 4.62469 0 0 0 128 0 0 255
0.798588 0.388883 4.58138 0 0 0 128 0 0 255
0.798162 0.36491 4.58032 0 0 0 128 0 0 255
0.800216 0.424818 4.58311 0 0 0 128 0 0 255
0.807416 0.774399 4.59867 0 0 0 128 0 0 255
0.803662 0.340791 4.58019 0 0 0 128 0 0 255
0.816423 0.615281 4.59366 0 0 0 128 0 0 255
0.811542 0.34059 4.58156 0 0 0 128 0 0 255
0.818626 0.573251 4.59237 0 0 0 128 0 0 255
0.822909 0.759016 4.60074 0 0 0 128 0 0 255
0.825629 0.856879 4.60525 0 0 0 128 0 0 255
0.825079 0.825915 4.60388 0 0 0 128 0 0 255
0.823632 0.634079 4.59582 0 0 0 128 0 0 255
0.819713 0.358364 4.58387 0 0 0 128 0 0 255
0.827987 0.768874 4.60216 0 0 0 128 0 0 255
0.826469 0.408148 4.58731 0 0 0 128 0 0 255
0.823274 0.228351 4.57939 0 0 0 128 0 0 255
0.833319 0.628819 4.59769 0 0 0 128 0 0 255
0.832698 0.593858 4.59615 0 0 0 128 0 0 255
0.834149 0.565835 4.59536 0 0 0 128 0 0 255
0.840942 0.838473 4.60784 0 0 0 128 0 0 255
0.839326 0.747576 4.60383 0 0 0 128 0 0 255
0.833647 0.427936 4.58974 0 0 0 128 0 0 255
0.830753 0.26512 4.58257 0 0 0 128 0 0 255
0.835905 0.390895 4.58882 0 0 0 128 0 0 255
0.840424 0.426743 4.59137 0 0 0 128 0 0 255
0.849975 0.855203 4.61075 0 0 0 128 0 0 255
0.861174 1.37656 4.63424 0 0 0 128 0 0 255
0.847141 0.532482 4.5973 0 0 0 128 0 0 255
0.858881 1.13877 4.62428 0 0 0 128 0 0 255
0.860555 1.1787 4.6263 0 0 0 128 0 0 255
0.854644 0.846071 4.61164 0 0 0 128 0 0 255
0.855466 0.838051 4.61155 0 0 0 128 0 0 255
0.846574 0.337616 4.5895 0 0 0 128 0 0 255
0.864478 1.18258 4.62755 0 0 0 128 0 0 255
0.862189 1.05372 4.62187 0 0 0 128 0 0 255
0.850811 0.413443 4.59365 0 0 0 128 0 0 255
0.8552 0.552228 4.60032 0 0 0 128 0 0 255
0.858128 0.39323 4.59503 0 0 0 128 0 0 255
0.872975 1.06738 4.62562 0 0 0 128 0 0 255
0.869123 0.850624 4.61607 0 0 0 128 0 0 255
0.869775 0.833613 4.61562 0 0 0 128 0 0 255
0.859338 0.246276 4.58974 0 0 0 128 0 0 255
0.861906 0.337143 4.59405 0 0 0 128 0 0 255
0.865425 0.42798 4.59866 0 0 0 128 0 0 255
0.867077 0.413934 4.59867 0 0 0 128 0 0 255
0.882269 1.16203 4.63226 0 0 0 128 0 0 255
0.868118 0.258986 4.59311 0 0 0 128 0 0 255
0.876886 0.539545 4.60678 0 0 0 128 0 0 255
0.874117 0.38372 4.59992 0 0 0 128 0 0 255
0.889135 1.1758 4.63515 0 0 0 128 0 0 255
0.8749 0.374699 4.59985 0 0 0 128 0 0 255
0.882187 0.414432 4.604 0 0 0 128 0 0 255
0.88559 0.395325 4.60457 0 0 0 128 0 0 255
0.885059 0.260412 4.59935 0 0 0 128 0 0 255
0.906926 1.17718 4.64197 0 0 0 128 0 0 255
0.91149 1.38192 4.65137 0 0 0 128 0 0 255
0.911776 1.34592 4.65017 0 0 0 128 0 0 255
0.916652 1.36074 4.65276 0 0 0 128 0 0 255
0.912654 1.08402 4.64096 0 0 0 128 0 0 255
0.899089 0.268905 4.60543 0 0 0 128 0 0 255
0.902413 0.352743 4.60993 0 0 0 128 0 0 255
0.92122 1.35957 4.6547 0 0 0 128 0 0 255
0.901287 0.237838 4.60527 0 0 0 128 0 0 255
0.913807 0.788115 4.63074 0 0 0 128 0 0 255
0.906406 0.371585 4.61238 0 0 0 128 0 0 255
0.915682 0.791043 4.63169 0 0 0 128 0 0 255
0.91183 0.574287 4.62214 0 0 0 128 0 0 255
0.906647 0.282617 4.60929 0 0 0 128 0 0 255
0.909385 0.385466 4.61424 0 0 0 128 0 0 255
0.906918 0.246623 4.60812 0 0 0 128 0 0 255
0.923803 1.0946 4.64632 0 0 0 128 0 0 255
0.910366 0.33845 4.613 0 0 0 128 0 0 255
0.908414 0.228574 4.60816 0 0 0 128 0 0 255
0.927087 1.17743 4.65082 0 0 0 128 0 0 255
0.926252 1.07951 4.64693 0 0 0 128 0 0 255
0.921903 0.834785 4.63615 0 0 0 128 0 0 255
0.910952 0.218481 4.60899 0 0 0 128 0 0 255
0.927989 1.12642 4.64943 0 0 0 128 0 0 255
0.925533 0.886622 4.63973 0 0 0 128 0 0 255
0.916635 0.335209 4.61587 0 0 0 128 0 0 255
0.919113 0.424073 4.62022 0 0 0 128 0 0 255
0.922621 0.570872 4.62713 0 0 0 128 0 0 255
0.922017 0.536911 4.62563 0 0 0 128 0 0 255
0.922807 0.530882 4.62581 0 0 0 128 0 0 255
0.91977 0.259118 4.61473 0 0 0 128 0 0 255
0.921781 0.322011 4.61795 0 0 0 128 0 0 255
0.931655 0.827405 4.64067 0 0 0 128 0 0 255
0.933064 0.806357 4.64065 0 0 0 128 0 0 255
0.932762 0.789376 4.6399 0 0 0 128 0 0 255
0.939296 1.10698 4.65436 0 0 0 128 0 0 255
0.940379 1.11793 4.6553 0 0 0 128 0 0 255
0.933785 0.547433 4.63202 0 0 0 128 0 0 255
0.932094 0.40256 4.62611 0 0 0 128 0 0 255
0.944601 1.05678 4.65541 0 0 0 128 0 0 255
0.933056 0.357537 4.62507 0 0 0 128 0 0 255
0.945124 0.789866 4.64653 0 0 0 128 0 0 255
0.941912 0.60907 4.63856 0 0 0 128 0 0 255
0.941468 0.584098 4.63746 0 0 0 128 0 0 255
0.935664 0.257466 4.62307 0 0 0 128 0 0 255
0.953083 1.09042 4.66124 0 0 0 128 0 0 255
0.947935 0.75176 4.64682 0 0 0 128 0 0 255
0.940551 0.336229 4.6285 0 0 0 128 0 0 255
0.956979 1.11424 4.66428 0 0 0 128 0 0 255
0.96162 1.18101 4.66925 0 0 0 128 0 0 255
0.952404 0.565632 4.64316 0 0 0 128 0 0 255
0.949209 0.385835 4.63523 0 0 0 128 0 0 255
0.947523 0.290942 4.63105 0 0 0 128 0 0 255
0.949445 0.350837 4.63421 0 0 0 128 0 0 255
0.9658 1.17483 4.67155 0 0 0 128 0 0 255
0.958789 0.780276 4.65417 0 0 0 128 0 0 255
0.965322 1.09988 4.66877 0 0 0 128 0 0 255
0.950767 0.232818 4.63109 0 0 0 128 0 0 255
0.958151 0.409426 4.64152 0 0 0 128 0 0 255
0.956492 0.268547 4.63585 0 0 0 128 0 0 255
0.955942 0.237582 4.63448 0 0 0 128 0 0 255
0.971934 1.0426 4.67103 0 0 0 128 0 0 255
0.974785 1.10844 4.67502 0 0 0 128 0 0 255
0.984194 1.35593 4.68923 0 0 0 128 0 0 255
0.967345 0.361014 4.64595 0 0 0 128 0 0 255
0.997218 1.3503 4.69816 0 0 0 128 0 0 255
0.977942 0.265524 4.65036 0 0 0 128 0 0 255
0.981589 0.425303 4.65799 0 0 0 128 0 0 255
1.00117 1.3461 4.70094 0 0 0 128 0 0 255
1.00236 1.36804 4.70251 0 0 0 128 0 0 255
0.984913 0.386145 4.65924 0 0 0 128 0 0 255
0.989117 0.353936 4.66146 0 0 0 128 0 0 255
0.992626 0.329758 4.66348 0 0 0 128 0 0 255
0.998719 0.409419 4.67076 0 0 0 128 0 0 255
1.00046 0.420324 4.67251 0 0 0 128 0 0 255
1.00053 0.337334 4.67013 0 0 0 128 0 0 255
1.01534 1.04141 4.70309 0 0 0 128 0 0 255
1.00408 0.365134 4.67394 0 0 0 128 0 0 255
1.00656 0.418989 4.67761 0 0 0 128 0 0 255
1.0173 0.938319 4.7018 0 0 0 128 0 0 255
1.00413 0.112166 4.66671 0 0 0 128 0 0 255
1.00966 0.338826 4.67802 0 0 0 128 0 0 255
1.02175 0.935068 4.70563 0 0 0 128 0 0 255
1.01873 0.639274 4.6946 0 0 0 128 0 0 255
1.01481 0.335531 4.68256 0 0 0 128 0 0 255
1.0317 0.997483 4.71651 0 0 0 128 0 0 255
1.02097 0.393165 4.68988 0 0 0 128 0 0 255
1.02972 0.763617 4.70827 0 0 0 128 0 0 255
1.0297 0.762618 4.70823 0 0 0 128 0 0 255
1.0264 0.414837 4.69569 0 0 0 128 0 0 255
1.03157 0.585513 4.70532 0 0 0 128 0 0 255
1.03139 0.575525 4.70488 0 0 0 128 0 0 255
1.03244 0.59446 4.70642 0 0 0 128 0 0 255
1.03492 0.694303 4.71153 0 0 0 128 0 0 255
1.02968 0.359637 4.69749 0 0 0 128 0 0 255
1.0314 0.377529 4.69971 0 0 0 128 0 0 255
1.04616 1.16859 4.73528 0 0 0 128 0 0 255
1.03041 0.282592 4.69624 0 0 0 128 0 0 255
1.03578 0.311251 4.70256 0 0 0 128 0 0 255
1.04476 0.624676 4.72003 0 0 0 128 0 0 255
1.04581 0.645608 4.72169 0 0 0 128 0 0 255
1.04345 0.512758 4.71583 0 0 0 128 0 0 255
1.05623 1.11794 4.74472 0 0 0 128 0 0 255
1.04646 0.568561 4.72051 0 0 0 128 0 0 255
1.05863 1.21579 4.74978 0 0 0 128 0 0 255
1.04506 0.376644 4.71429 0 0 0 128 0 0 255
1.04498 0.334646 4.71319 0 0 0 128 0 0 255
1.06279 1.1885 4.75382 0 0 0 128 0 0 255
1.05606 0.809931 4.73714 0 0 0 128 0 0 255
1.04964 0.411336 4.72033 0 0 0 128 0 0 255
1.04859 0.352402 4.71773 0 0 0 128 0 0 255
1.05547 0.665958 4.73307 0 0 0 128 0 0 255
1.05793 0.767798 4.73832 0 0 0 128 0 0 255
1.06102 0.581556 4.73781 0 0 0 128 0 0 255
1.06045 0.549592 4.7364 0 0 0 128 0 0 255
1.06973 1.00099 4.75785 0 0 0 128 0 0 255
1.07106 1.0409 4.76039 0 0 0 128 0 0 255
1.06117 0.344505 4.73284 0 0 0 128 0 0 255
1.07292 0.730703 4.75621 0 0 0 128 0 0 255
1.0708 0.611837 4.75097 0 0 0 128 0 0 255
1.06944 0.534924 4.74758 0 0 0 128 0 0 255
1.07817 0.992362 4.76854 0 0 0 128 0 0 255
1.07417 0.666592 4.75659 0 0 0 128 0 0 255
1.06983 0.35585 4.74452 0 0 0 128 0 0 255
1.08068 0.769107 4.7676 0 0 0 128 0 0 255
1.08097 0.753079 4.76771 0 0 0 128 0 0 255
1.08394 0.695819 4.77095 0 0 0 128 0 0 255
1.08188 0.57995 4.76585 0 0 0 128 0 0 255
1.07814 0.369188 4.75656 0 0 0 128 0 0 255
1.07999 0.442059 4.7606 0 0 0 128 0 0 255
1.0861 0.598603 4.7725 0 0 0 128 0 0 255
1.0819 0.36187 4.76207 0 0 0 128 0 0 255
1.08702 0.619533 4.77426 0 0 0 128 0 0 255
1.0885 0.641415 4.77691 0 0 0 128 0 0 255
1.09239 0.709105 4.78411 0 0 0 128 0 0 255
1.09118 0.522129 4.77927 0 0 0 128 0 0 255
1.09473 0.692889 4.78765 0 0 0 128 0 0 255
1.0968 0.75073 4.79191 0 0 0 128 0 0 255
1.09068 0.377105 4.77631 0 0 0 128 0 0 255
1.0996 0.735466 4.79641 0 0 0 128 0 0 255
1.09818 0.62754 4.79251 0 0 0 128 0 0 255
1.10019 0.656367 4.79639 0 0 0 128 0 0 255
1.10416 0.605952 4.80292 0 0 0 128 0 0 255
1.09822 0.113224 4.78651 0 0 0 128 0 0 255
1.10808 0.590544 4.81021 0 0 0 128 0 0 255
1.10913 0.573421 4.81214 0 0 0 128 0 0 255
1.12186 0.543936 4.83999 0 0 0 128 0 0 255
1.11884 0.146861 4.83275 0 0 0 128 0 0 255
1.13849 0.106278 4.90519 0 0 0 128 0 0 255
1.14202 0.090051 4.93122 0 0 0 128 0 0 255
1.1428 0.0947264 4.9384 0 0 0 128 0 0 255
1.14291 0.072479 4.94341 0 0 0 128 0 0 255
1.14467 0.104278 4.9708 0 0 0 128 0 0 255
