ply
format ascii 1.0
comment VCGLIB generated
element vertex 204
property float x
property float y
property float z
property float nx
property float ny
property float nz
property uchar red
property uchar green
property uchar blue
property uchar alpha
element face 0
property list uchar int vertex_indices
end_header
-3.00102 0.649978 5.29957 0 0 0 255 255 255 255
-1.32239 -0.0717998 4.39581 0 0 0 255 255 255 255
-1.05193 -0.145011 4.23777 0 0 0 255 255 255 255
-1.01055 -0.148935 4.21155 0 0 0 255 255 255 255
-0.86709 -0.152095 4.24746 0 0 0 255 255 255 255
-1.16781 0.0931721 4.3084 0 0 0 255 255 255 255
-1.1909 0.0778142 4.31653 0 0 0 255 255 255 255
-1.20957 0.421796 4.37821 0 0 0 255 255 255 255
-1.20984 0.0734864 4.31152 0 0 0 255 255 255 255
-2.22472 0.146207 5.23802 0 0 0 255 255 255 255
-1.03348 -0.12776 4.24248 0 0 0 255 255 255 255
-2.94668 0.684567 5.44469 0 0 0 255 255 255 255
-3.10624 0.162347 6.48236 0 0 0 255 255 255 255
-3.28257 0.0925743 6.14248 0 0 0 255 255 255 255
-3.55388 0.14685 6.25741 0 0 0 255 255 255 255
-2.92914 0.639387 5.45317 0 0 0 255 255 255 255
-3.54546 0.143419 6.25551 0 0 0 255 255 255 255
-3.61863 0.238396 6.37927 0 0 0 255 255 255 255
-3.62019 0.24209 6.38457 0 0 0 255 255 255 255
-2.74969 1.43215 5.17602 0 0 0 255 255 255 255
-2.73591 1.41506 5.2943 0 0 0 255 255 255 255
-2.83144 1.58727 4.99713 0 0 0 255 255 255 255
-2.97946 0.998728 5.29834 0 0 0 255 255 255 255
-2.73961 1.39579 5.1422 0 0 0 255 255 255 255
-2.81071 1.57602 4.99079 0 0 0 255 255 255 255
-2.78364 1.39365 5.199 0 0 0 255 255 255 255
-1.32084 1.0061 4.43724 0 0 0 255 255 255 255
-1.26807 1.03943 4.39718 0 0 0 255 255 255 255
-1.68946 1.09519 4.72961 0 0 0 255 255 255 255
-1.00227 1.28594 4.38067 0 0 0 255 255 255 255
-0.96673 1.259 4.39011 0 0 0 255 255 255 255
-1.04956 1.23767 4.42041 0 0 0 255 255 255 255
-0.971785 1.2595 4.38788 0 0 0 255 255 255 255
-0.657406 0.938504 4.01103 0 0 0 255 255 255 255
-0.846141 0.998258 4.0365 0 0 0 255 255 255 255
-0.819089 0.997137 4.0392 0 0 0 255 255 255 255
-0.821071 0.876518 3.9986 0 0 0 255 255 255 255
-0.817292 0.878833 3.99617 0 0 0 255 255 255 255
-0.798011 0.972676 3.97532 0 0 0 255 255 255 255
-0.685782 1.25723 3.9423 0 0 0 255 255 255 255
-0.736519 1.20709 3.97447 0 0 0 255 255 255 255
-0.678286 1.12153 4.00524 0 0 0 255 255 255 255
-0.739217 1.26858 3.95327 0 0 0 255 255 255 255
-0.78242 1.16333 4.01547 0 0 0 255 255 255 255
-0.683338 1.26123 3.94463 0 0 0 255 255 255 255
-0.735761 1.26167 3.95157 0 0 0 255 255 255 255
-0.690821 1.36414 3.83714 0 0 0 255 255 255 255
-0.699528 1.3626 3.87484 0 0 0 255 255 255 255
-0.67339 1.37017 3.83884 0 0 0 255 255 255 255
-0.689758 1.29348 4.00483 0 0 0 255 255 255 255
-0.677118 1.30111 3.93089 0 0 0 255 255 255 255
-0.592762 1.09933 4.01276 0 0 0 255 255 255 255
-0.628077 1.27114 3.95239 0 0 0 255 255 255 255
-0.627884 1.27659 3.95221 0 0 0 255 255 255 255
-0.52721 1.12287 4.00723 0 0 0 255 255 255 255
-0.591581 1.14613 4.08742 0 0 0 255 255 255 255
-0.530222 1.14206 4.10496 0 0 0 255 255 255 255
-0.575697 1.27051 4.00082 0 0 0 255 255 255 255
-0.626163 1.27228 3.95319 0 0 0 255 255 255 255
-0.575118 1.27827 4.00444 0 0 0 255 255 255 255
-0.644172 1.3473 3.87402 0 0 0 255 255 255 255
-0.628468 1.34801 3.87365 0 0 0 255 255 255 255
-0.796416 1.21223 4.23134 0 0 0 255 255 255 255
-0.819807 1.22893 4.24539 0 0 0 255 255 255 255
-0.847003 1.25366 4.27074 0 0 0 255 255 255 255
-0.807621 1.21606 4.24033 0 0 0 255 255 255 255
-1.21959 1.59077 4.70921 0 0 0 255 255 255 255
-1.1506 1.49699 4.60556 0 0 0 255 255 255 255
-2.94836 0.855135 5.38486 0 0 0 255 255 255 255
-2.96992 1.01067 5.30459 0 0 0 255 255 255 255
-2.95862 1.06849 5.36106 0 0 0 255 255 255 255
-2.89854 0.827132 5.42862 0 0 0 255 255 255 255
-3.01456 1.08721 5.37753 0 0 0 255 255 255 255
-3.02604 1.05158 5.37253 0 0 0 255 255 255 255
-3.02312 1.02465 5.40075 0 0 0 255 255 255 255
-3.02498 1.07413 5.3791 0 0 0 255 255 255 255
-3.02516 1.06314 5.36931 0 0 0 255 255 255 255
-2.99838 1.11398 5.40116 0 0 0 255 255 255 255
-3.05896 1.19693 5.44071 0 0 0 255 255 255 255
-2.9186 1.39775 5.53327 0 0 0 255 255 255 255
-2.93197 1.46328 5.61201 0 0 0 255 255 255 255
-3.01342 1.17557 5.35318 0 0 0 255 255 255 255
-3.01059 1.11395 5.34361 0 0 0 255 255 255 255
-3.00228 1.11827 5.40575 0 0 0 255 255 255 255
-2.93722 1.37461 5.55129 0 0 0 255 255 255 255
-2.92628 1.26683 5.48223 0 0 0 255 255 255 255
-2.92741 1.27421 5.47438 0 0 0 255 255 255 255
-3.06506 1.19211 6.07888 0 0 0 255 255 255 255
-2.96198 1.33948 6.03159 0 0 0 255 255 255 255
-2.9257 1.33827 6.01355 0 0 0 255 255 255 255
-2.86546 1.43298 5.94071 0 0 0 255 255 255 255
-2.9634 1.34507 5.9529 0 0 0 255 255 255 255
-2.93828 1.46063 5.74826 0 0 0 255 255 255 255
-2.92225 1.39084 5.9968 0 0 0 255 255 255 255
-2.92306 1.41798 5.81978 0 0 0 255 255 255 255
-2.91379 1.41408 5.83023 0 0 0 255 255 255 255
-3.0206 1.25944 6.06566 0 0 0 255 255 255 255
-3.03623 1.4963 5.73979 0 0 0 255 255 255 255
-2.81834 1.38315 5.65416 0 0 0 255 255 255 255
-2.75977 1.39964 5.33497 0 0 0 255 255 255 255
-2.77998 1.36909 5.62393 0 0 0 255 255 255 255
0.947535 -0.240733 4.71184 0 0 0 255 255 255 255
-0.345603 0.155604 4.59345 0 0 0 255 255 255 255
-0.318087 0.0966209 4.64482 0 0 0 255 255 255 255
-0.402374 0.119533 4.64729 0 0 0 255 255 255 255
-0.348303 0.129635 4.5481 0 0 0 255 255 255 255
-0.305888 0.133562 4.5351 0 0 0 255 255 255 255
-0.348273 0.16831 4.53243 0 0 0 255 255 255 255
-0.305674 -0.185496 4.50046 0 0 0 255 255 255 255
-0.345737 -0.185957 4.4935 0 0 0 255 255 255 255
-0.351792 0.13695 4.49563 0 0 0 255 255 255 255
-0.402644 0.17775 4.65274 0 0 0 255 255 255 255
-0.343265 0.110058 4.61062 0 0 0 255 255 255 255
-0.344779 0.144909 4.5666 0 0 0 255 255 255 255
-0.294475 0.076838 4.60121 0 0 0 255 255 255 255
-0.324531 0.100768 4.61012 0 0 0 255 255 255 255
-0.304974 0.0851095 4.60926 0 0 0 255 255 255 255
0.825166 -0.216639 4.80139 0 0 0 255 255 255 255
0.947989 -0.242482 4.71347 0 0 0 255 255 255 255
2.07589 0.143993 3.90428 0 0 0 255 255 255 255
2.10001 0.14185 3.88266 0 0 0 255 255 255 255
2.53689 0.16748 4.00706 0 0 0 255 255 255 255
2.54332 0.120582 3.97202 0 0 0 255 255 255 255
2.5361 0.143661 4.05762 0 0 0 255 255 255 255
2.54728 0.134945 3.96107 0 0 0 255 255 255 255
2.53782 0.138085 4.05803 0 0 0 255 255 255 255
2.54799 0.130182 4.03372 0 0 0 255 255 255 255
-0.254105 1.1762 4.50959 0 0 0 255 255 255 255
-0.451587 1.41947 4.07808 0 0 0 255 255 255 255
-0.427204 1.38685 4.07945 0 0 0 255 255 255 255
-0.335438 1.44315 4.63277 0 0 0 255 255 255 255
-0.303968 1.09325 4.63462 0 0 0 255 255 255 255
-0.258926 1.07556 4.51338 0 0 0 255 255 255 255
-0.301942 1.20107 4.6371 0 0 0 255 255 255 255
-0.295188 0.992609 4.5841 0 0 0 255 255 255 255
-0.293846 0.997707 4.57758 0 0 0 255 255 255 255
-0.28651 1.36692 4.60832 0 0 0 255 255 255 255
-0.294996 1.46103 4.65304 0 0 0 255 255 255 255
-0.320926 1.40623 4.6817 0 0 0 255 255 255 255
-0.271572 1.38879 4.65273 0 0 0 255 255 255 255
-0.264528 1.18339 4.53153 0 0 0 255 255 255 255
-0.29359 1.42955 4.66781 0 0 0 255 255 255 255
-0.312151 1.44918 4.6273 0 0 0 255 255 255 255
-0.305529 1.47346 4.66169 0 0 0 255 255 255 255
-0.258646 1.0726 4.51207 0 0 0 255 255 255 255
-0.281477 1.07937 4.56881 0 0 0 255 255 255 255
1.10944 0.950682 5.07743 0 0 0 255 255 255 255
1.10439 1.31738 4.68443 0 0 0 255 255 255 255
1.07353 1.3942 5.09047 0 0 0 255 255 255 255
2.35764 1.08432 3.70529 0 0 0 255 255 255 255
2.34654 1.06582 3.70629 0 0 0 255 255 255 255
2.33626 1.07171 3.67056 0 0 0 255 255 255 255
1.17926 1.13964 5.0591 0 0 0 255 255 255 255
1.15137 1.36507 5.03177 0 0 0 255 255 255 255
1.18601 1.12146 5.05774 0 0 0 255 255 255 255
1.11217 1.36987 5.1059 0 0 0 255 255 255 255
1.12329 1.3254 5.09003 0 0 0 255 255 255 255
1.14112 1.3946 5.08913 0 0 0 255 255 255 255
1.13873 1.37101 5.09668 0 0 0 255 255 255 255
1.20425 1.17589 5.07461 0 0 0 255 255 255 255
1.11216 1.40703 5.10019 0 0 0 255 255 255 255
1.189 1.22357 5.0704 0 0 0 255 255 255 255
2.28031 1.26218 3.7395 0 0 0 255 255 255 255
2.2307 1.39801 3.75056 0 0 0 255 255 255 255
2.1707 1.43021 3.83099 0 0 0 255 255 255 255
2.25145 1.41287 3.79984 0 0 0 255 255 255 255
2.39948 1.41094 3.78612 0 0 0 255 255 255 255
2.39641 1.41266 3.78813 0 0 0 255 255 255 255
2.39396 1.41889 3.78803 0 0 0 255 255 255 255
2.4102 1.41273 3.7808 0 0 0 255 255 255 255
2.31051 1.41643 3.77491 0 0 0 255 255 255 255
2.46126 1.4045 3.79337 0 0 0 255 255 255 255
2.37556 1.22356 3.7545 0 0 0 255 255 255 255
2.38406 1.41471 3.77622 0 0 0 255 255 255 255
2.39535 1.62889 3.98083 0 0 0 255 255 255 255
2.39289 1.62949 3.9852 0 0 0 255 255 255 255
2.38519 1.63083 3.98878 0 0 0 255 255 255 255
1.1096 1.42607 6.37963 0 0 0 255 255 255 255
1.09345 1.42559 6.36321 0 0 0 255 255 255 255
1.10222 1.42686 6.39847 0 0 0 255 255 255 255
1.16312 1.2513 5.44449 0 0 0 255 255 255 255
1.62446 1.19661 5.46418 0 0 0 255 255 255 255
1.72497 1.45823 6.71277 0 0 0 255 255 255 255
1.11693 1.41876 6.3899 0 0 0 255 255 255 255
1.2387 1.41871 6.69212 0 0 0 255 255 255 255
1.89177 1.46949 6.74195 0 0 0 255 255 255 255
1.89 1.39305 6.71416 0 0 0 255 255 255 255
1.87378 1.39885 6.36062 0 0 0 255 255 255 255
1.32024 1.39649 6.6014 0 0 0 255 255 255 255
1.8864 1.37656 6.64104 0 0 0 255 255 255 255
1.7593 1.46235 6.69954 0 0 0 255 255 255 255
1.87709 1.39718 6.34671 0 0 0 255 255 255 255
1.89754 1.35837 6.50076 0 0 0 255 255 255 255
1.89706 1.35995 6.51435 0 0 0 255 255 255 255
1.23886 1.37397 6.43726 0 0 0 255 255 255 255
1.73446 1.45017 6.71307 0 0 0 255 255 255 255
1.2202 1.50237 6.72635 0 0 0 255 255 255 255
2.14078 1.37002 6.2844 0 0 0 255 255 255 255
2.10862 1.38253 6.43098 0 0 0 255 255 255 255
2.16591 1.37303 6.29175 0 0 0 255 255 255 255
2.1425 1.36871 6.2847 0 0 0 255 255 255 255
2.08027 1.40671 6.47381 0 0 0 255 255 255 255
1.92935 1.37571 6.59118 0 0 0 255 255 255 255
1.8839 1.43388 6.96449 0 0 0 255 255 255 255
