ply
format ascii 1.0
comment VCGLIB generated
element vertex 775
property float x
property float y
property float z
property float nx
property float ny
property float nz
property uchar red
property uchar green
property uchar blue
property uchar alpha
element face 0
property list uchar int vertex_indices
end_header
-0.584303 0.843272 3.8281 0 0 0 128 128 0 255
-0.569934 0.799319 3.83179 0 0 0 128 128 0 255
-0.559364 0.802634 3.84041 0 0 0 128 128 0 255
-0.578344 0.916191 3.84472 0 0 0 128 128 0 255
-0.71685 1.58094 3.84903 0 0 0 128 128 0 255
-0.620601 1.15568 3.85211 0 0 0 128 128 0 255
-0.558083 0.867376 3.85211 0 0 0 128 128 0 255
-0.543771 0.816248 3.85457 0 0 0 128 128 0 255
-0.573326 0.967418 3.85703 0 0 0 128 128 0 255
-0.54343 0.859298 3.86196 0 0 0 128 128 0 255
-0.530043 0.816155 3.86504 0 0 0 128 128 0 255
-0.680798 1.51508 3.86565 0 0 0 128 128 0 255
-0.537135 0.863733 3.8675 0 0 0 128 128 0 255
-0.59896 1.15628 3.86873 0 0 0 128 128 0 255
-0.656257 1.42422 3.86935 0 0 0 128 128 0 255
-0.652887 1.41983 3.87119 0 0 0 128 128 0 255
-0.660191 1.46839 3.87365 0 0 0 128 128 0 255
-0.676416 1.56924 3.87796 0 0 0 128 128 0 255
-0.544331 0.967566 3.8792 0 0 0 128 128 0 255
-0.561807 1.06303 3.88166 0 0 0 128 128 0 255
-0.528189 0.911719 3.88227 0 0 0 128 128 0 255
-0.6502 1.48181 3.88351 0 0 0 128 128 0 255
-0.52455 0.913531 3.88535 0 0 0 128 128 0 255
-0.513261 0.86891 3.88658 0 0 0 128 128 0 255
-0.540543 1.00215 3.88781 0 0 0 128 128 0 255
-0.632595 1.43037 3.88843 0 0 0 128 128 0 255
-0.514786 0.898253 3.89028 0 0 0 128 128 0 255
-0.627685 1.42632 3.89151 0 0 0 128 128 0 255
-0.526964 0.969286 3.89274 0 0 0 128 128 0 255
-0.497507 0.833443 3.89274 0 0 0 128 128 0 255
-0.527254 0.974339 3.89336 0 0 0 128 128 0 255
-0.523171 0.962946 3.89459 0 0 0 128 128 0 255
-0.655277 1.57587 3.8952 0 0 0 128 128 0 255
-0.509918 0.916704 3.89705 0 0 0 128 128 0 255
-0.51381 0.938371 3.89767 0 0 0 128 128 0 255
-0.510998 0.932841 3.8989 0 0 0 128 128 0 255
-0.537354 1.0581 3.89951 0 0 0 128 128 0 255
-0.613937 1.41498 3.90013 0 0 0 128 128 0 255
-0.518147 0.973244 3.90013 0 0 0 128 128 0 255
-0.621933 1.45929 3.90136 0 0 0 128 128 0 255
-0.484606 0.826008 3.90136 0 0 0 128 128 0 255
-0.622512 1.4694 3.90259 0 0 0 128 128 0 255
-0.479427 0.828154 3.90567 0 0 0 128 128 0 255
-0.600669 1.39841 3.90752 0 0 0 128 128 0 255
-0.508771 0.978347 3.90813 0 0 0 128 128 0 255
-0.527074 1.06647 3.90875 0 0 0 128 128 0 255
-0.49465 0.916945 3.90875 0 0 0 128 128 0 255
-0.543894 1.14775 3.90936 0 0 0 128 128 0 255
-0.511258 0.997249 3.90936 0 0 0 128 128 0 255
-0.517982 1.0357 3.91059 0 0 0 128 128 0 255
-0.492071 0.923644 3.91183 0 0 0 128 128 0 255
-0.541392 1.15853 3.91306 0 0 0 128 128 0 255
-0.50261 0.979683 3.91306 0 0 0 128 128 0 255
-0.526212 1.09224 3.91367 0 0 0 128 128 0 255
-0.504885 0.997608 3.91429 0 0 0 128 128 0 255
-0.597573 1.42876 3.9149 0 0 0 128 128 0 255
-0.488856 0.92741 3.9149 0 0 0 128 128 0 255
-0.484271 0.909986 3.91552 0 0 0 128 128 0 255
-0.479475 0.891585 3.91614 0 0 0 128 128 0 255
-0.596824 1.44018 3.91737 0 0 0 128 128 0 255
-0.50826 1.04292 3.91921 0 0 0 128 128 0 255
-0.49385 0.976467 3.91921 0 0 0 128 128 0 255
-0.582935 1.391 3.91983 0 0 0 128 128 0 255
-0.534058 1.16933 3.92044 0 0 0 128 128 0 255
-0.526853 1.1361 3.92044 0 0 0 128 128 0 255
-0.51466 1.09474 3.92291 0 0 0 128 128 0 255
-0.579529 1.40504 3.92475 0 0 0 128 128 0 255
-0.524429 1.15095 3.92475 0 0 0 128 128 0 255
-0.517725 1.12375 3.92537 0 0 0 128 128 0 255
-0.467923 0.89409 3.92537 0 0 0 128 128 0 255
-0.552134 1.28615 3.92599 0 0 0 128 128 0 255
-0.527975 1.17474 3.92599 0 0 0 128 128 0 255
-0.576738 1.41076 3.92783 0 0 0 128 128 0 255
-0.513373 1.11856 3.92783 0 0 0 128 128 0 255
-0.480949 0.969032 3.92783 0 0 0 128 128 0 255
-0.450029 0.837599 3.92968 0 0 0 128 128 0 255
-0.509311 1.11841 3.93091 0 0 0 128 128 0 255
-0.584621 1.46943 3.93153 0 0 0 128 128 0 255
-0.437758 0.792168 3.93153 0 0 0 128 128 0 255
-0.496058 1.07217 3.93337 0 0 0 128 128 0 255
-0.543048 1.2963 3.93461 0 0 0 128 128 0 255
-0.542702 1.29843 3.93522 0 0 0 128 128 0 255
-0.450515 0.873307 3.93522 0 0 0 128 128 0 255
-0.576899 1.45985 3.93584 0 0 0 128 128 0 255
-0.511839 1.15982 3.93584 0 0 0 128 128 0 255
-0.509931 1.15102 3.93584 0 0 0 128 128 0 255
-0.456738 0.905724 3.93584 0 0 0 128 128 0 255
-0.491303 1.07627 3.93768 0 0 0 128 128 0 255
-0.488548 1.06357 3.93768 0 0 0 128 128 0 255
-0.582508 1.50058 3.9383 0 0 0 128 128 0 255
-0.57935 1.49717 3.94015 0 0 0 128 128 0 255
-0.534422 1.28999 3.94015 0 0 0 128 128 0 255
-0.440059 0.862272 3.94138 0 0 0 128 128 0 255
-0.499341 1.14309 3.94261 0 0 0 128 128 0 255
-0.429618 0.82156 3.94261 0 0 0 128 128 0 255
-0.430543 0.829545 3.94322 0 0 0 128 128 0 255
-0.503254 1.17601 3.94507 0 0 0 128 128 0 255
-0.598237 1.63633 3.94877 0 0 0 128 128 0 255
-0.496726 1.16821 3.94877 0 0 0 128 128 0 255
-0.419586 0.81248 3.94877 0 0 0 128 128 0 255
-0.487691 1.13026 3.94938 0 0 0 128 128 0 255
-0.448004 0.954688 3.95061 0 0 0 128 128 0 255
-0.40901 0.774867 3.95061 0 0 0 128 128 0 255
-0.408106 0.778133 3.95184 0 0 0 128 128 0 255
-0.490699 1.16645 3.95307 0 0 0 128 128 0 255
-0.578513 1.57512 3.95369 0 0 0 128 128 0 255
-0.478082 1.12314 3.95554 0 0 0 128 128 0 255
-0.550969 1.489 3.96046 0 0 0 128 128 0 255
-0.391969 0.763214 3.96169 0 0 0 128 128 0 255
-0.391545 0.761259 3.96169 0 0 0 128 128 0 255
-0.560103 1.54228 3.96231 0 0 0 128 128 0 255
-0.374633 0.705578 3.96539 0 0 0 128 128 0 255
-0.468805 1.14357 3.966 0 0 0 128 128 0 255
-0.469808 1.15563 3.96724 0 0 0 128 128 0 255
-0.379316 0.73833 3.96724 0 0 0 128 128 0 255
-0.430121 0.980054 3.96847 0 0 0 128 128 0 255
-0.376505 0.7328 3.96847 0 0 0 128 128 0 255
-0.36641 0.689967 3.96908 0 0 0 128 128 0 255
-0.564636 1.60781 3.9697 0 0 0 128 128 0 255
-0.396157 0.830863 3.9697 0 0 0 128 128 0 255
-0.530036 1.45568 3.97093 0 0 0 128 128 0 255
-0.367568 0.71018 3.97154 0 0 0 128 128 0 255
-0.557741 1.59088 3.97216 0 0 0 128 128 0 255
-0.525818 1.44739 3.97278 0 0 0 128 128 0 255
-0.360518 0.685105 3.97278 0 0 0 128 128 0 255
-0.422766 0.979602 3.97401 0 0 0 128 128 0 255
-0.407027 0.914458 3.97524 0 0 0 128 128 0 255
-0.400825 0.893291 3.97647 0 0 0 128 128 0 255
-0.519233 1.44677 3.9777 0 0 0 128 128 0 255
-0.455388 1.15978 3.97893 0 0 0 128 128 0 255
-0.35875 0.714139 3.97893 0 0 0 128 128 0 255
-0.543491 1.57351 3.98016 0 0 0 128 128 0 255
-0.453847 1.16012 3.98016 0 0 0 128 128 0 255
-0.418746 1.00196 3.98078 0 0 0 128 128 0 255
-0.546825 1.59632 3.9814 0 0 0 128 128 0 255
-0.383897 0.867288 3.98509 0 0 0 128 128 0 255
-0.517275 1.48608 3.9857 0 0 0 128 128 0 255
-0.408501 0.991904 3.98694 0 0 0 128 128 0 255
-0.517296 1.49733 3.98755 0 0 0 128 128 0 255
-0.432046 1.11163 3.98878 0 0 0 128 128 0 255
-0.408486 1.02158 3.99186 0 0 0 128 128 0 255
-0.343503 0.725631 3.99248 0 0 0 128 128 0 255
-0.51709 1.53728 3.99432 0 0 0 128 128 0 255
-0.415868 1.07421 3.99494 0 0 0 128 128 0 255
-0.514991 1.53876 3.99617 0 0 0 128 128 0 255
-0.389186 0.962326 3.99679 0 0 0 128 128 0 255
-0.490987 1.4355 3.9974 0 0 0 128 128 0 255
-0.350905 0.789513 3.9974 0 0 0 128 128 0 255
-0.427353 1.14949 3.99863 0 0 0 128 128 0 255
-0.494611 1.46336 3.99925 0 0 0 128 128 0 255
-0.50515 1.5194 4.00048 0 0 0 128 128 0 255
-0.504514 1.51647 4.00048 0 0 0 128 128 0 255
-0.346207 0.786439 4.00048 0 0 0 128 128 0 255
-0.5154 1.57039 4.0011 0 0 0 128 128 0 255
-0.488853 1.4554 4.00233 0 0 0 128 128 0 255
-0.524322 1.62269 4.00294 0 0 0 128 128 0 255
-0.505249 1.53473 4.00294 0 0 0 128 128 0 255
-0.496772 1.49564 4.00294 0 0 0 128 128 0 255
-0.497697 1.50362 4.00356 0 0 0 128 128 0 255
-0.36908 0.921663 4.00541 0 0 0 128 128 0 255
-0.480417 1.43881 4.00602 0 0 0 128 128 0 255
-0.467992 1.38523 4.00664 0 0 0 128 128 0 255
-0.332438 0.763844 4.00725 0 0 0 128 128 0 255
-0.413972 1.14727 4.00848 0 0 0 128 128 0 255
-0.321728 0.72933 4.00972 0 0 0 128 128 0 255
-0.500323 1.56036 4.01095 0 0 0 128 128 0 255
-0.476588 1.4509 4.01095 0 0 0 128 128 0 255
-0.369354 0.956394 4.01095 0 0 0 128 128 0 255
-0.404053 1.12384 4.01218 0 0 0 128 128 0 255
-0.325931 0.767302 4.01279 0 0 0 128 128 0 255
-0.396791 1.09779 4.01341 0 0 0 128 128 0 255
-0.44879 1.3413 4.01403 0 0 0 128 128 0 255
-0.477053 1.47536 4.01464 0 0 0 128 128 0 255
-0.353078 0.903645 4.01464 0 0 0 128 128 0 255
-0.393075 1.09553 4.01587 0 0 0 128 128 0 255
-0.383192 1.05367 4.01649 0 0 0 128 128 0 255
-0.320038 0.76244 4.01649 0 0 0 128 128 0 255
-0.460622 1.41446 4.0171 0 0 0 128 128 0 255
-0.391322 1.09488 4.0171 0 0 0 128 128 0 255
-0.400301 1.14001 4.01772 0 0 0 128 128 0 255
-0.350075 0.90839 4.01772 0 0 0 128 128 0 255
-0.475399 1.49004 4.01833 0 0 0 128 128 0 255
-0.389358 1.09326 4.01833 0 0 0 128 128 0 255
-0.39799 1.14051 4.01957 0 0 0 128 128 0 255
-0.356241 0.947982 4.01957 0 0 0 128 128 0 255
-0.469854 1.48306 4.02141 0 0 0 128 128 0 255
-0.393137 1.12928 4.02141 0 0 0 128 128 0 255
-0.457216 1.4285 4.02203 0 0 0 128 128 0 255
-0.37946 1.08108 4.02388 0 0 0 128 128 0 255
-0.467564 1.49481 4.02511 0 0 0 128 128 0 255
-0.435429 1.35034 4.02572 0 0 0 128 128 0 255
-0.345997 0.937925 4.02572 0 0 0 128 128 0 255
-0.471131 1.52985 4.02819 0 0 0 128 128 0 255
-0.307045 0.780606 4.02942 0 0 0 128 128 0 255
-0.453505 1.46716 4.03126 0 0 0 128 128 0 255
-0.443969 1.42318 4.03126 0 0 0 128 128 0 255
-0.378774 1.12626 4.03188 0 0 0 128 128 0 255
-0.368043 1.08049 4.0325 0 0 0 128 128 0 255
-0.351089 1.00231 4.0325 0 0 0 128 128 0 255
-0.29938 0.76385 4.0325 0 0 0 128 128 0 255
-0.449499 1.45984 4.03311 0 0 0 128 128 0 255
-0.345445 0.979997 4.03311 0 0 0 128 128 0 255
-0.345021 0.978043 4.03311 0 0 0 128 128 0 255
-0.409311 1.27824 4.03373 0 0 0 128 128 0 255
-0.357178 1.03782 4.03373 0 0 0 128 128 0 255
-0.443933 1.44161 4.03434 0 0 0 128 128 0 255
-0.436303 1.40643 4.03434 0 0 0 128 128 0 255
-0.445706 1.4535 4.03496 0 0 0 128 128 0 255
-0.28559 0.730004 4.03742 0 0 0 128 128 0 255
-0.373269 1.14178 4.03865 0 0 0 128 128 0 255
-0.451702 1.51462 4.0405 0 0 0 128 128 0 255
-0.401688 1.28398 4.0405 0 0 0 128 128 0 255
-0.402055 1.29311 4.04173 0 0 0 128 128 0 255
-0.446869 1.51465 4.04419 0 0 0 128 128 0 255
-0.445887 1.51384 4.04481 0 0 0 128 128 0 255
-0.406046 1.33011 4.04481 0 0 0 128 128 0 255
-0.429011 1.43973 4.04542 0 0 0 128 128 0 255
-0.318811 0.931541 4.04542 0 0 0 128 128 0 255
-0.429802 1.45081 4.04666 0 0 0 128 128 0 255
-0.284076 0.782517 4.04727 0 0 0 128 128 0 255
-0.352414 1.11253 4.04973 0 0 0 128 128 0 255
-0.274927 0.75892 4.05035 0 0 0 128 128 0 255
-0.413815 1.40312 4.05096 0 0 0 128 128 0 255
-0.281998 0.795247 4.05096 0 0 0 128 128 0 255
-0.439401 1.52855 4.0522 0 0 0 128 128 0 255
-0.431637 1.49646 4.05281 0 0 0 128 128 0 255
-0.428882 1.48376 4.05281 0 0 0 128 128 0 255
-0.251523 0.67702 4.05466 0 0 0 128 128 0 255
-0.271945 0.774915 4.05527 0 0 0 128 128 0 255
-0.271309 0.771984 4.05527 0 0 0 128 128 0 255
-0.249771 0.676376 4.05589 0 0 0 128 128 0 255
-0.22985 0.584512 4.05589 0 0 0 128 128 0 255
-0.438693 1.56247 4.05835 0 0 0 128 128 0 255
-0.419196 1.47256 4.05835 0 0 0 128 128 0 255
-0.38105 1.29664 4.05835 0 0 0 128 128 0 255
-0.251296 0.70572 4.05958 0 0 0 128 128 0 255
-0.436905 1.58025 4.06266 0 0 0 128 128 0 255
-0.425793 1.55503 4.06697 0 0 0 128 128 0 255
-0.424464 1.55634 4.0682 0 0 0 128 128 0 255
-0.399457 1.44102 4.0682 0 0 0 128 128 0 255
-0.241998 0.714899 4.0682 0 0 0 128 128 0 255
-0.401654 1.45487 4.06882 0 0 0 128 128 0 255
-0.388168 1.3964 4.06943 0 0 0 128 128 0 255
-0.281571 0.904826 4.06943 0 0 0 128 128 0 255
-0.400326 1.45618 4.07005 0 0 0 128 128 0 255
-0.280821 0.916244 4.0719 0 0 0 128 128 0 255
-0.416685 1.55394 4.07374 0 0 0 128 128 0 255
-0.272019 0.890526 4.07436 0 0 0 128 128 0 255
-0.240866 0.746865 4.07436 0 0 0 128 128 0 255
-0.396651 1.47642 4.07621 0 0 0 128 128 0 255
-0.269497 0.890049 4.07621 0 0 0 128 128 0 255
-0.397866 1.48946 4.07744 0 0 0 128 128 0 255
-0.395111 1.47676 4.07744 0 0 0 128 128 0 255
-0.397096 1.48963 4.07805 0 0 0 128 128 0 255
-0.292483 1.01092 4.07867 0 0 0 128 128 0 255
-0.40151 1.52858 4.08113 0 0 0 128 128 0 255
-0.28565 1.02775 4.08667 0 0 0 128 128 0 255
-0.232902 0.795661 4.08852 0 0 0 128 128 0 255
-0.353296 1.36201 4.09037 0 0 0 128 128 0 255
-0.209286 0.712783 4.09283 0 0 0 128 128 0 255
-0.368829 1.46711 4.09591 0 0 0 128 128 0 255
-0.269669 1.02099 4.09775 0 0 0 128 128 0 255
-0.27229 1.03679 4.09837 0 0 0 128 128 0 255
-0.234355 0.861856 4.09837 0 0 0 128 128 0 255
-0.342669 1.3725 4.10022 0 0 0 128 128 0 255
-0.353074 1.43164 4.10206 0 0 0 128 128 0 255
-0.213417 0.787607 4.10206 0 0 0 128 128 0 255
-0.344329 1.39875 4.1033 0 0 0 128 128 0 255
-0.360089 1.47514 4.10391 0 0 0 128 128 0 255
-0.35402 1.45088 4.10453 0 0 0 128 128 0 255
-0.358548 1.47547 4.10514 0 0 0 128 128 0 255
-0.190167 0.713859 4.10761 0 0 0 128 128 0 255
-0.273629 1.11734 4.11068 0 0 0 128 128 0 255
-0.270606 1.11083 4.11192 0 0 0 128 128 0 255
-0.321276 1.35565 4.11376 0 0 0 128 128 0 255
-0.265928 1.11901 4.11684 0 0 0 128 128 0 255
-0.328891 1.42051 4.11869 0 0 0 128 128 0 255
-0.259245 1.10306 4.1193 0 0 0 128 128 0 255
-0.341782 1.49855 4.12177 0 0 0 128 128 0 255
-0.341012 1.49872 4.12238 0 0 0 128 128 0 255
-0.331517 1.47724 4.12608 0 0 0 128 128 0 255
-0.139824 0.608127 4.12854 0 0 0 128 128 0 255
-0.328726 1.48296 4.12915 0 0 0 128 128 0 255
-0.197354 0.888298 4.131 0 0 0 128 128 0 255
-0.239258 1.08898 4.13223 0 0 0 128 128 0 255
-0.24789 1.13622 4.13346 0 0 0 128 128 0 255
-0.31384 1.46266 4.13716 0 0 0 128 128 0 255
-0.136326 0.647768 4.13777 0 0 0 128 128 0 255
-0.316849 1.49884 4.14085 0 0 0 128 128 0 255
-0.312652 1.5018 4.14455 0 0 0 128 128 0 255
-0.165308 0.82976 4.14578 0 0 0 128 128 0 255
-0.223742 1.10667 4.14701 0 0 0 128 128 0 255
-0.316431 1.53782 4.14762 0 0 0 128 128 0 255
-0.296608 1.46128 4.15009 0 0 0 128 128 0 255
-0.300945 1.49615 4.15255 0 0 0 128 128 0 255
-0.220068 1.1269 4.15316 0 0 0 128 128 0 255
-0.166606 0.887803 4.1544 0 0 0 128 128 0 255
-0.274977 1.39127 4.15501 0 0 0 128 128 0 255
-0.241514 1.24811 4.15686 0 0 0 128 128 0 255
-0.285672 1.45546 4.15747 0 0 0 128 128 0 255
-0.163893 0.897601 4.15809 0 0 0 128 128 0 255
-0.210382 1.1157 4.15871 0 0 0 128 128 0 255
-0.209958 1.11375 4.15871 0 0 0 128 128 0 255
-0.273499 1.42536 4.16178 0 0 0 128 128 0 255
-0.160508 0.922893 4.16486 0 0 0 128 128 0 255
-0.270807 1.44641 4.16732 0 0 0 128 128 0 255
-0.270037 1.44658 4.16794 0 0 0 128 128 0 255
-0.264335 1.43144 4.16979 0 0 0 128 128 0 255
-0.142712 0.881729 4.17163 0 0 0 128 128 0 255
-0.147106 0.909427 4.17287 0 0 0 128 128 0 255
-0.242125 1.35133 4.17348 0 0 0 128 128 0 255
-0.21839 1.24187 4.17348 0 0 0 128 128 0 255
-0.134892 0.856821 4.17348 0 0 0 128 128 0 255
-0.154544 0.954883 4.17471 0 0 0 128 128 0 255
-0.259255 1.44891 4.17656 0 0 0 128 128 0 255
-0.18518 1.12219 4.17902 0 0 0 128 128 0 255
-0.139192 0.91012 4.17902 0 0 0 128 128 0 255
-0.0755794 0.63536 4.1821 0 0 0 128 128 0 255
-0.203313 1.23184 4.18333 0 0 0 128 128 0 255
-0.176264 1.11082 4.18395 0 0 0 128 128 0 255
-0.0770836 0.653452 4.18395 0 0 0 128 128 0 255
-0.0856382 0.69662 4.18456 0 0 0 128 128 0 255
-0.198692 1.23284 4.18703 0 0 0 128 128 0 255
-0.117277 0.875989 4.1901 0 0 0 128 128 0 255
-0.145215 1.02342 4.19318 0 0 0 128 128 0 255
-0.10969 0.863309 4.1938 0 0 0 128 128 0 255
-0.208178 1.32492 4.19503 0 0 0 128 128 0 255
-0.193979 1.25944 4.19503 0 0 0 128 128 0 255
-0.242163 1.48536 4.19564 0 0 0 128 128 0 255
-0.220123 1.38373 4.19564 0 0 0 128 128 0 255
-0.185155 1.22247 4.19564 0 0 0 128 128 0 255
-0.0811008 0.742626 4.19564 0 0 0 128 128 0 255
-0.0782114 0.733021 4.19626 0 0 0 128 128 0 255
-0.0606993 0.655982 4.19688 0 0 0 128 128 0 255
-0.10846 0.879948 4.19749 0 0 0 128 128 0 255
-0.117438 0.92507 4.19811 0 0 0 128 128 0 255
-0.0784442 0.745249 4.19811 0 0 0 128 128 0 255
-0.209067 1.35133 4.19872 0 0 0 128 128 0 255
-0.0992903 0.845099 4.19872 0 0 0 128 128 0 255
-0.238178 1.4893 4.19934 0 0 0 128 128 0 255
-0.134625 1.01548 4.19995 0 0 0 128 128 0 255
-0.122623 0.963852 4.20057 0 0 0 128 128 0 255
-0.0906222 0.816282 4.20057 0 0 0 128 128 0 255
-0.197509 1.31291 4.20119 0 0 0 128 128 0 255
-0.0943025 0.836972 4.20119 0 0 0 128 128 0 255
-0.0909118 0.821335 4.20119 0 0 0 128 128 0 255
-0.10646 0.896753 4.2018 0 0 0 128 128 0 255
-0.120178 0.967452 4.20303 0 0 0 128 128 0 255
-0.095171 0.852132 4.20303 0 0 0 128 128 0 255
-0.117366 0.961922 4.20426 0 0 0 128 128 0 255
-0.0896819 0.837974 4.20488 0 0 0 128 128 0 255
-0.0830555 0.814853 4.20611 0 0 0 128 128 0 255
-0.123052 1.00673 4.20734 0 0 0 128 128 0 255
-0.143051 1.10268 4.20796 0 0 0 128 128 0 255
-0.0998183 0.903309 4.20796 0 0 0 128 128 0 255
-0.217881 1.45891 4.20981 0 0 0 128 128 0 255
-0.176711 1.27649 4.21104 0 0 0 128 128 0 255
-0.075623 0.810325 4.21104 0 0 0 128 128 0 255
-0.100072 0.926789 4.21165 0 0 0 128 128 0 255
-0.104755 0.95954 4.2135 0 0 0 128 128 0 255
-0.0601166 0.757409 4.21411 0 0 0 128 128 0 255
-0.192647 1.37229 4.21473 0 0 0 128 128 0 255
-0.192435 1.37131 4.21473 0 0 0 128 128 0 255
-0.105546 0.970625 4.21473 0 0 0 128 128 0 255
-0.0729872 0.824199 4.21535 0 0 0 128 128 0 255
-0.0709456 0.818502 4.21596 0 0 0 128 128 0 255
-0.132057 1.10404 4.21658 0 0 0 128 128 0 255
-0.0935647 0.930247 4.21719 0 0 0 128 128 0 255
-0.0688471 0.81998 4.21781 0 0 0 128 128 0 255
-0.177006 1.32247 4.21842 0 0 0 128 128 0 255
-0.0574808 0.771283 4.21842 0 0 0 128 128 0 255
-0.17483 1.31987 4.21966 0 0 0 128 128 0 255
-0.0934512 0.944597 4.21966 0 0 0 128 128 0 255
-0.0945884 0.953559 4.22027 0 0 0 128 128 0 255
-0.168204 1.29675 4.22089 0 0 0 128 128 0 255
-0.152097 1.22248 4.22089 0 0 0 128 128 0 255
-0.0879052 0.937613 4.22273 0 0 0 128 128 0 255
-0.109387 1.0404 4.22335 0 0 0 128 128 0 255
-0.171558 1.33082 4.22397 0 0 0 128 128 0 255
-0.0884842 0.94772 4.22397 0 0 0 128 128 0 255
-0.166974 1.31339 4.22458 0 0 0 128 128 0 255
-0.0891408 0.961903 4.22581 0 0 0 128 128 0 255
-0.171734 1.35022 4.22704 0 0 0 128 128 0 255
-0.174355 1.36602 4.22766 0 0 0 128 128 0 255
-0.2042 1.52225 4.23074 0 0 0 128 128 0 255
-0.0819203 0.958353 4.23074 0 0 0 128 128 0 255
-0.0937313 1.02026 4.23197 0 0 0 128 128 0 255
-0.105697 1.09031 4.23443 0 0 0 128 128 0 255
-0.0892449 1.01816 4.23505 0 0 0 128 128 0 255
-0.145637 1.28937 4.23689 0 0 0 128 128 0 255
-0.0748549 0.962955 4.23689 0 0 0 128 128 0 255
-0.141151 1.28727 4.23997 0 0 0 128 128 0 255
-0.0417588 0.828924 4.23997 0 0 0 128 128 0 255
-0.18716 1.51059 4.24182 0 0 0 128 128 0 255
-0.0636079 0.940836 4.24182 0 0 0 128 128 0 255
-0.0789648 1.02653 4.24428 0 0 0 128 128 0 255
-0.0953037 1.11303 4.24613 0 0 0 128 128 0 255
-0.174429 1.48163 4.24674 0 0 0 128 128 0 255
-0.0701624 1.00081 4.24674 0 0 0 128 128 0 255
-0.195487 1.58246 4.24736 0 0 0 128 128 0 255
-0.0696818 1.00603 4.24798 0 0 0 128 128 0 255
-0.17399 1.50936 4.25167 0 0 0 128 128 0 255
-0.147789 1.39225 4.25229 0 0 0 128 128 0 255
-0.133399 1.33704 4.25413 0 0 0 128 128 0 255
-0.0681264 1.03604 4.25413 0 0 0 128 128 0 255
-0.162376 1.47811 4.25536 0 0 0 128 128 0 255
-0.0620015 1.01895 4.25598 0 0 0 128 128 0 255
-0.164438 1.49506 4.2566 0 0 0 128 128 0 255
-0.126581 1.3242 4.25721 0 0 0 128 128 0 255
-0.145732 1.41623 4.25783 0 0 0 128 128 0 255
-0.0593449 1.02157 4.25844 0 0 0 128 128 0 255
-0.0765883 1.10481 4.25906 0 0 0 128 128 0 255
-0.0140139 0.823685 4.26029 0 0 0 128 128 0 255
-0.152902 1.46788 4.26091 0 0 0 128 128 0 255
-0.0855875 1.16118 4.26152 0 0 0 128 128 0 255
-0.129554 1.37881 4.26398 0 0 0 128 128 0 255
-0.0710631 1.10908 4.26398 0 0 0 128 128 0 255
-0.112564 1.31905 4.26706 0 0 0 128 128 0 255
-0.128536 1.39642 4.26768 0 0 0 128 128 0 255
-0.0592579 1.0881 4.26952 0 0 0 128 128 0 255
0.028613 0.686605 4.27014 0 0 0 128 128 0 255
0.0327739 0.671135 4.27076 0 0 0 128 128 0 255
-0.113474 1.35671 4.2726 0 0 0 128 128 0 255
-0.109355 1.36375 4.27691 0 0 0 128 128 0 255
-0.0500941 1.09418 4.27753 0 0 0 128 128 0 255
-0.106967 1.36017 4.27814 0 0 0 128 128 0 255
-0.130222 1.47485 4.27938 0 0 0 128 128 0 255
-0.0939264 1.31491 4.28061 0 0 0 128 128 0 255
-0.0718863 1.21327 4.28061 0 0 0 128 128 0 255
-0.0456078 1.09209 4.28061 0 0 0 128 128 0 255
0.0474268 0.663057 4.28061 0 0 0 128 128 0 255
0.0493342 0.654262 4.28061 0 0 0 128 128 0 255
-0.0698447 1.20757 4.28122 0 0 0 128 128 0 255
-0.0383097 1.08446 4.28492 0 0 0 128 128 0 255
-0.127607 1.49997 4.28553 0 0 0 128 128 0 255
-0.0653016 1.21265 4.28553 0 0 0 128 128 0 255
-0.0373485 1.0949 4.28738 0 0 0 128 128 0 255
0.0101225 0.875988 4.28738 0 0 0 128 128 0 255
-0.106513 1.41757 4.28799 0 0 0 128 128 0 255
-0.0666715 1.23384 4.28799 0 0 0 128 128 0 255
-0.105955 1.41872 4.28861 0 0 0 128 128 0 255
-0.0626658 1.22652 4.28984 0 0 0 128 128 0 255
-0.114608 1.47721 4.29169 0 0 0 128 128 0 255
-0.00845489 0.998841 4.29354 0 0 0 128 128 0 255
0.00277708 0.947045 4.29354 0 0 0 128 128 0 255
-0.114071 1.48961 4.29415 0 0 0 128 128 0 255
-0.101433 1.43505 4.29477 0 0 0 128 128 0 255
-0.0404763 1.15766 4.29538 0 0 0 128 128 0 255
0.00763047 0.935819 4.29538 0 0 0 128 128 0 255
0.0699153 0.659748 4.29723 0 0 0 128 128 0 255
0.0622084 0.699006 4.29784 0 0 0 128 128 0 255
0.0453889 0.780288 4.29846 0 0 0 128 128 0 255
0.0149286 0.928192 4.29969 0 0 0 128 128 0 255
-0.0493052 1.23556 4.30154 0 0 0 128 128 0 255
-0.0916332 1.43819 4.30277 0 0 0 128 128 0 255
0.00924259 0.973005 4.30277 0 0 0 128 128 0 255
0.0584657 0.75345 4.304 0 0 0 128 128 0 255
-0.0477858 1.24715 4.30462 0 0 0 128 128 0 255
-0.00258922 1.04616 4.30585 0 0 0 128 128 0 255
0.0243819 0.929219 4.30708 0 0 0 128 128 0 255
-0.0190266 1.14799 4.31016 0 0 0 128 128 0 255
0.00116295 1.06232 4.31139 0 0 0 128 128 0 255
-0.0393921 1.25306 4.31201 0 0 0 128 128 0 255
-0.0373505 1.24736 4.31262 0 0 0 128 128 0 255
0.0243762 0.970147 4.31385 0 0 0 128 128 0 255
0.0082491 1.05567 4.3157 0 0 0 128 128 0 255
-0.0302643 1.24071 4.31693 0 0 0 128 128 0 255
0.0376857 0.931081 4.31755 0 0 0 128 128 0 255
0.0831718 0.72504 4.31816 0 0 0 128 128 0 255
0.0428078 0.926052 4.32062 0 0 0 128 128 0 255
0.111182 0.614465 4.32124 0 0 0 128 128 0 255
-0.109162 1.63802 4.32247 0 0 0 128 128 0 255
0.00993882 1.08878 4.32247 0 0 0 128 128 0 255
0.0966724 0.696247 4.3237 0 0 0 128 128 0 255
0.0121716 1.09336 4.32493 0 0 0 128 128 0 255
0.0172578 1.0699 4.32493 0 0 0 128 128 0 255
0.0350594 0.987813 4.32493 0 0 0 128 128 0 255
0.0183741 1.07219 4.32617 0 0 0 128 128 0 255
0.103356 0.680302 4.32617 0 0 0 128 128 0 255
0.0494493 0.932608 4.32678 0 0 0 128 128 0 255
0.0988276 0.704901 4.32678 0 0 0 128 128 0 255
-0.0989958 1.63204 4.32924 0 0 0 128 128 0 255
0.106069 0.690099 4.32986 0 0 0 128 128 0 255
0.102389 0.710789 4.33047 0 0 0 128 128 0 255
0.0903658 0.773669 4.33171 0 0 0 128 128 0 255
-0.0950109 1.63597 4.33294 0 0 0 128 128 0 255
0.0939268 0.779558 4.3354 0 0 0 128 128 0 255
0.130414 0.629891 4.33848 0 0 0 128 128 0 255
0.0256248 1.128 4.34094 0 0 0 128 128 0 255
0.0525392 1.00388 4.34094 0 0 0 128 128 0 255
0.053175 1.00095 4.34094 0 0 0 128 128 0 255
0.135613 0.620786 4.34094 0 0 0 128 128 0 255
0.127695 0.661022 4.34156 0 0 0 128 128 0 255
0.0753078 0.924914 4.34525 0 0 0 128 128 0 255
0.0363497 1.12316 4.34833 0 0 0 128 128 0 255
0.0367735 1.12121 4.34833 0 0 0 128 128 0 255
0.151962 0.604889 4.35079 0 0 0 128 128 0 255
0.0649745 1.0209 4.35325 0 0 0 128 128 0 255
0.0777467 0.969442 4.35449 0 0 0 128 128 0 255
0.142595 0.670392 4.35449 0 0 0 128 128 0 255
0.0592317 1.05854 4.3551 0 0 0 128 128 0 255
0.0874176 0.928563 4.3551 0 0 0 128 128 0 255
0.158257 0.609324 4.35633 0 0 0 128 128 0 255
0.0820987 0.964246 4.35695 0 0 0 128 128 0 255
0.0845642 0.956595 4.35756 0 0 0 128 128 0 255
0.0896655 0.962817 4.36249 0 0 0 128 128 0 255
0.111282 0.863134 4.36249 0 0 0 128 128 0 255
0.0890089 0.977 4.36434 0 0 0 128 128 0 255
0.089815 0.995593 4.36803 0 0 0 128 128 0 255
0.171674 0.625536 4.36926 0 0 0 128 128 0 255
0.066193 1.1194 4.37049 0 0 0 128 128 0 255
0.071915 1.09301 4.37049 0 0 0 128 128 0 255
0.0966892 0.989921 4.37234 0 0 0 128 128 0 255
-0.00603712 1.47108 4.37357 0 0 0 128 128 0 255
0.0988652 0.987324 4.37357 0 0 0 128 128 0 255
0.106629 0.95524 4.37419 0 0 0 128 128 0 255
0.0827949 1.08002 4.37665 0 0 0 128 128 0 255
0.112521 0.950378 4.37788 0 0 0 128 128 0 255
0.0997848 1.02027 4.37973 0 0 0 128 128 0 255
0.00116257 1.47878 4.38034 0 0 0 128 128 0 255
0.0655874 1.18169 4.38034 0 0 0 128 128 0 255
0.115312 0.9561 4.38096 0 0 0 128 128 0 255
0.114599 0.963108 4.38157 0 0 0 128 128 0 255
0.103713 1.01703 4.38219 0 0 0 128 128 0 255
0.196592 0.596149 4.38342 0 0 0 128 128 0 255
0.00896209 1.46512 4.38404 0 0 0 128 128 0 255
0.125422 0.942943 4.3865 0 0 0 128 128 0 255
0.00920995 1.48257 4.38712 0 0 0 128 128 0 255
0.122724 0.962823 4.38773 0 0 0 128 128 0 255
0.117694 0.993453 4.38896 0 0 0 128 128 0 255
0.0760795 1.18908 4.38958 0 0 0 128 128 0 255
0.133723 0.923256 4.38958 0 0 0 128 128 0 255
0.0479504 1.32623 4.39081 0 0 0 128 128 0 255
0.0449059 1.34399 4.39143 0 0 0 128 128 0 255
0.0747872 1.20619 4.39143 0 0 0 128 128 0 255
0.120563 0.995098 4.39143 0 0 0 128 128 0 255
0.208935 0.58757 4.39143 0 0 0 128 128 0 255
0.0962482 1.11466 4.39266 0 0 0 128 128 0 255
0.0799093 1.20116 4.3945 0 0 0 128 128 0 255
0.0524935 1.33131 4.39512 0 0 0 128 128 0 255
0.0490251 1.35102 4.39573 0 0 0 128 128 0 255
0.133505 0.965161 4.39635 0 0 0 128 128 0 255
0.210702 0.616604 4.39758 0 0 0 128 128 0 255
0.136451 0.96273 4.3982 0 0 0 128 128 0 255
0.0166367 1.51897 4.39881 0 0 0 128 128 0 255
0.0530877 1.35088 4.39881 0 0 0 128 128 0 255
0.128744 1.00199 4.39881 0 0 0 128 128 0 255
0.241969 0.487293 4.40004 0 0 0 128 128 0 255
0.032934 1.45497 4.40066 0 0 0 128 128 0 255
0.0632391 1.31522 4.40066 0 0 0 128 128 0 255
0.0751069 1.26049 4.40066 0 0 0 128 128 0 255
0.181415 0.773972 4.40128 0 0 0 128 128 0 255
0.0927534 1.18655 4.40189 0 0 0 128 128 0 255
0.135732 1.01067 4.40559 0 0 0 128 128 0 255
0.0366086 1.47521 4.40682 0 0 0 128 128 0 255
0.125115 1.07078 4.40743 0 0 0 128 128 0 255
0.188692 0.777596 4.40743 0 0 0 128 128 0 255
0.029248 1.51659 4.40805 0 0 0 128 128 0 255
0.100087 1.19735 4.40928 0 0 0 128 128 0 255
0.260302 0.458525 4.40928 0 0 0 128 128 0 255
0.0387638 1.48387 4.40989 0 0 0 128 128 0 255
0.224621 0.626785 4.40989 0 0 0 128 128 0 255
0.101338 1.20274 4.41113 0 0 0 128 128 0 255
0.138213 1.03269 4.41113 0 0 0 128 128 0 255
0.192445 0.793759 4.41297 0 0 0 128 128 0 255
0.267176 0.452853 4.41359 0 0 0 128 128 0 255
0.0479692 1.46744 4.4142 0 0 0 128 128 0 255
0.0956521 1.24755 4.4142 0 0 0 128 128 0 255
0.139903 1.0658 4.4179 0 0 0 128 128 0 255
0.1536 1.00636 4.41851 0 0 0 128 128 0 255
0.142425 1.06533 4.41975 0 0 0 128 128 0 255
0.145816 1.04969 4.41975 0 0 0 128 128 0 255
0.215807 0.734361 4.42098 0 0 0 128 128 0 255
0.0938734 1.30038 4.42159 0 0 0 128 128 0 255
0.14749 1.05312 4.42159 0 0 0 128 128 0 255
0.0901931 1.32107 4.42221 0 0 0 128 128 0 255
0.133772 1.12382 4.42282 0 0 0 128 128 0 255
0.22384 0.708475 4.42282 0 0 0 128 128 0 255
0.095336 1.30479 4.42344 0 0 0 128 128 0 255
0.15163 1.0489 4.42406 0 0 0 128 128 0 255
0.0907305 1.33346 4.42467 0 0 0 128 128 0 255
0.0878979 1.35024 4.42529 0 0 0 128 128 0 255
0.212354 0.783751 4.42652 0 0 0 128 128 0 255
0.224858 0.726091 4.42652 0 0 0 128 128 0 255
0.225204 0.728212 4.42713 0 0 0 128 128 0 255
0.0943691 1.33527 4.42775 0 0 0 128 128 0 255
0.212411 0.790926 4.42775 0 0 0 128 128 0 255
0.156308 1.05708 4.42898 0 0 0 128 128 0 255
0.0665862 1.47455 4.4296 0 0 0 128 128 0 255
0.18378 0.93411 4.4296 0 0 0 128 128 0 255
0.132205 1.17567 4.43021 0 0 0 128 128 0 255
0.232233 0.714388 4.43021 0 0 0 128 128 0 255
0.142724 1.13088 4.43083 0 0 0 128 128 0 255
0.219864 0.775147 4.43083 0 0 0 128 128 0 255
0.0796271 1.42929 4.43206 0 0 0 128 128 0 255
0.0963691 1.35208 4.43206 0 0 0 128 128 0 255
0.110144 1.28856 4.43206 0 0 0 128 128 0 255
0.230517 0.733457 4.43206 0 0 0 128 128 0 255
0.105172 1.32636 4.43452 0 0 0 128 128 0 255
0.0794511 1.44869 4.43514 0 0 0 128 128 0 255
0.170925 1.03058 4.43575 0 0 0 128 128 0 255
0.228971 0.774052 4.4376 0 0 0 128 128 0 255
0.23446 0.759894 4.43945 0 0 0 128 128 0 255
0.228237 0.792311 4.44006 0 0 0 128 128 0 255
0.245403 0.713151 4.44006 0 0 0 128 128 0 255
0.124317 1.27526 4.44068 0 0 0 128 128 0 255
0.168665 1.07818 4.44191 0 0 0 128 128 0 255
0.187527 0.991201 4.44191 0 0 0 128 128 0 255
0.112216 1.34221 4.44252 0 0 0 128 128 0 255
0.130653 1.25719 4.44252 0 0 0 128 128 0 255
0.137647 1.22494 4.44252 0 0 0 128 128 0 255
0.12337 1.29449 4.44314 0 0 0 128 128 0 255
0.115798 1.33685 4.44437 0 0 0 128 128 0 255
0.172805 1.07396 4.44437 0 0 0 128 128 0 255
0.179799 1.04171 4.44437 0 0 0 128 128 0 255
0.243164 0.749502 4.44437 0 0 0 128 128 0 255
0.133233 1.26389 4.4456 0 0 0 128 128 0 255
0.139011 1.24468 4.44683 0 0 0 128 128 0 255
0.233105 0.810762 4.44683 0 0 0 128 128 0 255
0.124735 1.31423 4.44745 0 0 0 128 128 0 255
0.25499 0.717276 4.44807 0 0 0 128 128 0 255
0.123944 1.32532 4.44868 0 0 0 128 128 0 255
0.0967966 1.46166 4.45053 0 0 0 128 128 0 255
0.105485 1.42159 4.45053 0 0 0 128 128 0 255
0.106757 1.41573 4.45053 0 0 0 128 128 0 255
0.362896 0.238264 4.45114 0 0 0 128 128 0 255
0.102766 1.45272 4.45361 0 0 0 128 128 0 255
0.10947 1.42552 4.45422 0 0 0 128 128 0 255
0.127484 1.34245 4.45422 0 0 0 128 128 0 255
0.177074 1.11377 4.45422 0 0 0 128 128 0 255
0.14097 1.28398 4.45484 0 0 0 128 128 0 255
0.249588 0.797964 4.4573 0 0 0 128 128 0 255
0.221459 0.935118 4.45853 0 0 0 128 128 0 255
0.325514 0.455271 4.45853 0 0 0 128 128 0 255
0.139713 1.31953 4.45976 0 0 0 128 128 0 255
0.199052 1.04589 4.45976 0 0 0 128 128 0 255
0.141755 1.31383 4.46038 0 0 0 128 128 0 255
0.337686 0.425167 4.46284 0 0 0 128 128 0 255
0.337185 0.431197 4.46346 0 0 0 128 128 0 255
0.115646 1.45654 4.46407 0 0 0 128 128 0 255
0.126031 1.40865 4.46407 0 0 0 128 128 0 255
0.199568 1.06953 4.46407 0 0 0 128 128 0 255
0.142618 1.3396 4.4653 0 0 0 128 128 0 255
0.38633 0.215718 4.4653 0 0 0 128 128 0 255
0.175523 1.19529 4.46654 0 0 0 128 128 0 255
0.339396 0.447026 4.46777 0 0 0 128 128 0 255
0.167449 1.24368 4.46838 0 0 0 128 128 0 255
0.390605 0.214599 4.46838 0 0 0 128 128 0 255
0.121595 1.45885 4.469 0 0 0 128 128 0 255
0.107955 1.52547 4.46961 0 0 0 128 128 0 255
0.230581 0.963701 4.47023 0 0 0 128 128 0 255
0.153074 1.32856 4.47146 0 0 0 128 128 0 255
0.214744 1.04417 4.47146 0 0 0 128 128 0 255
0.126082 1.45675 4.47208 0 0 0 128 128 0 255
0.181911 1.22533 4.47639 0 0 0 128 128 0 255
0.183394 1.21849 4.47639 0 0 0 128 128 0 255
0.138947 1.43089 4.47762 0 0 0 128 128 0 255
0.223851 1.04308 4.47823 0 0 0 128 128 0 255
0.358055 0.43163 4.47946 0 0 0 128 128 0 255
0.391441 0.292546 4.48193 0 0 0 128 128 0 255
0.252765 0.935768 4.48254 0 0 0 128 128 0 255
0.403019 0.242872 4.48254 0 0 0 128 128 0 255
0.177666 1.2858 4.48316 0 0 0 128 128 0 255
0.217508 1.10207 4.48316 0 0 0 128 128 0 255
0.186913 1.24688 4.48377 0 0 0 128 128 0 255
0.254863 0.937246 4.48439 0 0 0 128 128 0 255
0.251819 0.955004 4.48501 0 0 0 128 128 0 255
0.412245 0.215198 4.48501 0 0 0 128 128 0 255
0.179263 1.29331 4.48562 0 0 0 128 128 0 255
0.413786 0.215532 4.48624 0 0 0 128 128 0 255
0.233283 1.05536 4.48747 0 0 0 128 128 0 255
0.157337 1.4093 4.48808 0 0 0 128 128 0 255
0.259329 0.9464 4.48932 0 0 0 128 128 0 255
0.203727 1.20653 4.48993 0 0 0 128 128 0 255
0.419678 0.210671 4.48993 0 0 0 128 128 0 255
0.191782 1.26533 4.49055 0 0 0 128 128 0 255
0.19263 1.26142 4.49055 0 0 0 128 128 0 255
0.190779 1.27739 4.49178 0 0 0 128 128 0 255
0.156194 1.45919 4.49547 0 0 0 128 128 0 255
0.165307 1.41717 4.49547 0 0 0 128 128 0 255
0.207324 1.23084 4.4967 0 0 0 128 128 0 255
0.210849 1.2183 4.49732 0 0 0 128 128 0 255
0.249208 1.04141 4.49732 0 0 0 128 128 0 255
0.269051 0.953625 4.49793 0 0 0 128 128 0 255
0.236528 1.11848 4.5004 0 0 0 128 128 0 255
0.201483 1.2838 4.50101 0 0 0 128 128 0 255
0.203235 1.28316 4.50224 0 0 0 128 128 0 255
0.219476 1.21199 4.50286 0 0 0 128 128 0 255
0.165993 1.46234 4.50348 0 0 0 128 128 0 255
0.256485 1.04504 4.50348 0 0 0 128 128 0 255
0.177396 1.43207 4.50717 0 0 0 128 128 0 255
0.172656 1.45764 4.50778 0 0 0 128 128 0 255
0.231359 1.18694 4.50778 0 0 0 128 128 0 255
0.173638 1.45683 4.5084 0 0 0 128 128 0 255
0.207256 1.30552 4.50902 0 0 0 128 128 0 255
0.213402 1.27718 4.50902 0 0 0 128 128 0 255
0.185986 1.40733 4.50963 0 0 0 128 128 0 255
0.240486 1.17459 4.51271 0 0 0 128 128 0 255
0.448709 0.229245 4.51517 0 0 0 128 128 0 255
0.23769 1.2098 4.5164 0 0 0 128 128 0 255
0.197057 1.40461 4.51764 0 0 0 128 128 0 255
0.198463 1.40185 4.51825 0 0 0 128 128 0 255
0.252927 1.15068 4.51825 0 0 0 128 128 0 255
0.188001 1.45381 4.51887 0 0 0 128 128 0 255
0.220426 1.30428 4.51887 0 0 0 128 128 0 255
0.21611 1.32791 4.51948 0 0 0 128 128 0 255
0.219903 1.32157 4.52133 0 0 0 128 128 0 255
0.220172 1.32776 4.52256 0 0 0 128 128 0 255
0.209844 1.38283 4.52379 0 0 0 128 128 0 255
0.193082 1.47128 4.52564 0 0 0 128 128 0 255
0.293725 1.01832 4.52749 0 0 0 128 128 0 255
0.242708 1.26102 4.52872 0 0 0 128 128 0 255
0.245887 1.24636 4.52872 0 0 0 128 128 0 255
0.292856 1.03348 4.52933 0 0 0 128 128 0 255
0.21217 1.413 4.53056 0 0 0 128 128 0 255
0.297208 1.02829 4.5318 0 0 0 128 128 0 255
0.256265 1.23941 4.53549 0 0 0 128 128 0 255
0.231294 1.37315 4.53857 0 0 0 128 128 0 255
0.27755 1.16728 4.5398 0 0 0 128 128 0 255
0.308202 1.02965 4.54041 0 0 0 128 128 0 255
0.253158 1.29092 4.54165 0 0 0 128 128 0 255
0.308527 1.04302 4.54288 0 0 0 128 128 0 255
0.256952 1.28458 4.54349 0 0 0 128 128 0 255
0.248723 1.34112 4.54657 0 0 0 128 128 0 255
0.245813 1.36197 4.5478 0 0 0 128 128 0 255
0.266984 1.2755 4.54965 0 0 0 128 128 0 255
0.281452 1.21622 4.55088 0 0 0 128 128 0 255
0.241646 1.41837 4.55396 0 0 0 128 128 0 255
0.278097 1.25028 4.55396 0 0 0 128 128 0 255
0.274763 1.27309 4.55519 0 0 0 128 128 0 255
0.284434 1.23221 4.55581 0 0 0 128 128 0 255
0.280888 1.256 4.55704 0 0 0 128 128 0 255
0.258982 1.36074 4.55765 0 0 0 128 128 0 255
0.272969 1.29624 4.55765 0 0 0 128 128 0 255
0.249849 1.41401 4.5595 0 0 0 128 128 0 255
0.284604 1.25374 4.5595 0 0 0 128 128 0 255
0.224609 1.54156 4.56135 0 0 0 128 128 0 255
0.275181 1.31207 4.56196 0 0 0 128 128 0 255
0.307316 1.16759 4.56258 0 0 0 128 128 0 255
0.3177 1.11971 4.56258 0 0 0 128 128 0 255
0.285467 1.27951 4.56443 0 0 0 128 128 0 255
0.304251 1.1966 4.56504 0 0 0 128 128 0 255
0.260941 1.40005 4.56566 0 0 0 128 128 0 255
0.282029 1.35857 4.57489 0 0 0 128 128 0 255
0.307517 1.24847 4.57612 0 0 0 128 128 0 255
0.295995 1.30532 4.57674 0 0 0 128 128 0 255
0.315761 1.22161 4.57797 0 0 0 128 128 0 255
0.284241 1.3744 4.5792 0 0 0 128 128 0 255
0.293488 1.33548 4.57982 0 0 0 128 128 0 255
0.333174 1.1599 4.58105 0 0 0 128 128 0 255
0.338317 1.14362 4.58228 0 0 0 128 128 0 255
0.341284 1.12994 4.58228 0 0 0 128 128 0 255
0.326372 1.20242 4.5829 0 0 0 128 128 0 255
0.344809 1.1174 4.5829 0 0 0 128 128 0 255
0.337025 1.16073 4.58413 0 0 0 128 128 0 255
0.303887 1.31727 4.58474 0 0 0 128 128 0 255
0.299049 1.35817 4.58782 0 0 0 128 128 0 255
0.313997 1.30411 4.59028 0 0 0 128 128 0 255
0.308756 1.33572 4.59151 0 0 0 128 128 0 255
0.313418 1.31422 4.59151 0 0 0 128 128 0 255
0.316173 1.30151 4.59151 0 0 0 128 128 0 255
0.357074 1.1129 4.59151 0 0 0 128 128 0 255
0.318484 1.30201 4.59336 0 0 0 128 128 0 255
0.357188 1.12725 4.59398 0 0 0 128 128 0 255
0.30935 1.35529 4.59521 0 0 0 128 128 0 255
0.323874 1.30318 4.59767 0 0 0 128 128 0 255
0.337014 1.24259 4.59767 0 0 0 128 128 0 255
0.36248 1.14374 4.60075 0 0 0 128 128 0 255
0.364961 1.16577 4.60629 0 0 0 128 128 0 255
0.302303 1.4919 4.61245 0 0 0 128 128 0 255
0.35701 1.29911 4.6223 0 0 0 128 128 0 255
0.309384 1.52618 4.62353 0 0 0 128 128 0 255
0.359108 1.30059 4.62414 0 0 0 128 128 0 255
0.365559 1.29687 4.62845 0 0 0 128 128 0 255
0.356779 1.57534 4.66786 0 0 0 128 128 0 255
