ply
format ascii 1.0
comment VCGLIB generated
element vertex 317
property float x
property float y
property float z
property float nx
property float ny
property float nz
property uchar red
property uchar green
property uchar blue
property uchar alpha
element face 0
property list uchar int vertex_indices
end_header
-0.863335 -1.16026 3.55961 0 0 0 255 255 255 255
-1.04709 -0.964038 3.85307 0 0 0 255 255 255 255
-0.601369 -1.17672 3.6227 0 0 0 255 255 255 255
-0.606978 -1.18435 3.61625 0 0 0 255 255 255 255
-0.525089 -1.04501 3.7499 0 0 0 255 255 255 255
-0.870695 -1.16907 3.57992 0 0 0 255 255 255 255
-0.888576 -1.16482 3.58831 0 0 0 255 255 255 255
-2.70742 -1.55657 5.23233 0 0 0 255 255 255 255
-1.25583 -1.89814 6.30234 0 0 0 255 255 255 255
-2.7115 -1.55116 5.21061 0 0 0 255 255 255 255
-2.64485 -1.56408 5.29048 0 0 0 255 255 255 255
-2.71295 -1.53327 5.21823 0 0 0 255 255 255 255
-2.51019 0.364533 4.64321 0 0 0 255 255 255 255
-2.56215 0.725021 4.79578 0 0 0 255 255 255 255
-2.51575 1.22278 4.75035 0 0 0 255 255 255 255
-2.53199 1.28132 4.8499 0 0 0 255 255 255 255
-2.59107 0.995534 4.71011 0 0 0 255 255 255 255
-2.59562 1.02295 4.7284 0 0 0 255 255 255 255
-2.58425 0.976872 4.7169 0 0 0 255 255 255 255
-2.59986 1.04028 4.71118 0 0 0 255 255 255 255
-2.5833 0.982223 4.72727 0 0 0 255 255 255 255
-2.44874 1.2405 4.60479 0 0 0 255 255 255 255
-2.50915 1.15709 4.7435 0 0 0 255 255 255 255
-2.59088 1.09389 4.73181 0 0 0 255 255 255 255
-2.56362 1.21968 4.87234 0 0 0 255 255 255 255
-2.59369 1.00234 4.7125 0 0 0 255 255 255 255
-2.59185 1.05875 4.7666 0 0 0 255 255 255 255
-2.34812 1.2055 4.44371 0 0 0 255 255 255 255
-2.31427 1.28987 4.5528 0 0 0 255 255 255 255
-0.97729 -0.00692009 3.7459 0 0 0 255 255 255 255
-0.979636 0.00464711 3.75605 0 0 0 255 255 255 255
-0.979352 -0.0255625 3.75099 0 0 0 255 255 255 255
-0.971835 0.360096 3.79123 0 0 0 255 255 255 255
-0.97979 0.351587 3.78801 0 0 0 255 255 255 255
-0.973612 0.339441 3.81183 0 0 0 255 255 255 255
-0.975679 0.359556 3.79366 0 0 0 255 255 255 255
-0.617022 0.132684 3.70879 0 0 0 255 255 255 255
-0.988184 0.336294 3.81117 0 0 0 255 255 255 255
-0.966775 0.376333 3.79766 0 0 0 255 255 255 255
-0.995338 0.3286 3.84371 0 0 0 255 255 255 255
0.0828549 0.0701834 4.3108 0 0 0 255 255 255 255
0.184742 0.0740558 4.24786 0 0 0 255 255 255 255
0.196309 0.0701822 4.24834 0 0 0 255 255 255 255
0.236534 0.0720111 4.24234 0 0 0 255 255 255 255
0.066411 0.0798856 4.31772 0 0 0 255 255 255 255
0.0587931 0.0796386 4.32038 0 0 0 255 255 255 255
0.261416 0.0775579 4.2601 0 0 0 255 255 255 255
0.0642537 0.0604834 4.31754 0 0 0 255 255 255 255
0.157991 0.0775171 4.23991 0 0 0 255 255 255 255
0.041336 0.144074 4.32854 0 0 0 255 255 255 255
0.0713438 0.118205 4.31592 0 0 0 255 255 255 255
0.0512195 0.207488 4.32422 0 0 0 255 255 255 255
0.0499162 0.0973157 4.32431 0 0 0 255 255 255 255
0.0555721 0.0804992 4.32163 0 0 0 255 255 255 255
0.0614955 0.192231 4.3285 0 0 0 255 255 255 255
0.0608854 0.361645 4.25448 0 0 0 255 255 255 255
-0.0873336 0.957431 4.3192 0 0 0 255 255 255 255
-0.108146 0.899335 4.26417 0 0 0 255 255 255 255
0.218849 0.12818 4.2183 0 0 0 255 255 255 255
0.139334 0.284746 4.22226 0 0 0 255 255 255 255
0.217558 0.14177 4.21493 0 0 0 255 255 255 255
0.134205 0.103528 4.21159 0 0 0 255 255 255 255
0.17866 0.104156 4.24027 0 0 0 255 255 255 255
0.159181 0.0999363 4.23971 0 0 0 255 255 255 255
0.100833 0.139897 4.33115 0 0 0 255 255 255 255
0.155724 0.0864715 4.26764 0 0 0 255 255 255 255
0.159682 0.105632 4.23915 0 0 0 255 255 255 255
0.0811633 0.0937537 4.31297 0 0 0 255 255 255 255
0.0880372 0.178626 4.31046 0 0 0 255 255 255 255
0.106811 0.187932 4.27351 0 0 0 255 255 255 255
0.178818 0.101576 4.25838 0 0 0 255 255 255 255
0.0773839 0.145361 4.31297 0 0 0 255 255 255 255
0.0947799 0.111795 4.34328 0 0 0 255 255 255 255
0.176447 0.237643 4.26036 0 0 0 255 255 255 255
0.163516 0.24398 4.25046 0 0 0 255 255 255 255
0.154578 0.226543 4.22703 0 0 0 255 255 255 255
0.147595 0.225796 4.23203 0 0 0 255 255 255 255
0.202819 0.0956699 4.23847 0 0 0 255 255 255 255
0.254054 0.168655 4.29242 0 0 0 255 255 255 255
0.266606 0.0892838 4.26371 0 0 0 255 255 255 255
0.262354 0.169099 4.25214 0 0 0 255 255 255 255
0.261725 0.172499 4.30549 0 0 0 255 255 255 255
0.216826 0.167784 4.24118 0 0 0 255 255 255 255
0.253066 0.0941184 4.25232 0 0 0 255 255 255 255
0.259558 0.108294 4.25571 0 0 0 255 255 255 255
0.185447 0.108076 4.23812 0 0 0 255 255 255 255
0.251368 0.140272 4.22865 0 0 0 255 255 255 255
0.216473 0.0825189 4.24493 0 0 0 255 255 255 255
0.277237 0.185633 4.29095 0 0 0 255 255 255 255
0.266458 0.141808 4.27855 0 0 0 255 255 255 255
0.210671 0.116133 4.2457 0 0 0 255 255 255 255
0.215386 0.167172 4.24052 0 0 0 255 255 255 255
0.292254 0.174472 4.30843 0 0 0 255 255 255 255
0.226928 0.298626 4.25639 0 0 0 255 255 255 255
0.218037 0.220956 4.24083 0 0 0 255 255 255 255
0.22375 0.278086 4.25707 0 0 0 255 255 255 255
0.216793 0.289591 4.2588 0 0 0 255 255 255 255
0.23908 0.227588 4.23852 0 0 0 255 255 255 255
0.185657 0.229176 4.25191 0 0 0 255 255 255 255
0.202781 0.224396 4.24135 0 0 0 255 255 255 255
0.220882 0.23167 4.25382 0 0 0 255 255 255 255
0.193701 0.292862 4.26412 0 0 0 255 255 255 255
0.246906 0.288766 4.23285 0 0 0 255 255 255 255
0.190589 0.2632 4.2605 0 0 0 255 255 255 255
0.139478 0.300712 4.22492 0 0 0 255 255 255 255
0.182275 0.302201 4.25726 0 0 0 255 255 255 255
0.22699 0.31606 4.25637 0 0 0 255 255 255 255
-0.105945 0.975499 4.26532 0 0 0 255 255 255 255
-0.100292 0.974881 4.27564 0 0 0 255 255 255 255
0.269681 1.32654 4.2629 0 0 0 255 255 255 255
0.253135 1.3228 4.24085 0 0 0 255 255 255 255
0.498535 0.995319 4.39085 0 0 0 255 255 255 255
0.463866 1.00475 4.44347 0 0 0 255 255 255 255
0.468546 1.11452 4.77564 0 0 0 255 255 255 255
0.46826 1.08918 4.86494 0 0 0 255 255 255 255
0.507335 1.06218 4.45296 0 0 0 255 255 255 255
0.514086 1.04777 4.63784 0 0 0 255 255 255 255
-2.89804 0.40177 5.86825 0 0 0 255 255 255 255
-2.61986 0.899671 4.89934 0 0 0 255 255 255 255
-3.00909 0.38315 5.6753 0 0 0 255 255 255 255
-2.83852 0.286583 5.18755 0 0 0 255 255 255 255
-2.87807 0.302402 5.28916 0 0 0 255 255 255 255
-2.80837 0.331188 5.13055 0 0 0 255 255 255 255
-2.84382 0.288046 5.19916 0 0 0 255 255 255 255
-2.73995 0.372425 5.61667 0 0 0 255 255 255 255
-2.90832 0.313951 5.38259 0 0 0 255 255 255 255
-2.90863 0.308978 5.38093 0 0 0 255 255 255 255
-2.88276 0.313146 5.26536 0 0 0 255 255 255 255
-2.94085 0.37377 5.61661 0 0 0 255 255 255 255
-2.69563 1.24145 5.22362 0 0 0 255 255 255 255
-2.56594 1.26393 4.95775 0 0 0 255 255 255 255
-2.69507 1.24161 5.22279 0 0 0 255 255 255 255
-2.67675 1.16724 5.25247 0 0 0 255 255 255 255
-2.55101 1.26572 4.98099 0 0 0 255 255 255 255
-2.7144 1.11965 5.2832 0 0 0 255 255 255 255
-2.5436 1.24 5.12618 0 0 0 255 255 255 255
-2.54152 1.28963 4.92356 0 0 0 255 255 255 255
-2.54541 1.28402 4.92131 0 0 0 255 255 255 255
-2.64399 1.27312 5.11151 0 0 0 255 255 255 255
0.19585 1.16115 5.03597 0 0 0 255 255 255 255
-0.0942215 1.21334 5.01323 0 0 0 255 255 255 255
2.24332 -2.69866 6.15623 0 0 0 255 255 255 255
2.23565 -2.928 6.14683 0 0 0 255 255 255 255
2.22729 -2.84503 6.13487 0 0 0 255 255 255 255
2.23437 -2.91154 6.14532 0 0 0 255 255 255 255
2.23978 -2.69134 6.16201 0 0 0 255 255 255 255
2.23771 -2.68128 6.16459 0 0 0 255 255 255 255
2.22123 -2.58785 6.12589 0 0 0 255 255 255 255
2.22649 -2.82314 6.13243 0 0 0 255 255 255 255
1.6684 -1.83828 6.02906 0 0 0 255 255 255 255
1.65109 -1.80432 6.00399 0 0 0 255 255 255 255
2.14616 -2.17283 6.02719 0 0 0 255 255 255 255
2.12515 -2.31015 6.00331 0 0 0 255 255 255 255
2.23427 -2.40826 6.127 0 0 0 255 255 255 255
2.23777 -2.44008 6.15039 0 0 0 255 255 255 255
2.13142 -2.30219 6.00054 0 0 0 255 255 255 255
2.14957 -2.1541 6.03306 0 0 0 255 255 255 255
2.24332 -2.46316 6.15954 0 0 0 255 255 255 255
2.14022 -2.18049 6.0209 0 0 0 255 255 255 255
2.08852 -1.69537 5.94954 0 0 0 255 255 255 255
2.01021 -1.85236 6.07502 0 0 0 255 255 255 255
2.08592 -1.85799 5.95094 0 0 0 255 255 255 255
2.00046 -1.8254 6.01364 0 0 0 255 255 255 255
2.13329 -2.07878 6.01002 0 0 0 255 255 255 255
2.1104 -1.8386 5.97842 0 0 0 255 255 255 255
2.08872 -1.83394 5.95589 0 0 0 255 255 255 255
2.08793 -1.6982 5.95072 0 0 0 255 255 255 255
2.09293 -1.92675 5.95567 0 0 0 255 255 255 255
2.00483 -1.84435 6.0832 0 0 0 255 255 255 255
2.24745 -1.95864 6.14611 0 0 0 255 255 255 255
2.06735 -1.97244 6.25539 0 0 0 255 255 255 255
2.00413 -1.97269 6.36449 0 0 0 255 255 255 255
1.70435 -1.67885 5.92126 0 0 0 255 255 255 255
2.08714 -1.46196 5.95061 0 0 0 255 255 255 255
2.08675 -1.6168 5.94475 0 0 0 255 255 255 255
2.08857 -1.47501 5.95192 0 0 0 255 255 255 255
2.08091 -1.38683 5.93173 0 0 0 255 255 255 255
1.84782 -1.67404 5.95007 0 0 0 255 255 255 255
2.09135 -1.38291 5.95668 0 0 0 255 255 255 255
2.091 -1.61049 5.95866 0 0 0 255 255 255 255
2.08196 -1.60016 5.93554 0 0 0 255 255 255 255
2.11348 -1.4479 6.00775 0 0 0 255 255 255 255
1.68224 -1.65333 5.93954 0 0 0 255 255 255 255
2.13414 -1.67194 6.00907 0 0 0 255 255 255 255
0.954383 0.908882 3.60668 0 0 0 255 255 255 255
1.05584 0.612711 3.44141 0 0 0 255 255 255 255
1.03448 0.658642 3.39798 0 0 0 255 255 255 255
1.05177 0.723305 3.35969 0 0 0 255 255 255 255
1.08613 0.617377 3.40735 0 0 0 255 255 255 255
1.10745 0.598336 3.41371 0 0 0 255 255 255 255
1.06875 0.674974 3.34483 0 0 0 255 255 255 255
1.16555 0.792075 3.31696 0 0 0 255 255 255 255
1.03917 0.75584 3.21362 0 0 0 255 255 255 255
1.13187 0.770174 3.32022 0 0 0 255 255 255 255
0.971797 0.793106 3.2885 0 0 0 255 255 255 255
1.28229 0.60433 3.36994 0 0 0 255 255 255 255
1.26842 0.599756 3.35671 0 0 0 255 255 255 255
1.22934 0.686457 3.47604 0 0 0 255 255 255 255
1.32994 0.615389 3.41833 0 0 0 255 255 255 255
1.35598 0.687253 3.42495 0 0 0 255 255 255 255
1.34819 0.646268 3.51756 0 0 0 255 255 255 255
1.34259 0.642356 3.51486 0 0 0 255 255 255 255
1.34667 0.658864 3.5013 0 0 0 255 255 255 255
1.33292 0.743824 3.49625 0 0 0 255 255 255 255
1.15331 0.537093 3.89299 0 0 0 255 255 255 255
1.07265 0.577326 3.7976 0 0 0 255 255 255 255
1.06068 0.578134 3.80627 0 0 0 255 255 255 255
1.2544 0.624488 3.61689 0 0 0 255 255 255 255
1.2631 0.695585 3.65694 0 0 0 255 255 255 255
1.25843 0.66167 3.6628 0 0 0 255 255 255 255
1.35395 0.571508 3.77852 0 0 0 255 255 255 255
1.26015 0.649015 3.6511 0 0 0 255 255 255 255
1.24642 0.615912 3.60443 0 0 0 255 255 255 255
1.26021 0.663712 3.66512 0 0 0 255 255 255 255
1.30128 0.541514 3.65418 0 0 0 255 255 255 255
1.32188 0.56746 3.68442 0 0 0 255 255 255 255
0.527686 0.930427 4.51737 0 0 0 255 255 255 255
1.66174 0.729022 3.73772 0 0 0 255 255 255 255
1.85838 0.743214 3.99068 0 0 0 255 255 255 255
1.60008 0.740004 3.62788 0 0 0 255 255 255 255
1.61609 0.72927 3.6694 0 0 0 255 255 255 255
1.48598 0.957414 3.47197 0 0 0 255 255 255 255
1.61647 0.746816 3.63174 0 0 0 255 255 255 255
1.64975 0.638709 4.33689 0 0 0 255 255 255 255
1.90126 0.750832 4.03256 0 0 0 255 255 255 255
1.6701 0.646921 4.35779 0 0 0 255 255 255 255
1.95771 0.734844 4.16609 0 0 0 255 255 255 255
1.80544 0.69766 4.12329 0 0 0 255 255 255 255
1.8686 0.730481 4.03228 0 0 0 255 255 255 255
1.67352 0.641445 4.36222 0 0 0 255 255 255 255
0.942567 1.0919 3.46874 0 0 0 255 255 255 255
0.888295 1.09235 3.67916 0 0 0 255 255 255 255
0.881986 1.0842 3.65394 0 0 0 255 255 255 255
0.933281 1.13974 3.6524 0 0 0 255 255 255 255
0.930788 1.12182 3.57238 0 0 0 255 255 255 255
0.955928 1.09161 3.5293 0 0 0 255 255 255 255
1.23497 1.15215 3.32329 0 0 0 255 255 255 255
1.235 1.15217 3.32333 0 0 0 255 255 255 255
1.29523 1.07803 3.34102 0 0 0 255 255 255 255
1.27297 1.08854 3.34307 0 0 0 255 255 255 255
1.29628 1.07342 3.33894 0 0 0 255 255 255 255
1.25506 1.02188 3.27535 0 0 0 255 255 255 255
1.29578 1.06769 3.3371 0 0 0 255 255 255 255
1.27834 1.07208 3.34279 0 0 0 255 255 255 255
1.25038 1.07528 3.3471 0 0 0 255 255 255 255
1.33372 1.17805 3.40497 0 0 0 255 255 255 255
1.26165 1.09706 3.38449 0 0 0 255 255 255 255
1.33441 1.12264 3.46366 0 0 0 255 255 255 255
1.31225 1.13222 3.37764 0 0 0 255 255 255 255
1.33008 1.10071 3.44603 0 0 0 255 255 255 255
1.32839 1.07103 3.43203 0 0 0 255 255 255 255
1.33171 1.0874 3.44441 0 0 0 255 255 255 255
1.32927 1.14171 3.36355 0 0 0 255 255 255 255
1.25585 1.10104 3.34518 0 0 0 255 255 255 255
1.33467 1.14195 3.36296 0 0 0 255 255 255 255
1.30931 1.11508 3.35049 0 0 0 255 255 255 255
1.25277 1.10843 3.34498 0 0 0 255 255 255 255
1.28489 1.10117 3.34988 0 0 0 255 255 255 255
1.25349 1.09928 3.34505 0 0 0 255 255 255 255
1.31705 1.1997 3.42663 0 0 0 255 255 255 255
1.31992 1.20829 3.43035 0 0 0 255 255 255 255
1.23383 1.2649 3.35126 0 0 0 255 255 255 255
1.31781 1.19578 3.42407 0 0 0 255 255 255 255
1.33595 1.19992 3.42653 0 0 0 255 255 255 255
1.33318 1.20886 3.47565 0 0 0 255 255 255 255
0.958903 1.14605 3.57636 0 0 0 255 255 255 255
0.517732 1.0476 4.65776 0 0 0 255 255 255 255
0.768086 1.11341 4.87493 0 0 0 255 255 255 255
0.767767 1.11481 4.86562 0 0 0 255 255 255 255
1.44526 1.11295 3.47454 0 0 0 255 255 255 255
1.49151 0.961436 3.46816 0 0 0 255 255 255 255
1.40132 1.26889 3.59473 0 0 0 255 255 255 255
1.40617 1.23503 3.55595 0 0 0 255 255 255 255
2.11159 0.75081 6.07348 0 0 0 255 255 255 255
2.06802 0.73601 5.95499 0 0 0 255 255 255 255
2.09229 0.708366 5.99151 0 0 0 255 255 255 255
2.0663 0.766824 5.94343 0 0 0 255 255 255 255
2.13348 0.766738 6.11187 0 0 0 255 255 255 255
2.08365 0.787662 5.97452 0 0 0 255 255 255 255
1.96105 0.798039 5.61314 0 0 0 255 255 255 255
2.09369 0.698134 5.98964 0 0 0 255 255 255 255
2.13049 0.718854 6.11759 0 0 0 255 255 255 255
2.12915 0.815459 6.10818 0 0 0 255 255 255 255
2.13411 0.710571 6.11987 0 0 0 255 255 255 255
2.09234 0.716331 5.99145 0 0 0 255 255 255 255
1.01994 1.24584 5.60956 0 0 0 255 255 255 255
0.72944 1.29443 5.68798 0 0 0 255 255 255 255
0.714901 1.29103 5.67001 0 0 0 255 255 255 255
0.738758 1.29768 5.68558 0 0 0 255 255 255 255
0.70918 1.27836 5.648 0 0 0 255 255 255 255
0.98546 1.24561 5.5201 0 0 0 255 255 255 255
1.0163 1.25271 5.61845 0 0 0 255 255 255 255
1.03325 1.21845 5.39208 0 0 0 255 255 255 255
0.866944 1.24631 5.49017 0 0 0 255 255 255 255
0.983114 1.21614 5.42152 0 0 0 255 255 255 255
1.02581 1.22217 5.43534 0 0 0 255 255 255 255
0.889643 1.24585 5.71811 0 0 0 255 255 255 255
0.771642 1.0935 4.99732 0 0 0 255 255 255 255
0.814789 1.1603 5.34801 0 0 0 255 255 255 255
0.976047 1.18111 5.36508 0 0 0 255 255 255 255
0.880899 1.24025 5.43807 0 0 0 255 255 255 255
0.712144 1.28766 5.66275 0 0 0 255 255 255 255
0.770131 1.10645 5.05625 0 0 0 255 255 255 255
0.759484 1.1479 5.26106 0 0 0 255 255 255 255
0.828577 1.21781 5.60681 0 0 0 255 255 255 255
3.02355 0.813708 5.60684 0 0 0 255 255 255 255
3.40576 0.784759 5.94311 0 0 0 255 255 255 255
4.03882 0.638561 6.55899 0 0 0 255 255 255 255
3.40882 0.787217 5.93887 0 0 0 255 255 255 255
3.33057 0.783704 5.91667 0 0 0 255 255 255 255
3.26869 0.687971 5.91537 0 0 0 255 255 255 255
3.37453 0.826315 5.98453 0 0 0 255 255 255 255
3.34069 0.877305 5.90833 0 0 0 255 255 255 255
3.98752 0.660652 6.50156 0 0 0 255 255 255 255
3.40263 0.756389 5.92819 0 0 0 255 255 255 255
2.29755 1.0373 6.17277 0 0 0 255 255 255 255
3.515 0.981902 5.97908 0 0 0 255 255 255 255
