ply
format ascii 1.0
comment VCGLIB generated
element vertex 237
property float x
property float y
property float z
property float nx
property float ny
property float nz
property uchar red
property uchar green
property uchar blue
property uchar alpha
element face 0
property list uchar int vertex_indices
end_header
-0.600606 -0.529226 4.26135 0 0 0 255 255 0 255
-0.596532 -0.508579 4.2628 0 0 0 255 255 0 255
-0.595033 -0.497594 4.26425 0 0 0 255 255 0 255
-0.613342 -0.520656 4.27653 0 0 0 255 255 0 255
-0.603809 -0.484905 4.27653 0 0 0 255 255 0 255
-0.62439 -0.52185 4.28737 0 0 0 255 255 0 255
-0.623512 -0.515874 4.2881 0 0 0 255 255 0 255
-0.620677 -0.505245 4.2881 0 0 0 255 255 0 255
-0.627529 -0.528257 4.28882 0 0 0 255 255 0 255
-0.615162 -0.481878 4.28882 0 0 0 255 255 0 255
-0.617681 -0.483276 4.29099 0 0 0 255 255 0 255
-0.623534 -0.411339 4.31628 0 0 0 255 255 0 255
-0.641748 -0.444775 4.32568 0 0 0 255 255 0 255
-0.663027 -0.521897 4.3264 0 0 0 255 255 0 255
-0.677061 -0.531609 4.33796 0 0 0 255 255 0 255
-0.692643 -0.41568 4.38494 0 0 0 255 255 0 255
-0.69624 -0.415756 4.38855 0 0 0 255 255 0 255
-0.704359 -0.416697 4.3965 0 0 0 255 255 0 255
-0.676781 -0.299857 4.40012 0 0 0 255 255 0 255
-0.710369 -0.415094 4.40301 0 0 0 255 255 0 255
-0.701189 -0.369935 4.4059 0 0 0 255 255 0 255
-0.710253 -0.398566 4.40735 0 0 0 255 255 0 255
-0.702524 -0.369578 4.40735 0 0 0 255 255 0 255
-0.716064 -0.404261 4.41168 0 0 0 255 255 0 255
-0.673648 -0.234457 4.41457 0 0 0 255 255 0 255
-0.748638 -0.470091 4.42686 0 0 0 255 255 0 255
-0.69894 -0.251516 4.43553 0 0 0 255 255 0 255
-0.628021 0.0359156 4.44131 0 0 0 255 255 0 255
-0.664022 -0.0776426 4.4471 0 0 0 255 255 0 255
-0.767478 -0.449543 4.45143 0 0 0 255 255 0 255
-0.640814 0.036222 4.45432 0 0 0 255 255 0 255
-0.672188 -0.0733953 4.45649 0 0 0 255 255 0 255
-0.674917 -0.0809471 4.45721 0 0 0 255 255 0 255
-0.653265 0.0136686 4.46083 0 0 0 255 255 0 255
-0.625656 0.170862 4.47528 0 0 0 255 255 0 255
-0.683931 -0.042321 4.47673 0 0 0 255 255 0 255
-0.659655 0.0567698 4.4789 0 0 0 255 255 0 255
-0.756727 -0.299239 4.48106 0 0 0 255 255 0 255
-0.699941 -0.0835891 4.48179 0 0 0 255 255 0 255
-0.760629 -0.295094 4.48612 0 0 0 255 255 0 255
-0.739024 -0.195291 4.49118 0 0 0 255 255 0 255
-0.694968 -0.0300635 4.49118 0 0 0 255 255 0 255
-0.702487 -0.0528972 4.49263 0 0 0 255 255 0 255
-0.79683 -0.401354 4.49407 0 0 0 255 255 0 255
-0.711789 -0.0555916 4.5013 0 0 0 255 255 0 255
-0.696015 0.0116132 4.50347 0 0 0 255 255 0 255
-0.72507 -0.0893079 4.50564 0 0 0 255 255 0 255
-0.593416 0.404441 4.50564 0 0 0 255 255 0 255
-0.730118 -0.105556 4.50636 0 0 0 255 255 0 255
-0.579388 0.473146 4.50997 0 0 0 255 255 0 255
-0.739278 -0.123812 4.5107 0 0 0 255 255 0 255
-0.711195 -0.0184921 4.5107 0 0 0 255 255 0 255
-0.692177 0.058197 4.51214 0 0 0 255 255 0 255
-0.721853 -0.0477334 4.51359 0 0 0 255 255 0 255
-0.759258 -0.182651 4.51503 0 0 0 255 255 0 255
-0.708656 0.00980905 4.51575 0 0 0 255 255 0 255
-0.701184 0.03783 4.51575 0 0 0 255 255 0 255
-0.587717 0.466053 4.51648 0 0 0 255 255 0 255
-0.709628 0.0142082 4.51792 0 0 0 255 255 0 255
-0.80443 -0.327917 4.52154 0 0 0 255 255 0 255
-0.797968 -0.276858 4.52876 0 0 0 255 255 0 255
-0.736019 -0.028432 4.5331 0 0 0 255 255 0 255
-0.888227 -0.591216 4.53527 0 0 0 255 255 0 255
-0.73409 0.00831133 4.54105 0 0 0 255 255 0 255
-0.751504 -0.0543163 4.54177 0 0 0 255 255 0 255
-0.76763 -0.112113 4.5425 0 0 0 255 255 0 255
-0.730683 0.0291366 4.54322 0 0 0 255 255 0 255
-0.749948 -0.0350673 4.54539 0 0 0 255 255 0 255
-0.617511 0.475032 4.549 0 0 0 255 255 0 255
-0.746788 -0.00175685 4.55117 0 0 0 255 255 0 255
-0.741273 0.021611 4.55189 0 0 0 255 255 0 255
-0.801398 -0.193149 4.55478 0 0 0 255 255 0 255
-0.837047 -0.316115 4.55767 0 0 0 255 255 0 255
-0.55828 0.729358 4.55767 0 0 0 255 255 0 255
-0.834365 -0.303376 4.5584 0 0 0 255 255 0 255
-0.787217 -0.126554 4.5584 0 0 0 255 255 0 255
-0.740164 0.0606429 4.56129 0 0 0 255 255 0 255
-0.712339 0.164997 4.56129 0 0 0 255 255 0 255
-0.775019 -0.032522 4.5714 0 0 0 255 255 0 255
-0.527633 0.962327 4.58947 0 0 0 255 255 0 255
-0.539884 0.932475 4.59381 0 0 0 255 255 0 255
-0.533623 0.990832 4.6032 0 0 0 255 255 0 255
-0.67469 0.550305 4.62706 0 0 0 255 255 0 255
-0.676646 0.545652 4.62778 0 0 0 255 255 0 255
-0.83081 -0.0217858 4.63067 0 0 0 255 255 0 255
-0.619697 0.772642 4.63139 0 0 0 255 255 0 255
-0.680395 0.547686 4.63211 0 0 0 255 255 0 255
-0.579732 0.962764 4.64223 0 0 0 255 255 0 255
-0.576898 0.973393 4.64223 0 0 0 255 255 0 255
-0.942127 -0.39366 4.64295 0 0 0 255 255 0 255
-0.703704 0.503189 4.64368 0 0 0 255 255 0 255
-0.576572 0.996075 4.64801 0 0 0 255 255 0 255
-0.577335 1.00663 4.65163 0 0 0 255 255 0 255
-0.577077 1.00759 4.65163 0 0 0 255 255 0 255
-0.638185 0.783782 4.65307 0 0 0 255 255 0 255
-0.57805 1.01199 4.6538 0 0 0 255 255 0 255
-0.851806 0.00140673 4.65813 0 0 0 255 255 0 255
-0.864478 -0.0407517 4.65958 0 0 0 255 255 0 255
-0.622954 0.881144 4.66391 0 0 0 255 255 0 255
-0.720321 0.542808 4.67114 0 0 0 255 255 0 255
-0.737579 0.550515 4.69066 0 0 0 255 255 0 255
-0.643025 0.905125 4.69066 0 0 0 255 255 0 255
-1.00808 -0.437136 4.69788 0 0 0 255 255 0 255
-0.995198 -0.388824 4.69788 0 0 0 255 255 0 255
-0.747291 0.548964 4.70005 0 0 0 255 255 0 255
-0.904231 -0.0208375 4.70511 0 0 0 255 255 0 255
-0.629844 1.00821 4.70511 0 0 0 255 255 0 255
-0.856615 0.163104 4.70655 0 0 0 255 255 0 255
-1.00212 -0.374558 4.70872 0 0 0 255 255 0 255
-0.831461 0.268171 4.70945 0 0 0 255 255 0 255
-0.686152 0.81313 4.70945 0 0 0 255 255 0 255
-1.0084 -0.387373 4.71161 0 0 0 255 255 0 255
-0.926262 -0.0739546 4.71306 0 0 0 255 255 0 255
-0.780932 0.497908 4.72029 0 0 0 255 255 0 255
-1.01553 -0.365809 4.72462 0 0 0 255 255 0 255
-0.749669 0.663442 4.7333 0 0 0 255 255 0 255
-0.668244 0.982226 4.73691 0 0 0 255 255 0 255
-0.744054 0.74888 4.75064 0 0 0 255 255 0 255
-0.744722 0.749058 4.75136 0 0 0 255 255 0 255
-0.749922 0.73492 4.75281 0 0 0 255 255 0 255
-0.888102 0.240841 4.75931 0 0 0 255 255 0 255
-1.05973 -0.384037 4.76437 0 0 0 255 255 0 255
-1.08763 -0.451113 4.77449 0 0 0 255 255 0 255
-1.06057 -0.349658 4.77449 0 0 0 255 255 0 255
-1.06227 -0.353345 4.77521 0 0 0 255 255 0 255
-1.06648 -0.344978 4.78172 0 0 0 255 255 0 255
-0.93929 0.156171 4.78822 0 0 0 255 255 0 255
-0.750635 0.944168 4.80991 0 0 0 255 255 0 255
-1.05296 -0.133316 4.82508 0 0 0 255 255 0 255
-1.0639 -0.131434 4.83665 0 0 0 255 255 0 255
-1.03492 0.00676501 4.8446 0 0 0 255 255 0 255
-1.04231 0.013911 4.85399 0 0 0 255 255 0 255
-0.73192 1.22896 4.86772 0 0 0 255 255 0 255
-0.935903 0.485413 4.87351 0 0 0 255 255 0 255
-1.10372 -0.133235 4.8764 0 0 0 255 255 0 255
-1.06341 0.0340268 4.88073 0 0 0 255 255 0 255
-1.09294 -0.015021 4.89736 0 0 0 255 255 0 255
-1.21139 -0.437776 4.90314 0 0 0 255 255 0 255
-1.04691 0.181762 4.90386 0 0 0 255 255 0 255
-1.22009 -0.462364 4.90531 0 0 0 255 255 0 255
-1.21081 -0.414128 4.90892 0 0 0 255 255 0 255
-0.960729 0.606911 4.93132 0 0 0 255 255 0 255
-0.931181 0.814299 4.95734 0 0 0 255 255 0 255
-1.16237 -0.0285926 4.96385 0 0 0 255 255 0 255
-1.28653 -0.467418 4.97107 0 0 0 255 255 0 255
-1.12699 0.138949 4.97324 0 0 0 255 255 0 255
-1.29118 -0.439269 4.98336 0 0 0 255 255 0 255
-1.31567 -0.472068 4.99926 0 0 0 255 255 0 255
-0.95037 0.9167 5.00432 0 0 0 255 255 0 255
-0.851357 1.3229 5.01371 0 0 0 255 255 0 255
-1.18427 0.0931592 5.01877 0 0 0 255 255 0 255
-1.36326 -0.49767 5.04046 0 0 0 255 255 0 255
-1.20626 0.093848 5.04118 0 0 0 255 255 0 255
-1.13927 0.345071 5.04118 0 0 0 255 255 0 255
-1.33604 -0.312429 5.06286 0 0 0 255 255 0 255
-1.3404 -0.301952 5.07009 0 0 0 255 255 0 255
-1.36575 -0.386269 5.07298 0 0 0 255 255 0 255
-1.37955 -0.435369 5.0737 0 0 0 255 255 0 255
-1.35172 -0.317564 5.07731 0 0 0 255 255 0 255
-1.08243 0.700422 5.07948 0 0 0 255 255 0 255
-0.932776 1.28045 5.08454 0 0 0 255 255 0 255
-1.08192 0.761348 5.09538 0 0 0 255 255 0 255
-1.1877 0.3673 5.09611 0 0 0 255 255 0 255
-1.37555 -0.305 5.10478 0 0 0 255 255 0 255
-1.32358 -0.0725415 5.1149 0 0 0 255 255 0 255
-0.972481 1.29517 5.12863 0 0 0 255 255 0 255
-1.43554 -0.417335 5.13513 0 0 0 255 255 0 255
-1.42097 -0.306343 5.15031 0 0 0 255 255 0 255
-1.32566 0.0967079 5.1626 0 0 0 255 255 0 255
-1.38462 -0.0707555 5.17705 0 0 0 255 255 0 255
-1.22849 0.514787 5.17705 0 0 0 255 255 0 255
-1.16545 0.775342 5.18356 0 0 0 255 255 0 255
-1.41176 -0.0893915 5.19946 0 0 0 255 255 0 255
-1.20828 0.869557 5.25221 0 0 0 255 255 0 255
-1.40315 0.149454 5.25511 0 0 0 255 255 0 255
-1.46775 -0.0713573 5.26089 0 0 0 255 255 0 255
-1.31026 0.554183 5.27028 0 0 0 255 255 0 255
-1.31986 0.55571 5.2804 0 0 0 255 255 0 255
-1.48611 -0.0302384 5.29052 0 0 0 255 255 0 255
-1.35977 0.446297 5.29124 0 0 0 255 255 0 255
-1.4701 0.0834744 5.30497 0 0 0 255 255 0 255
-1.52109 -0.0809384 5.3122 0 0 0 255 255 0 255
-1.49718 0.0731025 5.32955 0 0 0 255 255 0 255
-1.6415 -0.449354 5.33461 0 0 0 255 255 0 255
-1.66395 -0.442333 5.35918 0 0 0 255 255 0 255
-1.37529 0.642933 5.3599 0 0 0 255 255 0 255
-1.67496 -0.462166 5.36496 0 0 0 255 255 0 255
-1.68335 -0.490975 5.36568 0 0 0 255 255 0 255
-1.33978 0.840455 5.37725 0 0 0 255 255 0 255
-1.70779 -0.528962 5.38014 0 0 0 255 255 0 255
-1.59211 -0.0951201 5.38014 0 0 0 255 255 0 255
-1.69201 -0.448306 5.38592 0 0 0 255 255 0 255
-1.40476 0.661143 5.39459 0 0 0 255 255 0 255
-1.55564 0.0980024 5.39531 0 0 0 255 255 0 255
-1.40651 0.662643 5.39676 0 0 0 255 255 0 255
-1.71398 -0.434166 5.41194 0 0 0 255 255 0 255
-1.72572 -0.462085 5.41627 0 0 0 255 255 0 255
-1.50626 0.36634 5.41772 0 0 0 255 255 0 255
-1.46914 0.532382 5.42495 0 0 0 255 255 0 255
-1.42292 0.708415 5.42567 0 0 0 255 255 0 255
-1.48308 0.512295 5.43362 0 0 0 255 255 0 255
-1.6817 -0.205774 5.44085 0 0 0 255 255 0 255
-1.6974 -0.251263 5.44446 0 0 0 255 255 0 255
-1.79366 -0.609561 5.44518 0 0 0 255 255 0 255
-1.68416 -0.198908 5.44518 0 0 0 255 255 0 255
-1.76799 -0.443569 5.46397 0 0 0 255 255 0 255
-1.72136 -0.268679 5.46397 0 0 0 255 255 0 255
-1.51884 0.504238 5.46759 0 0 0 255 255 0 255
-1.56183 0.455674 5.49794 0 0 0 255 255 0 255
-1.64875 0.140426 5.50083 0 0 0 255 255 0 255
-1.55115 0.52527 5.50589 0 0 0 255 255 0 255
-1.63477 0.214318 5.50661 0 0 0 255 255 0 255
-1.85489 -0.600477 5.50951 0 0 0 255 255 0 255
-1.84695 -0.565336 5.51095 0 0 0 255 255 0 255
-1.84777 -0.563047 5.5124 0 0 0 255 255 0 255
-1.84658 -0.547841 5.51529 0 0 0 255 255 0 255
-1.47908 0.833095 5.51601 0 0 0 255 255 0 255
-1.69759 0.0458129 5.52468 0 0 0 255 255 0 255
-1.87766 -0.602687 5.53191 0 0 0 255 255 0 255
-1.82604 -0.36082 5.54492 0 0 0 255 255 0 255
-1.8283 -0.361252 5.54709 0 0 0 255 255 0 255
-1.82779 -0.35932 5.54709 0 0 0 255 255 0 255
-1.49817 0.925121 5.5601 0 0 0 255 255 0 255
-1.84603 -0.360665 5.56516 0 0 0 255 255 0 255
-1.85266 -0.364072 5.57094 0 0 0 255 255 0 255
-1.61205 0.570487 5.57961 0 0 0 255 255 0 255
-1.87469 -0.358196 5.59479 0 0 0 255 255 0 255
-1.63655 0.583229 5.6078 0 0 0 255 255 0 255
-1.6818 0.461789 5.62081 0 0 0 255 255 0 255
-1.68097 0.472952 5.62297 0 0 0 255 255 0 255
-1.68272 0.474452 5.62514 0 0 0 255 255 0 255
-1.65427 0.583816 5.62586 0 0 0 255 255 0 255
-1.9641 -0.562044 5.6302 0 0 0 255 255 0 255
-1.68908 0.485464 5.63454 0 0 0 255 255 0 255
-1.69193 0.855697 5.73716 0 0 0 255 255 0 255
-1.67514 0.972308 5.75162 0 0 0 255 255 0 255
-1.70888 0.859182 5.75523 0 0 0 255 255 0 255
