ply
format ascii 1.0
comment VCGLIB generated
element vertex 94
property float x
property float y
property float z
property float nx
property float ny
property float nz
property uchar red
property uchar green
property uchar blue
property uchar alpha
element face 0
property list uchar int vertex_indices
end_header
2.51927 0.135321 4.0676 0 0 0 0 128 128 255
2.51653 0.14029 4.06626 0 0 0 0 128 128 255
2.54014 -0.0453052 3.99766 0 0 0 0 128 128 255
2.49797 0.109097 4.02541 0 0 0 0 128 128 255
2.50172 -0.0122094 3.97304 0 0 0 0 128 128 255
2.49981 -0.010322 3.97216 0 0 0 0 128 128 255
2.49831 -0.0103399 3.97084 0 0 0 0 128 128 255
2.50655 -0.0712712 3.95174 0 0 0 0 128 128 255
2.47841 0.0446417 3.97754 0 0 0 0 128 128 255
2.50629 -0.0875296 3.9447 0 0 0 0 128 128 255
2.48709 -0.00485316 3.96383 0 0 0 0 128 128 255
2.48786 -0.0153581 3.96008 0 0 0 0 128 128 255
2.49116 -0.0372739 3.95362 0 0 0 0 128 128 255
2.49271 -0.0477581 3.9505 0 0 0 0 128 128 255
2.5151 -0.173457 3.91628 0 0 0 0 128 128 255
2.46745 0.0404202 3.96738 0 0 0 0 128 128 255
2.4824 -0.0597512 3.93826 0 0 0 0 128 128 255
2.45566 0.0378698 3.95825 0 0 0 0 128 128 255
2.45236 0.0260819 3.95168 0 0 0 0 128 128 255
2.47355 -0.0921545 3.92033 0 0 0 0 128 128 255
2.46274 -0.0514103 3.92905 0 0 0 0 128 128 255
2.48534 -0.176349 3.89624 0 0 0 0 128 128 255
2.47191 -0.188264 3.88516 0 0 0 0 128 128 255
2.35414 0.133162 3.94471 0 0 0 0 128 128 255
2.3493 0.13736 3.94464 0 0 0 0 128 128 255
2.35282 0.108418 3.93696 0 0 0 0 128 128 255
2.34955 0.109885 3.93658 0 0 0 0 128 128 255
2.401 -0.129951 3.8788 0 0 0 0 128 128 255
2.34243 0.0841468 3.92759 0 0 0 0 128 128 255
2.40233 -0.193735 3.8608 0 0 0 0 128 128 255
2.34197 0.0683001 3.92304 0 0 0 0 128 128 255
2.40228 -0.220373 3.85336 0 0 0 0 128 128 255
2.33271 0.0874451 3.92674 0 0 0 0 128 128 255
2.38678 -0.200374 3.85647 0 0 0 0 128 128 255
2.33901 0.0095264 3.90649 0 0 0 0 128 128 255
2.33825 0.00840041 3.9061 0 0 0 0 128 128 255
2.33719 0.0131532 3.90723 0 0 0 0 128 128 255
2.35089 -0.066454 3.88773 0 0 0 0 128 128 255
2.32726 0.0350769 3.91188 0 0 0 0 128 128 255
2.37287 -0.174228 3.86176 0 0 0 0 128 128 255
2.35026 -0.109162 3.87657 0 0 0 0 128 128 255
2.37025 -0.203456 3.85396 0 0 0 0 128 128 255
2.36083 -0.202333 3.85369 0 0 0 0 128 128 255
2.34665 -0.138645 3.86891 0 0 0 0 128 128 255
2.33839 -0.101573 3.87777 0 0 0 0 128 128 255
2.3531 -0.208879 3.85186 0 0 0 0 128 128 255
2.32261 -0.0719972 3.88457 0 0 0 0 128 128 255
2.30596 -0.00185847 3.90132 0 0 0 0 128 128 255
2.32837 -0.148418 3.86636 0 0 0 0 128 128 255
2.33178 -0.200512 3.85421 0 0 0 0 128 128 255
2.32669 -0.200656 3.85447 0 0 0 0 128 128 255
2.31121 -0.209265 3.85405 0 0 0 0 128 128 255
2.29805 -0.159352 3.86624 0 0 0 0 128 128 255
2.28643 -0.171249 3.86557 0 0 0 0 128 128 255
2.2899 -0.200499 3.85914 0 0 0 0 128 128 255
2.28457 -0.203882 3.85952 0 0 0 0 128 128 255
2.23184 0.0146975 3.91262 0 0 0 0 128 128 255
2.27451 -0.208559 3.86091 0 0 0 0 128 128 255
2.21686 0.0187247 3.91702 0 0 0 0 128 128 255
2.25848 -0.172599 3.87158 0 0 0 0 128 128 255
2.21509 0.0131907 3.91652 0 0 0 0 128 128 255
2.21227 0.0124044 3.91718 0 0 0 0 128 128 255
2.20959 0.00659561 3.91698 0 0 0 0 128 128 255
2.24711 -0.170741 3.87521 0 0 0 0 128 128 255
2.25257 -0.208614 3.8671 0 0 0 0 128 128 255
2.1982 0.0265902 3.92395 0 0 0 0 128 128 255
2.15517 0.0336085 3.94251 0 0 0 0 128 128 255
2.20339 -0.191302 3.88969 0 0 0 0 128 128 255
2.12438 0.0403692 3.96036 0 0 0 0 128 128 255
2.10236 0.139228 3.98399 0 0 0 0 128 128 255
2.13882 -0.0561356 3.94183 0 0 0 0 128 128 255
2.07523 0.171262 4.00514 0 0 0 0 128 128 255
2.12633 -0.0733015 3.9492 0 0 0 0 128 128 255
2.13284 -0.110034 3.94168 0 0 0 0 128 128 255
2.11547 -0.0507272 3.95906 0 0 0 0 128 128 255
2.06634 0.169804 4.01176 0 0 0 0 128 128 255
2.12106 -0.0795506 3.95283 0 0 0 0 128 128 255
2.12 -0.0747978 3.95396 0 0 0 0 128 128 255
2.1408 -0.201136 3.92974 0 0 0 0 128 128 255
2.09867 -0.0119739 3.97494 0 0 0 0 128 128 255
2.13469 -0.188111 3.93557 0 0 0 0 128 128 255
2.06176 0.135724 4.01363 0 0 0 0 128 128 255
2.05209 0.164907 4.02337 0 0 0 0 128 128 255
2.13388 -0.209283 3.93536 0 0 0 0 128 128 255
2.11813 -0.142102 3.95212 0 0 0 0 128 128 255
2.09421 -0.0555569 3.97707 0 0 0 0 128 128 255
2.10473 -0.106247 3.96568 0 0 0 0 128 128 255
2.10668 -0.125237 3.96332 0 0 0 0 128 128 255
2.1028 -0.128049 3.96706 0 0 0 0 128 128 255
2.10281 -0.147972 3.9668 0 0 0 0 128 128 255
2.1112 -0.198643 3.95774 0 0 0 0 128 128 255
2.10543 -0.198276 3.96404 0 0 0 0 128 128 255
2.10057 -0.182737 3.96932 0 0 0 0 128 128 255
2.09025 -0.148807 3.9806 0 0 0 0 128 128 255
