ply
format ascii 1.0
comment VCGLIB generated
element vertex 1066
property float x
property float y
property float z
property float nx
property float ny
property float nz
property uchar red
property uchar green
property uchar blue
property uchar alpha
element face 0
property list uchar int vertex_indices
end_header
3.514 1.04023 4.01475 0 0 0 104 107 115 255
3.47081 1.04298 4.0496 0 0 0 42 48 57 255
3.48597 1.05898 4.04057 0 0 0 147 152 160 255
3.50892 1.06831 4.01461 0 0 0 153 157 165 255
3.575 1.08097 3.95157 0 0 0 49 57 62 255
3.58222 1.08392 3.94669 0 0 0 43 51 56 255
2.71701 0.907898 4.17175 0 0 0 170 145 128 255
3.53321 1.07764 3.98859 0 0 0 155 163 170 255
3.56052 1.08853 3.96462 0 0 0 144 152 160 255
1.65541 0.724499 4.37503 0 0 0 176 170 161 255
1.49305 0.721253 4.36097 0 0 0 108 97 91 255
1.52922 0.727405 4.36106 0 0 0 117 108 104 255
1.48805 0.730919 4.34958 0 0 0 99 88 83 255
1.52325 0.749026 4.37198 0 0 0 118 105 99 255
1.39943 0.733387 4.37933 0 0 0 186 177 171 255
2.79038 1.03466 4.13823 0 0 0 181 130 92 255
1.13159 0.714582 4.37526 0 0 0 181 172 164 255
1.08474 0.71331 4.3683 0 0 0 183 176 160 255
3.45097 1.26004 4.10213 0 0 0 130 108 103 255
3.47559 1.2701 4.09356 0 0 0 125 82 74 255
3.44839 1.27986 4.10723 0 0 0 53 43 47 255
3.46209 1.30334 4.10231 0 0 0 130 102 73 255
1.93797 0.999438 4.45488 0 0 0 56 27 23 255
2.03867 1.01689 4.50481 0 0 0 84 62 51 255
1.22407 0.843041 4.37726 0 0 0 121 120 123 255
2.61728 1.23099 4.27915 0 0 0 95 111 123 255
2.54457 1.2703 4.30452 0 0 0 111 118 122 255
3.4538 1.60586 4.09851 0 0 0 104 58 17 255
3.46635 1.61384 4.09258 0 0 0 147 115 67 255
1.64235 1.13074 3.6769 0 0 0 18 109 152 255
1.62257 1.13332 3.66556 0 0 0 88 156 210 255
3.50805 1.69788 3.98194 0 0 0 170 123 74 255
1.10269 1.14284 4.4431 0 0 0 82 70 74 255
1.57655 1.13818 3.65769 0 0 0 71 148 197 255
3.40622 1.9374 4.17157 0 0 0 60 61 55 255
3.35423 1.97218 4.23775 0 0 0 74 69 60 255
3.37004 1.9665 4.21154 0 0 0 112 97 87 255
3.41767 1.97217 4.15245 0 0 0 111 100 85 255
3.39907 1.98502 4.17222 0 0 0 89 79 67 255
3.43327 1.98426 4.12633 0 0 0 119 107 91 255
3.41728 1.99238 4.15168 0 0 0 98 91 77 255
3.44838 1.98311 4.10586 0 0 0 102 96 83 255
3.48947 1.96739 3.9883 0 0 0 77 79 79 255
2.60171 1.81338 4.39158 0 0 0 158 109 101 255
3.43389 2.00314 4.13443 0 0 0 94 89 75 255
3.44638 2.00364 4.10579 0 0 0 97 87 80 255
1.05306 1.39071 4.43048 0 0 0 92 65 47 255
2.41827 1.79448 4.42626 0 0 0 165 126 114 255
1.63132 1.39936 3.7324 0 0 0 86 147 190 255
1.27876 1.34802 3.79045 0 0 0 9 94 149 255
1.67618 1.48326 3.75839 0 0 0 182 199 203 255
1.66667 1.51762 3.77572 0 0 0 179 199 207 255
1.4881 1.46852 3.70136 0 0 0 80 99 122 255
1.28773 1.45047 3.79091 0 0 0 106 146 192 255
1.28525 1.45646 3.79036 0 0 0 155 179 205 255
1.67182 1.5756 3.77884 0 0 0 167 180 207 255
1.6763 1.57471 3.78043 0 0 0 182 191 205 255
1.60632 1.56553 3.75078 0 0 0 143 157 169 255
0.764612 1.56691 4.49089 0 0 0 83 47 33 255
1.55831 1.56843 3.73196 0 0 0 158 174 183 255
0.784826 1.58166 4.49823 0 0 0 92 57 44 255
1.66836 1.63941 3.80469 0 0 0 157 183 202 255
1.65192 1.63838 3.78967 0 0 0 121 142 161 255
0.721089 1.58488 4.48314 0 0 0 88 52 43 255
1.23596 1.54238 3.8178 0 0 0 111 127 134 255
1.63944 1.67497 3.79445 0 0 0 135 156 174 255
1.67351 1.75989 3.8742 0 0 0 99 147 199 255
0.746075 1.70268 4.52368 0 0 0 113 94 82 255
0.67871 1.68505 4.50956 0 0 0 89 67 52 255
2.71722 2.21052 4.01534 0 0 0 8 72 114 255
1.24292 1.66753 3.823 0 0 0 62 115 147 255
2.33633 2.15285 4.09866 0 0 0 83 100 122 255
1.25474 1.68862 3.82112 0 0 0 20 111 144 255
1.33658 1.72427 3.78409 0 0 0 9 108 144 255
4.23561 -0.687375 8.87634 0 0 0 88 107 115 255
3.93786 -0.478433 8.82713 0 0 0 75 95 107 255
3.43006 -0.406359 8.32237 0 0 0 119 135 144 255
4.53009 -0.342886 9.46096 0 0 0 123 138 148 255
3.57132 0.331664 4.11885 0 0 0 72 82 79 255
3.8976 -0.172839 8.73807 0 0 0 116 134 144 255
4.43919 -0.100785 9.27288 0 0 0 158 164 164 255
2.0889 0.173482 4.58753 0 0 0 117 110 113 255
3.51217 0.628673 3.988 0 0 0 126 114 92 255
3.5489 0.638762 3.94758 0 0 0 133 111 82 255
3.59528 0.701282 3.88892 0 0 0 100 91 69 255
1.72388 0.353582 4.33041 0 0 0 119 95 87 255
1.69099 0.352841 4.33451 0 0 0 131 102 97 255
1.65247 0.370966 4.33815 0 0 0 121 99 91 255
1.70662 0.383833 4.33474 0 0 0 193 173 161 255
3.56562 0.770361 3.93621 0 0 0 142 115 72 255
3.49326 0.760588 4.0095 0 0 0 109 98 89 255
3.53392 0.776505 3.97142 0 0 0 119 102 77 255
3.59427 0.799726 3.9014 0 0 0 77 73 54 255
3.50847 0.821483 3.99811 0 0 0 131 106 78 255
3.59146 0.868507 3.90804 0 0 0 94 63 41 255
3.53004 0.858741 3.98525 0 0 0 101 58 27 255
2.65049 0.701212 4.18194 0 0 0 172 141 132 255
1.04188 0.393241 4.30958 0 0 0 127 107 98 255
1.09438 0.409134 4.28905 0 0 0 152 130 117 255
3.5185 0.935 3.996 0 0 0 98 58 29 255
3.57722 0.973946 3.9291 0 0 0 85 66 58 255
2.42123 0.761468 4.284 0 0 0 179 161 159 255
2.49932 0.804794 4.25777 0 0 0 180 153 140 255
2.92053 0.901042 4.10409 0 0 0 140 113 99 255
2.41169 0.811456 4.29854 0 0 0 183 145 130 255
3.56256 1.0626 3.9664 0 0 0 132 137 144 255
3.47685 1.05376 4.04383 0 0 0 127 132 141 255
3.52626 1.0718 3.99426 0 0 0 79 84 92 255
3.59048 1.06924 3.93779 0 0 0 107 113 120 255
3.55783 1.08756 3.96649 0 0 0 102 110 118 255
3.57046 1.08982 3.95193 0 0 0 49 57 63 255
1.25214 0.621288 4.37378 0 0 0 139 122 110 255
1.10715 0.607428 4.35148 0 0 0 149 104 94 255
1.39319 0.736759 4.35702 0 0 0 186 177 171 255
3.42827 1.23477 4.14059 0 0 0 63 70 77 255
0.83729 0.871846 4.37073 0 0 0 104 92 94 255
3.48465 1.56422 4.04786 0 0 0 140 104 58 255
3.46814 1.61538 4.0923 0 0 0 147 115 67 255
3.35198 1.7547 4.26013 0 0 0 87 87 89 255
1.65587 1.22948 3.70456 0 0 0 164 195 219 255
1.65143 1.26779 3.69291 0 0 0 140 168 191 255
1.77034 1.38988 3.87043 0 0 0 73 112 147 255
2.52412 1.74122 4.38544 0 0 0 162 163 166 255
3.48958 1.96657 3.9881 0 0 0 89 91 91 255
3.44607 2.00119 4.10994 0 0 0 97 87 80 255
2.05607 1.72169 4.59132 0 0 0 171 133 124 255
2.42168 1.79575 4.43514 0 0 0 165 126 114 255
1.67534 1.47094 3.75647 0 0 0 177 190 212 255
1.65556 1.47972 3.75166 0 0 0 149 162 177 255
1.48862 1.47486 3.70272 0 0 0 41 67 102 255
1.28936 1.45124 3.78856 0 0 0 110 150 196 255
1.66158 1.57337 3.77646 0 0 0 72 92 110 255
1.67421 1.59502 3.78139 0 0 0 89 110 147 255
0.771615 1.56018 4.49353 0 0 0 127 95 81 255
1.66697 1.63953 3.80344 0 0 0 157 183 202 255
1.63625 1.67591 3.79108 0 0 0 91 115 135 255
1.28482 1.5765 3.79419 0 0 0 30 65 114 255
1.15534 1.75193 4.3262 0 0 0 169 118 110 255
1.65955 1.73989 3.83058 0 0 0 54 126 186 255
0.553616 1.63775 4.47219 0 0 0 138 115 104 255
3.93596 -0.483572 8.8248 0 0 0 74 94 106 255
3.3819 -0.355473 8.23857 0 0 0 212 228 240 255
4.54123 -0.325097 9.48577 0 0 0 131 146 155 255
3.57636 0.332254 4.10831 0 0 0 72 84 80 255
3.9462 -0.18549 8.84523 0 0 0 84 98 110 255
3.27905 0.332543 4.21037 0 0 0 94 102 81 255
4.43412 -0.141397 9.27419 0 0 0 158 167 180 255
3.26384 0.330226 4.22769 0 0 0 47 47 42 255
3.81152 -0.0960095 8.55403 0 0 0 175 190 198 255
4.44172 -0.096839 9.27161 0 0 0 158 164 164 255
3.24411 0.389551 3.9946 0 0 0 71 93 72 255
3.51616 0.62973 3.98709 0 0 0 126 114 92 255
3.55376 0.646919 3.9438 0 0 0 137 116 75 255
3.50333 0.752051 4.0022 0 0 0 144 120 77 255
1.29556 0.352335 4.33366 0 0 0 141 108 101 255
3.33322 0.752689 4.16566 0 0 0 157 124 79 255
1.21607 0.363407 4.32268 0 0 0 196 175 160 255
1.37066 0.387643 4.34362 0 0 0 190 179 163 255
3.50925 0.818099 3.99501 0 0 0 131 106 78 255
3.48824 0.83607 4.0223 0 0 0 39 31 30 255
2.3924 0.632328 4.26451 0 0 0 158 98 60 255
3.46296 0.829378 4.05418 0 0 0 104 92 60 255
3.57322 0.866537 3.94504 0 0 0 29 22 29 255
2.36179 0.640207 4.279 0 0 0 181 160 160 255
3.54525 0.86595 3.97659 0 0 0 104 81 58 255
3.5926 0.873087 3.90595 0 0 0 110 81 67 255
3.43423 0.871781 4.07257 0 0 0 41 25 12 255
3.34989 0.858951 4.16612 0 0 0 39 24 35 255
3.45423 0.900837 4.05979 0 0 0 155 118 76 255
3.47988 0.914309 4.03311 0 0 0 40 36 41 255
3.51051 0.926717 4.00168 0 0 0 142 115 85 255
1.55284 0.549688 4.36208 0 0 0 129 108 95 255
3.49858 0.943611 4.00894 0 0 0 139 114 101 255
3.55093 0.979753 3.97872 0 0 0 99 76 67 255
3.56578 0.981042 3.9542 0 0 0 144 111 86 255
2.42061 0.760499 4.28379 0 0 0 179 161 159 255
1.41851 0.577237 4.35683 0 0 0 195 179 168 255
2.35436 0.768128 4.31908 0 0 0 173 139 118 255
2.49655 0.803353 4.26186 0 0 0 180 152 138 255
3.49089 1.0111 4.04094 0 0 0 158 160 166 255
2.41745 0.812994 4.29644 0 0 0 186 149 135 255
2.46771 0.866949 4.27314 0 0 0 180 164 151 255
3.58841 1.09635 3.93463 0 0 0 149 157 164 255
1.45271 0.706576 4.36373 0 0 0 122 111 104 255
1.6025 0.747738 4.38526 0 0 0 102 97 85 255
1.36694 0.716885 4.37503 0 0 0 181 174 168 255
1.36579 0.741074 4.3729 0 0 0 164 155 147 255
3.42281 1.23084 4.14279 0 0 0 55 60 68 255
3.46221 1.2805 4.09813 0 0 0 138 102 67 255
1.94027 1.00183 4.4453 0 0 0 66 37 33 255
2.27128 1.18542 4.38817 0 0 0 166 123 86 255
0.7147 0.809997 4.34463 0 0 0 52 43 40 255
1.80588 1.0239 3.85327 0 0 0 208 227 238 255
2.71852 1.33206 4.2437 0 0 0 125 128 107 255
0.6906 0.864555 4.34254 0 0 0 119 92 80 255
3.5041 1.56976 4.05104 0 0 0 123 67 31 255
3.47171 1.60753 4.09103 0 0 0 166 125 80 255
3.50784 1.69076 3.98016 0 0 0 164 118 68 255
2.63709 1.53439 4.31145 0 0 0 81 75 61 255
2.07667 1.51092 4.54862 0 0 0 141 144 148 255
1.18221 1.25743 4.45057 0 0 0 89 77 74 255
1.65177 1.2228 3.70244 0 0 0 140 179 193 255
1.16861 1.30828 4.46924 0 0 0 54 39 30 255
1.26579 1.19413 3.78306 0 0 0 53 88 118 255
3.40836 1.9351 4.16868 0 0 0 85 84 77 255
3.40598 1.97374 4.16942 0 0 0 112 96 81 255
3.48817 1.97601 3.99427 0 0 0 56 58 58 255
1.48347 1.29892 3.66874 0 0 0 26 110 161 255
2.0591 1.71979 4.59475 0 0 0 166 124 116 255
3.49119 2.01988 4.08367 0 0 0 102 103 87 255
1.67941 1.46591 3.75638 0 0 0 187 200 200 255
0.960746 1.47893 4.50785 0 0 0 53 42 35 255
1.51621 1.44753 3.70186 0 0 0 186 202 214 255
1.67875 1.5539 3.78425 0 0 0 183 204 212 255
0.813218 1.54906 4.49278 0 0 0 92 53 43 255
1.73275 1.66967 3.89141 0 0 0 143 161 175 255
0.76748 1.57005 4.4937 0 0 0 83 47 33 255
1.4236 1.51292 3.70763 0 0 0 162 177 184 255
1.63046 1.61038 3.75796 0 0 0 90 116 136 255
1.49874 1.5855 3.71197 0 0 0 185 197 221 255
1.51806 1.61914 3.7267 0 0 0 75 97 109 255
1.24282 1.57017 3.8217 0 0 0 174 187 200 255
2.49752 2.11571 4.17649 0 0 0 174 183 188 255
1.29603 1.59723 3.7857 0 0 0 160 179 188 255
0.681408 1.68402 4.50861 0 0 0 89 67 52 255
0.746264 1.71185 4.52516 0 0 0 91 73 62 255
1.64898 1.74577 3.82124 0 0 0 95 154 198 255
1.18958 1.7587 4.17656 0 0 0 147 142 142 255
0.656927 1.73473 4.51102 0 0 0 97 73 65 255
2.54097 2.18745 4.03689 0 0 0 75 145 192 255
5.10483 -0.00370795 8.69397 0 0 0 20 27 34 255
3.80763 -0.093951 8.54569 0 0 0 175 190 198 255
1.93604 0.12525 4.58055 0 0 0 68 62 70 255
3.50324 0.733704 4.00053 0 0 0 106 88 56 255
1.36942 0.336123 4.33436 0 0 0 134 110 97 255
1.21193 0.327215 4.31114 0 0 0 153 137 125 255
0.933857 0.307072 4.27988 0 0 0 186 168 149 255
1.29503 0.37654 4.33724 0 0 0 131 102 96 255
3.42069 0.786884 4.09209 0 0 0 82 53 33 255
1.10254 0.372074 4.31146 0 0 0 192 175 165 255
3.39759 0.803243 4.11948 0 0 0 115 97 65 255
3.51401 0.840578 3.99457 0 0 0 121 99 64 255
2.72073 0.749141 4.15542 0 0 0 184 161 152 255
3.44661 0.901873 4.06284 0 0 0 131 108 84 255
3.48441 0.908527 4.02914 0 0 0 41 35 40 255
3.52054 0.905456 3.99355 0 0 0 144 109 71 255
1.54999 0.551113 4.36264 0 0 0 129 108 95 255
1.41361 0.541371 4.35406 0 0 0 139 121 110 255
2.34462 0.772979 4.32206 0 0 0 158 104 78 255
2.36988 0.854538 4.30805 0 0 0 188 167 163 255
1.25873 0.717676 4.36585 0 0 0 132 123 117 255
3.42079 1.23815 4.14611 0 0 0 63 68 76 255
3.46283 1.2852 4.09694 0 0 0 142 105 65 255
2.00798 1.01669 4.50763 0 0 0 81 40 40 255
1.77058 0.959342 4.02259 0 0 0 217 222 221 255
0.724225 0.757337 4.33061 0 0 0 187 170 162 255
2.70198 1.21792 4.21762 0 0 0 63 86 97 255
3.01638 1.31846 4.13778 0 0 0 58 43 33 255
2.14239 1.17006 4.47853 0 0 0 160 121 80 255
2.26598 1.18531 4.39111 0 0 0 165 122 85 255
3.45734 1.44779 4.09834 0 0 0 46 45 36 255
2.77577 1.34107 4.21701 0 0 0 50 70 82 255
0.929571 0.943125 4.41951 0 0 0 61 45 38 255
0.983921 1.06366 4.43884 0 0 0 49 37 36 255
3.07174 1.60586 4.18593 0 0 0 141 160 170 255
1.06458 1.13571 4.42038 0 0 0 112 94 85 255
3.35709 1.75788 4.25913 0 0 0 66 82 82 255
2.64922 1.61818 4.31456 0 0 0 51 50 49 255
1.64747 1.23679 3.70026 0 0 0 176 189 198 255
0.911262 1.24981 4.49791 0 0 0 75 63 56 255
2.05941 1.57793 4.5504 0 0 0 129 124 126 255
2.91229 1.79883 4.24478 0 0 0 51 43 49 255
2.48762 1.71208 4.38718 0 0 0 147 150 161 255
1.55714 1.28861 3.66052 0 0 0 35 103 136 255
2.35273 1.77389 4.46288 0 0 0 158 128 125 255
0.975511 1.44251 4.48454 0 0 0 58 45 40 255
1.2756 1.35969 3.79612 0 0 0 81 135 180 255
0.963404 1.47374 4.50307 0 0 0 55 44 37 255
1.67988 1.55347 3.7845 0 0 0 183 204 212 255
3.42232 2.21049 4.16288 0 0 0 18 80 103 255
1.28536 1.45894 3.79007 0 0 0 174 189 203 255
1.82801 1.7703 4.1323 0 0 0 163 165 162 255
1.60276 1.67443 3.76113 0 0 0 72 106 139 255
2.48034 2.11337 4.1761 0 0 0 91 99 106 255
4.21982 -0.518922 8.72655 0 0 0 72 76 85 255
3.3637 -0.332223 8.19474 0 0 0 205 220 234 255
3.44258 0.283188 4.34169 0 0 0 127 120 123 255
3.44936 0.266768 4.30375 0 0 0 41 45 49 255
4.43588 -0.143257 9.27245 0 0 0 158 167 180 255
4.75703 -0.108358 9.4725 0 0 0 48 64 65 255
1.90479 0.121959 4.5716 0 0 0 71 58 71 255
1.70021 0.36 4.33319 0 0 0 122 89 83 255
1.60242 0.410749 4.33516 0 0 0 129 103 93 255
0.940511 0.337142 4.28556 0 0 0 141 98 83 255
2.36607 0.653523 4.2757 0 0 0 165 159 154 255
2.71783 0.737435 4.14226 0 0 0 180 159 151 255
2.97443 0.923894 4.08566 0 0 0 182 168 170 255
1.56707 0.730071 4.37728 0 0 0 150 144 137 255
1.78888 1.01857 3.86989 0 0 0 230 246 255 255
3.01451 1.35538 4.13434 0 0 0 47 41 48 255
2.51733 1.32106 4.32169 0 0 0 66 78 81 255
2.78385 1.39508 4.21822 0 0 0 135 162 174 255
2.14933 1.28446 4.45236 0 0 0 45 41 51 255
0.861804 1.01259 4.39557 0 0 0 58 39 41 255
0.807432 0.999173 4.39303 0 0 0 60 44 42 255
1.05286 1.13345 4.41818 0 0 0 115 94 84 255
2.47883 1.51156 4.37133 0 0 0 83 92 94 255
1.26867 1.08067 3.7655 0 0 0 5 72 123 255
3.02747 1.6733 4.20124 0 0 0 115 134 144 255
3.35468 1.72643 4.25291 0 0 0 72 86 77 255
2.64295 1.58175 4.30831 0 0 0 50 49 52 255
1.00678 1.27972 4.45197 0 0 0 123 101 88 255
1.6295 1.2756 3.68949 0 0 0 155 166 184 255
2.44481 1.68338 4.39528 0 0 0 156 168 179 255
1.26481 1.2465 3.79812 0 0 0 99 109 127 255
1.70843 1.4073 3.77213 0 0 0 142 146 162 255
1.13776 1.47375 4.53204 0 0 0 36 24 26 255
1.65492 1.5958 3.77587 0 0 0 26 78 133 255
1.9218 0.840353 4.66266 0 0 0 184 171 164 255
1.28252 0.828706 4.37931 0 0 0 29 27 25 255
1.45384 0.912721 4.28328 0 0 0 111 101 96 255
1.7355 0.947298 3.96619 0 0 0 234 244 243 255
2.3688 1.18117 4.36169 0 0 0 69 70 79 255
2.71385 1.27004 4.23877 0 0 0 65 76 86 255
1.75905 1.04086 3.83044 0 0 0 233 247 255 255
2.6215 1.34308 4.28353 0 0 0 41 38 49 255
2.1601 1.28506 4.44885 0 0 0 44 41 51 255
1.27907 1.06495 3.8156 0 0 0 137 158 176 255
1.70204 1.13042 3.69005 0 0 0 1 83 135 255
2.95741 1.61734 4.19825 0 0 0 135 152 166 255
2.99998 1.61311 4.17852 0 0 0 106 137 150 255
1.26206 1.09466 3.7336 0 0 0 3 69 118 255
2.3066 1.54992 4.44199 0 0 0 158 171 175 255
2.33556 1.51858 4.42776 0 0 0 128 135 139 255
1.43976 1.17743 3.6697 0 0 0 4 97 140 255
1.61758 1.24419 3.68436 0 0 0 151 166 185 255
2.41909 1.65356 4.40099 0 0 0 161 176 181 255
2.91886 1.79004 4.2469 0 0 0 53 42 49 255
1.1006 1.37003 4.45808 0 0 0 126 105 92 255
1.14582 1.44066 4.49204 0 0 0 76 55 53 255
4.23002 -0.443317 8.61349 0 0 0 139 151 157 255
4.29324 -0.31904 8.73178 0 0 0 119 130 141 255
3.34703 -0.319133 8.00589 0 0 0 192 208 217 255
3.99436 -0.313061 8.74305 0 0 0 118 127 138 255
3.77006 0.375594 4.03017 0 0 0 118 52 49 255
3.79232 0.388396 3.98525 0 0 0 52 77 69 255
3.769 0.385599 4.01244 0 0 0 66 22 17 255
1.9371 0.11447 4.57023 0 0 0 71 65 70 255
3.56045 -0.0544676 7.55845 0 0 0 93 104 116 255
1.73442 0.0926334 4.66656 0 0 0 96 100 102 255
3.21335 0.398939 3.99508 0 0 0 109 106 83 255
3.6232 0.563555 3.85901 0 0 0 69 70 80 255
3.651 0.575395 3.84131 0 0 0 138 143 149 255
3.63358 0.58091 3.84702 0 0 0 19 25 33 255
3.66193 0.59037 3.82483 0 0 0 26 19 29 255
3.66998 0.600016 3.8003 0 0 0 43 39 49 255
3.23246 0.531074 4.03066 0 0 0 89 81 62 255
3.51589 0.613024 4.00568 0 0 0 77 72 69 255
1.57102 0.324048 4.41218 0 0 0 205 182 174 255
3.63577 0.662238 3.88759 0 0 0 123 102 72 255
3.67354 0.68312 3.80856 0 0 0 33 35 31 255
1.27164 0.325047 4.35802 0 0 0 130 107 96 255
3.66948 0.733237 3.82313 0 0 0 74 45 13 255
1.51318 0.403896 4.41291 0 0 0 186 156 147 255
1.70209 0.431855 4.33939 0 0 0 153 136 123 255
1.51369 0.402737 4.41268 0 0 0 186 156 147 255
3.66605 0.75646 3.83504 0 0 0 59 27 16 255
3.67116 0.759158 3.82638 0 0 0 49 27 30 255
1.56944 0.42504 4.3288 0 0 0 142 116 104 255
3.53287 0.763192 3.99707 0 0 0 23 25 20 255
3.66273 0.785758 3.85611 0 0 0 54 31 9 255
3.67072 0.791479 3.82369 0 0 0 55 40 23 255
3.62444 0.792203 3.89926 0 0 0 62 34 25 255
3.65561 0.807809 3.87038 0 0 0 57 31 1 255
3.61778 0.807967 3.90654 0 0 0 141 93 46 255
3.65029 0.823998 3.87317 0 0 0 136 109 73 255
2.35959 0.624546 4.27892 0 0 0 171 129 106 255
2.69179 0.675588 4.15265 0 0 0 171 129 98 255
3.63789 0.85932 3.91162 0 0 0 135 115 85 255
3.62734 0.869788 3.9162 0 0 0 60 29 15 255
3.66584 0.874389 3.84803 0 0 0 136 116 86 255
3.65797 0.880198 3.89591 0 0 0 97 53 3 255
3.66714 0.882232 3.86527 0 0 0 78 51 24 255
3.66502 0.891846 3.84572 0 0 0 102 86 55 255
3.64254 0.919559 3.8814 0 0 0 65 35 2 255
3.65043 0.927795 3.85917 0 0 0 109 88 68 255
3.64139 0.950602 3.88661 0 0 0 60 33 3 255
3.64902 0.95577 3.86354 0 0 0 105 83 52 255
3.17008 0.912249 4.06928 0 0 0 71 35 17 255
3.63044 0.991558 3.89412 0 0 0 110 68 44 255
3.64874 1.00608 3.85538 0 0 0 114 96 73 255
3.64332 1.01565 3.86566 0 0 0 151 121 88 255
3.46259 1.00707 4.08887 0 0 0 45 48 51 255
3.48075 1.01409 4.0577 0 0 0 59 64 66 255
1.96089 0.771372 4.4877 0 0 0 216 208 189 255
1.95832 0.78249 4.46897 0 0 0 208 199 181 255
2.85793 0.920643 4.11417 0 0 0 146 128 116 255
1.56766 0.717608 4.37934 0 0 0 126 115 102 255
2.62257 0.891008 4.20848 0 0 0 183 150 144 255
1.94826 0.794771 4.42686 0 0 0 91 80 61 255
3.53658 1.05576 4.00115 0 0 0 132 141 141 255
3.60143 1.08001 3.94483 0 0 0 136 139 148 255
1.93301 0.821222 4.41478 0 0 0 179 171 160 255
3.61707 1.0951 3.92144 0 0 0 116 117 128 255
1.25598 0.702802 4.34947 0 0 0 131 117 103 255
1.43542 0.738431 4.3853 0 0 0 173 161 154 255
1.17698 0.696351 4.41164 0 0 0 162 150 138 255
3.62642 1.10383 3.89365 0 0 0 46 51 59 255
3.63941 1.12181 3.87715 0 0 0 148 153 161 255
2.36336 0.936851 4.34479 0 0 0 183 129 91 255
1.21303 0.738802 4.423 0 0 0 157 145 131 255
2.33638 0.936712 4.35034 0 0 0 185 131 93 255
1.14051 0.735362 4.38838 0 0 0 123 112 107 255
2.33074 0.955335 4.34288 0 0 0 168 113 72 255
1.08509 0.736253 4.34508 0 0 0 131 116 107 255
1.61667 0.850608 4.40832 0 0 0 88 83 85 255
1.94072 0.920778 4.4646 0 0 0 134 111 110 255
3.1453 1.13827 4.10387 0 0 0 62 25 11 255
1.93626 0.951223 4.45704 0 0 0 81 56 53 255
3.15697 1.1591 4.11066 0 0 0 85 69 44 255
3.14325 1.17459 4.11238 0 0 0 60 26 9 255
1.11437 0.827344 4.39389 0 0 0 124 118 115 255
1.96077 1.00638 4.52923 0 0 0 38 24 19 255
3.15878 1.27257 4.17947 0 0 0 40 49 62 255
3.174 1.30261 4.19208 0 0 0 113 94 62 255
2.1758 1.15422 4.42268 0 0 0 117 66 41 255
1.84036 1.04769 3.91633 0 0 0 69 84 85 255
2.26402 1.2046 4.386 0 0 0 128 76 44 255
3.6315 1.49418 3.93734 0 0 0 125 73 52 255
3.62178 1.50253 3.95059 0 0 0 166 135 86 255
1.94071 1.28917 4.51197 0 0 0 128 129 121 255
1.8699 1.25507 4.31591 0 0 0 48 52 74 255
1.91343 1.29269 4.44034 0 0 0 43 50 48 255
2.52437 1.40892 4.30698 0 0 0 139 149 153 255
1.62047 1.15075 3.67107 0 0 0 40 112 145 255
1.61238 1.16744 3.66491 0 0 0 90 161 211 255
1.62236 1.20415 3.684 0 0 0 109 167 202 255
3.57547 1.71396 4.01344 0 0 0 135 81 31 255
3.52837 1.72895 3.952 0 0 0 180 117 68 255
3.53253 1.74207 3.93678 0 0 0 121 62 17 255
3.55546 1.73853 3.9066 0 0 0 138 87 38 255
1.71881 1.38412 3.79688 0 0 0 100 131 165 255
1.01969 1.40185 4.37736 0 0 0 104 94 93 255
2.3707 1.78481 4.40851 0 0 0 159 115 115 255
1.59105 1.40293 3.71793 0 0 0 57 122 168 255
3.41698 1.99075 4.18143 0 0 0 54 33 20 255
1.42794 1.40758 3.70024 0 0 0 100 145 183 255
3.48819 1.96064 3.83226 0 0 0 54 31 16 255
3.55726 2.0014 3.8975 0 0 0 115 100 95 255
3.47192 2.00529 3.94543 0 0 0 101 94 87 255
3.48855 1.98411 3.82279 0 0 0 129 99 83 255
3.48064 1.9679 3.7817 0 0 0 74 46 35 255
3.47201 1.99419 3.85003 0 0 0 117 92 80 255
3.07522 2.06906 4.30528 0 0 0 142 123 117 255
3.47364 1.99153 3.78488 0 0 0 125 98 87 255
1.65165 1.57377 3.76758 0 0 0 79 101 142 255
1.67932 1.58473 3.77992 0 0 0 183 190 204 255
1.85409 1.8777 4.4737 0 0 0 145 138 140 255
2.30291 2.11478 4.12341 0 0 0 133 133 140 255
1.40735 1.75113 3.76708 0 0 0 78 125 137 255
1.5875 1.81444 3.78467 0 0 0 133 134 132 255
1.34166 1.75178 3.78691 0 0 0 89 142 166 255
1.35877 1.75437 3.77855 0 0 0 139 199 221 255
2.26579 2.13754 4.09998 0 0 0 49 57 58 255
2.43709 2.17768 4.07033 0 0 0 147 159 183 255
1.24833 1.747 3.82004 0 0 0 183 193 209 255
1.27701 1.74369 3.79437 0 0 0 169 189 215 255
1.31829 1.74927 3.78558 0 0 0 84 127 156 255
1.29991 1.75288 3.77965 0 0 0 163 196 218 255
1.37773 1.76515 3.7544 0 0 0 63 120 131 255
1.5767 1.83044 3.78557 0 0 0 68 95 125 255
1.59421 1.83616 3.78726 0 0 0 133 164 204 255
1.32297 1.76795 3.77741 0 0 0 148 178 198 255
1.36341 1.77319 3.75062 0 0 0 145 189 219 255
1.37772 1.7722 3.74904 0 0 0 43 134 165 255
1.30868 1.76947 3.77166 0 0 0 51 99 132 255
1.38922 1.78226 3.74378 0 0 0 164 191 205 255
2.37291 2.18295 4.03276 0 0 0 75 95 122 255
1.3362 1.78073 3.76937 0 0 0 164 191 203 255
1.35501 1.78379 3.75391 0 0 0 102 138 165 255
1.40815 1.79346 3.7441 0 0 0 80 135 139 255
1.30588 1.79135 3.77845 0 0 0 107 152 178 255
1.368 1.80678 3.7593 0 0 0 97 152 194 255
1.38268 1.80788 3.75728 0 0 0 60 119 163 255
1.40132 1.81354 3.75972 0 0 0 124 150 187 255
1.49963 1.85394 3.7774 0 0 0 99 155 170 255
1.55511 1.86949 3.78334 0 0 0 137 133 127 255
2.39228 2.19406 3.98205 0 0 0 100 129 162 255
1.46194 1.85036 3.76807 0 0 0 89 152 181 255
2.23306 2.17542 4.02613 0 0 0 165 160 173 255
2.91674 2.28668 3.83766 0 0 0 140 125 138 255
1.52933 1.87483 3.77424 0 0 0 163 166 144 255
2.17079 2.16231 4.0051 0 0 0 103 65 51 255
2.24105 2.18812 4.01647 0 0 0 171 172 188 255
1.29769 1.82797 3.79918 0 0 0 106 133 153 255
1.41269 1.84817 3.77255 0 0 0 134 144 160 255
1.49357 1.86957 3.76877 0 0 0 59 61 34 255
2.33944 2.1941 3.96427 0 0 0 68 120 146 255
2.39411 2.20188 3.94586 0 0 0 66 105 139 255
1.46213 1.86572 3.76352 0 0 0 59 81 108 255
1.50658 1.87874 3.7719 0 0 0 143 143 140 255
1.40078 1.85442 3.76884 0 0 0 110 75 60 255
1.33948 1.84562 3.78152 0 0 0 86 72 89 255
1.35782 1.85233 3.78012 0 0 0 145 109 103 255
1.37739 1.85053 3.77653 0 0 0 80 71 91 255
1.482 1.87646 3.76307 0 0 0 154 170 170 255
2.23623 2.20056 4.00558 0 0 0 144 148 162 255
2.31051 2.20702 3.95945 0 0 0 152 175 198 255
2.40618 2.22161 3.95503 0 0 0 141 182 207 255
1.45735 1.87674 3.7577 0 0 0 180 141 111 255
1.29156 1.85059 3.8003 0 0 0 171 139 125 255
1.43349 1.87257 3.75588 0 0 0 163 151 141 255
2.20531 2.19446 3.97381 0 0 0 55 63 72 255
2.93804 2.23176 3.61467 0 0 0 77 79 122 255
4.14408 -0.413288 8.45346 0 0 0 175 190 197 255
3.774 0.391148 4.00372 0 0 0 44 21 18 255
3.56933 -0.0630555 7.58926 0 0 0 93 104 116 255
3.64516 0.584079 3.84275 0 0 0 87 97 101 255
3.62272 0.592091 3.8492 0 0 0 26 26 34 255
3.6604 0.595188 3.82834 0 0 0 43 41 48 255
3.62592 0.663863 3.89423 0 0 0 94 75 40 255
3.18661 0.639772 4.00031 0 0 0 109 76 48 255
1.38858 0.36681 4.41002 0 0 0 197 176 161 255
3.58325 0.71818 3.94445 0 0 0 97 43 25 255
3.66517 0.750171 3.83393 0 0 0 83 54 35 255
3.55843 0.734289 3.97133 0 0 0 56 27 21 255
3.59856 0.740472 3.91864 0 0 0 74 45 30 255
3.52929 0.754008 4.00314 0 0 0 45 16 21 255
3.64248 0.816031 3.87875 0 0 0 144 117 83 255
3.48645 0.799728 4.0573 0 0 0 44 32 32 255
3.47571 0.814953 4.06586 0 0 0 97 75 69 255
3.65366 0.887536 3.89714 0 0 0 77 46 13 255
3.65893 0.888923 3.88746 0 0 0 35 29 22 255
3.64068 0.910676 3.88236 0 0 0 66 32 3 255
1.39048 0.556598 4.35826 0 0 0 139 107 99 255
3.64696 0.935764 3.86798 0 0 0 126 98 73 255
3.16695 0.861126 4.04797 0 0 0 79 35 25 255
3.42644 0.901445 4.07055 0 0 0 90 58 31 255
3.45161 0.917388 4.05743 0 0 0 150 120 78 255
3.63605 0.96208 3.88803 0 0 0 68 44 30 255
3.47071 0.954603 4.05769 0 0 0 101 81 63 255
3.62878 0.985899 3.89394 0 0 0 108 68 43 255
3.16171 0.922481 4.06892 0 0 0 91 49 23 255
3.6073 0.998749 3.91013 0 0 0 119 103 73 255
1.27481 0.622507 4.4182 0 0 0 129 102 90 255
3.64143 1.01517 3.86604 0 0 0 151 121 88 255
1.54696 0.719174 4.37303 0 0 0 193 181 169 255
2.62152 0.890599 4.20894 0 0 0 183 150 144 255
3.64953 1.06606 3.88393 0 0 0 119 127 134 255
3.63677 1.11341 3.87935 0 0 0 145 150 158 255
3.61859 1.11727 3.90808 0 0 0 132 136 144 255
3.14302 1.13531 4.10261 0 0 0 62 25 11 255
0.987683 0.8392 4.29103 0 0 0 101 94 94 255
3.16261 1.27792 4.18364 0 0 0 16 25 38 255
3.58494 1.46288 3.97591 0 0 0 126 75 54 255
1.77188 1.10907 3.82356 0 0 0 56 94 118 255
3.59498 1.51689 3.94419 0 0 0 113 79 42 255
3.58427 1.53224 3.95872 0 0 0 155 104 69 255
1.9381 1.28701 4.5079 0 0 0 128 129 121 255
1.59255 1.15838 3.66283 0 0 0 22 100 151 255
1.61219 1.16646 3.66609 0 0 0 90 161 211 255
1.62299 1.20534 3.68588 0 0 0 109 167 202 255
3.52325 1.74452 3.93762 0 0 0 124 52 15 255
1.63118 1.26041 3.68928 0 0 0 121 141 155 255
1.02172 1.40085 4.37945 0 0 0 104 94 93 255
1.28415 1.29891 3.78073 0 0 0 40 82 118 255
1.64846 1.39964 3.75071 0 0 0 169 197 213 255
3.49562 1.99887 4.10177 0 0 0 66 62 52 255
3.4798 1.95247 3.85364 0 0 0 88 75 73 255
3.47385 2.01028 3.95831 0 0 0 88 79 71 255
3.47086 1.99233 3.85389 0 0 0 71 62 59 255
3.4779 1.99663 3.80001 0 0 0 123 95 84 255
3.34793 2.19456 4.17405 0 0 0 127 133 128 255
1.44163 1.57843 3.71376 0 0 0 52 86 121 255
3.40931 2.20194 4.02347 0 0 0 103 48 35 255
2.1323 1.9974 4.32584 0 0 0 73 71 75 255
1.48253 1.64556 3.73743 0 0 0 166 200 220 255
2.32323 2.11218 4.1605 0 0 0 90 70 68 255
1.24455 1.70467 3.83466 0 0 0 157 180 199 255
2.3014 2.12038 4.11499 0 0 0 142 157 172 255
1.29115 1.74204 3.79392 0 0 0 68 98 134 255
2.44204 2.18291 4.07636 0 0 0 154 163 189 255
1.32885 1.75862 3.78455 0 0 0 160 185 198 255
1.57081 1.83043 3.7839 0 0 0 57 113 151 255
2.27439 2.14883 4.09076 0 0 0 117 146 161 255
1.59394 1.83646 3.78717 0 0 0 133 164 204 255
1.31041 1.77026 3.77212 0 0 0 37 94 132 255
1.41414 1.78601 3.74297 0 0 0 76 137 140 255
2.38273 2.18958 4.01976 0 0 0 151 170 199 255
1.3263 1.80174 3.77922 0 0 0 47 108 138 255
1.5173 1.85371 3.78528 0 0 0 5 80 141 255
1.49358 1.85728 3.77376 0 0 0 140 155 136 255
1.34933 1.84231 3.784 0 0 0 154 136 140 255
1.39109 1.84727 3.77409 0 0 0 128 139 152 255
1.42856 1.85009 3.76558 0 0 0 26 89 132 255
1.4527 1.85521 3.76458 0 0 0 126 135 135 255
1.27195 1.83808 3.79877 0 0 0 110 138 154 255
1.44757 1.87216 3.75744 0 0 0 167 136 109 255
4.34546 -0.280974 8.77162 0 0 0 29 41 49 255
3.7121 0.321261 4.28254 0 0 0 50 59 54 255
3.76891 0.380737 4.07024 0 0 0 192 102 62 255
3.68165 0.432665 3.9308 0 0 0 14 23 25 255
3.21177 0.421652 3.96475 0 0 0 52 32 19 255
3.6248 0.566343 3.85378 0 0 0 95 98 107 255
1.63094 0.340435 4.34003 0 0 0 127 105 99 255
3.62651 0.671708 3.89522 0 0 0 146 116 68 255
3.18662 0.682926 4.00901 0 0 0 63 24 7 255
3.53165 0.742763 4.0014 0 0 0 37 13 28 255
3.63051 0.780949 3.89105 0 0 0 37 15 18 255
3.64048 0.819922 3.88071 0 0 0 128 106 85 255
1.36341 0.440796 4.41383 0 0 0 192 178 163 255
3.45587 0.797036 4.07686 0 0 0 32 20 10 255
3.48881 0.809151 4.05656 0 0 0 99 83 69 255
3.58687 0.832903 3.95894 0 0 0 92 76 69 255
3.5706 0.849943 3.97985 0 0 0 133 119 101 255
3.64346 0.866986 3.90875 0 0 0 135 113 81 255
1.07497 0.488386 4.26414 0 0 0 141 106 96 255
3.00846 0.818158 4.05095 0 0 0 180 151 139 255
3.42315 0.904559 4.08432 0 0 0 148 117 80 255
1.40338 0.628372 4.42733 0 0 0 135 116 102 255
3.57385 0.982558 3.94607 0 0 0 123 86 71 255
3.16787 0.927482 4.07021 0 0 0 55 18 15 255
2.53762 0.862807 4.243 0 0 0 171 167 161 255
1.94806 0.795032 4.42681 0 0 0 91 80 61 255
3.57271 1.07539 3.96979 0 0 0 151 146 148 255
3.61647 1.10436 3.91706 0 0 0 151 154 163 255
3.15033 1.11919 4.10109 0 0 0 42 8 0 255
3.15059 1.15925 4.10963 0 0 0 107 79 48 255
1.97175 1.01304 4.53674 0 0 0 45 29 25 255
2.02455 1.01988 4.49958 0 0 0 70 40 27 255
2.22105 1.15 4.40122 0 0 0 153 115 88 255
2.99715 1.33139 4.1468 0 0 0 73 52 29 255
1.95392 1.18869 4.50723 0 0 0 130 138 143 255
3.56513 1.42681 3.99845 0 0 0 175 117 71 255
0.955735 0.964708 4.28346 0 0 0 51 40 33 255
2.0769 1.21032 4.4658 0 0 0 174 114 79 255
3.46109 1.43393 4.10898 0 0 0 51 34 30 255
3.59898 1.45527 3.97136 0 0 0 103 51 52 255
1.79661 1.06769 3.84015 0 0 0 184 194 201 255
1.77184 1.11737 3.82424 0 0 0 26 83 122 255
2.11065 1.29968 4.43009 0 0 0 63 31 24 255
3.53987 1.55414 3.99745 0 0 0 165 131 68 255
1.08698 1.13747 4.42526 0 0 0 106 91 80 255
1.94915 1.60375 4.50505 0 0 0 123 117 114 255
2.04515 1.68661 4.52216 0 0 0 150 104 93 255
3.36811 1.95015 4.24746 0 0 0 119 102 82 255
1.64643 1.40066 3.74849 0 0 0 169 197 213 255
1.00542 1.46541 4.38258 0 0 0 86 73 68 255
1.02015 1.48991 4.39188 0 0 0 101 86 82 255
3.11738 1.97197 4.29253 0 0 0 67 58 50 255
1.39757 1.44835 3.72521 0 0 0 155 185 207 255
1.691 1.56122 3.79421 0 0 0 188 202 214 255
1.68354 1.5661 3.78671 0 0 0 189 192 199 255
1.86627 1.8926 4.50285 0 0 0 152 154 154 255
1.64213 1.61026 3.76603 0 0 0 17 68 120 255
1.80769 1.84894 4.31374 0 0 0 84 72 82 255
1.20838 1.57844 3.89342 0 0 0 92 101 115 255
1.44363 1.58535 3.71679 0 0 0 35 72 110 255
1.57452 1.67459 3.75123 0 0 0 190 200 207 255
2.62891 2.16757 4.10415 0 0 0 103 146 168 255
1.60255 1.76858 3.78564 0 0 0 194 197 184 255
2.33616 2.13458 4.21179 0 0 0 90 70 68 255
1.30104 1.71768 3.80454 0 0 0 84 145 183 255
1.64282 1.82328 3.81671 0 0 0 133 147 171 255
1.29315 1.74128 3.79379 0 0 0 65 100 140 255
2.28574 2.14855 4.09375 0 0 0 129 155 178 255
1.41663 1.77291 3.75411 0 0 0 57 123 120 255
1.57248 1.82962 3.78437 0 0 0 102 117 135 255
1.33532 1.7746 3.77214 0 0 0 175 198 210 255
1.38904 1.78005 3.74469 0 0 0 164 191 205 255
1.46383 1.79915 3.7533 0 0 0 177 199 198 255
1.23833 1.79782 3.83612 0 0 0 98 139 178 255
1.54598 1.87296 3.78118 0 0 0 96 93 78 255
2.86794 2.23546 3.74581 0 0 0 128 112 125 255
4.10906 -0.400892 8.39227 0 0 0 169 184 191 255
3.69136 0.343673 4.21559 0 0 0 74 103 69 255
3.29488 0.323053 4.37824 0 0 0 34 29 31 255
1.74482 0.100936 4.66127 0 0 0 78 72 73 255
3.24938 0.372919 4.02996 0 0 0 78 105 72 255
3.19854 0.441623 3.95203 0 0 0 62 35 28 255
1.17769 0.370215 4.29688 0 0 0 149 104 99 255
1.23773 0.379731 4.35483 0 0 0 130 92 82 255
1.14493 0.381563 4.28723 0 0 0 146 103 85 255
3.41955 0.774803 4.11045 0 0 0 114 95 74 255
3.51577 0.849964 4.01528 0 0 0 71 52 40 255
3.46024 0.847831 4.07144 0 0 0 134 101 69 255
1.20137 0.56174 4.40213 0 0 0 131 101 87 255
2.35421 0.788188 4.33018 0 0 0 182 173 169 255
1.65139 0.737384 4.398 0 0 0 103 90 80 255
3.14689 1.10204 4.09296 0 0 0 68 28 19 255
0.990842 0.797701 4.29483 0 0 0 49 44 41 255
3.03758 1.29864 4.14156 0 0 0 83 75 72 255
1.94997 1.18752 4.49581 0 0 0 130 138 143 255
1.52418 1.21731 3.66619 0 0 0 137 153 165 255
2.89207 1.79765 4.23523 0 0 0 66 45 46 255
1.40873 1.30655 3.67771 0 0 0 1 128 179 255
1.68342 1.45708 3.75968 0 0 0 181 198 212 255
1.69347 1.5083 3.77955 0 0 0 49 98 130 255
1.23256 1.48663 3.79944 0 0 0 172 179 185 255
1.45385 1.51777 3.69648 0 0 0 189 201 202 255
3.38479 2.2293 4.24554 0 0 0 127 133 128 255
1.65848 1.65624 3.79098 0 0 0 177 204 207 255
3.40199 2.19436 3.98236 0 0 0 57 41 39 255
1.29939 1.61346 3.78325 0 0 0 177 190 200 255
1.41506 1.62526 3.7233 0 0 0 189 197 202 255
1.49109 1.65246 3.73898 0 0 0 180 198 197 255
1.41425 1.63831 3.71412 0 0 0 188 196 203 255
1.64506 1.75791 3.81815 0 0 0 172 147 161 255
2.62688 2.1719 4.10598 0 0 0 103 146 168 255
3.78786 -0.197918 8.32382 0 0 0 91 102 113 255
4.13671 -0.154114 8.47155 0 0 0 136 147 158 255
2.07677 0.156443 4.56351 0 0 0 170 185 192 255
3.20562 0.397471 4.00289 0 0 0 110 98 70 255
1.69587 0.377267 4.3438 0 0 0 131 98 91 255
3.524 0.642662 4.00146 0 0 0 128 99 66 255
1.19197 0.333518 4.29774 0 0 0 131 102 93 255
2.34417 0.803964 4.32201 0 0 0 198 172 152 255
2.76376 0.900522 4.15951 0 0 0 177 156 158 255
3.01793 0.918418 4.07806 0 0 0 180 156 150 255
1.63871 0.853952 4.40752 0 0 0 38 32 37 255
3.16011 1.1031 4.09046 0 0 0 27 12 9 255
1.04226 0.821997 4.3347 0 0 0 112 107 110 255
1.04596 0.810885 4.3358 0 0 0 58 51 54 255
1.98827 1.02855 4.54748 0 0 0 48 39 52 255
2.13922 1.06194 4.40556 0 0 0 55 81 89 255
0.952997 0.963738 4.28984 0 0 0 52 43 35 255
3.46385 1.43381 4.10855 0 0 0 48 27 12 255
2.15734 1.2517 4.42954 0 0 0 62 39 33 255
2.76578 1.33153 4.21645 0 0 0 54 64 80 255
2.85657 1.3623 4.17791 0 0 0 63 84 106 255
2.94847 1.37641 4.15958 0 0 0 135 147 155 255
1.00197 1.05853 4.33766 0 0 0 64 48 44 255
1.46418 1.20228 3.66554 0 0 0 0 98 150 255
1.13182 1.35015 4.36438 0 0 0 131 108 95 255
2.45193 1.6674 4.37484 0 0 0 161 171 177 255
2.91757 1.80743 4.22885 0 0 0 58 45 53 255
2.05799 1.70548 4.51598 0 0 0 159 133 123 255
1.44092 1.32847 3.66253 0 0 0 66 170 203 255
1.23241 1.42488 3.8361 0 0 0 24 67 108 255
1.26064 1.46946 3.80345 0 0 0 160 180 204 255
1.8762 1.88068 4.52103 0 0 0 91 79 75 255
1.62306 1.63612 3.75248 0 0 0 186 201 209 255
1.09277 0.542203 4.26583 0 0 0 143 107 97 255
1.40854 0.836165 4.38625 0 0 0 34 32 35 255
1.25575 0.83596 4.36597 0 0 0 27 31 33 255
1.39679 0.895444 4.12853 0 0 0 124 108 105 255
1.76205 0.97432 3.95242 0 0 0 233 243 247 255
2.92345 1.20139 4.15313 0 0 0 76 87 98 255
1.29399 0.915759 3.96925 0 0 0 134 113 111 255
2.52341 1.24088 4.30249 0 0 0 75 92 100 255
2.80655 1.24801 4.18176 0 0 0 135 159 173 255
1.77077 1.01918 3.85651 0 0 0 233 252 255 255
2.19815 1.15647 4.4104 0 0 0 141 93 65 255
1.26463 0.971272 3.95113 0 0 0 206 216 215 255
2.94082 1.3369 4.14846 0 0 0 135 147 145 255
3.03425 1.35781 4.13956 0 0 0 37 40 50 255
1.27343 1.04941 3.89825 0 0 0 171 184 187 255
2.70017 1.41131 4.23957 0 0 0 52 64 72 255
1.3001 1.06148 3.9328 0 0 0 182 193 195 255
1.97074 1.35823 4.58368 0 0 0 42 42 47 255
1.25975 1.12684 3.83317 0 0 0 4 72 124 255
1.54426 1.16722 3.65053 0 0 0 5 96 152 255
2.44319 1.53686 4.30703 0 0 0 84 99 104 255
3.0135 1.62883 4.17221 0 0 0 107 136 154 255
2.66278 1.59342 4.29649 0 0 0 43 45 51 255
1.10785 1.37511 4.42483 0 0 0 134 105 90 255
1.28722 1.22266 3.77228 0 0 0 154 140 122 255
1.36463 1.2864 3.70914 0 0 0 55 100 119 255
2.06288 1.70962 4.51138 0 0 0 141 114 105 255
1.67705 1.43793 3.77067 0 0 0 68 102 146 255
1.63602 1.5119 3.75359 0 0 0 188 203 208 255
3.04147 -0.188476 8.11062 0 0 0 186 207 217 255
2.09786 0.176222 4.56684 0 0 0 75 96 105 255
3.67963 0.586588 3.78287 0 0 0 120 125 133 255
3.69131 0.605146 3.77867 0 0 0 27 32 40 255
3.19872 0.537823 3.92544 0 0 0 90 86 70 255
3.69781 0.623745 3.76889 0 0 0 128 136 142 255
3.70836 0.626551 3.759 0 0 0 26 31 39 255
3.69627 0.629668 3.76572 0 0 0 118 126 132 255
3.71969 0.637768 3.75407 0 0 0 129 134 140 255
3.73976 0.642374 3.73572 0 0 0 114 122 129 255
3.68523 0.634178 3.77791 0 0 0 59 67 72 255
3.63778 0.629134 3.82348 0 0 0 142 148 151 255
3.66563 0.64143 3.78663 0 0 0 125 134 136 255
3.72567 0.653857 3.73918 0 0 0 50 59 61 255
3.69338 0.651095 3.76691 0 0 0 118 129 130 255
3.72848 0.666042 3.73744 0 0 0 51 62 63 255
3.74863 0.718135 3.75331 0 0 0 43 29 21 255
3.79791 0.732171 3.68181 0 0 0 111 100 85 255
3.77861 0.730652 3.70765 0 0 0 110 86 70 255
3.8264 0.754703 3.67606 0 0 0 85 53 23 255
3.8274 0.766109 3.61982 0 0 0 85 62 51 255
3.77123 0.759389 3.70827 0 0 0 80 69 54 255
3.82048 0.793444 3.67634 0 0 0 65 29 15 255
3.82635 0.797164 3.64841 0 0 0 76 47 50 255
3.54116 0.767384 3.94708 0 0 0 61 25 17 255
3.77787 0.809834 3.7241 0 0 0 108 88 47 255
3.81608 0.823084 3.68085 0 0 0 68 37 12 255
3.82719 0.834113 3.6575 0 0 0 97 74 65 255
3.4987 0.803668 3.99476 0 0 0 75 69 65 255
3.67312 0.83281 3.80965 0 0 0 100 81 69 255
3.68796 0.839065 3.79809 0 0 0 141 107 68 255
3.49045 0.816311 4.00442 0 0 0 38 18 4 255
3.80979 0.869795 3.69413 0 0 0 69 37 5 255
3.82825 0.874133 3.6428 0 0 0 84 66 66 255
3.81198 0.870583 3.68957 0 0 0 54 30 24 255
3.78696 0.876276 3.70506 0 0 0 107 91 51 255
3.57784 0.848602 3.94975 0 0 0 36 16 11 255
3.5838 0.849107 3.94415 0 0 0 31 18 5 255
3.82509 0.891756 3.6644 0 0 0 135 106 76 255
3.75809 0.9051 3.77056 0 0 0 61 55 46 255
3.70583 0.90143 3.8233 0 0 0 45 35 5 255
3.72643 0.90204 3.79305 0 0 0 134 112 84 255
3.78311 0.92206 3.73658 0 0 0 128 105 90 255
3.81046 0.926367 3.72144 0 0 0 128 110 99 255
2.4539 0.718009 4.27766 0 0 0 175 160 140 255
3.72434 0.918439 3.79352 0 0 0 106 97 72 255
3.76278 0.923266 3.77311 0 0 0 46 33 16 255
3.8217 0.935582 3.70568 0 0 0 142 108 74 255
3.8053 0.935075 3.72316 0 0 0 50 36 20 255
3.83515 0.945261 3.69813 0 0 0 39 20 8 255
3.8875 0.960991 3.5983 0 0 0 86 86 80 255
3.7725 0.948044 3.72263 0 0 0 95 84 67 255
3.83285 0.95485 3.67076 0 0 0 66 53 23 255
3.8997 0.967558 3.5843 0 0 0 111 100 64 255
3.84558 0.998948 3.66316 0 0 0 70 49 27 255
3.66562 0.990135 3.84109 0 0 0 69 64 61 255
3.87417 1.04084 3.61089 0 0 0 50 31 17 255
3.74077 1.04132 3.75182 0 0 0 50 50 58 255
1.5221 0.703641 4.34225 0 0 0 148 144 136 255
3.45662 1.01787 4.07181 0 0 0 118 128 136 255
3.47568 1.02401 4.03886 0 0 0 47 55 62 255
3.80821 1.06961 3.6986 0 0 0 56 37 26 255
3.78127 1.07096 3.72351 0 0 0 114 108 91 255
2.96637 0.965302 4.09932 0 0 0 133 103 77 255
3.43577 1.04176 4.08038 0 0 0 139 150 157 255
3.49549 1.05012 4.02135 0 0 0 42 53 54 255
3.63601 1.0721 3.89388 0 0 0 36 46 59 255
3.6759 1.07687 3.85267 0 0 0 125 137 143 255
3.83424 1.09701 3.68194 0 0 0 122 115 94 255
3.86931 1.1042 3.60945 0 0 0 113 100 77 255
1.50615 0.747976 4.29289 0 0 0 132 123 119 255
3.69172 1.09592 3.84577 0 0 0 52 62 68 255
3.71121 1.12013 3.81227 0 0 0 41 54 58 255
3.68615 1.12599 3.83556 0 0 0 39 39 47 255
3.69748 1.12123 3.81866 0 0 0 140 151 155 255
3.84024 1.14107 3.6955 0 0 0 143 155 163 255
3.72267 1.13461 3.80695 0 0 0 117 132 135 255
3.75455 1.14077 3.78116 0 0 0 119 135 142 255
3.69232 1.13519 3.81622 0 0 0 129 144 147 255
3.77058 1.14451 3.77161 0 0 0 29 43 50 255
1.20235 0.735424 4.15789 0 0 0 144 135 128 255
3.74971 1.14652 3.78131 0 0 0 115 131 137 255
3.73693 1.14876 3.79487 0 0 0 31 43 49 255
3.77895 1.15622 3.76128 0 0 0 102 113 120 255
3.7997 1.15694 3.7262 0 0 0 105 116 126 255
3.70339 1.14988 3.80622 0 0 0 58 75 77 255
3.71772 1.15141 3.80428 0 0 0 134 148 151 255
3.74928 1.15833 3.77646 0 0 0 97 112 118 255
3.84742 1.17158 3.68935 0 0 0 64 79 88 255
3.78515 1.16549 3.74711 0 0 0 54 61 69 255
3.79386 1.16852 3.73757 0 0 0 38 51 59 255
3.80169 1.17406 3.7169 0 0 0 134 153 159 255
3.8585 1.17751 3.67446 0 0 0 110 120 136 255
3.75974 1.17104 3.76698 0 0 0 52 67 72 255
3.85897 1.19342 3.67315 0 0 0 54 60 72 255
2.5853 1.01496 4.26739 0 0 0 174 146 119 255
1.61384 0.866031 4.39298 0 0 0 113 112 115 255
3.82353 1.20377 3.69863 0 0 0 136 154 161 255
3.8369 1.20204 3.68882 0 0 0 75 90 97 255
3.85086 1.20995 3.67194 0 0 0 139 143 151 255
1.51308 0.852713 4.35678 0 0 0 106 108 113 255
3.18056 1.16461 4.13001 0 0 0 87 74 56 255
1.93317 1.03729 4.50624 0 0 0 165 165 173 255
1.92391 1.05619 4.49513 0 0 0 56 52 60 255
3.76861 1.38454 3.80177 0 0 0 83 61 59 255
1.92746 1.13084 4.54705 0 0 0 122 121 132 255
3.73743 1.38516 3.82399 0 0 0 89 85 89 255
3.80122 1.41343 3.76449 0 0 0 124 121 92 255
2.57243 1.29412 4.32854 0 0 0 110 108 104 255
2.54091 1.31711 4.33746 0 0 0 109 119 130 255
3.84674 1.61678 3.74847 0 0 0 142 104 83 255
3.83886 1.66818 3.75895 0 0 0 147 133 89 255
1.77085 1.27904 3.86144 0 0 0 76 143 180 255
3.80458 1.74845 3.78365 0 0 0 116 123 84 255
3.82188 1.76185 3.78264 0 0 0 131 122 75 255
3.64306 1.78139 3.96691 0 0 0 122 123 80 255
1.25965 1.22667 3.78431 0 0 0 22 76 112 255
3.65289 1.79402 3.95642 0 0 0 87 90 57 255
1.25508 1.24781 3.79495 0 0 0 105 132 160 255
3.74806 1.86684 3.89234 0 0 0 139 112 87 255
3.74142 1.92055 3.91106 0 0 0 91 121 104 255
1.2011 1.36788 3.92116 0 0 0 110 107 112 255
1.01148 1.44761 4.38803 0 0 0 113 108 107 255
0.986625 1.45358 4.3634 0 0 0 100 96 90 255
1.61056 1.44429 3.74019 0 0 0 96 128 154 255
1.87367 1.79828 4.67429 0 0 0 107 107 104 255
3.65069 2.09968 4.0266 0 0 0 115 106 93 255
3.66923 2.0981 4.00401 0 0 0 106 97 89 255
3.68951 2.11703 3.98739 0 0 0 110 100 84 255
3.71391 2.12067 3.96411 0 0 0 97 94 68 255
3.70813 2.13462 3.93632 0 0 0 103 98 89 255
3.88246 2.10626 3.70069 0 0 0 44 85 75 255
1.64863 1.62422 3.77587 0 0 0 83 128 159 255
1.67865 1.64924 3.82367 0 0 0 126 172 210 255
1.79169 1.88658 4.36278 0 0 0 56 50 53 255
1.75304 1.76035 4.01881 0 0 0 59 75 92 255
1.30148 1.74104 3.80433 0 0 0 79 134 161 255
1.45643 1.77245 3.78856 0 0 0 158 192 178 255
1.32844 1.75071 3.8043 0 0 0 135 185 204 255
2.42596 2.16617 4.08118 0 0 0 105 129 152 255
2.44122 2.23147 3.98984 0 0 0 131 193 229 255
2.65519 2.27563 3.90113 0 0 0 35 114 163 255
2.91059 2.33009 3.84385 0 0 0 74 103 133 255
2.99828 2.34056 3.803 0 0 0 84 106 142 255
3.22965 2.37888 3.75029 0 0 0 158 168 177 255
1.34322 1.86429 3.77784 0 0 0 141 135 143 255
3.02678 2.36182 3.82334 0 0 0 104 157 196 255
3.24619 2.38625 3.74036 0 0 0 78 90 96 255
2.36768 2.22492 3.93971 0 0 0 156 182 205 255
3.20145 2.37719 3.73542 0 0 0 83 94 102 255
3.27135 2.39927 3.74694 0 0 0 143 154 158 255
3.14703 2.38067 3.76446 0 0 0 129 146 165 255
2.15102 2.18318 3.94409 0 0 0 128 146 162 255
2.87004 2.33856 3.80577 0 0 0 160 175 209 255
3.00554 2.35126 3.75269 0 0 0 71 141 186 255
3.11256 2.38059 3.74866 0 0 0 86 131 159 255
3.13813 2.39111 3.75322 0 0 0 145 158 176 255
3.30903 2.40898 3.68748 0 0 0 75 107 126 255
3.22692 2.40786 3.71317 0 0 0 57 79 93 255
2.28892 2.23789 3.91293 0 0 0 120 143 170 255
2.78166 2.32331 3.79718 0 0 0 121 148 170 255
2.52137 2.26624 3.81774 0 0 0 142 168 183 255
3.0237 2.37312 3.72844 0 0 0 19 109 147 255
3.19532 2.40595 3.70141 0 0 0 139 165 177 255
1.87973 2.18222 4.01855 0 0 0 215 159 90 255
2.63965 2.30761 3.79992 0 0 0 30 100 136 255
1.86829 2.16858 3.96608 0 0 0 188 124 62 255
2.08542 2.19425 3.89534 0 0 0 93 97 99 255
2.42326 2.26535 3.84384 0 0 0 166 215 244 255
2.7449 2.33452 3.78096 0 0 0 102 106 137 255
2.81796 2.34992 3.77605 0 0 0 29 58 86 255
3.14758 2.40825 3.70331 0 0 0 141 166 184 255
3.12943 2.41073 3.71078 0 0 0 60 101 126 255
2.21894 2.23608 3.87812 0 0 0 150 175 190 255
2.99943 2.38185 3.7101 0 0 0 34 119 159 255
3.30942 2.39598 3.54924 0 0 0 97 147 181 255
2.80032 2.35466 3.76006 0 0 0 74 102 127 255
3.06508 2.39346 3.67594 0 0 0 51 74 97 255
3.22449 2.42413 3.64802 0 0 0 55 69 90 255
3.38002 2.38333 3.45544 0 0 0 89 133 148 255
2.2676 2.26362 3.87164 0 0 0 170 198 226 255
2.83315 2.3708 3.74873 0 0 0 132 156 176 255
3.169 2.4243 3.66332 0 0 0 159 181 198 255
3.05008 2.39935 3.66558 0 0 0 57 81 104 255
1.82861 2.19289 3.96996 0 0 0 207 141 79 255
2.04662 2.20705 3.85766 0 0 0 170 167 171 255
2.09282 2.21002 3.84303 0 0 0 60 64 64 255
3.34229 2.4174 3.52172 0 0 0 33 107 135 255
3.10933 2.41523 3.63969 0 0 0 135 164 180 255
3.15192 2.42292 3.61896 0 0 0 68 88 99 255
2.58264 2.30944 3.72599 0 0 0 17 108 154 255
3.20571 2.4388 3.61694 0 0 0 145 163 180 255
2.63995 2.32094 3.69621 0 0 0 41 48 73 255
2.07959 2.21519 3.80725 0 0 0 102 103 103 255
2.6206 2.32933 3.7198 0 0 0 90 132 166 255
2.21401 2.27217 3.8386 0 0 0 89 111 127 255
3.00079 2.3966 3.61079 0 0 0 57 82 108 255
2.17507 2.25879 3.80881 0 0 0 84 92 99 255
2.74953 2.36506 3.66335 0 0 0 78 76 109 255
3.00205 2.40654 3.59554 0 0 0 141 149 150 255
3.2526 2.38807 3.4026 0 0 0 37 114 150 255
3.67448 0.586003 3.78206 0 0 0 97 102 110 255
3.71654 0.662989 3.74642 0 0 0 133 144 143 255
3.7482 0.703188 3.75173 0 0 0 67 81 71 255
3.17216 0.617589 3.95974 0 0 0 71 37 33 255
3.66973 0.695127 3.80711 0 0 0 103 89 69 255
3.7995 0.734732 3.68251 0 0 0 114 104 88 255
3.77048 0.743756 3.70895 0 0 0 119 104 84 255
3.17661 0.669116 3.98144 0 0 0 62 36 15 255
1.38215 0.412648 4.13035 0 0 0 185 171 160 255
3.81895 0.786183 3.676 0 0 0 68 34 21 255
3.82388 0.818849 3.65624 0 0 0 126 100 73 255
3.81492 0.826633 3.68271 0 0 0 68 37 12 255
3.7479 0.836547 3.73969 0 0 0 12 23 24 255
3.67215 0.832275 3.80947 0 0 0 100 81 69 255
3.73447 0.837854 3.75785 0 0 0 24 23 25 255
3.81 0.865148 3.69525 0 0 0 69 37 5 255
3.71281 0.844497 3.7769 0 0 0 125 98 64 255
3.78493 0.875764 3.70494 0 0 0 107 91 51 255
3.82306 0.875971 3.64677 0 0 0 83 64 68 255
3.57593 0.855201 3.95033 0 0 0 39 14 37 255
3.82482 0.893059 3.67003 0 0 0 129 103 72 255
3.70331 0.883427 3.82648 0 0 0 94 80 64 255
3.72119 0.902072 3.79883 0 0 0 121 102 69 255
3.70258 0.908873 3.82542 0 0 0 46 32 14 255
3.77923 0.927866 3.74361 0 0 0 93 77 64 255
3.72044 0.916431 3.79678 0 0 0 62 59 46 255
3.74847 0.935786 3.75856 0 0 0 55 43 31 255
3.85239 0.948825 3.68362 0 0 0 123 105 63 255
3.66946 0.929119 3.82287 0 0 0 95 81 55 255
3.78114 0.946761 3.71042 0 0 0 41 31 21 255
3.88846 0.965073 3.59854 0 0 0 79 73 65 255
3.82277 0.962035 3.68547 0 0 0 46 27 8 255
3.8894 0.972 3.58924 0 0 0 121 112 77 255
3.72793 0.952363 3.76303 0 0 0 124 105 91 255
3.48312 0.952428 4.00038 0 0 0 107 87 65 255
3.84131 1.01011 3.66361 0 0 0 64 40 30 255
3.66427 0.995327 3.8426 0 0 0 81 71 61 255
3.68373 1.0049 3.81315 0 0 0 51 52 51 255
3.86727 1.03276 3.61318 0 0 0 89 63 38 255
3.73807 1.0325 3.75694 0 0 0 54 62 55 255
2.4223 0.842309 4.32252 0 0 0 162 160 161 255
3.69191 1.03561 3.82075 0 0 0 95 86 72 255
3.72887 1.05014 3.78997 0 0 0 108 93 81 255
3.80629 1.05983 3.70317 0 0 0 84 58 41 255
3.73372 1.05755 3.76913 0 0 0 135 108 88 255
3.74011 1.04866 3.75293 0 0 0 71 51 44 255
3.49609 1.04537 4.02197 0 0 0 42 53 54 255
3.86828 1.10749 3.60993 0 0 0 93 86 71 255
1.91824 0.816698 4.40715 0 0 0 176 169 166 255
3.65865 1.12449 3.8556 0 0 0 61 75 80 255
3.69548 1.12121 3.82253 0 0 0 117 123 129 255
3.7513 1.14716 3.77956 0 0 0 115 131 137 255
3.71555 1.14868 3.8043 0 0 0 134 148 151 255
3.77242 1.16501 3.76318 0 0 0 118 131 137 255
3.77223 1.17159 3.7599 0 0 0 148 159 165 255
3.78758 1.17279 3.74075 0 0 0 42 52 58 255
3.79746 1.17506 3.72181 0 0 0 91 112 117 255
3.85664 1.17958 3.67528 0 0 0 110 120 136 255
1.93556 0.999281 4.5363 0 0 0 123 123 123 255
3.73868 1.39466 3.8245 0 0 0 66 73 71 255
3.76851 1.38788 3.80311 0 0 0 110 91 86 255
3.78931 1.39689 3.7851 0 0 0 46 39 39 255
1.94333 1.15389 4.56951 0 0 0 61 75 90 255
3.86492 1.43205 3.72329 0 0 0 120 71 74 255
3.84655 1.45529 3.73311 0 0 0 86 37 30 255
3.82269 1.48323 3.7351 0 0 0 164 104 87 255
2.54373 1.32688 4.3352 0 0 0 101 108 104 255
1.79182 1.11573 3.84783 0 0 0 138 163 188 255
3.8444 1.61673 3.74857 0 0 0 142 104 83 255
1.77178 1.27509 3.8621 0 0 0 79 146 183 255
3.80202 1.70217 3.78116 0 0 0 97 118 75 255
1.54656 1.22336 3.68678 0 0 0 121 172 205 255
3.69167 1.80767 3.94312 0 0 0 71 95 78 255
3.73825 1.8637 3.89347 0 0 0 140 113 88 255
1.20202 1.36873 3.91764 0 0 0 110 107 112 255
1.61133 1.41178 3.73621 0 0 0 33 82 134 255
3.80525 1.95791 3.82679 0 0 0 92 99 86 255
0.988181 1.45698 4.36735 0 0 0 119 113 106 255
1.85158 1.75283 4.66773 0 0 0 58 38 35 255
3.88512 1.95916 3.6473 0 0 0 66 85 74 255
1.65311 1.46576 3.74579 0 0 0 143 175 193 255
1.87336 1.79343 4.67394 0 0 0 114 113 110 255
1.68755 1.52653 3.80208 0 0 0 16 72 123 255
3.70711 2.13592 3.948 0 0 0 84 78 68 255
3.85564 2.08989 3.65918 0 0 0 55 101 89 255
1.74798 1.78262 4.00854 0 0 0 142 174 191 255
3.64817 2.35955 4.1094 0 0 0 57 39 46 255
3.78612 2.3233 3.72818 0 0 0 161 147 104 255
0.9395 1.89102 4.50801 0 0 0 66 59 60 255
1.15359 1.77602 4.01396 0 0 0 216 236 239 255
1.40917 1.76361 3.77569 0 0 0 69 130 135 255
1.21907 1.81862 3.91399 0 0 0 86 151 182 255
2.22148 2.18939 4.01711 0 0 0 171 173 186 255
1.36495 1.85912 3.77694 0 0 0 39 76 100 255
