ply
format ascii 1.0
comment VCGLIB generated
element vertex 1036
property float x
property float y
property float z
property float nx
property float ny
property float nz
property uchar red
property uchar green
property uchar blue
property uchar alpha
element face 0
property list uchar int vertex_indices
end_header
1.33955 0.560304 4.45915 0 0 0 171 155 149 255
1.60145 0.581025 4.46763 0 0 0 166 152 147 255
1.31241 0.569579 4.453 0 0 0 155 141 138 255
1.33994 0.59923 4.4922 0 0 0 180 164 160 255
1.36911 0.599206 4.48503 0 0 0 120 97 94 255
1.54177 0.607093 4.5557 0 0 0 173 161 156 255
1.41433 0.625829 4.49541 0 0 0 121 105 101 255
1.65748 0.626775 4.60476 0 0 0 114 98 93 255
1.68158 0.63201 4.55201 0 0 0 109 96 89 255
1.29804 0.616171 4.53002 0 0 0 115 103 103 255
1.34103 0.624385 4.49517 0 0 0 124 115 111 255
1.51967 0.630398 4.54568 0 0 0 147 132 131 255
2.43993 0.765278 4.30849 0 0 0 175 151 149 255
0.513438 0.601229 4.35866 0 0 0 119 71 57 255
0.361375 0.582136 4.53882 0 0 0 75 87 83 255
-0.242432 0.587719 4.11176 0 0 0 81 103 75 255
-0.278607 0.59272 4.09801 0 0 0 106 129 94 255
2.43334 0.81649 4.32276 0 0 0 167 128 108 255
1.65254 0.755758 4.49971 0 0 0 83 76 79 255
0.14188 0.626406 4.41147 0 0 0 115 132 126 255
1.25774 0.722075 4.43964 0 0 0 102 97 96 255
1.38783 0.737931 4.4666 0 0 0 118 113 110 255
2.42149 0.836559 4.3449 0 0 0 139 92 75 255
1.30678 0.738635 4.42058 0 0 0 132 127 125 255
2.54579 0.863557 4.23188 0 0 0 122 89 82 255
0.968224 0.720914 4.44088 0 0 0 132 126 121 255
2.40973 0.864149 4.29905 0 0 0 159 141 141 255
2.46719 0.875365 4.28573 0 0 0 144 120 112 255
2.53183 0.886682 4.23918 0 0 0 156 150 145 255
-0.25267 0.640865 4.20388 0 0 0 137 155 138 255
0.129478 0.670023 4.34261 0 0 0 103 121 107 255
1.92112 0.84384 4.4067 0 0 0 53 46 46 255
0.0517787 0.684695 4.39261 0 0 0 47 66 47 255
-0.212157 0.674293 4.2055 0 0 0 65 84 61 255
0.103666 0.705099 4.31332 0 0 0 28 44 55 255
1.60999 0.864999 4.39042 0 0 0 104 107 109 255
1.33377 0.841492 4.37767 0 0 0 73 60 65 255
1.44551 0.844936 4.37663 0 0 0 132 131 136 255
1.24328 0.839523 4.42407 0 0 0 112 109 113 255
0.724842 0.785746 4.38211 0 0 0 160 150 146 255
0.253187 0.744881 4.50349 0 0 0 84 94 88 255
1.03952 0.834563 4.40558 0 0 0 131 128 132 255
1.08701 0.839028 4.40384 0 0 0 78 75 79 255
-0.342615 0.710086 4.07715 0 0 0 120 138 124 255
0.0549877 0.747874 4.30774 0 0 0 96 115 109 255
-0.246711 0.737809 4.09842 0 0 0 65 89 65 255
0.226923 0.788259 4.48514 0 0 0 56 67 66 255
0.863521 0.899154 4.41559 0 0 0 47 30 28 255
-0.76399 0.728533 3.9517 0 0 0 89 101 107 255
0.956358 0.916552 4.44315 0 0 0 82 58 50 255
-0.34159 0.783721 4.02349 0 0 0 116 135 126 255
-0.395451 0.8099 4.02616 0 0 0 77 102 73 255
1.77785 1.10494 3.79043 0 0 0 159 170 188 255
-0.542509 0.814257 3.94008 0 0 0 135 154 140 255
0.874931 1.02165 4.54557 0 0 0 93 82 83 255
-0.150374 0.885036 4.16835 0 0 0 114 126 111 255
0.93191 1.03272 4.48318 0 0 0 38 27 24 255
-0.448713 0.868434 3.96585 0 0 0 112 131 125 255
1.61436 1.15019 3.69257 0 0 0 60 130 180 255
1.40142 1.13818 3.77271 0 0 0 114 132 163 255
-0.474646 0.898756 3.99086 0 0 0 84 104 92 255
-0.345296 0.946913 4.06769 0 0 0 69 93 70 255
0.49093 1.09396 4.38502 0 0 0 80 75 77 255
1.47281 1.25556 4.5143 0 0 0 32 23 19 255
-0.345039 0.977565 4.05875 0 0 0 82 105 90 255
0.0311771 1.05559 4.3487 0 0 0 53 63 69 255
-0.141985 1.03111 4.19161 0 0 0 115 126 126 255
-0.0813544 1.03814 4.22493 0 0 0 120 137 113 255
-0.0348605 1.10709 4.30818 0 0 0 53 61 70 255
-0.151778 1.09879 4.22868 0 0 0 68 76 83 255
-0.558387 1.06166 3.91058 0 0 0 121 135 128 255
1.32439 1.35799 3.73547 0 0 0 10 133 171 255
-0.371583 1.11202 4.0432 0 0 0 18 31 24 255
2.51914 1.72749 4.37562 0 0 0 132 148 157 255
0.210707 1.39683 4.54005 0 0 0 37 55 66 255
-0.220922 1.32008 4.14136 0 0 0 126 148 155 255
0.67797 1.55275 4.39512 0 0 0 92 74 69 255
0.588595 1.54671 4.37833 0 0 0 58 42 38 255
-0.766434 1.23615 3.99036 0 0 0 51 59 62 255
1.33589 1.62765 3.71502 0 0 0 118 133 149 255
1.35046 1.78832 4.54696 0 0 0 110 97 103 255
1.32818 1.68445 3.97528 0 0 0 36 115 161 255
0.528786 1.48668 3.56727 0 0 0 53 64 77 255
1.25026 1.68053 3.82354 0 0 0 43 115 152 255
0.428789 1.46418 3.47967 0 0 0 111 91 91 255
1.27376 1.73679 3.81635 0 0 0 135 159 193 255
0.25127 1.51736 3.7399 0 0 0 144 139 142 255
1.15458 1.72206 3.84413 0 0 0 41 115 151 255
1.23612 1.74565 3.83222 0 0 0 162 178 194 255
0.321086 1.4873 3.42945 0 0 0 77 90 86 255
1.39 1.94843 4.52202 0 0 0 184 182 192 255
1.19252 1.7712 3.77207 0 0 0 82 148 184 255
0.180942 1.5105 3.49754 0 0 0 153 161 166 255
0.129594 1.49795 3.47731 0 0 0 54 63 69 255
1.72817 1.95055 3.95214 0 0 0 77 109 137 255
0.145491 1.50689 3.41232 0 0 0 147 158 165 255
0.217328 1.51416 3.35048 0 0 0 174 172 181 255
0.274944 1.52382 3.3915 0 0 0 139 157 154 255
-0.674232 1.4462 3.92282 0 0 0 87 114 115 255
0.238852 1.80685 4.62033 0 0 0 96 104 111 255
-0.527804 1.53188 4.0107 0 0 0 175 198 202 255
1.81402 2.14134 3.88908 0 0 0 194 150 91 255
0.717359 1.86245 3.44342 0 0 0 77 111 127 255
0.0943295 1.71158 3.30005 0 0 0 83 84 71 255
0.11502 1.71485 3.29424 0 0 0 86 77 63 255
0.272322 1.81544 3.21307 0 0 0 122 132 103 255
1.01817 2.20889 3.60895 0 0 0 68 86 99 255
0.328334 1.92795 3.1951 0 0 0 56 83 77 255
1.1263 2.2179 3.2471 0 0 0 207 226 239 255
0.902221 2.21494 3.31822 0 0 0 202 224 238 255
1.31723 0.565222 4.45798 0 0 0 117 103 100 255
1.22518 0.594378 4.55436 0 0 0 116 91 92 255
1.30809 0.613438 4.53842 0 0 0 107 94 94 255
1.34799 0.621069 4.49313 0 0 0 124 115 111 255
1.53873 0.62359 4.56493 0 0 0 128 112 110 255
0.515084 0.600942 4.35798 0 0 0 119 71 57 255
2.45429 0.769333 4.32289 0 0 0 175 151 149 255
2.51621 0.801098 4.28001 0 0 0 149 114 93 255
-0.186005 0.582801 4.15804 0 0 0 55 76 53 255
1.73334 0.75537 4.45613 0 0 0 109 103 96 255
0.199624 0.624523 4.38124 0 0 0 19 36 31 255
0.444522 0.632132 4.47571 0 0 0 47 48 51 255
1.10503 0.706465 4.43318 0 0 0 167 161 159 255
1.32055 0.728749 4.43878 0 0 0 133 128 125 255
1.65314 0.745859 4.4903 0 0 0 97 90 93 255
-0.414151 0.602593 3.99934 0 0 0 92 114 87 255
1.04427 0.70429 4.43629 0 0 0 84 79 76 255
1.21073 0.719924 4.43091 0 0 0 110 107 102 255
1.41376 0.734726 4.4722 0 0 0 137 132 130 255
0.142162 0.639941 4.41437 0 0 0 87 104 97 255
2.45718 0.836719 4.45016 0 0 0 158 145 135 255
0.986191 0.721561 4.4361 0 0 0 111 106 99 255
1.04728 0.727082 4.42219 0 0 0 120 115 112 255
2.40151 0.86308 4.30161 0 0 0 158 139 140 255
2.47586 0.876472 4.27322 0 0 0 154 133 131 255
-0.401294 0.620596 4.05621 0 0 0 114 134 105 255
-0.0994834 0.647556 4.14613 0 0 0 105 122 97 255
1.94149 0.827948 4.42819 0 0 0 167 161 157 255
2.5347 0.878946 4.23759 0 0 0 159 144 142 255
0.121046 0.671136 4.34026 0 0 0 109 127 112 255
1.91672 0.851295 4.41312 0 0 0 38 34 37 255
0.0639314 0.670905 4.44671 0 0 0 47 66 49 255
-0.351996 0.673723 4.08795 0 0 0 81 104 77 255
0.117823 0.718806 4.3129 0 0 0 30 45 46 255
0.730817 0.756404 4.39753 0 0 0 171 160 161 255
1.55091 0.846097 4.45128 0 0 0 93 90 94 255
0.340557 0.730824 4.56838 0 0 0 62 72 69 255
-0.209739 0.707357 4.1626 0 0 0 103 121 104 255
0.25572 0.736545 4.46952 0 0 0 125 138 111 255
0.0916758 0.730204 4.32436 0 0 0 22 39 37 255
0.69848 0.803798 4.4263 0 0 0 120 78 58 255
0.998843 0.834883 4.40916 0 0 0 52 51 54 255
-0.333533 0.708378 4.07637 0 0 0 129 144 128 255
-0.0908337 0.731746 4.17152 0 0 0 94 113 76 255
0.0533589 0.734352 4.30514 0 0 0 85 104 86 255
-0.286256 0.722072 4.0803 0 0 0 82 99 76 255
1.59097 0.923872 4.36299 0 0 0 168 176 181 255
-0.236097 0.740176 4.11552 0 0 0 50 73 60 255
0.0874079 0.776688 4.31806 0 0 0 89 101 105 255
0.0195782 0.784144 4.2716 0 0 0 24 41 43 255
0.0453576 0.7735 4.30592 0 0 0 34 51 55 255
0.229534 0.804342 4.43644 0 0 0 119 132 128 255
0.688038 0.868743 4.35972 0 0 0 96 60 50 255
-0.382362 0.752661 4.02262 0 0 0 144 165 140 255
-0.251171 0.773511 4.07293 0 0 0 90 110 104 255
-0.390481 0.777108 4.0293 0 0 0 93 118 89 255
-0.0894983 0.803016 4.24485 0 0 0 145 163 130 255
0.923666 0.923152 4.37718 0 0 0 81 58 51 255
-0.751276 0.76256 3.90645 0 0 0 107 115 122 255
0.144534 0.876756 4.43137 0 0 0 58 68 72 255
-0.0421347 0.85442 4.26246 0 0 0 140 160 140 255
2.08728 1.13562 4.09943 0 0 0 53 61 70 255
-0.537891 0.807442 3.94128 0 0 0 145 166 146 255
-0.469933 0.844353 3.96507 0 0 0 133 155 128 255
1.70703 1.10649 3.73321 0 0 0 161 180 198 255
-0.432903 0.848086 3.96415 0 0 0 66 90 66 255
0.86875 1.03323 4.52358 0 0 0 98 86 87 255
-0.514629 0.84956 3.93098 0 0 0 149 169 153 255
-0.544367 0.858986 3.94265 0 0 0 152 172 157 255
-0.547166 0.875394 3.91273 0 0 0 150 170 150 255
-0.116891 0.945403 4.20276 0 0 0 45 59 49 255
-0.33967 0.914298 4.08963 0 0 0 124 145 122 255
0.732653 1.06747 4.16222 0 0 0 62 51 46 255
-0.340334 0.947078 4.06715 0 0 0 48 72 50 255
1.30852 1.1665 3.76679 0 0 0 58 99 120 255
0.0448786 1.023 4.34909 0 0 0 18 34 32 255
0.135747 1.05715 4.37918 0 0 0 75 86 94 255
-0.75773 0.932656 3.96573 0 0 0 71 82 90 255
0.405017 1.13052 4.61213 0 0 0 14 21 28 255
0.798385 1.1892 4.52123 0 0 0 57 38 38 255
-0.444696 0.994851 3.96484 0 0 0 74 89 97 255
1.47328 1.28266 3.67227 0 0 0 70 103 126 255
-0.158917 1.11489 4.18117 0 0 0 106 114 123 255
-0.824108 1.01621 4.06597 0 0 0 61 85 89 255
-0.283855 1.11624 4.12828 0 0 0 91 101 109 255
1.29651 1.34841 3.83395 0 0 0 66 123 163 255
1.92762 1.50784 4.03212 0 0 0 62 89 107 255
0.291896 1.29219 4.60604 0 0 0 37 51 61 255
1.02061 1.42319 4.4167 0 0 0 99 86 79 255
-0.033958 1.25589 4.33928 0 0 0 150 167 177 255
-0.166632 1.23034 4.26904 0 0 0 172 183 197 255
2.52747 1.73112 4.36936 0 0 0 107 120 130 255
1.31344 1.55411 4.41467 0 0 0 88 78 78 255
-0.140673 1.3007 4.27958 0 0 0 164 186 198 255
-0.676323 1.17374 3.85629 0 0 0 51 66 71 255
1.28506 1.53831 3.7872 0 0 0 155 173 189 255
0.1108 1.44566 4.49575 0 0 0 85 105 119 255
0.663146 1.54634 4.38365 0 0 0 75 59 53 255
0.184945 1.4894 4.51071 0 0 0 110 130 144 255
0.777467 1.61031 4.47029 0 0 0 97 77 70 255
1.40573 1.6355 3.83529 0 0 0 76 91 102 255
-0.352215 1.34472 4.04292 0 0 0 116 134 146 255
0.028365 1.48041 4.37852 0 0 0 169 190 197 255
1.34709 1.78865 4.55104 0 0 0 103 92 97 255
0.474137 1.60707 4.47889 0 0 0 113 97 95 255
1.29794 1.68237 3.9213 0 0 0 76 140 169 255
-0.217266 1.44837 4.18902 0 0 0 168 184 198 255
0.59927 1.66832 4.45672 0 0 0 138 120 115 255
0.426996 1.46268 3.48233 0 0 0 107 87 87 255
-0.763452 1.33134 3.98283 0 0 0 63 69 72 255
0.370165 1.48305 3.41203 0 0 0 88 89 91 255
0.133776 1.64844 4.45637 0 0 0 55 75 80 255
0.99364 1.77219 4.18787 0 0 0 51 68 82 255
-0.762431 1.3716 3.96595 0 0 0 92 99 101 255
0.230617 1.49794 3.54651 0 0 0 68 67 82 255
0.429886 1.51022 3.40231 0 0 0 111 122 130 255
-0.389348 1.48934 4.08675 0 0 0 176 198 202 255
0.354464 1.49231 3.38948 0 0 0 129 132 134 255
1.38901 1.95216 4.518 0 0 0 207 212 221 255
-0.21557 1.57741 4.15235 0 0 0 153 173 181 255
-0.929761 1.56712 4.77188 0 0 0 106 118 124 255
1.14445 1.87461 4.1093 0 0 0 191 207 218 255
0.243594 1.82458 4.65514 0 0 0 78 86 94 255
0.29437 1.53669 3.36618 0 0 0 122 128 131 255
-0.767895 1.4439 3.97131 0 0 0 67 75 79 255
0.351867 1.87431 4.67987 0 0 0 126 142 149 255
0.376887 1.57013 3.34029 0 0 0 68 132 141 255
-0.769283 1.49887 3.95946 0 0 0 60 68 73 255
0.408262 1.61884 3.24291 0 0 0 86 128 144 255
-0.0279889 1.83482 4.41121 0 0 0 121 136 150 255
-0.720649 1.54599 3.88648 0 0 0 96 123 126 255
-0.675917 1.54223 3.82152 0 0 0 137 174 173 255
0.125835 1.62554 3.40848 0 0 0 130 147 153 255
-0.369085 1.76045 4.17511 0 0 0 72 90 96 255
-0.600197 1.61795 3.86844 0 0 0 23 45 49 255
-0.872842 1.75797 4.48083 0 0 0 72 92 95 255
0.0446214 1.71467 3.52348 0 0 0 105 123 109 255
0.0663909 1.68753 3.34439 0 0 0 127 142 147 255
0.0967454 1.72206 3.30823 0 0 0 87 76 64 255
1.33653 2.22034 3.55965 0 0 0 60 71 81 255
0.36795 1.87016 3.2093 0 0 0 100 83 57 255
0.0657332 1.92895 3.58761 0 0 0 39 78 73 255
0.0602598 1.86747 3.33099 0 0 0 92 100 89 255
0.816801 2.21798 3.45178 0 0 0 59 77 90 255
1.22289 0.59071 4.54119 0 0 0 117 87 88 255
0.195946 0.611245 4.38902 0 0 0 54 74 60 255
2.46031 0.839165 4.4411 0 0 0 150 153 146 255
1.05074 0.727055 4.42056 0 0 0 124 119 116 255
-0.412853 0.609104 4.01776 0 0 0 91 112 86 255
2.45906 0.842611 4.43834 0 0 0 148 148 140 255
-0.107836 0.655572 4.15781 0 0 0 67 81 70 255
0.716669 0.744008 4.45774 0 0 0 44 25 29 255
0.749619 0.750134 4.39835 0 0 0 167 160 158 255
0.0542377 0.711715 4.3607 0 0 0 136 156 129 255
0.2468 0.732194 4.45483 0 0 0 102 115 103 255
0.0977705 0.726782 4.327 0 0 0 22 38 37 255
0.576781 0.801367 4.51045 0 0 0 113 78 65 255
0.742916 0.800531 4.34663 0 0 0 24 24 24 255
-0.373034 0.720218 4.08079 0 0 0 75 97 72 255
-0.322007 0.723484 4.05936 0 0 0 144 160 122 255
0.0158095 0.785228 4.26942 0 0 0 32 50 49 255
1.34283 0.934729 4.0732 0 0 0 176 189 194 255
-0.0906937 0.791373 4.21389 0 0 0 145 164 126 255
0.896741 0.903588 4.42512 0 0 0 122 98 93 255
0.8619 0.939986 4.23415 0 0 0 52 34 31 255
-0.390907 0.806117 4.04726 0 0 0 85 110 81 255
-0.122669 0.830997 4.24108 0 0 0 30 39 41 255
-0.543655 0.793094 3.90646 0 0 0 153 174 153 255
1.22113 1.02802 3.93784 0 0 0 31 45 55 255
0.918277 1.01987 4.51002 0 0 0 40 28 28 255
-0.541944 0.865485 3.92801 0 0 0 152 174 148 255
-0.140744 0.925783 4.13763 0 0 0 18 31 27 255
0.739353 1.07604 4.17254 0 0 0 37 26 21 255
0.110292 1.03007 4.363 0 0 0 61 76 65 255
-0.434462 0.966801 3.95021 0 0 0 30 48 47 255
-0.0958417 1.01764 4.23358 0 0 0 123 143 117 255
-0.425519 0.989088 3.95146 0 0 0 36 49 50 255
-0.543742 0.997288 3.96995 0 0 0 140 165 138 255
-0.530064 0.99419 3.97901 0 0 0 147 174 145 255
0.301283 1.17625 4.56701 0 0 0 122 137 142 255
-0.458535 1.03875 3.99269 0 0 0 16 31 38 255
1.38698 1.34469 4.43885 0 0 0 47 37 41 255
0.38156 1.27834 4.5712 0 0 0 68 81 88 255
1.29136 1.3664 3.76677 0 0 0 93 162 192 255
0.141799 1.27725 4.45639 0 0 0 85 106 115 255
1.34621 1.45759 3.75521 0 0 0 147 175 201 255
1.49374 1.50079 3.70519 0 0 0 38 73 121 255
1.19296 1.53982 3.88404 0 0 0 128 166 195 255
-0.353923 1.35177 4.02925 0 0 0 128 145 155 255
-0.285378 1.40114 4.14681 0 0 0 86 109 117 255
1.28742 1.63103 3.7854 0 0 0 130 168 194 255
1.39122 1.69242 3.75181 0 0 0 57 90 134 255
1.4954 1.68727 3.73347 0 0 0 14 82 130 255
-0.765717 1.29916 3.97772 0 0 0 52 58 61 255
-0.364372 1.44855 4.12268 0 0 0 168 188 196 255
0.367804 1.67365 4.44977 0 0 0 6 83 126 255
1.39295 1.95204 4.51344 0 0 0 206 212 224 255
0.284171 1.87609 4.82739 0 0 0 50 59 67 255
0.152464 1.50359 3.41042 0 0 0 141 156 161 255
-0.613042 1.46713 3.97193 0 0 0 93 124 118 255
0.350421 1.88063 4.67779 0 0 0 131 148 154 255
1.73399 2.02594 3.9914 0 0 0 92 126 154 255
-0.552749 1.57637 3.95573 0 0 0 179 195 205 255
0.0105621 1.83414 4.43938 0 0 0 129 142 156 255
-0.107157 1.83977 4.34552 0 0 0 43 59 70 255
1.76088 2.25144 4.09097 0 0 0 183 205 217 255
0.704765 1.89942 3.43002 0 0 0 121 157 169 255
0.0665442 1.92627 3.59587 0 0 0 36 75 71 255
1.08592 2.21713 3.4813 0 0 0 44 62 75 255
1.06021 2.23854 3.37898 0 0 0 50 62 75 255
1.12134 2.21237 3.25797 0 0 0 202 226 239 255
1.17768 2.22901 3.2282 0 0 0 47 53 63 255
0.899168 2.20933 3.31977 0 0 0 203 224 237 255
1.08993 0.702503 4.43913 0 0 0 73 68 65 255
1.90948 0.868916 4.42169 0 0 0 33 32 37 255
0.583952 0.802632 4.50558 0 0 0 123 76 55 255
-0.081043 0.772367 4.18803 0 0 0 149 169 122 255
0.0770385 0.790744 4.31034 0 0 0 82 95 96 255
1.97315 1.05666 4.05642 0 0 0 212 233 242 255
-0.544548 0.783604 3.89886 0 0 0 152 172 152 255
0.884369 0.957757 4.25715 0 0 0 41 24 27 255
-0.424581 0.823426 3.99022 0 0 0 155 179 139 255
1.6618 1.08005 3.70477 0 0 0 184 214 227 255
-0.122449 0.877027 4.16475 0 0 0 150 168 125 255
-0.35001 0.876469 4.15357 0 0 0 47 67 68 255
-0.0978001 0.925429 4.15894 0 0 0 149 173 123 255
-0.448117 0.893768 4.01941 0 0 0 53 71 67 255
-0.358553 0.929684 4.08672 0 0 0 152 176 137 255
-0.126178 0.951896 4.20866 0 0 0 19 33 29 255
0.12607 1.0013 4.36137 0 0 0 130 153 118 255
0.219021 1.01852 4.47995 0 0 0 49 64 63 255
1.32823 1.18439 3.86369 0 0 0 16 59 111 255
0.793266 1.15072 4.57199 0 0 0 54 40 40 255
1.68314 1.27707 3.75491 0 0 0 91 115 141 255
-0.433378 1.0041 3.97637 0 0 0 49 64 67 255
-0.548562 1.03497 3.91416 0 0 0 141 165 143 255
1.17867 1.37986 4.51331 0 0 0 102 89 84 255
0.0836943 1.2173 4.38912 0 0 0 169 191 195 255
1.19399 1.45624 4.55185 0 0 0 56 43 36 255
1.55851 1.44256 3.71805 0 0 0 164 191 203 255
1.30498 1.56304 4.67971 0 0 0 120 99 93 255
0.122468 1.35215 4.38553 0 0 0 119 138 148 255
-0.610716 1.16267 3.86612 0 0 0 75 92 97 255
1.35303 1.56205 3.73339 0 0 0 82 98 127 255
-0.422413 1.28112 3.99657 0 0 0 176 197 204 255
1.50197 1.69879 3.73708 0 0 0 7 83 140 255
1.23143 1.78609 4.55488 0 0 0 135 103 100 255
1.21728 1.70583 3.8752 0 0 0 115 122 154 255
1.26446 1.88723 4.65748 0 0 0 71 49 60 255
1.43153 1.96261 4.75424 0 0 0 147 123 127 255
0.372484 1.67327 4.44721 0 0 0 36 99 144 255
0.3894 1.50843 3.37255 0 0 0 122 145 152 255
1.27247 1.93208 4.3353 0 0 0 197 213 223 255
-0.163471 1.62525 4.27037 0 0 0 38 60 64 255
1.43927 1.88187 3.77634 0 0 0 140 144 151 255
-0.585481 1.47896 3.9452 0 0 0 62 88 84 255
0.241088 1.89551 4.81933 0 0 0 93 106 121 255
1.76924 2.04964 4.02336 0 0 0 188 201 213 255
-0.708808 1.53016 3.90347 0 0 0 112 157 158 255
0.268787 1.60317 3.22503 0 0 0 101 160 169 255
0.0140212 1.7505 3.64684 0 0 0 129 158 167 255
1.69206 2.26796 4.02749 0 0 0 217 240 249 255
0.296877 1.70971 3.18438 0 0 0 149 163 138 255
0.221953 1.69663 3.1886 0 0 0 46 87 74 255
0.190998 1.82501 3.29869 0 0 0 121 119 129 255
0.354908 1.85932 3.21201 0 0 0 112 90 70 255
1.05551 2.27862 3.49586 0 0 0 194 221 231 255
0.903441 2.19727 3.32145 0 0 0 202 227 240 255
0.964429 2.22911 3.28833 0 0 0 46 57 70 255
-0.342396 0.841624 4.06572 0 0 0 31 48 54 255
0.242611 0.958061 4.50454 0 0 0 123 150 106 255
1.09466 1.15545 4.64853 0 0 0 103 88 79 255
1.44403 1.14253 3.7489 0 0 0 17 85 136 255
-0.394868 0.949148 3.96845 0 0 0 154 173 135 255
1.30105 1.19394 3.76324 0 0 0 136 123 97 255
0.902861 1.19878 4.40261 0 0 0 30 25 29 255
-0.456581 1.02009 3.94562 0 0 0 18 34 40 255
0.354418 1.15357 4.58352 0 0 0 69 83 88 255
0.633443 1.32065 4.80761 0 0 0 106 84 78 255
0.0735377 1.26401 4.39339 0 0 0 147 170 176 255
-0.212959 1.26207 4.21092 0 0 0 176 197 204 255
1.23115 1.5816 4.57773 0 0 0 127 111 100 255
-0.408501 1.27243 4.04709 0 0 0 180 195 206 255
0.14175 1.47615 4.48067 0 0 0 133 153 169 255
1.23255 1.79464 4.56455 0 0 0 118 85 85 255
-0.599976 1.38644 3.94747 0 0 0 49 66 72 255
0.389057 1.51191 3.36954 0 0 0 126 159 166 255
0.377965 1.82927 4.65768 0 0 0 11 18 24 255
1.36836 1.91655 3.72108 0 0 0 3 85 135 255
-0.517412 1.56989 3.96189 0 0 0 179 198 206 255
0.270211 1.60096 3.23019 0 0 0 97 161 172 255
1.60088 2.25437 3.95319 0 0 0 212 235 244 255
0.0343073 1.76804 3.66315 0 0 0 24 55 58 255
0.39864 1.74017 3.2326 0 0 0 73 132 156 255
0.785592 1.96054 3.52093 0 0 0 185 215 226 255
0.728758 0.137054 4.26289 0 0 0 98 94 103 255
0.550666 0.131819 4.24443 0 0 0 121 117 123 255
1.54533 0.333107 4.29506 0 0 0 158 158 158 255
1.71542 0.353319 4.30124 0 0 0 143 141 139 255
1.68728 0.356594 4.31117 0 0 0 124 122 118 255
1.56928 0.341346 4.31197 0 0 0 158 155 156 255
0.478503 0.187301 4.28685 0 0 0 74 76 73 255
1.62519 0.360541 4.30708 0 0 0 180 177 176 255
1.70185 0.371739 4.30543 0 0 0 164 157 155 255
1.49048 0.346865 4.29886 0 0 0 144 139 141 255
1.43721 0.341841 4.29569 0 0 0 149 147 148 255
1.65158 0.373351 4.31895 0 0 0 123 114 113 255
1.05093 0.290294 4.28911 0 0 0 132 137 136 255
1.28415 0.332538 4.29419 0 0 0 129 123 122 255
1.3338 0.336698 4.2915 0 0 0 133 123 127 255
1.37031 0.350923 4.29636 0 0 0 195 183 185 255
1.60254 0.391416 4.29885 0 0 0 186 176 176 255
1.17197 0.331119 4.29018 0 0 0 145 141 135 255
1.27031 0.347315 4.29591 0 0 0 187 178 176 255
1.21457 0.344528 4.29481 0 0 0 189 184 177 255
1.11078 0.334882 4.29254 0 0 0 190 189 187 255
1.19443 0.347073 4.29048 0 0 0 183 173 167 255
1.61092 0.409446 4.30031 0 0 0 190 179 178 255
1.10884 0.33514 4.29225 0 0 0 182 182 179 255
1.67621 0.421967 4.31085 0 0 0 133 122 119 255
1.68154 0.42948 4.3081 0 0 0 137 127 125 255
1.45296 0.405285 4.29836 0 0 0 183 179 173 255
1.55031 0.423949 4.30501 0 0 0 141 134 129 255
1.3533 0.405668 4.29392 0 0 0 193 181 178 255
1.49522 0.420958 4.30576 0 0 0 132 119 116 255
0.443316 0.246152 4.44492 0 0 0 182 203 213 255
0.334561 0.200314 4.81404 0 0 0 56 80 92 255
1.29212 0.414489 4.30446 0 0 0 128 110 111 255
0.439751 0.266327 4.44973 0 0 0 14 29 34 255
1.22216 0.412332 4.2978 0 0 0 146 133 132 255
1.09064 0.397779 4.27589 0 0 0 186 186 181 255
1.16325 0.406609 4.29704 0 0 0 142 121 123 255
2.52759 0.6551 4.22761 0 0 0 176 140 121 255
1.329 0.451668 4.3042 0 0 0 132 125 123 255
2.38402 0.637797 4.32049 0 0 0 185 163 158 255
2.43278 0.646191 4.27659 0 0 0 171 131 106 255
1.32667 0.459923 4.30718 0 0 0 137 132 129 255
2.55282 0.679008 4.21235 0 0 0 164 134 115 255
2.48654 0.680287 4.24105 0 0 0 168 141 123 255
2.59114 0.701218 4.19544 0 0 0 158 150 133 255
2.45191 0.676413 4.25251 0 0 0 180 159 148 255
2.63526 0.72098 4.17523 0 0 0 138 112 97 255
1.33303 0.491342 4.3075 0 0 0 140 135 132 255
2.46396 0.700729 4.24848 0 0 0 146 121 118 255
1.19662 0.481965 4.29854 0 0 0 143 143 138 255
2.58702 0.732138 4.20549 0 0 0 184 159 147 255
0.494509 0.369067 4.27482 0 0 0 81 71 69 255
1.16704 0.483445 4.31062 0 0 0 132 128 122 255
2.51981 0.723355 4.2422 0 0 0 166 152 136 255
1.53158 0.561591 4.32683 0 0 0 189 188 181 255
2.60766 0.771342 4.19463 0 0 0 170 147 124 255
1.27837 0.53425 4.31421 0 0 0 146 141 138 255
1.33385 0.54161 4.32194 0 0 0 157 150 148 255
1.41792 0.552904 4.32387 0 0 0 195 183 183 255
1.19883 0.531776 4.3172 0 0 0 141 140 133 255
0.482754 0.420719 4.28783 0 0 0 48 47 41 255
2.62655 0.830125 4.20237 0 0 0 175 153 141 255
2.52468 0.824824 4.28122 0 0 0 180 168 163 255
2.65534 0.848054 4.19228 0 0 0 139 113 98 255
0.516095 0.460389 4.30167 0 0 0 113 108 105 255
2.61911 0.885392 4.21548 0 0 0 172 150 142 255
1.09621 0.606542 4.30249 0 0 0 136 127 123 255
1.61087 0.733269 4.34741 0 0 0 188 189 181 255
1.37421 0.703911 4.34365 0 0 0 153 153 150 255
1.64372 0.842686 4.35604 0 0 0 115 116 121 255
0.114212 0.583943 4.31768 0 0 0 128 158 121 255
0.417104 0.681178 4.41136 0 0 0 39 42 49 255
-0.141445 0.591739 4.11931 0 0 0 115 140 124 255
0.105321 0.637978 4.31441 0 0 0 92 116 103 255
-0.125097 0.600404 4.13428 0 0 0 91 115 104 255
-0.109906 0.621307 4.15781 0 0 0 86 111 94 255
0.833427 0.866916 4.36298 0 0 0 86 85 90 255
0.339786 0.775915 4.51597 0 0 0 56 75 66 255
-0.24057 0.67042 4.03101 0 0 0 80 109 93 255
-0.22604 0.683495 4.02822 0 0 0 111 142 128 255
-0.00770367 0.795268 4.25926 0 0 0 87 116 105 255
1.35627 1.10465 3.68286 0 0 0 144 180 218 255
1.38089 1.10756 3.66566 0 0 0 66 155 202 255
-0.259558 0.753548 4.0095 0 0 0 87 117 101 255
0.415323 0.958334 4.47139 0 0 0 65 68 75 255
1.64472 1.20931 3.70567 0 0 0 66 150 204 255
1.66355 1.22059 3.71813 0 0 0 136 173 213 255
0.390439 0.997992 4.49283 0 0 0 32 42 46 255
0.112192 0.955113 4.34281 0 0 0 95 120 105 255
1.65256 1.29014 3.73044 0 0 0 151 190 214 255
0.335147 1.04642 4.52585 0 0 0 65 75 81 255
0.0745551 0.9675 4.34864 0 0 0 104 126 119 255
0.486166 1.08015 4.35419 0 0 0 95 92 96 255
0.957453 1.21066 4.38521 0 0 0 91 88 92 255
0.0817644 0.987585 4.3426 0 0 0 52 75 64 255
0.221987 1.06453 4.47208 0 0 0 89 103 113 255
0.314788 1.10727 4.55656 0 0 0 58 74 83 255
-0.204089 0.933675 4.13198 0 0 0 51 73 82 255
0.227032 1.11006 4.46745 0 0 0 58 73 80 255
0.414144 1.16652 4.54766 0 0 0 72 83 94 255
1.64858 1.41073 3.76058 0 0 0 27 118 152 255
1.31731 1.41375 4.41549 0 0 0 51 44 44 255
0.111249 1.1256 4.39522 0 0 0 44 57 74 255
-0.111908 1.09506 4.24257 0 0 0 86 106 119 255
1.00225 1.42059 4.43402 0 0 0 95 88 86 255
0.029144 1.15727 4.37505 0 0 0 76 96 110 255
0.0370072 1.20435 4.39804 0 0 0 117 144 156 255
1.32199 1.55877 4.3636 0 0 0 71 64 62 255
-0.376584 1.10812 3.96545 0 0 0 23 46 44 255
0.27125 1.41425 4.57224 0 0 0 115 140 153 255
1.29579 1.57092 3.78517 0 0 0 99 139 184 255
1.37752 1.60565 3.73054 0 0 0 124 149 175 255
1.76613 1.7444 3.94521 0 0 0 157 171 190 255
1.33544 1.60987 3.77003 0 0 0 109 134 158 255
1.32733 1.64132 3.77038 0 0 0 141 170 186 255
1.28822 1.77264 4.48393 0 0 0 116 105 114 255
1.23113 1.65415 3.8524 0 0 0 16 105 156 255
1.27625 1.70475 3.81267 0 0 0 54 151 188 255
2.31152 2.111 4.08156 0 0 0 143 183 213 255
-0.241638 1.35225 4.18296 0 0 0 150 177 189 255
1.33263 1.74944 3.77855 0 0 0 151 204 232 255
0.707438 1.73367 4.49595 0 0 0 116 111 110 255
2.29996 2.12837 4.06481 0 0 0 134 184 214 255
1.32663 1.79469 3.78419 0 0 0 48 125 157 255
0.593876 1.54697 3.65762 0 0 0 50 86 110 255
1.49553 1.85215 3.77227 0 0 0 127 146 174 255
2.23025 2.14007 3.99281 0 0 0 132 126 156 255
1.53615 1.8767 3.7844 0 0 0 138 160 170 255
2.12065 2.1563 3.89691 0 0 0 136 158 172 255
0.262603 1.47485 3.5309 0 0 0 115 127 142 255
2.06583 2.1592 3.85004 0 0 0 80 86 101 255
-0.112617 1.62165 4.32631 0 0 0 73 100 114 255
2.01248 2.18301 3.81482 0 0 0 79 80 94 255
0.181013 1.53826 3.61541 0 0 0 77 97 103 255
1.8122 2.16366 3.87539 0 0 0 185 150 86 255
0.265147 1.5287 3.37974 0 0 0 135 174 172 255
0.551656 0.14556 4.23448 0 0 0 66 56 60 255
0.469222 0.103806 4.45857 0 0 0 115 135 147 255
1.62034 0.344522 4.30588 0 0 0 162 162 162 255
1.71405 0.354834 4.30169 0 0 0 124 122 120 255
1.54241 0.337558 4.29677 0 0 0 141 140 141 255
1.48933 0.345103 4.29865 0 0 0 144 139 141 255
1.43606 0.347807 4.29603 0 0 0 146 144 143 255
1.28298 0.330888 4.29422 0 0 0 129 123 122 255
0.482971 0.22155 4.27659 0 0 0 97 95 103 255
1.10007 0.322296 4.28868 0 0 0 126 126 125 255
1.17463 0.331923 4.28983 0 0 0 145 141 135 255
1.36642 0.357836 4.29654 0 0 0 195 193 189 255
1.26348 0.356989 4.29622 0 0 0 197 187 186 255
1.45845 0.395403 4.2986 0 0 0 193 191 187 255
1.10668 0.347002 4.29402 0 0 0 186 184 182 255
1.20473 0.356746 4.29395 0 0 0 196 187 181 255
1.67456 0.426244 4.31209 0 0 0 127 117 115 255
1.35331 0.395569 4.29402 0 0 0 195 184 180 255
1.53989 0.42284 4.30341 0 0 0 135 128 123 255
1.59898 0.426912 4.30316 0 0 0 131 119 119 255
1.47707 0.417759 4.3031 0 0 0 125 117 112 255
1.28584 0.414383 4.30497 0 0 0 138 125 124 255
1.09803 0.388855 4.29563 0 0 0 189 187 183 255
1.22263 0.409555 4.29731 0 0 0 156 140 138 255
2.52382 0.657128 4.23123 0 0 0 157 121 100 255
1.0302 0.4023 4.29955 0 0 0 134 134 129 255
1.1034 0.413425 4.28875 0 0 0 137 132 129 255
1.32403 0.450566 4.30755 0 0 0 139 132 130 255
2.4369 0.653041 4.28752 0 0 0 180 156 142 255
2.5522 0.686064 4.21365 0 0 0 176 151 134 255
1.15978 0.485461 4.3139 0 0 0 145 141 135 255
1.49136 0.549808 4.32106 0 0 0 148 147 140 255
2.6067 0.76451 4.19674 0 0 0 161 145 132 255
0.454977 0.385004 4.31867 0 0 0 34 30 33 255
1.26186 0.528125 4.31389 0 0 0 193 188 185 255
1.33346 0.543337 4.322 0 0 0 141 133 131 255
1.41321 0.558071 4.323 0 0 0 198 186 186 255
2.58155 0.812965 4.22401 0 0 0 175 152 139 255
0.508559 0.449885 4.26972 0 0 0 121 116 113 255
0.355814 0.430498 4.46149 0 0 0 66 76 80 255
2.36987 0.817997 4.31805 0 0 0 137 127 113 255
2.55628 0.852464 4.23512 0 0 0 140 111 78 255
2.52452 0.859772 4.24421 0 0 0 170 152 144 255
2.61768 0.886189 4.21635 0 0 0 172 150 142 255
0.257084 0.437483 4.39468 0 0 0 145 164 146 255
0.115729 0.586857 4.31854 0 0 0 68 95 79 255
0.107545 0.641383 4.3166 0 0 0 81 105 93 255
0.834145 0.867179 4.36227 0 0 0 86 85 90 255
-0.240974 0.671149 4.0308 0 0 0 80 109 93 255
-0.229798 0.691043 4.02882 0 0 0 114 146 128 255
2.57411 1.35889 4.27864 0 0 0 124 124 125 255
1.2613 1.1008 4.09842 0 0 0 42 40 50 255
0.255618 0.919502 4.49476 0 0 0 88 107 101 255
2.62487 1.52327 4.29927 0 0 0 93 103 77 255
0.0125686 0.902795 4.28338 0 0 0 35 62 61 255
0.115524 0.951892 4.34544 0 0 0 77 102 88 255
0.0829377 1.05923 4.33775 0 0 0 69 83 93 255
1.65821 1.40802 3.75352 0 0 0 90 165 196 255
0.179075 1.11997 4.43425 0 0 0 50 68 81 255
1.32225 1.56275 4.3861 0 0 0 80 74 72 255
1.6627 1.6025 3.80339 0 0 0 169 185 194 255
-0.327637 1.08184 4.00667 0 0 0 27 49 56 255
-0.378434 1.1086 3.96499 0 0 0 24 44 46 255
1.69113 1.73315 3.88688 0 0 0 43 106 147 255
1.88404 1.8259 4.08174 0 0 0 191 205 228 255
2.3608 2.07348 4.20742 0 0 0 90 89 98 255
1.18406 1.72573 3.92558 0 0 0 15 106 158 255
1.46048 1.79985 3.75557 0 0 0 145 190 183 255
2.28487 2.12984 4.07407 0 0 0 104 176 205 255
0.396155 1.71943 4.53349 0 0 0 68 132 160 255
2.18252 2.14871 3.98229 0 0 0 78 70 82 255
0.627662 1.549 3.56096 0 0 0 197 220 240 255
2.10174 2.15261 3.88607 0 0 0 130 149 162 255
-0.178111 1.52698 4.25079 0 0 0 181 208 222 255
2.06994 2.15875 3.85535 0 0 0 111 115 129 255
2.00814 2.17834 3.83126 0 0 0 142 137 111 255
-0.118608 1.63165 4.32763 0 0 0 56 83 97 255
0.202975 1.52406 3.45292 0 0 0 146 165 159 255
0.264957 1.52799 3.38124 0 0 0 135 174 172 255
0.153566 1.53208 3.50494 0 0 0 109 143 151 255
0.590663 1.65398 3.33265 0 0 0 131 118 141 255
-0.0464225 1.83227 4.39046 0 0 0 110 129 143 255
0.471997 0.111999 4.441 0 0 0 103 122 130 255
1.54685 0.338904 4.29485 0 0 0 124 124 124 255
1.69892 0.356468 4.3067 0 0 0 139 137 134 255
0.982884 0.265476 4.27901 0 0 0 157 162 161 255
1.03673 0.27977 4.28834 0 0 0 157 162 161 255
0.518527 0.209745 4.24166 0 0 0 119 110 106 255
1.04789 0.282348 4.28651 0 0 0 124 129 128 255
1.35 0.336335 4.29084 0 0 0 140 128 133 255
0.490474 0.212496 4.25698 0 0 0 119 110 112 255
1.08107 0.330149 4.29006 0 0 0 132 129 127 255
1.11073 0.313794 4.28785 0 0 0 174 175 175 255
1.46411 0.385502 4.29991 0 0 0 191 189 185 255
1.36808 0.377156 4.29928 0 0 0 188 188 183 255
1.67863 0.423796 4.31003 0 0 0 133 122 119 255
1.10073 0.358759 4.29338 0 0 0 187 185 183 255
1.14618 0.369301 4.29957 0 0 0 128 116 117 255
1.28512 0.393175 4.30069 0 0 0 144 129 126 255
0.436932 0.243381 4.45161 0 0 0 189 211 223 255
1.23059 0.395057 4.29666 0 0 0 149 129 127 255
1.44244 0.420418 4.29819 0 0 0 145 141 135 255
0.332394 0.198007 4.81548 0 0 0 61 85 97 255
1.08816 0.415659 4.2753 0 0 0 135 130 127 255
2.52101 0.64759 4.22658 0 0 0 158 114 88 255
2.38437 0.64459 4.31861 0 0 0 179 158 154 255
2.42212 0.650203 4.27073 0 0 0 180 156 142 255
1.20262 0.483053 4.31122 0 0 0 143 143 138 255
1.16363 0.485866 4.31155 0 0 0 132 128 122 255
1.54854 0.56085 4.32218 0 0 0 143 140 134 255
0.444977 0.369949 4.37438 0 0 0 77 74 80 255
1.07254 0.48113 4.31156 0 0 0 131 122 118 255
1.39419 0.545563 4.31926 0 0 0 140 132 130 255
1.32912 0.553644 4.3236 0 0 0 142 130 130 255
1.4117 0.567332 4.32386 0 0 0 199 187 187 255
0.507837 0.433078 4.2729 0 0 0 126 121 120 255
1.19809 0.540297 4.31954 0 0 0 133 131 124 255
2.3727 0.7729 4.34155 0 0 0 159 149 137 255
0.447616 0.440835 4.36635 0 0 0 96 94 90 255
2.35681 0.799131 4.34125 0 0 0 174 151 138 255
2.55738 0.849544 4.23431 0 0 0 140 111 78 255
2.61747 0.88071 4.21279 0 0 0 172 150 142 255
0.255094 0.439164 4.39691 0 0 0 160 181 160 255
1.63628 0.724494 4.34988 0 0 0 138 139 131 255
1.91921 0.809766 4.38511 0 0 0 185 179 174 255
1.64232 0.842579 4.35654 0 0 0 115 116 121 255
0.711624 0.765034 4.32931 0 0 0 187 180 180 255
0.713055 0.808409 4.33059 0 0 0 37 33 44 255
1.80843 1.0245 3.82001 0 0 0 151 161 173 255
0.129315 0.705068 4.31959 0 0 0 72 96 98 255
-0.253284 0.696073 4.02004 0 0 0 161 194 156 255
0.904768 0.981177 4.37593 0 0 0 119 114 113 255
0.0225475 0.769896 4.26843 0 0 0 49 76 77 255
-0.00533865 0.794917 4.25794 0 0 0 97 125 120 255
0.803017 1.022 4.37396 0 0 0 126 122 116 255
1.30134 1.10595 3.72949 0 0 0 130 186 211 255
0.414558 0.953544 4.47442 0 0 0 65 68 75 255
1.66248 1.22953 3.72575 0 0 0 130 165 195 255
-0.0553584 0.858226 4.25969 0 0 0 159 189 148 255
-0.121254 0.84934 4.17373 0 0 0 121 146 124 255
0.0189841 0.896058 4.28428 0 0 0 36 63 66 255
0.49169 1.07058 4.35063 0 0 0 100 95 92 255
0.754112 1.19997 4.40701 0 0 0 66 59 57 255
1.02741 1.27904 4.45175 0 0 0 114 105 102 255
0.412277 1.13973 4.54489 0 0 0 53 63 74 255
0.0926401 1.06067 4.35045 0 0 0 116 133 141 255
1.65599 1.40822 3.74767 0 0 0 90 165 196 255
1.33017 1.47039 4.3092 0 0 0 57 49 55 255
1.62424 1.48406 3.75604 0 0 0 85 122 140 255
0.0813565 1.17496 4.37441 0 0 0 109 131 147 255
0.382043 1.30159 4.59131 0 0 0 67 88 99 255
0.154346 1.23482 4.45761 0 0 0 170 196 213 255
1.3225 1.56506 4.37593 0 0 0 56 49 49 255
0.973714 1.48431 4.46785 0 0 0 96 87 81 255
-0.313388 1.08245 4.03192 0 0 0 27 47 54 255
1.69126 1.74093 3.88983 0 0 0 43 106 147 255
1.85818 1.80391 4.04322 0 0 0 202 202 210 255
1.18821 1.7008 3.9413 0 0 0 43 146 186 255
-0.122195 1.37577 4.3109 0 0 0 187 219 231 255
0.691127 1.67065 4.49547 0 0 0 110 101 97 255
1.67061 1.90079 3.91749 0 0 0 37 99 150 255
-0.353144 1.35624 3.99031 0 0 0 172 199 213 255
0.397804 1.71735 4.53238 0 0 0 70 140 169 255
0.407677 1.45996 3.47874 0 0 0 112 119 125 255
0.635986 1.54718 3.55651 0 0 0 207 235 246 255
1.15187 1.86991 4.13037 0 0 0 207 234 240 255
-0.170651 1.4834 4.23722 0 0 0 107 137 150 255
-0.175406 1.52485 4.24932 0 0 0 183 210 224 255
1.56911 1.9877 3.8498 0 0 0 43 128 167 255
0.375693 1.50179 3.38276 0 0 0 189 203 219 255
0.248351 1.63103 3.92208 0 0 0 107 107 115 255
2.01004 2.17959 3.82547 0 0 0 93 88 76 255
-0.203902 1.58365 4.20831 0 0 0 168 195 209 255
0.194938 1.52215 3.45769 0 0 0 148 169 165 255
0.472666 0.112124 4.44044 0 0 0 103 122 130 255
0.957266 0.281025 4.28532 0 0 0 133 131 132 255
0.927014 0.345614 4.27839 0 0 0 141 125 121 255
0.984402 0.361819 4.26277 0 0 0 183 190 183 255
0.933045 0.381446 4.26857 0 0 0 158 149 145 255
0.974307 0.408812 4.26628 0 0 0 125 125 122 255
1.32708 0.460976 4.30686 0 0 0 137 132 129 255
2.44368 0.64626 4.28436 0 0 0 185 145 119 255
0.453697 0.395611 4.31934 0 0 0 25 21 23 255
2.3681 0.776078 4.34433 0 0 0 166 137 113 255
0.452761 0.444868 4.38198 0 0 0 96 94 90 255
0.247523 0.446845 4.39246 0 0 0 161 188 155 255
0.482176 0.576956 4.30326 0 0 0 138 99 67 255
1.42706 0.866089 4.37093 0 0 0 35 38 47 255
0.521082 0.803262 4.35937 0 0 0 130 94 84 255
0.0898941 0.711663 4.30189 0 0 0 41 67 60 255
0.331932 0.783512 4.51825 0 0 0 59 78 67 255
0.895817 0.957804 4.37253 0 0 0 120 113 111 255
1.64665 1.14852 3.70044 0 0 0 63 154 199 255
0.974203 1.05118 4.36323 0 0 0 35 28 28 255
1.1198 1.07931 4.39698 0 0 0 49 46 49 255
1.4257 1.19318 3.69512 0 0 0 160 193 182 255
1.64483 1.23758 3.71676 0 0 0 128 146 177 255
-0.0608592 0.869602 4.26388 0 0 0 158 190 144 255
1.61275 1.28855 3.70845 0 0 0 168 201 225 255
0.240819 1.02337 4.49251 0 0 0 17 34 36 255
0.191275 1.04163 4.44407 0 0 0 47 73 75 255
0.910631 1.22186 4.39887 0 0 0 42 36 43 255
1.27599 1.25232 3.77415 0 0 0 138 144 162 255
1.87238 1.39295 3.94059 0 0 0 160 185 208 255
0.0690232 1.04753 4.35759 0 0 0 17 39 43 255
-0.122199 1.01933 4.21194 0 0 0 95 118 112 255
0.217553 1.15345 4.47621 0 0 0 54 73 83 255
0.300982 1.22891 4.57238 0 0 0 75 102 114 255
1.20001 1.48002 4.45287 0 0 0 113 101 97 255
0.97165 1.4606 4.4572 0 0 0 45 39 32 255
-0.31933 1.08152 4.02274 0 0 0 34 55 61 255
1.66726 1.60341 3.80586 0 0 0 123 133 139 255
1.23307 1.57321 3.83504 0 0 0 147 182 199 255
1.95551 1.86999 4.16942 0 0 0 191 205 228 255
1.46243 1.75636 3.74425 0 0 0 146 183 194 255
1.20334 1.71034 3.90632 0 0 0 82 164 204 255
1.46427 1.79233 3.75147 0 0 0 157 193 187 255
1.58933 1.85527 3.8315 0 0 0 55 111 134 255
1.14729 1.90995 4.50857 0 0 0 77 87 99 255
1.22328 1.77502 3.86341 0 0 0 95 155 188 255
1.50254 1.93148 3.78895 0 0 0 8 99 155 255
1.8035 2.14441 4.12355 0 0 0 186 217 223 255
0.333821 1.79544 4.48915 0 0 0 29 42 57 255
1.39919 1.93373 3.72722 0 0 0 30 117 167 255
0.262334 1.64043 3.97075 0 0 0 109 106 112 255
0.402515 1.53256 3.34874 0 0 0 170 226 242 255
1.67749 0.427676 4.31024 0 0 0 127 117 115 255
0.426526 0.233653 4.43942 0 0 0 188 212 225 255
0.312975 0.22309 4.82648 0 0 0 220 242 255 255
0.940965 0.375922 4.2633 0 0 0 146 135 132 255
1.06449 0.376426 4.2928 0 0 0 138 120 122 255
1.32332 0.449687 4.30792 0 0 0 167 162 159 255
2.38019 0.666453 4.31662 0 0 0 161 149 149 255
0.505176 0.401138 4.27134 0 0 0 122 115 115 255
1.07489 0.500787 4.31337 0 0 0 138 127 124 255
0.334661 0.457923 4.44494 0 0 0 78 94 92 255
1.64065 0.708752 4.3524 0 0 0 182 183 175 255
1.90768 0.801309 4.3926 0 0 0 184 182 178 255
1.37464 0.722041 4.33691 0 0 0 142 144 141 255
0.48254 0.579344 4.29677 0 0 0 136 100 69 255
0.132418 0.610509 4.30941 0 0 0 56 79 76 255
0.235647 0.605857 4.39718 0 0 0 142 173 133 255
0.729013 0.748864 4.30632 0 0 0 187 187 182 255
0.667029 0.761275 4.35573 0 0 0 60 40 50 255
-0.17351 0.602179 4.09267 0 0 0 60 81 87 255
1.78837 1.026 3.84006 0 0 0 229 252 255 255
0.246358 0.712342 4.38867 0 0 0 82 107 87 255
0.523744 0.772756 4.33819 0 0 0 91 59 59 255
1.8065 1.08127 3.85222 0 0 0 206 240 236 255
0.878897 0.907737 4.35652 0 0 0 141 126 117 255
-0.0752001 0.761675 4.15694 0 0 0 166 197 142 255
0.938181 0.9878 4.36263 0 0 0 42 34 42 255
0.80123 1.03138 4.38167 0 0 0 125 120 117 255
1.29692 1.15546 4.25341 0 0 0 35 30 36 255
0.115504 0.927063 4.33841 0 0 0 24 44 49 255
1.57122 1.24213 3.67433 0 0 0 152 180 205 255
1.27165 1.21165 3.7746 0 0 0 140 153 150 255
-0.0929096 0.926288 4.21699 0 0 0 162 197 144 255
0.131313 0.990007 4.34147 0 0 0 147 178 137 255
0.740791 1.19213 4.41307 0 0 0 95 62 66 255
1.3718 1.29992 3.69044 0 0 0 16 121 183 255
0.974024 1.45963 4.45632 0 0 0 47 41 34 255
1.17415 1.50527 4.42771 0 0 0 129 121 110 255
-0.0625647 1.25256 4.30704 0 0 0 145 177 189 255
0.120394 1.33522 4.45136 0 0 0 151 176 191 255
0.233485 1.36799 4.54851 0 0 0 85 116 129 255
1.26347 1.5858 3.80939 0 0 0 23 81 128 255
2.15674 1.95825 4.3493 0 0 0 201 204 213 255
0.175595 1.45003 4.502 0 0 0 130 156 171 255
1.24478 1.77253 4.24063 0 0 0 143 128 141 255
1.23591 1.85015 4.38253 0 0 0 152 148 149 255
1.53887 1.77134 3.78197 0 0 0 148 194 196 255
-0.105668 1.43577 4.33257 0 0 0 105 132 146 255
1.34448 1.77349 3.77081 0 0 0 130 180 203 255
-0.181658 1.42163 4.21287 0 0 0 192 223 236 255
1.18174 1.83642 4.20008 0 0 0 226 247 255 255
0.807941 1.66925 3.82035 0 0 0 219 248 250 255
1.80363 2.12819 4.13497 0 0 0 179 223 242 255
0.355022 1.80139 4.55284 0 0 0 22 35 52 255
0.267841 1.55668 3.80019 0 0 0 144 148 158 255
1.51131 1.95801 3.81706 0 0 0 2 101 161 255
0.37931 1.50264 3.38068 0 0 0 191 206 222 255
-0.196067 1.55487 4.21152 0 0 0 166 193 207 255
0.680525 1.62627 3.48313 0 0 0 76 133 148 255
0.272543 1.78754 4.38904 0 0 0 141 172 182 255
0.40983 1.52812 3.3554 0 0 0 166 216 235 255
0.138485 1.62025 3.80153 0 0 0 162 194 206 255
1.83109 0.776201 4.33425 0 0 0 182 182 177 255
0.21737 0.465168 4.40246 0 0 0 162 195 145 255
0.466314 0.551667 4.29953 0 0 0 138 95 61 255
2.0052 0.881398 4.63455 0 0 0 46 50 60 255
0.223336 0.558875 4.40702 0 0 0 154 189 139 255
1.33689 0.848738 4.35217 0 0 0 66 62 73 255
-0.154854 0.615679 4.10951 0 0 0 59 80 87 255
1.28443 0.929881 3.93315 0 0 0 214 240 251 255
0.675455 0.834635 4.67582 0 0 0 142 95 71 255
-0.072958 0.688909 4.15981 0 0 0 171 200 157 255
0.0187127 0.856694 4.27659 0 0 0 31 53 57 255
0.504285 0.98582 4.34599 0 0 0 125 115 116 255
1.42058 1.18049 3.6954 0 0 0 51 125 151 255
0.827938 1.04291 4.37643 0 0 0 135 129 124 255
0.966752 1.12125 4.46225 0 0 0 121 112 104 255
1.43578 1.17303 3.68892 0 0 0 3 104 162 255
1.29834 1.19673 3.7459 0 0 0 153 146 128 255
1.49341 1.22714 3.66211 0 0 0 144 173 195 255
0.235795 1.16193 4.50419 0 0 0 130 150 159 255
1.16713 1.5611 4.45047 0 0 0 140 130 122 255
1.32195 1.62484 3.77204 0 0 0 176 202 219 255
0.133296 1.41817 4.46752 0 0 0 103 131 144 255
1.23509 1.74701 4.45743 0 0 0 48 53 61 255
1.09051 1.89416 4.34566 0 0 0 230 251 255 255
1.21391 1.89647 4.36163 0 0 0 233 255 255 255
0.0901066 1.61752 3.76928 0 0 0 174 208 222 255
3.90347 -0.370531 7.98509 0 0 0 164 191 206 255
3.12179 0.33037 4.04718 0 0 0 82 99 97 255
3.21107 0.340245 4.17328 0 0 0 48 54 55 255
3.12531 0.377507 4.00038 0 0 0 104 109 89 255
4.08678 -0.309561 8.59613 0 0 0 77 106 124 255
4.17172 -0.299449 8.55354 0 0 0 77 106 124 255
2.72603 -0.0468825 6.3185 0 0 0 174 205 220 255
2.50687 -0.00384598 5.90474 0 0 0 176 201 214 255
3.48455 -0.0525982 7.21251 0 0 0 71 86 99 255
2.81963 0.0714418 5.7743 0 0 0 176 189 199 255
3.57834 -0.0738251 7.46302 0 0 0 106 119 134 255
2.41089 0.0638258 5.46435 0 0 0 74 83 94 255
2.23855 -0.0607381 6.22666 0 0 0 140 163 186 255
0.506275 0.0911332 4.45378 0 0 0 145 155 163 255
0.518353 0.105602 4.41535 0 0 0 188 192 198 255
1.55613 0.36023 4.29679 0 0 0 177 171 169 255
1.22332 0.323614 4.29707 0 0 0 179 180 172 255
1.24291 0.325809 4.2925 0 0 0 194 193 189 255
1.35257 0.35835 4.29576 0 0 0 190 186 180 255
1.64144 0.41989 4.31428 0 0 0 161 158 152 255
1.55461 0.406881 4.30429 0 0 0 186 177 173 255
2.87452 0.713056 4.08321 0 0 0 171 135 107 255
2.84926 0.719005 4.09932 0 0 0 187 152 123 255
1.25195 0.351574 4.29689 0 0 0 172 152 154 255
1.48017 0.402434 4.30524 0 0 0 194 183 180 255
2.58781 0.663282 4.18302 0 0 0 189 152 128 255
2.80822 0.717285 4.12808 0 0 0 178 146 147 255
3.01405 0.769467 4.03266 0 0 0 164 124 103 255
2.99078 0.772112 4.05391 0 0 0 183 159 151 255
2.96215 0.763578 4.06747 0 0 0 162 152 128 255
2.82889 0.739285 4.11768 0 0 0 138 112 102 255
2.87948 0.749466 4.09807 0 0 0 165 157 146 255
2.97681 0.774988 4.06241 0 0 0 128 121 104 255
1.37107 0.406685 4.30689 0 0 0 199 190 184 255
2.61746 0.70199 4.18084 0 0 0 173 162 155 255
2.73972 0.727626 4.13137 0 0 0 183 160 144 255
1.24465 0.39553 4.30365 0 0 0 197 181 180 255
2.97169 0.802216 4.07456 0 0 0 171 174 166 255
3.00142 0.806165 4.05508 0 0 0 169 171 176 255
2.98819 0.810856 4.06624 0 0 0 151 128 131 255
2.73715 0.750315 4.16426 0 0 0 143 120 121 255
2.82752 0.776547 4.13175 0 0 0 180 158 163 255
2.87801 0.783671 4.10846 0 0 0 170 148 134 255
2.92432 0.797697 4.08788 0 0 0 159 131 120 255
1.23836 0.412196 4.30795 0 0 0 115 110 107 255
1.34521 0.434786 4.3037 0 0 0 203 184 186 255
0.488189 0.239885 4.3483 0 0 0 44 49 54 255
2.36986 0.673462 4.28172 0 0 0 131 127 124 255
2.4062 0.681719 4.27034 0 0 0 149 121 127 255
2.69461 0.755234 4.18328 0 0 0 161 152 134 255
1.17973 0.408003 4.30543 0 0 0 116 111 108 255
1.04203 0.383701 4.31152 0 0 0 134 132 124 255
2.48131 0.71091 4.2392 0 0 0 165 158 166 255
0.475909 0.254248 4.3954 0 0 0 105 117 123 255
1.34487 0.463753 4.30489 0 0 0 163 165 160 255
2.62637 0.76255 4.18744 0 0 0 133 116 106 255
1.31695 0.4617 4.317 0 0 0 169 167 163 255
0.314921 0.208819 4.82154 0 0 0 154 172 185 255
0.485021 0.280917 4.32795 0 0 0 106 101 100 255
2.84811 0.84996 4.11886 0 0 0 172 162 145 255
2.99983 0.897267 4.05438 0 0 0 172 142 141 255
0.376242 0.241546 4.78297 0 0 0 194 215 224 255
0.479182 0.298053 4.33244 0 0 0 51 47 41 255
2.92923 0.878835 4.0945 0 0 0 169 148 135 255
2.87023 0.868904 4.11943 0 0 0 164 165 154 255
2.96728 0.889625 4.08919 0 0 0 176 163 153 255
2.78054 0.867142 4.14431 0 0 0 137 117 108 255
2.98568 0.917776 4.07943 0 0 0 134 117 99 255
1.51548 0.561237 4.32206 0 0 0 177 167 166 255
2.70265 0.855708 4.17785 0 0 0 139 117 112 255
2.81456 0.883837 4.14964 0 0 0 182 180 185 255
2.5633 0.832187 4.22004 0 0 0 149 109 84 255
2.76932 0.898771 4.15226 0 0 0 126 123 129 255
2.8963 0.938716 4.11487 0 0 0 179 167 164 255
1.262 0.550911 4.32266 0 0 0 192 188 182 255
2.86661 0.940814 4.13651 0 0 0 177 165 155 255
2.67097 0.899813 4.20033 0 0 0 184 157 148 255
2.73014 0.906361 4.19563 0 0 0 170 167 152 255
2.79835 0.927015 4.15671 0 0 0 171 151 141 255
2.95464 0.988586 4.11182 0 0 0 167 143 120 255
1.2894 0.595123 4.3364 0 0 0 132 123 119 255
1.264 0.604094 4.34048 0 0 0 200 194 187 255
1.33248 0.615009 4.33429 0 0 0 128 116 116 255
0.46828 0.414291 4.37083 0 0 0 79 77 73 255
1.11213 0.573087 4.33227 0 0 0 194 180 178 255
1.28607 0.61195 4.33999 0 0 0 128 119 115 255
1.32031 0.617185 4.33728 0 0 0 145 134 134 255
1.236 0.605482 4.33279 0 0 0 157 161 150 255
1.62264 0.712282 4.36688 0 0 0 183 181 179 255
1.66534 0.720976 4.34178 0 0 0 157 155 151 255
1.19936 0.614083 4.3337 0 0 0 122 117 111 255
1.57027 0.7165 4.36777 0 0 0 114 112 110 255
1.60594 0.726466 4.36789 0 0 0 157 155 156 255
1.48556 0.701835 4.30497 0 0 0 180 175 172 255
1.51573 0.710755 4.34837 0 0 0 145 140 137 255
1.66229 0.744928 4.34727 0 0 0 134 132 130 255
1.45837 0.70604 4.33974 0 0 0 145 145 140 255
1.64975 0.749874 4.35104 0 0 0 176 173 177 255
1.41478 0.703984 4.335 0 0 0 149 147 145 255
1.51072 0.72459 4.35037 0 0 0 192 190 186 255
1.57625 0.741508 4.37122 0 0 0 112 110 112 255
1.60819 0.752613 4.35595 0 0 0 119 116 122 255
0.505835 0.482815 4.34676 0 0 0 82 66 61 255
0.517657 0.498003 4.34111 0 0 0 113 92 87 255
1.33335 0.708093 4.35804 0 0 0 118 123 119 255
1.50928 0.750256 4.37498 0 0 0 123 123 118 255
1.35237 0.717765 4.35042 0 0 0 192 194 191 255
1.44771 0.739334 4.35273 0 0 0 112 112 109 255
1.27737 0.704437 4.3436 0 0 0 155 160 156 255
1.38071 0.731917 4.37093 0 0 0 107 107 104 255
1.42929 0.741453 4.39884 0 0 0 111 111 108 255
1.21919 0.698688 4.34813 0 0 0 139 139 139 255
1.24055 0.700539 4.32346 0 0 0 123 125 122 255
0.336336 0.476789 4.4984 0 0 0 102 121 110 255
1.37577 0.74189 4.36562 0 0 0 118 118 115 255
1.15833 0.692563 4.31488 0 0 0 103 105 105 255
1.20629 0.705357 4.34802 0 0 0 92 94 94 255
1.31427 0.731886 4.35287 0 0 0 171 173 170 255
1.17252 0.701096 4.45423 0 0 0 141 143 143 255
1.13636 0.694943 4.38089 0 0 0 156 158 155 255
1.21653 0.718725 4.34548 0 0 0 111 113 113 255
1.27993 0.733689 4.36427 0 0 0 72 74 71 255
1.08535 0.693465 4.35355 0 0 0 112 114 114 255
1.17856 0.711159 4.35627 0 0 0 174 176 176 255
1.25029 0.737747 4.35937 0 0 0 131 133 128 255
1.06577 0.691857 4.34333 0 0 0 172 174 174 255
1.12616 0.699632 4.37185 0 0 0 97 99 96 255
1.15971 0.717401 4.33786 0 0 0 152 154 155 255
1.20285 0.725614 4.35245 0 0 0 68 70 70 255
1.14564 0.717417 4.34316 0 0 0 89 91 91 255
1.60173 0.837333 4.36239 0 0 0 99 102 109 255
1.03948 0.697338 4.3615 0 0 0 158 160 157 255
1.1404 0.721479 4.38613 0 0 0 183 185 182 255
1.17132 0.733624 4.361 0 0 0 136 138 138 255
1.56437 0.842183 4.36743 0 0 0 92 92 100 255
0.994032 0.697825 4.3484 0 0 0 96 98 93 255
1.02311 0.705602 4.38133 0 0 0 176 178 173 255
1.05458 0.710256 4.34865 0 0 0 75 77 77 255
1.07175 0.71458 4.34957 0 0 0 182 184 184 255
1.09697 0.722243 4.35199 0 0 0 82 84 81 255
1.14811 0.735905 4.38577 0 0 0 127 129 126 255
1.13336 0.736703 4.39707 0 0 0 82 84 81 255
1.50525 0.841199 4.36579 0 0 0 99 97 105 255
0.937537 0.692407 4.35009 0 0 0 131 133 130 255
1.03026 0.721705 4.35709 0 0 0 162 164 161 255
1.08964 0.730254 4.36289 0 0 0 155 157 154 255
1.545 0.851049 4.36465 0 0 0 153 153 161 255
1.56158 0.853736 4.36911 0 0 0 156 159 166 255
1.06769 0.738177 4.35027 0 0 0 148 150 147 255
1.506 0.841653 4.36606 0 0 0 134 133 140 255
1.01353 0.728264 4.35386 0 0 0 96 98 94 255
1.03557 0.733538 4.35762 0 0 0 133 135 132 255
1.48889 0.846843 4.36506 0 0 0 134 132 140 255
0.993938 0.725035 4.36002 0 0 0 117 119 114 255
0.945185 0.717907 4.34946 0 0 0 89 91 86 255
0.34251 0.580474 4.51875 0 0 0 94 108 99 255
0.933735 0.731378 4.35788 0 0 0 169 171 166 255
1.21832 0.825417 4.35916 0 0 0 57 57 65 255
1.20319 0.829166 4.36221 0 0 0 163 163 171 255
0.432347 0.634121 4.46154 0 0 0 62 59 63 255
1.16543 0.824639 4.36734 0 0 0 155 156 161 255
1.21773 0.831353 4.3598 0 0 0 136 136 144 255
1.20283 0.840612 4.36629 0 0 0 144 144 152 255
0.349027 0.615967 4.52399 0 0 0 70 87 81 255
1.16059 0.827868 4.36865 0 0 0 108 109 114 255
1.01555 0.820829 4.36817 0 0 0 149 150 155 255
1.02349 0.820078 4.36763 0 0 0 109 110 115 255
1.06964 0.837008 4.37072 0 0 0 128 126 136 255
0.134459 0.586172 4.26577 0 0 0 124 152 126 255
0.980268 0.83291 4.37305 0 0 0 141 140 145 255
1.01158 0.835164 4.37097 0 0 0 171 170 175 255
1.02673 0.83709 4.37333 0 0 0 169 168 173 255
0.980401 0.832943 4.3731 0 0 0 141 140 145 255
2.70153 1.31298 4.23186 0 0 0 138 144 146 255
0.689212 0.772095 4.35579 0 0 0 64 43 43 255
1.07888 0.87864 4.37559 0 0 0 119 114 113 255
0.705993 0.792489 4.35171 0 0 0 49 41 39 255
3.05645 1.43706 4.10477 0 0 0 107 114 131 255
2.69218 1.3623 4.24401 0 0 0 129 141 145 255
0.345629 0.741324 4.54769 0 0 0 65 83 82 255
0.51309 0.792472 4.38583 0 0 0 111 82 78 255
0.923159 0.903243 4.38384 0 0 0 97 96 87 255
