ply
format ascii 1.0
comment VCGLIB generated
element vertex 1056
property float x
property float y
property float z
property float nx
property float ny
property float nz
property uchar red
property uchar green
property uchar blue
property uchar alpha
element face 0
property list uchar int vertex_indices
end_header
1.78079 0.119752 4.65693 0 0 0 129 107 102 255
0.574951 0.144164 4.29952 0 0 0 72 48 40 255
0.727252 0.148725 4.2751 0 0 0 76 55 51 255
0.330875 0.179452 4.83222 0 0 0 122 124 124 255
0.451738 0.224064 4.43701 0 0 0 164 158 157 255
0.531673 0.205598 4.30936 0 0 0 112 90 82 255
1.56782 0.343644 4.36195 0 0 0 150 115 102 255
1.15157 0.357007 4.32707 0 0 0 131 107 85 255
1.23635 0.401254 4.31031 0 0 0 148 116 100 255
0.355116 0.431132 4.48328 0 0 0 59 59 54 255
0.245324 0.447841 4.44222 0 0 0 147 157 105 255
0.524743 0.423037 4.31778 0 0 0 113 86 79 255
1.60246 0.417681 4.3337 0 0 0 136 99 82 255
1.0854 0.493219 4.34635 0 0 0 126 97 80 255
1.56418 0.567467 4.38542 0 0 0 130 105 86 255
1.10427 0.582585 4.33162 0 0 0 137 107 88 255
1.28246 0.584328 4.35746 0 0 0 128 102 85 255
0.193417 0.613277 4.42037 0 0 0 44 50 39 255
1.20122 0.597467 4.33971 0 0 0 158 133 114 255
1.5532 0.615155 4.35731 0 0 0 155 122 107 255
-0.120708 0.625398 4.24088 0 0 0 91 101 78 255
0.0296538 0.650255 4.30619 0 0 0 85 92 59 255
0.246645 0.713623 4.43902 0 0 0 114 120 88 255
0.945978 0.710222 4.36138 0 0 0 150 129 114 255
0.72274 0.758606 4.34258 0 0 0 164 145 129 255
0.0195237 0.772554 4.31322 0 0 0 42 44 38 255
0.227546 0.791839 4.44041 0 0 0 95 98 86 255
0.525502 0.782221 4.36944 0 0 0 105 75 60 255
0.877988 0.815352 4.39292 0 0 0 37 30 28 255
-0.032396 0.81613 4.29923 0 0 0 60 68 46 255
1.2574 0.82436 4.38009 0 0 0 36 26 20 255
1.41212 0.831539 4.40024 0 0 0 51 38 33 255
-0.125294 0.808933 4.24544 0 0 0 69 76 60 255
0.882896 0.826775 4.36958 0 0 0 42 35 33 255
1.10366 0.836763 4.36988 0 0 0 30 21 16 255
1.70264 0.852781 4.40638 0 0 0 43 33 27 255
0.872601 0.889859 4.40353 0 0 0 105 82 71 255
-0.207212 0.871482 4.21497 0 0 0 73 79 74 255
0.0500325 0.920857 4.40368 0 0 0 110 118 97 255
0.00103024 0.924623 4.33708 0 0 0 115 124 95 255
-0.301033 0.883357 4.11697 0 0 0 108 113 110 255
0.0912135 0.958476 4.41179 0 0 0 44 50 37 255
0.116789 0.961935 4.41816 0 0 0 127 136 106 255
0.813175 1.0179 4.42933 0 0 0 99 82 67 255
0.87957 1.00686 4.3892 0 0 0 58 37 34 255
-0.127692 1.01335 4.27638 0 0 0 101 104 95 255
-0.0877541 1.01534 4.29486 0 0 0 129 136 101 255
-0.028304 1.05603 4.35076 0 0 0 28 30 31 255
0.830739 1.07317 4.42269 0 0 0 84 56 45 255
1.24303 1.13954 4.46535 0 0 0 54 27 20 255
1.07564 1.13847 4.48353 0 0 0 97 73 61 255
0.069044 1.19616 4.45253 0 0 0 168 172 174 255
0.184081 1.22562 4.52756 0 0 0 111 113 116 255
0.265291 1.2708 4.56741 0 0 0 70 69 72 255
-0.0693036 1.23226 4.36883 0 0 0 145 149 153 255
0.380909 1.30049 4.60903 0 0 0 75 75 75 255
0.29717 1.31552 4.59379 0 0 0 114 113 116 255
1.29246 1.0782 3.79403 0 0 0 46 69 105 255
0.207888 1.30164 4.53491 0 0 0 141 142 145 255
1.31925 1.11445 3.79762 0 0 0 87 120 154 255
1.30615 1.14398 3.798 0 0 0 19 61 103 255
1.37733 1.10233 3.70206 0 0 0 69 85 108 255
0.0600845 1.34389 4.46156 0 0 0 150 151 156 255
1.27948 1.18145 3.82757 0 0 0 57 91 109 255
1.2479 1.23848 3.81807 0 0 0 74 116 152 255
-0.30447 1.4408 4.25918 0 0 0 179 180 183 255
-0.00899826 1.50822 4.45751 0 0 0 165 166 171 255
-0.361261 1.49111 4.20829 0 0 0 95 99 101 255
0.544077 0.102504 4.34996 0 0 0 186 170 158 255
0.574592 0.161432 4.28831 0 0 0 70 46 38 255
0.529275 0.202284 4.3202 0 0 0 115 95 84 255
0.427325 0.212329 4.47961 0 0 0 174 174 171 255
0.941803 0.311622 4.28324 0 0 0 168 138 126 255
0.942808 0.334789 4.28872 0 0 0 155 119 109 255
0.23693 0.453292 4.44027 0 0 0 148 158 109 255
1.68709 0.431144 4.33955 0 0 0 152 118 107 255
1.33219 0.45361 4.32142 0 0 0 153 118 103 255
0.48639 0.568565 4.31529 0 0 0 131 78 50 255
1.09976 0.565617 4.34011 0 0 0 140 109 90 255
0.176244 0.591418 4.4098 0 0 0 87 97 62 255
0.129113 0.66747 4.3714 0 0 0 96 100 85 255
-0.282413 0.670167 4.0959 0 0 0 161 174 121 255
0.0922729 0.708093 4.34375 0 0 0 47 50 44 255
0.0691126 0.769377 4.3595 0 0 0 78 80 74 255
0.0225629 0.771704 4.31442 0 0 0 42 44 38 255
-0.295975 0.766476 4.08712 0 0 0 124 134 101 255
0.726773 0.804198 4.34419 0 0 0 42 28 21 255
0.872925 0.822865 4.3974 0 0 0 41 34 34 255
-0.0437672 0.817292 4.29902 0 0 0 62 70 49 255
1.25747 0.823511 4.38153 0 0 0 46 35 28 255
1.38131 0.841366 4.38352 0 0 0 33 21 25 255
0.881514 0.887383 4.40493 0 0 0 116 92 81 255
-0.303649 0.883397 4.11536 0 0 0 108 113 110 255
0.0214412 0.926597 4.36294 0 0 0 117 126 96 255
-0.144262 0.942802 4.28481 0 0 0 34 41 28 255
0.805766 1.02888 4.42563 0 0 0 104 81 66 255
-0.0899198 1.01317 4.29178 0 0 0 129 136 101 255
-0.305914 1.01292 4.14477 0 0 0 139 150 116 255
1.0564 1.14296 4.49274 0 0 0 102 74 60 255
0.0740981 1.20418 4.45248 0 0 0 176 180 182 255
0.272356 1.25147 4.57515 0 0 0 77 76 79 255
-0.0766268 1.23879 4.3634 0 0 0 147 151 155 255
-0.207674 1.24879 4.34581 0 0 0 175 178 182 255
0.288871 1.33154 4.61781 0 0 0 114 113 116 255
0.0610347 1.32665 4.46328 0 0 0 154 158 160 255
1.28439 1.18927 3.82659 0 0 0 94 118 120 255
-0.366356 1.48779 4.20603 0 0 0 111 115 117 255
0.494208 0.120331 4.48042 0 0 0 117 106 98 255
0.71558 0.158354 4.27219 0 0 0 76 51 50 255
0.340051 0.23315 4.57745 0 0 0 204 207 214 255
0.435593 0.21985 4.45474 0 0 0 169 167 165 255
0.431801 0.30098 4.42972 0 0 0 27 27 27 255
0.948419 0.358403 4.2828 0 0 0 123 97 83 255
0.339248 0.446646 4.46819 0 0 0 67 68 60 255
1.09155 0.531657 4.34413 0 0 0 143 106 89 255
0.489412 0.569651 4.31267 0 0 0 131 78 50 255
1.10594 0.567536 4.3378 0 0 0 129 97 79 255
0.164862 0.624127 4.37853 0 0 0 49 54 49 255
-0.16602 0.601982 4.16266 0 0 0 62 70 57 255
-0.130101 0.686913 4.24345 0 0 0 53 58 53 255
-0.301408 0.752749 4.08531 0 0 0 125 136 96 255
0.227751 0.773381 4.43989 0 0 0 88 92 77 255
0.547379 0.819478 4.35891 0 0 0 131 72 42 255
0.875103 0.818466 4.3964 0 0 0 41 34 34 255
-0.136642 0.874096 4.23451 0 0 0 125 134 103 255
0.10838 0.917792 4.42247 0 0 0 34 40 31 255
0.23934 0.941778 4.51482 0 0 0 120 129 84 255
0.883904 0.909988 4.39957 0 0 0 132 100 84 255
0.0117395 0.925832 4.35123 0 0 0 115 125 95 255
1.01908 1.14996 4.5068 0 0 0 113 82 65 255
0.079592 1.20516 4.45193 0 0 0 179 183 185 255
-0.0718941 1.24576 4.35386 0 0 0 144 148 152 255
0.294241 1.35222 4.61536 0 0 0 113 112 115 255
-0.216895 1.25967 4.34109 0 0 0 173 177 181 255
0.689231 0.171135 4.30419 0 0 0 72 44 44 255
0.286189 0.224597 4.67728 0 0 0 206 212 215 255
0.400963 0.219058 4.57698 0 0 0 179 181 181 255
0.207023 0.479817 4.44585 0 0 0 150 165 101 255
0.47709 0.537581 4.37437 0 0 0 122 70 36 255
0.099937 0.612469 4.33522 0 0 0 90 96 71 255
0.187073 0.583081 4.41951 0 0 0 120 130 92 255
-0.17456 0.63918 4.18745 0 0 0 58 63 59 255
0.227423 0.71385 4.43694 0 0 0 66 71 53 255
0.525954 0.819919 4.36076 0 0 0 116 76 53 255
0.0225487 0.810984 4.30762 0 0 0 39 44 42 255
-0.105962 0.93165 4.29776 0 0 0 151 164 112 255
0.214187 0.959759 4.49109 0 0 0 127 136 88 255
-0.103165 0.993591 4.28999 0 0 0 112 120 93 255
3.70747 -0.0733775 8.16404 0 0 0 92 107 118 255
1.9425 0.138926 4.59187 0 0 0 78 70 77 255
3.68562 0.359793 4.28762 0 0 0 85 92 87 255
3.66846 0.37468 4.2618 0 0 0 53 63 55 255
3.33064 0.353674 4.38584 0 0 0 76 82 70 255
3.2667 0.406827 4.19557 0 0 0 85 65 45 255
3.25948 0.429465 4.13447 0 0 0 148 114 94 255
1.05945 0.280107 4.39277 0 0 0 126 114 102 255
1.72924 0.361831 4.33554 0 0 0 147 127 119 255
1.35179 0.341498 4.37506 0 0 0 138 117 109 255
1.45617 0.348589 4.38107 0 0 0 154 138 125 255
1.69584 0.363547 4.33163 0 0 0 136 112 106 255
1.19177 0.329838 4.39628 0 0 0 151 122 114 255
1.28427 0.352929 4.38755 0 0 0 192 172 161 255
1.38505 0.360139 4.37835 0 0 0 194 171 163 255
1.71456 0.381503 4.32105 0 0 0 177 157 150 255
1.22745 0.350189 4.3931 0 0 0 186 165 153 255
1.28287 0.354837 4.38731 0 0 0 192 172 161 255
1.62414 0.399062 4.31146 0 0 0 195 171 164 255
1.6244 0.411943 4.30253 0 0 0 193 169 161 255
1.46872 0.405626 4.32731 0 0 0 190 167 154 255
1.37375 0.404874 4.34884 0 0 0 193 166 159 255
1.11472 0.392122 4.36077 0 0 0 190 169 156 255
1.50503 0.425091 4.32484 0 0 0 128 106 92 255
1.55801 0.428433 4.31198 0 0 0 144 120 112 255
1.2977 0.41435 4.35114 0 0 0 141 116 108 255
1.45195 0.424092 4.31837 0 0 0 133 116 103 255
1.36183 0.445311 4.33584 0 0 0 175 152 144 255
3.58497 0.658155 4.13171 0 0 0 122 100 64 255
3.63401 0.669567 4.10866 0 0 0 121 96 53 255
1.21823 0.484956 4.38131 0 0 0 159 148 131 255
3.65226 0.692664 3.9665 0 0 0 113 88 64 255
0.537184 0.458232 4.15517 0 0 0 109 89 80 255
1.55911 0.548278 4.36661 0 0 0 176 159 151 255
1.34254 0.543389 4.38672 0 0 0 157 139 127 255
1.42672 0.560088 4.36544 0 0 0 187 173 159 255
1.28067 0.556306 4.37606 0 0 0 191 168 160 255
1.53675 0.571493 4.35163 0 0 0 190 170 161 255
2.35755 0.64502 4.28994 0 0 0 169 127 102 255
2.41576 0.656926 4.25198 0 0 0 184 150 132 255
2.52505 0.663407 4.24029 0 0 0 166 122 90 255
1.12169 0.555172 4.38091 0 0 0 195 168 156 255
2.7 0.698484 4.1929 0 0 0 180 128 95 255
2.55356 0.695701 4.21557 0 0 0 180 142 134 255
3.56095 0.784493 4.09404 0 0 0 63 25 17 255
1.29576 0.600252 4.35754 0 0 0 128 107 99 255
1.41523 0.606421 4.32647 0 0 0 181 181 162 255
2.3574 0.687434 4.24599 0 0 0 134 122 107 255
3.52934 0.789922 4.10883 0 0 0 68 54 52 255
1.26763 0.602184 4.35086 0 0 0 186 160 153 255
2.33729 0.698386 4.24346 0 0 0 169 137 116 255
3.57396 0.809093 4.06733 0 0 0 121 94 60 255
3.59569 0.807725 4.02648 0 0 0 122 91 62 255
1.33181 0.619658 4.35464 0 0 0 149 127 116 255
2.39705 0.716747 4.21475 0 0 0 170 128 117 255
2.63748 0.735 4.18757 0 0 0 138 114 99 255
3.39856 0.806366 4.29386 0 0 0 59 31 22 255
3.46472 0.807524 4.27851 0 0 0 111 90 67 255
3.64618 0.819989 3.96115 0 0 0 44 10 0 255
2.75304 0.746436 4.15837 0 0 0 169 135 116 255
2.89989 0.773616 4.16661 0 0 0 176 145 138 255
3.47399 0.830576 4.2466 0 0 0 44 29 18 255
3.4989 0.831997 4.22447 0 0 0 126 96 53 255
3.0194 0.793847 4.13448 0 0 0 166 132 112 255
3.06322 0.797631 4.14804 0 0 0 163 121 96 255
3.38367 0.835613 4.27485 0 0 0 64 33 44 255
3.55268 0.855062 4.1677 0 0 0 47 25 11 255
2.72457 0.78073 4.12954 0 0 0 163 129 111 255
2.81957 0.789494 4.1274 0 0 0 169 154 135 255
2.88126 0.807973 4.13835 0 0 0 166 114 93 255
3.46367 0.859585 4.2362 0 0 0 50 35 3 255
2.41055 0.769665 4.24634 0 0 0 187 156 147 255
2.59725 0.782083 4.16326 0 0 0 170 139 120 255
3.3949 0.860341 4.25633 0 0 0 114 89 69 255
3.58263 0.879273 4.10513 0 0 0 50 26 8 255
3.36992 0.877937 4.27094 0 0 0 62 27 5 255
1.38373 0.705313 4.35622 0 0 0 166 154 144 255
1.56448 0.720414 4.3307 0 0 0 160 145 135 255
3.47616 0.891893 4.19906 0 0 0 54 25 5 255
3.62765 0.901724 3.99916 0 0 0 116 91 62 255
1.34219 0.713137 4.36337 0 0 0 149 139 129 255
1.64591 0.736367 4.3364 0 0 0 117 104 99 255
1.66611 0.741424 4.32405 0 0 0 124 111 104 255
1.26212 0.708308 4.38514 0 0 0 140 130 120 255
1.51116 0.729 4.33262 0 0 0 180 171 165 255
3.44266 0.902471 4.22437 0 0 0 67 36 10 255
1.02332 0.695314 4.41029 0 0 0 178 167 157 255
1.04321 0.697496 4.40406 0 0 0 157 146 136 255
2.39219 0.818606 4.2523 0 0 0 173 142 115 255
1.41306 0.736869 4.34376 0 0 0 145 135 125 255
2.47929 0.825192 4.24964 0 0 0 137 110 94 255
2.49917 0.830044 4.24088 0 0 0 184 156 140 255
3.1956 0.890413 4.13805 0 0 0 81 41 30 255
1.08165 0.711872 4.39125 0 0 0 174 162 152 255
1.27875 0.73068 4.37021 0 0 0 124 116 105 255
1.50013 0.749139 4.30293 0 0 0 140 129 125 255
2.56242 0.84555 4.22861 0 0 0 137 106 85 255
2.7319 0.862788 4.19662 0 0 0 177 153 141 255
1.17631 0.739787 4.37172 0 0 0 129 121 110 255
2.3795 0.838521 4.24203 0 0 0 136 100 78 255
2.6536 0.863734 4.2063 0 0 0 136 101 84 255
2.86624 0.88104 4.16244 0 0 0 179 160 148 255
3.39819 0.934018 4.20269 0 0 0 126 97 78 255
2.45897 0.854331 4.22591 0 0 0 129 115 97 255
2.70591 0.8752 4.19458 0 0 0 142 104 86 255
1.94336 0.830677 4.45654 0 0 0 179 158 142 255
3.56142 0.96912 4.10631 0 0 0 83 51 34 255
2.54277 0.873607 4.19398 0 0 0 133 103 79 255
3.18925 0.93683 4.1426 0 0 0 91 57 26 255
3.45967 0.961087 4.18206 0 0 0 117 98 82 255
3.50872 0.965558 4.13212 0 0 0 36 30 27 255
2.47115 0.879969 4.20002 0 0 0 171 154 133 255
2.77081 0.912328 4.15472 0 0 0 137 110 105 255
2.609 0.902571 4.17988 0 0 0 165 143 135 255
2.65444 0.908249 4.16515 0 0 0 176 144 132 255
3.60665 0.992862 3.99622 0 0 0 91 80 76 255
2.70338 0.916649 4.1551 0 0 0 177 132 125 255
2.78089 0.937815 4.13873 0 0 0 174 150 143 255
3.65609 1.01462 3.97173 0 0 0 84 44 44 255
1.59999 0.848135 4.33451 0 0 0 128 126 124 255
1.64666 0.852038 4.32215 0 0 0 115 113 114 255
2.84262 0.951072 4.12583 0 0 0 180 151 144 255
2.88762 0.95714 4.12072 0 0 0 173 139 115 255
0.682549 0.768307 4.42925 0 0 0 68 31 33 255
1.51124 0.843559 4.3554 0 0 0 121 111 110 255
1.33458 0.836715 4.37209 0 0 0 82 69 73 255
1.49456 0.849604 4.34982 0 0 0 130 125 123 255
3.52169 1.03909 4.19361 0 0 0 45 48 51 255
0.711158 0.794574 4.39813 0 0 0 51 33 30 255
0.972795 0.830907 4.4172 0 0 0 108 106 103 255
0.920653 0.823802 4.43005 0 0 0 129 130 129 255
2.93994 1.00824 4.10894 0 0 0 184 140 117 255
3.48875 1.06715 4.18528 0 0 0 32 35 42 255
3.5035 1.0751 4.15954 0 0 0 33 36 45 255
3.54606 1.08141 4.15032 0 0 0 66 67 72 255
3.61395 1.09747 4.09315 0 0 0 109 125 127 255
3.54664 1.09837 4.1222 0 0 0 126 134 134 255
3.56479 1.10297 4.09032 0 0 0 128 133 134 255
3.64937 1.11529 4.07247 0 0 0 133 137 142 255
3.62468 1.11964 4.07222 0 0 0 55 49 56 255
3.59691 1.1184 4.07027 0 0 0 127 148 146 255
3.92472 1.18626 4.42755 0 0 0 122 129 131 255
3.63274 1.13397 4.04995 0 0 0 121 130 130 255
3.14412 1.15206 4.13778 0 0 0 74 38 22 255
3.15721 1.17741 4.14378 0 0 0 86 64 44 255
0.899633 1.02301 4.44696 0 0 0 52 34 29 255
0.4065 1.01178 4.45855 0 0 0 49 53 55 255
1.2331 1.12154 4.34427 0 0 0 59 36 33 255
1.09128 1.13966 4.45668 0 0 0 103 90 87 255
0.491944 1.08542 4.41612 0 0 0 75 66 67 255
1.15089 1.16761 4.43544 0 0 0 78 78 73 255
1.23962 1.18066 4.33632 0 0 0 92 86 93 255
1.20117 1.18828 4.40066 0 0 0 72 64 68 255
1.65225 1.12918 3.61575 0 0 0 84 156 200 255
0.393848 1.1251 4.5103 0 0 0 72 76 78 255
1.39004 1.10965 3.64165 0 0 0 83 150 187 255
1.64731 1.15846 3.61855 0 0 0 88 158 203 255
2.66535 1.35731 4.18874 0 0 0 137 133 129 255
1.61598 1.1581 3.62836 0 0 0 88 157 205 255
1.22724 1.22458 4.26916 0 0 0 51 40 37 255
1.20444 1.25243 4.39885 0 0 0 57 41 37 255
1.63188 1.20445 3.65971 0 0 0 118 180 216 255
1.17055 1.28009 4.44158 0 0 0 56 38 33 255
1.27109 1.18978 3.78992 0 0 0 51 100 146 255
1.53148 1.19943 3.6376 0 0 0 71 131 177 255
1.22088 1.25566 4.22616 0 0 0 40 20 17 255
1.03491 1.29087 4.49211 0 0 0 120 104 94 255
1.15983 1.28821 4.44329 0 0 0 57 41 37 255
1.5686 1.21107 3.63768 0 0 0 17 93 152 255
1.54718 1.21818 3.63853 0 0 0 147 178 213 255
1.09678 1.30642 4.44434 0 0 0 70 56 58 255
1.19173 1.31115 4.38784 0 0 0 55 34 30 255
0.328195 1.23527 4.48228 0 0 0 101 109 114 255
1.62903 1.25387 3.64499 0 0 0 122 140 153 255
1.13461 1.32838 4.43026 0 0 0 66 57 53 255
1.58877 1.25165 3.61891 0 0 0 98 120 136 255
1.19545 1.34356 4.34882 0 0 0 48 30 25 255
1.47663 1.25904 3.61985 0 0 0 177 193 193 255
1.55575 1.27315 3.61151 0 0 0 105 145 169 255
3.55278 1.61079 4.18986 0 0 0 124 74 24 255
2.05976 1.49801 4.49787 0 0 0 122 127 135 255
1.51052 1.27566 3.58283 0 0 0 165 177 183 255
0.335666 1.31443 4.52483 0 0 0 77 89 95 255
1.2861 1.28254 3.74756 0 0 0 64 92 126 255
1.47966 1.28939 3.62121 0 0 0 23 104 144 255
1.43934 1.29307 3.64088 0 0 0 39 125 149 255
3.48032 1.63823 4.15486 0 0 0 168 106 64 255
1.7042 1.37448 3.74053 0 0 0 125 181 213 255
1.36904 1.32455 3.6895 0 0 0 42 139 166 255
0.303165 1.358 4.45233 0 0 0 128 138 144 255
1.2611 1.33087 3.7269 0 0 0 51 120 164 255
1.43536 1.33676 3.62027 0 0 0 139 178 214 255
1.65345 1.38964 3.71994 0 0 0 97 156 198 255
1.36004 1.35331 3.67388 0 0 0 48 120 149 255
0.981528 1.46961 4.4722 0 0 0 103 87 83 255
2.50211 1.62528 4.30516 0 0 0 96 106 93 255
1.61445 1.40086 3.69869 0 0 0 21 79 127 255
1.33844 1.36851 3.6778 0 0 0 119 160 172 255
1.59001 1.40381 3.68789 0 0 0 140 180 206 255
3.56484 1.73444 4.12094 0 0 0 166 94 75 255
1.66123 1.42156 3.70267 0 0 0 120 139 166 255
1.51693 1.41518 3.659 0 0 0 149 175 210 255
1.60651 1.43833 3.68018 0 0 0 82 94 127 255
0.774865 1.5234 4.54151 0 0 0 154 117 104 255
1.49276 1.42519 3.67914 0 0 0 55 103 144 255
1.43427 1.43336 3.68835 0 0 0 48 86 126 255
1.47185 1.43139 3.67623 0 0 0 125 151 188 255
1.67009 1.46869 3.6996 0 0 0 174 191 213 255
1.29256 1.45141 3.79787 0 0 0 120 159 194 255
1.31875 1.44477 3.76321 0 0 0 44 82 122 255
1.35353 1.44364 3.70824 0 0 0 132 162 207 255
1.38772 1.4323 3.68948 0 0 0 121 153 193 255
1.5055 1.44929 3.6689 0 0 0 184 204 209 255
1.6492 1.47122 3.69448 0 0 0 180 194 206 255
1.21547 1.45962 3.87371 0 0 0 117 141 169 255
1.25926 1.46329 3.80231 0 0 0 123 151 182 255
1.67257 1.49925 3.72092 0 0 0 99 117 141 255
1.49577 1.46878 3.67161 0 0 0 37 73 95 255
1.67534 1.50528 3.72558 0 0 0 68 87 108 255
0.756638 1.57675 4.54469 0 0 0 92 59 50 255
1.24241 1.47543 3.81753 0 0 0 81 102 123 255
1.65377 1.50149 3.70911 0 0 0 178 194 205 255
0.767187 1.58052 4.53791 0 0 0 94 61 52 255
1.42497 1.47529 3.6918 0 0 0 144 158 170 255
1.27233 1.48411 3.78885 0 0 0 104 115 128 255
1.31437 1.48066 3.7405 0 0 0 96 103 115 255
1.54836 1.51091 3.66451 0 0 0 125 137 143 255
2.49333 1.79475 4.33337 0 0 0 164 136 124 255
1.55244 1.5153 3.66666 0 0 0 126 141 148 255
1.30982 1.51373 3.72489 0 0 0 129 139 148 255
1.4162 1.5128 3.6696 0 0 0 114 128 134 255
2.70416 1.83398 4.30782 0 0 0 157 112 107 255
1.59966 1.55604 3.71516 0 0 0 164 177 192 255
2.63897 1.83324 4.28886 0 0 0 177 137 145 255
1.20607 1.55457 3.88188 0 0 0 137 146 171 255
1.6685 1.57728 3.73201 0 0 0 159 179 203 255
1.27887 1.54029 3.7685 0 0 0 155 180 206 255
1.52889 1.55244 3.66646 0 0 0 153 163 174 255
1.64342 1.57863 3.72617 0 0 0 48 81 110 255
2.68575 1.85209 4.2879 0 0 0 162 126 120 255
3.3819 1.95142 4.31026 0 0 0 90 83 87 255
1.3426 1.5373 3.69352 0 0 0 175 186 197 255
1.37153 1.53798 3.67776 0 0 0 173 187 199 255
1.4605 1.54811 3.67662 0 0 0 170 186 190 255
1.27874 1.55491 3.76655 0 0 0 54 92 130 255
2.90459 1.89221 4.23481 0 0 0 162 128 123 255
1.24173 1.56167 3.78725 0 0 0 160 179 187 255
3.43303 1.97496 4.26157 0 0 0 72 68 62 255
0.672368 1.6922 4.57233 0 0 0 102 80 65 255
1.44087 1.57366 3.6875 0 0 0 68 87 112 255
1.29918 1.58016 3.75694 0 0 0 172 188 197 255
1.42987 1.58926 3.69646 0 0 0 170 184 201 255
1.48916 1.58157 3.6692 0 0 0 139 177 214 255
1.6522 1.62555 3.7261 0 0 0 164 191 212 255
1.57405 1.60586 3.68745 0 0 0 148 162 174 255
3.3336 1.99772 4.25314 0 0 0 75 73 78 255
0.447528 1.51564 3.85937 0 0 0 91 100 111 255
0.454403 1.60882 4.24037 0 0 0 51 47 51 255
1.33486 1.6024 3.74018 0 0 0 112 120 127 255
1.51029 1.60631 3.67499 0 0 0 120 132 157 255
0.431634 1.50159 3.80812 0 0 0 16 25 36 255
1.37639 1.60169 3.69292 0 0 0 116 128 134 255
3.53648 2.02542 4.19968 0 0 0 60 48 43 255
3.46351 2.0102 4.18256 0 0 0 95 81 65 255
0.698206 1.74097 4.53769 0 0 0 97 74 61 255
1.4755 1.62122 3.67477 0 0 0 101 145 181 255
1.65112 1.66706 3.75316 0 0 0 174 194 210 255
1.62728 1.66246 3.73521 0 0 0 119 141 164 255
3.53471 2.04333 4.16972 0 0 0 51 32 18 255
1.33131 1.63182 3.70974 0 0 0 130 135 145 255
3.45563 2.03192 4.16194 0 0 0 112 98 80 255
1.28654 1.63621 3.74032 0 0 0 144 175 211 255
1.36861 1.62707 3.67162 0 0 0 128 136 151 255
3.57844 2.03518 4.04419 0 0 0 76 75 76 255
1.51819 1.66802 3.6909 0 0 0 93 109 134 255
1.56387 1.67796 3.69705 0 0 0 187 193 211 255
3.59478 2.05033 4.03111 0 0 0 66 50 44 255
3.60985 2.05465 4.02827 0 0 0 112 89 69 255
1.40923 1.66088 3.67676 0 0 0 173 195 208 255
3.51491 2.05455 4.04433 0 0 0 95 87 82 255
1.16821 1.79525 4.18188 0 0 0 131 118 127 255
3.54371 2.06904 4.00905 0 0 0 98 95 86 255
3.60939 2.07782 3.98051 0 0 0 89 70 73 255
3.57346 2.08374 3.98471 0 0 0 107 94 88 255
1.25258 1.71642 3.80384 0 0 0 82 103 124 255
3.61532 2.09166 3.95083 0 0 0 107 86 70 255
1.28925 1.73016 3.78388 0 0 0 55 90 122 255
3.61239 2.09729 3.94367 0 0 0 115 95 76 255
2.11965 2.01479 4.34223 0 0 0 109 106 112 255
1.24184 1.73814 3.80088 0 0 0 155 171 182 255
1.38848 1.74659 3.7433 0 0 0 142 183 195 255
1.35861 1.74465 3.73832 0 0 0 132 180 212 255
1.29608 1.74656 3.75774 0 0 0 119 155 179 255
1.37202 1.75781 3.72574 0 0 0 75 133 146 255
1.32624 1.7697 3.73787 0 0 0 140 175 202 255
1.38326 1.77236 3.71513 0 0 0 137 161 180 255
1.41053 1.77658 3.71429 0 0 0 62 119 117 255
1.45656 1.79662 3.72731 0 0 0 155 180 174 255
0.707341 1.70532 3.71649 0 0 0 188 196 201 255
1.5887 1.8232 3.73355 0 0 0 125 152 178 255
1.51114 1.84098 3.73041 0 0 0 10 91 137 255
1.53726 1.84385 3.73039 0 0 0 108 141 160 255
1.26638 1.83154 3.77449 0 0 0 87 118 149 255
1.42313 1.8403 3.72864 0 0 0 45 90 121 255
1.48107 1.85108 3.7249 0 0 0 115 135 138 255
2.49468 2.13014 4.14805 0 0 0 82 91 93 255
0.663177 1.65997 3.49417 0 0 0 115 164 176 255
1.38712 1.8499 3.74072 0 0 0 145 138 156 255
1.5355 1.85798 3.7181 0 0 0 130 129 134 255
1.36242 1.85021 3.74668 0 0 0 55 71 109 255
1.4772 1.85658 3.72241 0 0 0 130 145 139 255
2.49905 2.13829 4.12839 0 0 0 136 152 158 255
1.3417 1.85075 3.74937 0 0 0 124 137 121 255
1.38316 1.85236 3.7341 0 0 0 145 138 156 255
1.43913 1.86068 3.71148 0 0 0 144 149 157 255
2.59264 2.15387 4.05601 0 0 0 113 150 172 255
2.27441 2.11348 4.06089 0 0 0 135 150 169 255
2.30359 2.11861 4.04372 0 0 0 152 167 183 255
0.688116 1.71091 3.49442 0 0 0 138 126 126 255
0.650244 1.68724 3.37871 0 0 0 52 94 89 255
2.2518 2.13427 4.03 0 0 0 110 138 163 255
2.40677 2.15703 4.00215 0 0 0 136 158 174 255
2.46021 2.1525 3.9396 0 0 0 59 83 117 255
0.710098 1.75702 3.49981 0 0 0 120 141 150 255
2.79037 2.22062 3.91347 0 0 0 75 72 93 255
0.644846 1.70338 3.33739 0 0 0 57 111 116 255
0.712524 1.77133 3.47845 0 0 0 162 183 190 255
0.710599 1.77857 3.46647 0 0 0 163 189 197 255
2.20212 2.16256 3.91981 0 0 0 154 155 164 255
2.17854 2.16807 3.88989 0 0 0 78 80 90 255
2.38766 2.18537 3.86595 0 0 0 155 193 226 255
2.28881 2.19453 3.90859 0 0 0 145 166 189 255
0.653122 1.75183 3.34243 0 0 0 64 77 83 255
2.90224 2.28951 3.84959 0 0 0 131 112 122 255
2.29005 2.21015 3.86134 0 0 0 51 76 100 255
2.29282 2.20815 3.85482 0 0 0 74 101 126 255
3.05512 2.32412 3.86553 0 0 0 98 117 136 255
2.07644 2.17282 3.83039 0 0 0 85 80 79 255
2.27069 2.22073 3.84416 0 0 0 164 197 218 255
2.38779 2.21911 3.78309 0 0 0 95 180 211 255
2.30961 2.21238 3.78701 0 0 0 156 193 235 255
2.50162 2.24924 3.79022 0 0 0 106 139 172 255
0.591628 1.75713 3.23105 0 0 0 71 79 97 255
2.34341 2.22321 3.7601 0 0 0 162 200 233 255
2.3888 2.22883 3.76434 0 0 0 137 191 222 255
3.11168 2.3423 3.74956 0 0 0 110 138 155 255
2.74211 2.30335 3.75677 0 0 0 131 145 166 255
0.676399 1.84154 3.39472 0 0 0 85 132 144 255
3.18676 2.34357 3.68824 0 0 0 166 175 181 255
2.00525 2.20761 3.78998 0 0 0 161 159 162 255
2.05211 2.20852 3.75472 0 0 0 168 168 167 255
3.11634 2.36524 3.72553 0 0 0 159 172 188 255
1.99731 2.21995 3.76982 0 0 0 89 94 109 255
2.80664 2.33318 3.7271 0 0 0 136 162 184 255
0.681444 1.89893 3.45889 0 0 0 135 158 163 255
2.25119 2.25302 3.70992 0 0 0 31 84 114 255
2.86427 2.35042 3.70712 0 0 0 29 88 123 255
3.03964 2.38134 3.65888 0 0 0 55 80 104 255
3.15832 2.38264 3.61923 0 0 0 79 89 107 255
0.702555 1.96561 3.49488 0 0 0 46 84 84 255
3.17505 2.38288 3.58186 0 0 0 74 87 104 255
2.70789 2.34454 3.63687 0 0 0 105 96 123 255
3.04767 2.38541 3.56824 0 0 0 74 97 117 255
3.22871 2.33504 3.36113 0 0 0 47 100 126 255
3.05018 2.39258 3.5377 0 0 0 138 163 187 255
1.967 2.26616 3.61571 0 0 0 144 170 179 255
2.93194 2.39533 3.52539 0 0 0 64 85 113 255
2.99406 2.39425 3.49453 0 0 0 107 136 165 255
3.05675 2.4049 3.50312 0 0 0 79 105 127 255
2.94853 2.40177 3.51976 0 0 0 55 71 96 255
2.30438 2.30776 3.51724 0 0 0 90 159 194 255
2.5358 2.34992 3.50617 0 0 0 143 147 158 255
2.88453 2.40056 3.48186 0 0 0 98 133 154 255
2.94628 2.41469 3.48922 0 0 0 131 144 163 255
3.14814 2.34348 3.25982 0 0 0 84 148 184 255
2.93995 2.41229 3.46829 0 0 0 135 150 162 255
3.13966 2.35315 3.22613 0 0 0 42 103 142 255
3.07251 2.37317 3.28528 0 0 0 30 76 109 255
2.55772 2.38901 3.47279 0 0 0 94 114 130 255
2.65787 2.39223 3.44058 0 0 0 73 99 134 255
2.85375 2.41607 3.41469 0 0 0 139 151 163 255
3.06 2.38256 3.25305 0 0 0 113 167 197 255
2.59625 2.38818 3.39816 0 0 0 121 164 179 255
2.82658 2.42196 3.37219 0 0 0 78 81 91 255
1.74501 2.28308 3.43904 0 0 0 161 150 145 255
2.62804 2.41164 3.38476 0 0 0 94 119 145 255
2.37056 2.36925 3.38041 0 0 0 137 129 113 255
2.88977 2.3947 3.25435 0 0 0 131 153 169 255
2.42856 2.38119 3.3817 0 0 0 126 97 81 255
2.78447 2.42522 3.33646 0 0 0 178 186 198 255
2.95109 2.4006 3.23669 0 0 0 104 149 171 255
2.65805 2.42839 3.37164 0 0 0 96 139 171 255
2.61144 2.42232 3.36036 0 0 0 49 64 82 255
2.81002 2.41376 3.24539 0 0 0 129 148 168 255
2.93214 2.41128 3.20039 0 0 0 169 191 199 255
2.58378 2.4178 3.32641 0 0 0 145 148 159 255
2.73081 2.42878 3.29502 0 0 0 90 115 142 255
2.31884 2.3736 3.30514 0 0 0 121 107 100 255
2.9376 2.41662 3.17619 0 0 0 180 191 205 255
1.08704 2.23938 3.47518 0 0 0 45 57 65 255
2.75892 2.44545 3.29046 0 0 0 99 107 127 255
2.88024 2.41303 3.17496 0 0 0 125 161 177 255
2.88848 2.41597 3.18815 0 0 0 132 168 184 255
1.69314 2.31532 3.37738 0 0 0 153 180 203 255
2.90525 2.4129 3.14803 0 0 0 181 187 201 255
1.06995 2.24962 3.4652 0 0 0 212 224 231 255
1.11518 2.26052 3.45546 0 0 0 206 215 224 255
1.33956 2.27929 3.41304 0 0 0 114 126 130 255
2.60224 2.44368 3.2885 0 0 0 65 87 114 255
2.86651 2.40742 3.11836 0 0 0 67 101 138 255
1.09138 2.26693 3.44631 0 0 0 48 52 59 255
1.6139 2.31426 3.34938 0 0 0 94 103 106 255
2.51765 2.42944 3.2386 0 0 0 76 84 98 255
2.80204 2.42345 3.1235 0 0 0 78 93 107 255
2.84394 2.41196 3.08579 0 0 0 169 206 218 255
1.65147 2.3416 3.34838 0 0 0 112 142 162 255
2.48708 2.43402 3.20311 0 0 0 141 144 159 255
1.19235 2.28909 3.33456 0 0 0 217 224 230 255
1.20548 2.28803 3.32486 0 0 0 214 222 229 255
1.43093 2.30836 3.29128 0 0 0 90 98 109 255
2.41886 2.44567 3.21249 0 0 0 96 112 121 255
1.17727 2.30549 3.33917 0 0 0 65 73 80 255
1.21723 2.29709 3.30647 0 0 0 68 76 83 255
2.49258 2.45136 3.16943 0 0 0 61 81 116 255
0.923559 2.27483 3.35801 0 0 0 56 65 72 255
0.962834 2.27276 3.33394 0 0 0 54 62 69 255
2.15605 2.41541 3.17703 0 0 0 159 146 142 255
0.944633 2.28139 3.33673 0 0 0 212 222 228 255
1.19566 2.31089 3.30954 0 0 0 208 223 230 255
2.18529 2.44006 3.10961 0 0 0 139 108 88 255
1.3031 2.33767 3.21167 0 0 0 58 70 76 255
1.28344 2.34606 3.20325 0 0 0 204 215 221 255
1.32439 2.35425 3.19294 0 0 0 205 215 221 255
2.13029 2.43786 3.07332 0 0 0 126 97 75 255
1.03075 2.32262 3.22879 0 0 0 202 214 221 255
1.06839 2.32273 3.21634 0 0 0 188 206 209 255
1.30387 2.35875 3.18706 0 0 0 64 69 77 255
1.05 2.3326 3.21163 0 0 0 56 68 72 255
2.12395 2.45221 3.02418 0 0 0 135 110 91 255
2.31057 2.46823 2.99959 0 0 0 130 128 140 255
2.02496 2.44719 3.03026 0 0 0 130 125 124 255
3.98821 -0.276582 8.82086 0 0 0 125 136 147 255
1.73409 0.123275 4.58728 0 0 0 84 72 77 255
3.34264 0.354567 4.39101 0 0 0 86 92 79 255
3.28119 0.361366 4.3701 0 0 0 46 31 30 255
3.27234 0.454612 4.11485 0 0 0 62 45 30 255
1.05796 0.279932 4.39365 0 0 0 126 114 102 255
1.35193 0.335855 4.37591 0 0 0 155 135 126 255
1.45503 0.353904 4.37955 0 0 0 149 134 121 255
1.11595 0.351138 4.38881 0 0 0 186 171 158 255
1.22086 0.359403 4.38632 0 0 0 181 172 156 255
1.38134 0.378055 4.3624 0 0 0 195 171 163 255
1.71055 0.40027 4.30745 0 0 0 187 166 162 255
1.47436 0.392174 4.34032 0 0 0 192 169 156 255
1.62085 0.400354 4.30721 0 0 0 196 172 164 255
1.37601 0.394136 4.35443 0 0 0 195 168 161 255
1.4538 0.425147 4.32109 0 0 0 133 116 103 255
1.49601 0.425634 4.32509 0 0 0 140 119 105 255
1.60994 0.434824 4.28856 0 0 0 128 108 99 255
0.53376 0.446578 4.15815 0 0 0 110 90 81 255
1.26685 0.535087 4.37181 0 0 0 154 136 125 255
2.35719 0.647931 4.28744 0 0 0 169 127 102 255
1.52955 0.585624 4.34538 0 0 0 189 167 159 255
2.69726 0.700038 4.19106 0 0 0 180 128 95 255
3.56437 0.774594 4.10303 0 0 0 69 34 16 255
1.41363 0.599677 4.33111 0 0 0 180 181 162 255
3.53036 0.78827 4.10745 0 0 0 112 80 57 255
2.81474 0.730393 4.16645 0 0 0 172 134 115 255
3.59514 0.799521 4.02901 0 0 0 128 96 66 255
1.33235 0.61946 4.35435 0 0 0 149 127 116 255
1.54926 0.628826 4.30031 0 0 0 125 105 93 255
2.33486 0.698726 4.24372 0 0 0 169 137 116 255
3.56911 0.807294 4.08314 0 0 0 81 55 56 255
3.65174 0.821049 3.96345 0 0 0 25 6 9 255
2.74073 0.741563 4.15381 0 0 0 158 130 113 255
3.39728 0.81538 4.29068 0 0 0 56 28 19 255
3.50982 0.825847 4.2155 0 0 0 29 8 6 255
3.62115 0.829432 3.98617 0 0 0 114 89 33 255
2.81102 0.783824 4.12472 0 0 0 177 146 125 255
3.04961 0.799429 4.13753 0 0 0 155 117 94 255
3.46394 0.851201 4.24171 0 0 0 61 38 9 255
3.59317 0.852478 4.07409 0 0 0 39 24 27 255
2.40463 0.769041 4.25074 0 0 0 182 155 150 255
3.54662 0.873634 4.17163 0 0 0 45 23 17 255
3.58773 0.871263 4.10717 0 0 0 42 27 14 255
3.62733 0.90066 4.08086 0 0 0 37 29 19 255
2.49023 0.810189 4.25931 0 0 0 176 139 124 255
3.19302 0.881104 4.13581 0 0 0 90 48 37 255
3.33317 0.908651 4.2722 0 0 0 93 74 45 255
1.00211 0.700559 4.40454 0 0 0 129 119 107 255
1.33065 0.728525 4.35394 0 0 0 150 142 131 255
2.39636 0.822852 4.24754 0 0 0 182 152 128 255
2.72112 0.860427 4.2008 0 0 0 183 147 141 255
3.43681 0.917093 4.22115 0 0 0 97 50 16 255
2.85897 0.877266 4.16758 0 0 0 170 151 137 255
2.54818 0.859331 4.20845 0 0 0 136 106 81 255
3.19696 0.918844 4.14343 0 0 0 122 94 58 255
3.3991 0.933311 4.20354 0 0 0 126 97 78 255
3.51229 0.947343 4.13706 0 0 0 30 33 34 255
3.4484 0.951531 4.1754 0 0 0 121 97 79 255
3.02851 0.928473 4.14174 0 0 0 169 134 117 255
2.45896 0.87728 4.19594 0 0 0 173 155 136 255
3.52971 0.979598 4.12411 0 0 0 99 83 66 255
3.55768 0.987563 4.11388 0 0 0 53 47 34 255
2.65454 0.912138 4.16449 0 0 0 176 144 132 255
3.58259 0.999883 4.09252 0 0 0 122 97 84 255
3.65869 1.00977 3.97301 0 0 0 100 49 39 255
0.675921 0.765234 4.43702 0 0 0 70 32 34 255
1.64691 0.853812 4.31799 0 0 0 153 153 153 255
2.76949 0.939896 4.13579 0 0 0 176 151 152 255
2.83213 0.945507 4.13 0 0 0 177 144 137 255
3.5186 1.01922 4.21791 0 0 0 51 54 57 255
2.88926 0.95706 4.12079 0 0 0 182 152 130 255
2.94623 0.969902 4.11632 0 0 0 146 96 54 255
3.48218 1.02797 4.22676 0 0 0 80 91 92 255
3.62778 1.02672 3.98468 0 0 0 104 88 71 255
3.54259 1.04496 4.18447 0 0 0 103 105 109 255
0.711167 0.795815 4.39834 0 0 0 51 33 30 255
3.45631 1.06413 4.18855 0 0 0 131 134 143 255
3.50871 1.09012 4.14503 0 0 0 110 117 122 255
3.56729 1.10148 4.10874 0 0 0 98 104 105 255
3.59663 1.11422 4.0745 0 0 0 127 148 146 255
2.15734 1.05994 4.33417 0 0 0 119 129 130 255
3.14964 1.15589 4.14012 0 0 0 46 15 4 255
0.892572 1.02369 4.44459 0 0 0 52 33 28 255
3.53797 1.31677 4.2878 0 0 0 107 90 81 255
1.24359 1.17427 4.33145 0 0 0 86 79 86 255
1.5912 1.13474 3.61994 0 0 0 75 156 202 255
2.66851 1.35546 4.19162 0 0 0 137 133 129 255
2.9718 1.38015 4.14933 0 0 0 90 74 64 255
1.29782 1.16854 3.78488 0 0 0 66 107 121 255
3.46378 1.47471 4.13699 0 0 0 87 50 33 255
3.61793 1.49538 4.06213 0 0 0 128 84 44 255
1.52907 1.20377 3.64481 0 0 0 100 166 210 255
1.03083 1.28772 4.49351 0 0 0 120 104 94 255
1.54799 1.21785 3.63981 0 0 0 147 178 213 255
1.54641 1.2259 3.63546 0 0 0 158 173 192 255
1.5921 1.24836 3.6237 0 0 0 98 122 140 255
1.28713 1.26907 3.75259 0 0 0 160 156 170 255
1.5593 1.27626 3.60554 0 0 0 25 104 121 255
3.55141 1.6122 4.18814 0 0 0 124 74 24 255
1.50407 1.28128 3.59835 0 0 0 134 148 160 255
2.60846 1.52931 4.2646 0 0 0 97 96 67 255
1.41846 1.29695 3.64597 0 0 0 44 125 146 255
1.48264 1.28996 3.61972 0 0 0 20 106 149 255
3.48052 1.6411 4.15524 0 0 0 158 95 56 255
3.38284 1.66262 4.29802 0 0 0 125 100 79 255
1.0161 1.41885 4.47094 0 0 0 107 97 91 255
1.18975 1.4071 4.23116 0 0 0 90 79 72 255
0.303243 1.34587 4.46352 0 0 0 122 132 138 255
1.26153 1.32828 3.72901 0 0 0 52 118 160 255
1.34189 1.33615 3.69226 0 0 0 91 141 171 255
1.70024 1.38095 3.73151 0 0 0 131 177 200 255
1.64095 1.39311 3.70829 0 0 0 129 175 208 255
1.66491 1.41041 3.70695 0 0 0 57 80 115 255
1.89187 1.57372 4.32538 0 0 0 102 108 111 255
2.5046 1.63627 4.30569 0 0 0 113 126 110 255
3.03457 1.68645 4.18718 0 0 0 122 142 151 255
3.56384 1.73838 4.1183 0 0 0 169 99 80 255
1.54771 1.41853 3.6775 0 0 0 27 95 127 255
1.51651 1.42244 3.66072 0 0 0 174 195 230 255
1.66928 1.45767 3.69823 0 0 0 172 189 209 255
1.461 1.4327 3.67137 0 0 0 157 185 219 255
1.51103 1.43655 3.66761 0 0 0 169 194 211 255
1.2927 1.45199 3.79572 0 0 0 120 159 194 255
1.58934 1.45836 3.66551 0 0 0 52 80 101 255
2.48824 1.7289 4.32759 0 0 0 145 159 152 255
1.33908 1.44747 3.71519 0 0 0 166 185 204 255
1.24278 1.47944 3.81428 0 0 0 75 94 105 255
1.50135 1.47562 3.6703 0 0 0 46 79 125 255
1.67365 1.5032 3.72552 0 0 0 68 87 108 255
1.2679 1.49452 3.78365 0 0 0 121 132 142 255
1.68 1.54501 3.74728 0 0 0 176 189 204 255
1.67254 1.56617 3.736 0 0 0 185 195 203 255
2.62189 1.82825 4.29034 0 0 0 163 131 128 255
1.21041 1.55342 3.85105 0 0 0 148 165 178 255
1.33335 1.53286 3.71508 0 0 0 171 181 190 255
1.37795 1.5311 3.67751 0 0 0 174 185 195 255
1.5938 1.56225 3.70683 0 0 0 146 154 170 255
1.45058 1.5444 3.68452 0 0 0 175 193 199 255
3.37853 1.95876 4.30512 0 0 0 90 83 86 255
1.23444 1.56038 3.79433 0 0 0 159 179 187 255
1.63217 1.59565 3.718 0 0 0 50 89 115 255
3.43757 1.97024 4.26605 0 0 0 89 86 81 255
1.48892 1.57846 3.6691 0 0 0 139 177 214 255
1.29456 1.5842 3.76142 0 0 0 138 168 199 255
3.33901 1.98719 4.26653 0 0 0 54 48 54 255
0.441118 1.61056 4.2681 0 0 0 48 46 54 255
1.4185 1.59377 3.69385 0 0 0 173 186 203 255
1.64947 1.62803 3.72833 0 0 0 142 163 184 255
0.427079 1.49243 3.77543 0 0 0 11 18 30 255
1.36635 1.59605 3.68978 0 0 0 112 124 130 255
3.45298 2.01235 4.18472 0 0 0 93 77 60 255
3.44576 2.03278 4.15456 0 0 0 94 88 79 255
3.5328 2.03308 4.19148 0 0 0 87 74 69 255
0.503954 1.56317 3.87356 0 0 0 22 39 53 255
1.58668 1.66546 3.71406 0 0 0 123 148 164 255
1.64633 1.74971 3.81381 0 0 0 93 146 183 255
3.07014 2.10652 4.30069 0 0 0 137 143 134 255
0.508165 1.50145 3.37658 0 0 0 123 117 108 255
1.11761 1.8669 4.34381 0 0 0 103 102 99 255
1.38726 1.74654 3.74468 0 0 0 142 183 195 255
1.32619 1.76576 3.73851 0 0 0 152 187 206 255
1.22389 1.77693 3.82145 0 0 0 106 146 177 255
1.45697 1.80105 3.73029 0 0 0 155 180 174 255
3.51011 2.27105 4.22827 0 0 0 145 124 82 255
3.53058 2.26863 4.22615 0 0 0 142 138 91 255
1.50905 1.8391 3.72559 0 0 0 10 91 137 255
1.26847 1.83016 3.7684 0 0 0 87 118 149 255
3.50218 2.29087 4.20544 0 0 0 80 54 45 255
0.65801 1.65663 3.48411 0 0 0 118 172 188 255
1.1611 1.89508 4.02082 0 0 0 125 146 164 255
1.52808 1.85771 3.72575 0 0 0 120 152 169 255
2.30302 2.11983 4.0377 0 0 0 146 165 179 255
2.53845 2.1362 4.02046 0 0 0 173 196 223 255
0.596156 1.64253 3.31394 0 0 0 142 145 156 255
2.25754 2.13347 4.03009 0 0 0 125 153 185 255
0.728711 1.75784 3.50375 0 0 0 44 74 85 255
2.36878 2.16655 3.98952 0 0 0 145 169 189 255
0.667773 1.72841 3.40481 0 0 0 118 153 158 255
0.711152 1.77561 3.47189 0 0 0 168 192 199 255
2.38864 2.18143 3.89271 0 0 0 164 191 219 255
2.28841 2.19452 3.90824 0 0 0 145 166 189 255
0.699756 1.78087 3.44043 0 0 0 73 107 123 255
2.94343 2.28919 3.87869 0 0 0 82 58 69 255
0.652659 1.75186 3.34005 0 0 0 64 77 83 255
2.28234 2.21179 3.8693 0 0 0 48 73 96 255
2.07581 2.17377 3.82931 0 0 0 85 80 79 255
2.22697 2.20446 3.85427 0 0 0 133 152 171 255
2.8909 2.29108 3.83906 0 0 0 109 108 125 255
2.31485 2.21219 3.78613 0 0 0 157 193 236 255
2.84839 2.31663 3.77323 0 0 0 130 149 180 255
3.10689 2.3442 3.74649 0 0 0 103 131 149 255
0.675595 1.85065 3.39264 0 0 0 100 144 152 255
2.6139 2.29789 3.75134 0 0 0 36 79 117 255
2.06912 2.22299 3.73384 0 0 0 73 73 81 255
2.23574 2.24814 3.69538 0 0 0 45 67 90 255
2.63638 2.32183 3.64411 0 0 0 126 115 133 255
3.17597 2.38912 3.60353 0 0 0 64 76 92 255
2.45088 2.32325 3.59492 0 0 0 153 88 103 255
2.93174 2.39584 3.52446 0 0 0 64 85 113 255
1.13161 2.18651 3.69751 0 0 0 159 168 176 255
2.28896 2.30822 3.50855 0 0 0 91 163 201 255
2.9331 2.41478 3.48279 0 0 0 130 140 157 255
2.15535 2.3158 3.47937 0 0 0 96 113 140 255
2.84893 2.41289 3.41442 0 0 0 139 151 163 255
1.21006 2.22112 3.56476 0 0 0 51 63 73 255
1.74014 2.28202 3.42988 0 0 0 161 150 145 255
2.7793 2.42193 3.33836 0 0 0 168 179 194 255
2.95891 2.4025 3.2163 0 0 0 94 103 126 255
2.61853 2.41866 3.37011 0 0 0 53 67 88 255
2.80271 2.41145 3.2337 0 0 0 117 135 157 255
1.09213 2.23677 3.4763 0 0 0 48 60 68 255
2.92757 2.41451 3.17023 0 0 0 168 179 193 255
2.84795 2.41402 3.18971 0 0 0 42 87 120 255
1.06033 2.24944 3.46555 0 0 0 212 224 231 255
1.68788 2.31514 3.37738 0 0 0 161 179 195 255
2.90814 2.4135 3.1487 0 0 0 181 187 201 255
1.11589 2.25796 3.4577 0 0 0 206 215 224 255
2.33441 2.38777 3.27555 0 0 0 164 127 91 255
2.58669 2.43073 3.2857 0 0 0 54 64 89 255
2.85815 2.40694 3.11911 0 0 0 67 101 141 255
2.5444 2.42843 3.25328 0 0 0 134 148 164 255
1.08698 2.26929 3.44497 0 0 0 53 56 64 255
2.79145 2.4218 3.14569 0 0 0 90 132 156 255
1.65447 2.33886 3.35335 0 0 0 107 137 157 255
2.7948 2.43029 3.11671 0 0 0 48 71 90 255
2.82261 2.41204 3.08513 0 0 0 211 227 230 255
2.4881 2.43584 3.19558 0 0 0 163 169 186 255
0.943851 2.25611 3.3583 0 0 0 214 224 228 255
1.7812 2.36062 3.28168 0 0 0 163 202 231 255
1.85129 2.366 3.25909 0 0 0 181 210 239 255
0.913674 2.27622 3.36377 0 0 0 53 58 66 255
0.969551 2.27128 3.332 0 0 0 50 58 65 255
1.22023 2.29409 3.30702 0 0 0 68 76 83 255
2.35679 2.43783 3.1541 0 0 0 163 179 193 255
0.94433 2.291 3.33613 0 0 0 210 220 226 255
2.18439 2.4406 3.10795 0 0 0 142 111 91 255
1.05575 2.30786 3.23484 0 0 0 50 64 74 255
1.01987 2.32339 3.23168 0 0 0 208 223 228 255
1.27668 2.34736 3.20271 0 0 0 211 225 230 255
1.3282 2.3525 3.19449 0 0 0 206 220 227 255
1.07082 2.32491 3.21572 0 0 0 188 206 209 255
1.30122 2.36192 3.18599 0 0 0 54 59 67 255
2.01251 2.43677 3.02534 0 0 0 126 123 125 255
2.05494 2.45936 3.05248 0 0 0 180 165 156 255
2.10822 2.45124 3.01259 0 0 0 133 110 96 255
2.30174 2.47707 2.98438 0 0 0 98 99 118 255
3.81744 -0.136947 8.5174 0 0 0 85 99 109 255
1.93879 0.133447 4.5992 0 0 0 74 72 78 255
2.09644 0.192424 4.61493 0 0 0 98 96 95 255
0.731277 0.138666 4.22032 0 0 0 77 56 54 255
3.55695 0.338084 4.48732 0 0 0 155 156 152 255
3.66356 0.381754 4.25156 0 0 0 95 105 97 255
1.05559 0.275494 4.38983 0 0 0 137 125 113 255
3.27187 0.459163 4.10728 0 0 0 55 34 21 255
1.11121 0.304619 4.41025 0 0 0 189 178 163 255
1.38099 0.342156 4.3906 0 0 0 149 129 120 255
1.09511 0.330896 4.39767 0 0 0 148 126 113 255
1.45408 0.371537 4.35719 0 0 0 149 118 108 255
1.37803 0.389584 4.35379 0 0 0 195 171 164 255
1.34395 0.436581 4.33874 0 0 0 139 113 105 255
3.57476 0.654659 4.12905 0 0 0 114 95 73 255
3.62874 0.677515 4.1104 0 0 0 121 92 52 255
3.62621 0.690185 4.10451 0 0 0 119 83 51 255
1.4254 0.539815 4.3798 0 0 0 149 134 121 255
1.53028 0.553751 4.36299 0 0 0 143 123 116 255
2.36053 0.655481 4.28064 0 0 0 185 161 135 255
1.21016 0.557697 4.36894 0 0 0 144 119 109 255
1.42197 0.584019 4.34478 0 0 0 176 179 159 255
1.46091 0.588621 4.34581 0 0 0 130 105 94 255
3.53567 0.77972 4.10228 0 0 0 128 94 76 255
3.60037 0.779389 4.03859 0 0 0 141 105 72 255
2.88677 0.736111 4.18144 0 0 0 181 136 114 255
3.38514 0.783017 4.31344 0 0 0 116 112 94 255
1.40277 0.625585 4.31354 0 0 0 146 132 118 255
3.49132 0.834774 4.22161 0 0 0 136 105 56 255
2.60591 0.760332 4.16747 0 0 0 175 156 144 255
3.49013 0.840784 4.22007 0 0 0 144 105 52 255
3.00488 0.822109 4.1037 0 0 0 162 147 138 255
3.51979 0.886454 4.20596 0 0 0 124 102 57 255
3.54385 0.886412 4.16438 0 0 0 40 24 22 255
1.65916 0.738939 4.32618 0 0 0 152 139 132 255
2.32024 0.801483 4.27737 0 0 0 159 115 79 255
3.19192 0.869266 4.13131 0 0 0 99 51 39 255
3.39574 0.885206 4.24692 0 0 0 37 21 14 255
2.56888 0.828723 4.2408 0 0 0 178 146 132 255
3.33964 0.90188 4.27314 0 0 0 119 96 63 255
1.34544 0.729468 4.34542 0 0 0 140 132 121 255
2.32514 0.80807 4.27314 0 0 0 163 137 117 255
2.86034 0.877769 4.16292 0 0 0 179 160 147 255
3.403 0.931543 4.20779 0 0 0 126 97 78 255
3.4903 0.943523 4.17031 0 0 0 139 105 53 255
3.52097 0.94001 4.14003 0 0 0 27 34 26 255
1.93634 0.818258 4.46309 0 0 0 181 162 146 255
3.61831 0.975633 4.08316 0 0 0 36 39 41 255
1.92292 0.845161 4.43605 0 0 0 104 93 85 255
2.53869 0.892615 4.18116 0 0 0 176 149 126 255
3.02711 0.93577 4.14108 0 0 0 169 141 128 255
0.676129 0.754862 4.43684 0 0 0 67 34 38 255
2.76859 0.935964 4.14093 0 0 0 178 150 149 255
3.17782 0.968014 4.13272 0 0 0 52 21 11 255
3.587 1.00146 4.08592 0 0 0 142 114 101 255
2.89282 0.95327 4.12351 0 0 0 178 156 138 255
3.48565 1.03038 4.22926 0 0 0 80 91 92 255
0.731772 0.783713 4.38483 0 0 0 110 101 97 255
2.95683 1.00182 4.1118 0 0 0 173 133 118 255
3.51414 1.08679 4.1472 0 0 0 134 137 144 255
3.63495 1.10001 4.08833 0 0 0 105 97 108 255
0.677155 0.869962 4.44005 0 0 0 118 87 75 255
1.86672 0.977828 4.09324 0 0 0 62 37 34 255
2.0231 1.02925 4.51018 0 0 0 55 43 45 255
3.16698 1.12789 4.14057 0 0 0 29 15 24 255
2.16681 1.05969 4.3348 0 0 0 130 138 134 255
2.67924 1.15302 4.22864 0 0 0 160 160 157 255
3.49518 1.28009 4.3171 0 0 0 63 66 77 255
2.12011 1.16155 4.39928 0 0 0 147 114 92 255
1.26507 1.05798 4.02592 0 0 0 143 154 162 255
3.14609 1.27607 4.19573 0 0 0 43 52 76 255
3.53537 1.32341 4.2721 0 0 0 124 91 80 255
0.831059 1.09399 4.46824 0 0 0 73 49 40 255
3.14095 1.31247 4.18751 0 0 0 110 113 90 255
0.505103 1.06741 4.41744 0 0 0 99 82 77 255
2.59058 1.2875 4.24289 0 0 0 54 54 54 255
1.24933 1.17244 4.31277 0 0 0 97 91 98 255
2.77053 1.3198 4.22657 0 0 0 62 84 96 255
2.47197 1.28868 4.25994 0 0 0 77 90 96 255
2.57305 1.30981 4.24031 0 0 0 57 45 44 255
2.64206 1.31879 4.21241 0 0 0 45 46 49 255
2.76286 1.3349 4.21354 0 0 0 55 77 89 255
1.64514 1.14623 3.61585 0 0 0 94 159 194 255
2.52015 1.32909 4.23549 0 0 0 136 129 120 255
2.61153 1.33844 4.18913 0 0 0 47 46 51 255
1.61587 1.15846 3.62927 0 0 0 77 146 194 255
3.59907 1.45825 4.09226 0 0 0 167 111 70 255
2.76219 1.41359 4.19567 0 0 0 140 162 170 255
1.56974 1.20358 3.63869 0 0 0 15 91 150 255
2.47897 1.40462 4.25411 0 0 0 156 169 176 255
1.01185 1.28023 4.5132 0 0 0 118 101 93 255
1.46763 1.2095 3.622 0 0 0 33 102 152 255
1.6508 1.22785 3.66515 0 0 0 163 192 215 255
1.04749 1.31326 4.45909 0 0 0 49 28 26 255
1.26492 1.24445 3.76687 0 0 0 102 136 168 255
1.61014 1.27687 3.62562 0 0 0 170 191 198 255
3.55682 1.61976 4.18306 0 0 0 116 47 14 255
3.57429 1.58974 4.08942 0 0 0 159 123 65 255
1.4777 1.28955 3.62413 0 0 0 23 104 144 255
1.50799 1.27776 3.59266 0 0 0 168 179 186 255
2.06143 1.50591 4.49244 0 0 0 137 145 152 255
2.60953 1.55275 4.2644 0 0 0 72 68 51 255
1.41425 1.29668 3.6522 0 0 0 43 124 145 255
3.06031 1.6066 4.20588 0 0 0 134 159 175 255
3.39221 1.65924 4.29774 0 0 0 148 98 59 255
1.02805 1.42931 4.46043 0 0 0 109 100 92 255
1.18873 1.41393 4.20806 0 0 0 112 92 88 255
1.34577 1.33757 3.68816 0 0 0 120 168 197 255
1.43091 1.3346 3.62311 0 0 0 139 178 214 255
1.70115 1.3846 3.73154 0 0 0 146 192 214 255
0.956841 1.4647 4.48369 0 0 0 59 36 25 255
1.27398 1.34458 3.72597 0 0 0 72 135 183 255
1.29482 1.35474 3.71018 0 0 0 92 155 189 255
3.03251 1.68372 4.18627 0 0 0 120 142 154 255
3.58216 1.74166 4.12212 0 0 0 176 118 89 255
0.986708 1.48831 4.45477 0 0 0 71 54 51 255
3.33022 1.75642 4.2579 0 0 0 83 81 61 255
1.4037 1.43571 3.67756 0 0 0 125 161 192 255
1.52957 1.44272 3.66149 0 0 0 182 199 203 255
1.59363 1.45659 3.66576 0 0 0 45 79 111 255
1.24146 1.45918 3.82275 0 0 0 57 87 126 255
1.28894 1.46787 3.78609 0 0 0 161 178 190 255
1.33668 1.44464 3.71494 0 0 0 166 185 204 255
2.03124 1.703 4.48682 0 0 0 163 122 122 255
2.46973 1.70343 4.2872 0 0 0 117 139 138 255
1.68229 1.50281 3.72072 0 0 0 51 78 112 255
1.49677 1.48495 3.67426 0 0 0 39 79 121 255
2.33248 1.76819 4.37748 0 0 0 172 139 134 255
1.67039 1.56045 3.73884 0 0 0 176 185 195 255
0.484255 1.60391 4.48105 0 0 0 143 112 104 255
1.44758 1.54378 3.68575 0 0 0 175 193 199 255
1.63638 1.59259 3.72153 0 0 0 54 92 119 255
3.38079 1.95453 4.30854 0 0 0 90 83 87 255
1.27146 1.56733 3.76961 0 0 0 23 76 124 255
1.35561 1.54723 3.68614 0 0 0 87 97 112 255
2.89561 1.89032 4.23198 0 0 0 162 129 123 255
1.44468 1.57644 3.68564 0 0 0 37 70 105 255
3.37716 1.97005 4.28773 0 0 0 103 84 73 255
0.435397 1.61904 4.35206 0 0 0 47 45 52 255
0.450036 1.51529 3.84161 0 0 0 91 100 111 255
1.30079 1.60073 3.76124 0 0 0 167 185 195 255
1.51552 1.6179 3.67666 0 0 0 119 129 148 255
1.41268 1.61259 3.70193 0 0 0 179 191 201 255
3.44836 2.02703 4.20204 0 0 0 95 81 65 255
0.512706 1.57016 3.88855 0 0 0 18 36 53 255
1.48476 1.64095 3.68697 0 0 0 162 197 224 255
1.60925 1.67415 3.73298 0 0 0 60 97 120 255
0.567336 1.57476 3.77959 0 0 0 20 45 76 255
1.29371 1.63732 3.73629 0 0 0 173 189 200 255
1.55248 1.67145 3.70151 0 0 0 183 194 207 255
1.66047 1.70151 3.78661 0 0 0 35 88 137 255
1.76166 1.78344 4.00966 0 0 0 141 148 164 255
3.50927 2.05005 4.16592 0 0 0 84 77 75 255
3.58424 2.04274 4.04273 0 0 0 95 84 68 255
1.40499 1.65386 3.68035 0 0 0 179 190 198 255
1.63241 1.74319 3.77138 0 0 0 121 143 168 255
0.485048 1.4733 3.32285 0 0 0 165 161 155 255
0.508425 1.49782 3.38576 0 0 0 125 121 114 255
0.646198 1.81978 4.49801 0 0 0 49 57 47 255
3.06588 2.09345 4.28717 0 0 0 127 133 121 255
1.12247 1.85136 4.29813 0 0 0 89 88 85 255
2.11606 2.02069 4.3322 0 0 0 78 75 81 255
1.14706 1.84327 4.11717 0 0 0 222 235 239 255
2.98218 2.15055 4.27289 0 0 0 138 88 82 255
1.38094 1.77564 3.72097 0 0 0 137 161 180 255
1.60169 1.81157 3.74477 0 0 0 158 161 169 255
1.46239 1.79971 3.73397 0 0 0 155 180 174 255
3.40684 2.25493 4.30983 0 0 0 112 118 114 255
0.716645 1.71361 3.70919 0 0 0 203 212 216 255
3.51059 2.29766 4.19258 0 0 0 58 67 68 255
1.29327 1.82958 3.75588 0 0 0 130 133 142 255
1.52932 1.85946 3.7246 0 0 0 120 152 169 255
1.67813 1.93677 3.88986 0 0 0 45 87 128 255
1.39509 1.85552 3.72726 0 0 0 136 132 123 255
1.42536 1.85849 3.71079 0 0 0 140 141 135 255
2.59393 2.15124 4.03966 0 0 0 108 145 167 255
2.28712 2.12771 4.02756 0 0 0 138 163 179 255
0.622379 1.66234 3.32765 0 0 0 131 76 95 255
2.73298 2.21619 4.02471 0 0 0 44 65 100 255
0.647648 1.70296 3.35776 0 0 0 33 93 92 255
0.730618 1.75427 3.51168 0 0 0 39 79 91 255
2.39034 2.17213 3.9648 0 0 0 160 185 207 255
0.588017 1.67697 3.28068 0 0 0 184 204 207 255
2.42187 2.16474 3.94667 0 0 0 182 194 216 255
2.20584 2.15935 3.93069 0 0 0 165 165 173 255
2.35696 2.19021 3.93433 0 0 0 57 98 119 255
2.30043 2.19608 3.90699 0 0 0 173 190 217 255
0.700841 1.79208 3.41668 0 0 0 31 102 114 255
2.07524 2.16423 3.85188 0 0 0 119 105 92 255
2.29258 2.2079 3.86473 0 0 0 140 156 181 255
2.31959 2.1985 3.82738 0 0 0 180 202 223 255
3.02955 2.3265 3.84796 0 0 0 86 102 125 255
2.08126 2.17606 3.81913 0 0 0 70 69 61 255
2.22325 2.21467 3.82857 0 0 0 161 184 201 255
2.88458 2.29974 3.82359 0 0 0 104 122 146 255
2.00795 2.19183 3.8095 0 0 0 96 89 60 255
2.04617 2.19852 3.79326 0 0 0 179 178 171 255
2.37504 2.22865 3.76149 0 0 0 147 181 209 255
3.028 2.34834 3.79629 0 0 0 118 180 212 255
0.676968 1.8471 3.39493 0 0 0 96 142 151 255
2.74163 2.30024 3.76395 0 0 0 130 143 167 255
3.10356 2.34639 3.7457 0 0 0 124 155 174 255
2.82117 2.32989 3.73439 0 0 0 129 161 183 255
0.680088 1.87529 3.41938 0 0 0 104 142 151 255
2.98354 2.35373 3.69966 0 0 0 33 107 144 255
2.23828 2.25136 3.69794 0 0 0 45 67 90 255
0.705311 1.96109 3.49314 0 0 0 29 48 53 255
2.45303 2.32534 3.59151 0 0 0 156 103 121 255
3.05865 2.39497 3.53992 0 0 0 137 162 184 255
2.22442 2.28161 3.54363 0 0 0 175 198 229 255
2.95027 2.39286 3.53771 0 0 0 70 84 107 255
2.99632 2.3947 3.4909 0 0 0 119 151 179 255
2.53301 2.34662 3.52743 0 0 0 140 153 170 255
2.18823 2.30476 3.49407 0 0 0 177 207 228 255
2.15872 2.31786 3.47535 0 0 0 103 121 149 255
2.58019 2.38879 3.4824 0 0 0 133 148 167 255
1.3529 2.23482 3.55139 0 0 0 77 87 93 255
2.59989 2.38694 3.42114 0 0 0 120 163 176 255
2.84613 2.41343 3.40919 0 0 0 139 151 163 255
3.0586 2.38144 3.24643 0 0 0 127 176 208 255
