ply
format ascii 1.0
comment VCGLIB generated
element vertex 1068
property float x
property float y
property float z
property float nx
property float ny
property float nz
property uchar red
property uchar green
property uchar blue
property uchar alpha
element face 0
property list uchar int vertex_indices
end_header
2.84305 2.31523 3.75035 0 0 0 138 157 188 255
3.09027 2.3319 3.70602 0 0 0 90 118 138 255
3.12122 2.33412 3.69913 0 0 0 95 103 112 255
1.96463 2.24265 3.8317 0 0 0 105 106 83 255
2.23434 2.26948 3.69078 0 0 0 54 76 106 255
2.69408 2.31762 3.65486 0 0 0 59 46 73 255
2.67333 2.35443 3.56833 0 0 0 109 133 167 255
2.22703 2.28764 3.59963 0 0 0 159 187 216 255
2.50169 2.33985 3.51628 0 0 0 122 141 157 255
2.2719 2.31011 3.51132 0 0 0 88 161 201 255
2.81098 2.39691 3.38663 0 0 0 119 148 166 255
1.02608 2.20534 3.57841 0 0 0 45 57 63 255
1.3564 2.22837 3.532 0 0 0 72 81 88 255
2.49037 2.37822 3.4189 0 0 0 72 68 81 255
2.60415 2.39648 3.3683 0 0 0 81 94 112 255
2.40043 2.37754 3.35658 0 0 0 154 103 82 255
1.0453 2.24557 3.4654 0 0 0 210 225 231 255
1.59792 2.30352 3.36008 0 0 0 72 85 107 255
1.34035 2.29034 3.40192 0 0 0 61 70 76 255
1.85545 2.36292 3.25667 0 0 0 194 217 247 255
0.975252 2.26206 3.33176 0 0 0 52 59 67 255
1.16445 2.30339 3.35327 0 0 0 59 67 74 255
1.93885 0.148449 4.61035 0 0 0 145 134 140 255
3.22759 0.426707 4.17923 0 0 0 173 107 81 255
0.949838 0.368576 4.33366 0 0 0 140 114 104 255
1.08573 0.510516 4.39332 0 0 0 131 106 93 255
3.01875 0.812485 4.11569 0 0 0 166 145 131 255
1.90639 0.80455 4.53605 0 0 0 183 168 157 255
0.660777 0.724589 4.4536 0 0 0 61 31 34 255
0.748276 0.732176 4.39268 0 0 0 183 171 161 255
2.96791 0.941826 4.05881 0 0 0 155 127 114 255
1.40777 0.846636 4.37964 0 0 0 34 34 31 255
0.740773 0.825482 4.38332 0 0 0 38 38 38 255
1.34333 0.90617 4.04334 0 0 0 133 124 120 255
1.75926 0.957919 4.05699 0 0 0 175 172 182 255
1.75992 1.04377 3.79484 0 0 0 223 238 243 255
0.519031 1.02127 4.42684 0 0 0 115 89 76 255
0.796505 1.05416 4.45917 0 0 0 122 101 97 255
2.5706 1.22568 4.25431 0 0 0 67 80 92 255
2.70684 1.24119 4.26858 0 0 0 59 80 91 255
2.81834 1.27724 4.20449 0 0 0 150 170 185 255
2.63156 1.29774 4.28663 0 0 0 48 49 52 255
1.28119 1.11138 3.76345 0 0 0 9 80 131 255
1.42386 1.11503 3.64482 0 0 0 63 136 173 255
1.57861 1.12523 3.69094 0 0 0 29 83 115 255
2.14617 1.28738 4.37398 0 0 0 43 35 43 255
2.92878 1.37011 4.14703 0 0 0 133 145 150 255
2.98956 1.35559 4.13644 0 0 0 52 39 39 255
0.327935 1.16138 4.46798 0 0 0 128 133 137 255
0.917234 1.20936 4.39209 0 0 0 54 41 34 255
1.39535 1.18807 3.70947 0 0 0 176 180 153 255
2.38588 1.40051 4.29515 0 0 0 70 63 69 255
1.63939 1.23131 3.67895 0 0 0 132 151 161 255
0.499303 1.25872 4.41774 0 0 0 120 87 77 255
1.11399 1.38312 4.49091 0 0 0 126 104 96 255
2.43924 1.5328 4.30769 0 0 0 82 102 103 255
1.15914 1.41561 4.39827 0 0 0 55 34 30 255
2.32951 1.55044 4.35017 0 0 0 157 169 175 255
2.63739 1.58022 4.24238 0 0 0 41 47 48 255
2.89427 1.6173 4.14779 0 0 0 150 167 178 255
2.99872 1.64365 4.18966 0 0 0 111 134 150 255
1.65243 1.42106 3.73877 0 0 0 174 196 208 255
1.1576 1.45847 4.17218 0 0 0 141 111 103 255
1.60446 1.43302 3.71567 0 0 0 184 180 214 255
2.05359 1.7099 4.50314 0 0 0 157 124 120 255
2.84891 1.87095 4.18335 0 0 0 154 121 118 255
1.26614 1.59575 3.81176 0 0 0 20 70 128 255
0.295494 1.56526 4.21945 0 0 0 14 23 25 255
1.45266 1.60159 3.71889 0 0 0 38 78 118 255
1.54562 1.64042 3.75062 0 0 0 169 178 195 255
0.557029 1.5658 3.76105 0 0 0 31 63 92 255
1.14858 1.80899 4.27585 0 0 0 101 69 72 255
1.8764 1.88088 4.33977 0 0 0 152 142 138 255
3.10514 2.13739 4.32791 0 0 0 138 149 147 255
0.562965 1.54677 3.43518 0 0 0 135 185 212 255
1.58044 1.81322 3.78963 0 0 0 178 167 146 255
2.95389 2.12309 4.24381 0 0 0 139 81 67 255
1.12722 1.85296 4.10465 0 0 0 220 236 236 255
1.33674 1.77552 3.77049 0 0 0 158 193 212 255
0.622738 1.61119 3.40007 0 0 0 129 172 190 255
0.735393 1.72199 3.7086 0 0 0 199 211 215 255
2.36918 2.08089 4.05159 0 0 0 66 66 76 255
2.52139 2.1081 4.01914 0 0 0 178 192 202 255
0.583464 1.6819 3.27522 0 0 0 195 186 188 255
1.51291 1.95932 3.7655 0 0 0 13 88 150 255
2.08409 2.12072 3.94603 0 0 0 216 145 74 255
2.19338 2.14037 3.99343 0 0 0 91 60 50 255
0.72917 1.76437 3.49387 0 0 0 44 77 90 255
3.00011 2.30007 3.79971 0 0 0 88 101 120 255
0.666577 1.78727 3.33215 0 0 0 25 90 107 255
2.04573 2.18022 3.8114 0 0 0 181 177 170 255
2.24056 2.21541 3.8158 0 0 0 164 193 211 255
2.10546 2.20625 3.74576 0 0 0 77 76 81 255
2.95955 2.33588 3.75629 0 0 0 27 71 107 255
1.51684 2.15633 3.75924 0 0 0 230 240 244 255
1.96081 2.22565 3.74949 0 0 0 70 87 106 255
2.10666 2.26782 3.58428 0 0 0 165 197 223 255
2.19563 2.2847 3.55735 0 0 0 184 205 227 255
2.22837 2.28674 3.54237 0 0 0 166 199 234 255
1.37072 2.22653 3.53548 0 0 0 69 77 83 255
2.59626 2.37777 3.4494 0 0 0 149 168 188 255
1.04463 2.20446 3.57115 0 0 0 45 56 64 255
1.17853 2.22063 3.57525 0 0 0 48 58 69 255
2.77439 2.41243 3.32399 0 0 0 153 165 181 255
2.59707 2.39732 3.36219 0 0 0 65 75 93 255
2.70505 2.42412 3.25599 0 0 0 62 81 110 255
2.98949 0.804511 4.1195 0 0 0 151 120 117 255
1.91469 0.853294 4.63217 0 0 0 62 56 49 255
1.78479 0.853722 4.09128 0 0 0 42 37 39 255
0.788952 0.844564 4.68178 0 0 0 32 33 33 255
0.53672 0.853156 4.34186 0 0 0 129 87 68 255
1.76528 0.968156 4.29408 0 0 0 226 224 232 255
1.00855 0.972844 4.35784 0 0 0 125 104 90 255
1.29874 0.965189 3.9334 0 0 0 219 231 235 255
0.519275 0.972935 4.41293 0 0 0 125 102 89 255
1.7331 1.02388 3.80587 0 0 0 231 248 252 255
2.32284 1.20294 4.3329 0 0 0 103 65 63 255
2.79302 1.28554 4.22038 0 0 0 145 165 179 255
1.25631 1.14913 4.0188 0 0 0 22 59 110 255
2.56526 1.25663 4.22893 0 0 0 102 101 104 255
1.30661 1.1829 3.78376 0 0 0 160 162 121 255
2.43298 1.40318 4.29336 0 0 0 151 160 164 255
1.32942 1.25639 3.74765 0 0 0 147 134 88 255
0.505574 1.34346 4.45813 0 0 0 124 91 80 255
2.29821 1.55135 4.35174 0 0 0 154 166 174 255
2.38514 1.59662 4.34746 0 0 0 155 171 175 255
2.99602 1.63047 4.21425 0 0 0 111 136 151 255
1.23251 1.42354 3.88956 0 0 0 12 74 118 255
1.6217 1.4501 3.72507 0 0 0 72 86 107 255
0.39965 1.57646 4.52879 0 0 0 27 25 33 255
1.27084 1.51116 3.80415 0 0 0 82 88 104 255
0.375528 1.61042 4.47936 0 0 0 14 16 23 255
1.44831 1.58699 3.7121 0 0 0 37 70 105 255
1.56428 1.59458 3.73429 0 0 0 185 196 208 255
1.175 1.71038 4.17662 0 0 0 119 80 84 255
1.44285 1.65276 3.72055 0 0 0 26 82 125 255
3.04814 2.00721 4.20197 0 0 0 29 29 55 255
0.905933 1.89369 4.62535 0 0 0 103 85 85 255
1.84296 1.90086 4.17842 0 0 0 170 174 178 255
1.51819 1.76769 3.75502 0 0 0 149 169 142 255
3.0807 2.13676 4.28392 0 0 0 137 151 147 255
0.585023 1.58635 3.41504 0 0 0 138 190 216 255
1.10075 1.8954 4.23554 0 0 0 215 233 232 255
0.772236 1.7415 3.70851 0 0 0 193 215 215 255
1.21008 1.90297 3.95249 0 0 0 7 89 137 255
1.61995 1.93043 3.86389 0 0 0 29 101 143 255
1.40437 2.01251 3.94588 0 0 0 19 100 148 255
1.98395 2.15167 3.86794 0 0 0 222 203 132 255
2.30588 2.19657 3.80968 0 0 0 169 194 218 255
1.84249 2.18951 3.83062 0 0 0 216 208 138 255
0.679068 1.95024 3.5023 0 0 0 70 111 107 255
1.43835 2.14929 3.71259 0 0 0 224 244 247 255
4.40704 -0.382487 9.11752 0 0 0 109 127 142 255
3.40169 -0.381829 8.34602 0 0 0 195 217 231 255
3.47737 0.288612 4.42762 0 0 0 106 107 114 255
3.57394 0.349054 4.11 0 0 0 41 47 48 255
3.7843 0.387556 4.08276 0 0 0 136 81 79 255
3.79168 0.40446 3.99021 0 0 0 66 79 80 255
3.76707 0.39997 4.0018 0 0 0 42 24 26 255
3.76616 0.406164 3.99509 0 0 0 42 24 26 255
3.72793 -0.0554978 8.28273 0 0 0 182 194 202 255
3.26973 0.346192 4.27688 0 0 0 43 42 33 255
3.75567 0.456933 3.92875 0 0 0 20 29 28 255
4.17751 0.625229 3.41243 0 0 0 98 122 114 255
4.22375 0.640664 3.42303 0 0 0 195 204 209 255
4.1746 0.638476 3.41238 0 0 0 36 75 70 255
4.06104 0.650326 3.44559 0 0 0 105 101 87 255
3.6181 0.578723 3.86293 0 0 0 81 91 95 255
3.64231 0.588243 3.8543 0 0 0 90 102 106 255
3.68377 0.598061 3.82213 0 0 0 108 118 125 255
3.61893 0.599112 3.85526 0 0 0 21 31 35 255
3.65053 0.606392 3.8363 0 0 0 28 38 42 255
3.69995 0.61241 3.81605 0 0 0 22 32 38 255
3.19079 0.548411 3.92832 0 0 0 61 63 84 255
3.66619 0.61494 3.8315 0 0 0 18 28 32 255
3.70149 0.639083 3.80512 0 0 0 112 122 128 255
3.73271 0.64775 3.75912 0 0 0 59 67 74 255
3.6257 0.635168 3.844 0 0 0 114 125 126 255
3.68225 0.646129 3.80543 0 0 0 44 53 59 255
3.71664 0.654075 3.77879 0 0 0 125 133 140 255
3.66709 0.648502 3.81456 0 0 0 93 102 104 255
3.70014 0.655492 3.80329 0 0 0 116 126 132 255
4.30006 0.769998 3.54017 0 0 0 81 94 87 255
3.71665 0.665197 3.77802 0 0 0 120 129 136 255
1.63197 0.36953 4.24955 0 0 0 170 159 156 255
1.25828 0.331233 4.27254 0 0 0 195 177 172 255
1.28653 0.341954 4.26534 0 0 0 132 118 113 255
1.57255 0.378282 4.24088 0 0 0 188 172 166 255
3.17834 0.629781 3.99826 0 0 0 86 47 29 255
3.66155 0.702551 3.81811 0 0 0 98 75 60 255
1.26688 0.360429 4.28949 0 0 0 190 168 161 255
3.80702 0.745251 3.71999 0 0 0 102 86 73 255
4.46083 0.832016 3.73856 0 0 0 96 124 118 255
1.49098 0.401574 4.3782 0 0 0 189 176 169 255
1.57075 0.409943 4.38805 0 0 0 180 164 158 255
3.2153 0.660466 4.02737 0 0 0 80 78 70 255
3.76862 0.74682 3.73172 0 0 0 103 91 85 255
3.84525 0.758977 3.6786 0 0 0 101 85 87 255
4.47516 0.838762 3.75355 0 0 0 95 120 117 255
1.65052 0.436424 4.40859 0 0 0 136 125 119 255
1.70569 0.433432 4.38602 0 0 0 136 118 115 255
3.82519 0.771896 3.69755 0 0 0 44 19 5 255
3.18161 0.674877 4.02062 0 0 0 89 55 33 255
3.76736 0.760958 3.73212 0 0 0 70 62 56 255
3.55061 0.728918 3.8954 0 0 0 67 43 21 255
3.6486 0.761273 3.82367 0 0 0 52 27 9 255
3.81203 0.796017 3.69836 0 0 0 71 35 12 255
4.18386 0.857494 3.50628 0 0 0 14 32 31 255
3.82471 0.81721 3.69255 0 0 0 116 88 79 255
3.74351 0.81139 3.73685 0 0 0 97 95 96 255
3.63101 0.798466 3.83081 0 0 0 30 9 1 255
3.64788 0.801729 3.81235 0 0 0 32 22 24 255
3.75775 0.818098 3.73133 0 0 0 111 82 49 255
3.80902 0.835162 3.69819 0 0 0 61 27 10 255
1.36191 0.469343 4.27737 0 0 0 146 136 126 255
3.61365 0.822212 3.85113 0 0 0 124 105 79 255
3.45587 0.805498 3.99896 0 0 0 61 52 57 255
3.65749 0.837355 3.80212 0 0 0 116 104 79 255
3.71765 0.846429 3.74508 0 0 0 31 18 30 255
3.74064 0.855905 3.72861 0 0 0 134 105 76 255
3.7956 0.874123 3.69278 0 0 0 58 29 27 255
3.53119 0.835911 3.91787 0 0 0 34 42 49 255
3.82019 0.885087 3.67341 0 0 0 57 41 35 255
2.47917 0.687264 4.21157 0 0 0 182 130 125 255
2.44484 0.686854 4.22904 0 0 0 166 134 126 255
3.54259 0.857162 3.91734 0 0 0 41 14 7 255
3.59896 0.868044 3.86163 0 0 0 131 105 80 255
3.81376 0.897703 3.6827 0 0 0 104 88 52 255
3.64003 0.878627 3.83196 0 0 0 108 95 72 255
3.67472 0.886759 3.80006 0 0 0 92 82 70 255
2.45739 0.704546 4.22068 0 0 0 129 100 94 255
3.58292 0.876584 3.87334 0 0 0 66 44 24 255
3.62074 0.890013 3.84968 0 0 0 41 22 7 255
3.72553 0.906189 3.74815 0 0 0 35 25 18 255
2.50298 0.728812 4.19484 0 0 0 164 148 142 255
2.90012 0.78969 4.03064 0 0 0 123 101 97 255
3.67547 0.90972 3.80074 0 0 0 37 19 3 255
3.69413 0.90711 3.77495 0 0 0 101 87 69 255
4.39643 1.02563 3.71922 0 0 0 120 133 150 255
1.29937 0.548675 4.32207 0 0 0 131 121 111 255
2.54006 0.73628 4.17872 0 0 0 169 146 137 255
3.75453 0.928175 3.72862 0 0 0 111 99 71 255
2.94611 0.809913 4.02053 0 0 0 179 156 148 255
3.69173 0.921601 3.77225 0 0 0 79 65 47 255
3.73389 0.934484 3.74982 0 0 0 55 35 27 255
2.89983 0.806175 4.02428 0 0 0 168 143 133 255
3.61355 0.916737 3.85158 0 0 0 46 21 7 255
3.82787 0.953761 3.67544 0 0 0 126 113 92 255
3.75726 0.948034 3.73093 0 0 0 106 91 69 255
3.62454 0.936072 3.8447 0 0 0 124 105 92 255
3.81158 0.961589 3.70227 0 0 0 40 26 25 255
3.88778 0.975464 3.62389 0 0 0 92 86 92 255
4.18049 1.03266 3.55207 0 0 0 31 58 57 255
3.46604 0.933876 3.95089 0 0 0 126 111 90 255
3.60387 0.956369 3.85535 0 0 0 64 40 24 255
3.95179 1.00814 3.59597 0 0 0 43 29 18 255
3.98802 1.02449 3.56561 0 0 0 124 108 94 255
3.19243 0.910266 4.08742 0 0 0 103 101 72 255
3.52652 0.963361 3.90434 0 0 0 29 41 31 255
3.83276 1.01346 3.676 0 0 0 64 54 46 255
2.62279 0.833924 4.19462 0 0 0 167 131 113 255
3.66799 0.993696 3.78885 0 0 0 44 38 45 255
3.63633 0.994127 3.82015 0 0 0 71 61 62 255
2.88961 0.887755 4.08578 0 0 0 172 156 141 255
3.53188 0.985468 3.89 0 0 0 95 81 72 255
2.78809 0.887612 4.10518 0 0 0 176 154 146 255
3.40193 0.983442 4.03613 0 0 0 69 73 85 255
3.65655 1.01741 3.79164 0 0 0 54 52 50 255
1.61661 0.715296 4.35226 0 0 0 138 132 126 255
1.51732 0.71159 4.3816 0 0 0 139 133 124 255
3.63615 1.03032 3.84128 0 0 0 57 45 39 255
3.69633 1.04475 3.76083 0 0 0 118 108 96 255
3.72232 1.04106 3.752 0 0 0 61 56 48 255
1.46796 0.706964 4.38876 0 0 0 136 135 128 255
1.54957 0.718436 4.36708 0 0 0 189 183 176 255
1.62416 0.737585 4.37647 0 0 0 184 177 175 255
2.40914 0.863168 4.26921 0 0 0 168 165 156 255
3.79311 1.06729 3.7027 0 0 0 74 38 30 255
3.98467 1.10038 3.58193 0 0 0 124 110 88 255
3.72786 1.06396 3.75499 0 0 0 111 102 94 255
3.76784 1.07536 3.72219 0 0 0 139 116 101 255
1.57757 0.738711 4.43286 0 0 0 162 156 151 255
3.48716 1.04285 3.97363 0 0 0 78 88 94 255
1.617 0.759569 4.43229 0 0 0 130 124 120 255
3.50574 1.05193 3.96388 0 0 0 98 108 114 255
3.61546 1.06828 3.8493 0 0 0 120 131 140 255
3.80569 1.09057 3.6855 0 0 0 119 115 107 255
1.21926 0.702097 4.3621 0 0 0 117 108 104 255
2.93685 0.967376 4.05632 0 0 0 145 105 69 255
3.64798 1.07879 3.82823 0 0 0 99 104 112 255
3.85798 1.10704 3.63135 0 0 0 71 68 60 255
1.136 0.694113 4.31133 0 0 0 134 127 121 255
1.18206 0.698862 4.36404 0 0 0 132 123 119 255
1.3965 0.739963 4.3397 0 0 0 158 154 149 255
3.94937 1.12201 3.58988 0 0 0 45 41 47 255
1.0885 0.689245 4.26322 0 0 0 157 151 146 255
3.66028 1.09548 3.81362 0 0 0 44 52 58 255
4.1608 1.1678 3.57628 0 0 0 18 38 54 255
1.21455 0.721343 4.3605 0 0 0 121 111 110 255
1.13821 0.714257 4.3266 0 0 0 167 158 155 255
3.5749 1.10016 3.86547 0 0 0 126 135 146 255
3.55386 1.09429 3.78719 0 0 0 39 48 59 255
3.67698 1.11877 3.78215 0 0 0 39 49 55 255
3.60175 1.11893 3.84048 0 0 0 122 132 140 255
3.82057 1.14769 3.71048 0 0 0 130 141 152 255
4.05874 1.17504 3.53397 0 0 0 73 113 90 255
1.12931 0.735763 4.30921 0 0 0 116 110 105 255
3.63165 1.12757 3.81952 0 0 0 132 143 150 255
3.64902 1.12776 3.80849 0 0 0 40 50 56 255
3.66461 1.12741 3.80339 0 0 0 106 116 122 255
3.68248 1.13686 3.77301 0 0 0 123 134 144 255
3.73165 1.13982 3.74429 0 0 0 32 43 56 255
1.08835 0.724192 4.15952 0 0 0 148 140 133 255
3.69992 1.14414 3.76143 0 0 0 40 51 62 255
4.16938 1.2182 3.60567 0 0 0 68 72 47 255
3.71679 1.15021 3.74903 0 0 0 132 143 156 255
3.74183 1.15731 3.74014 0 0 0 87 98 109 255
3.82832 1.17209 3.69556 0 0 0 46 55 68 255
3.67061 1.15166 3.77986 0 0 0 66 79 89 255
3.83943 1.17195 3.68766 0 0 0 66 69 85 255
1.94358 0.908988 4.65734 0 0 0 28 28 38 255
3.7725 1.17644 3.71089 0 0 0 120 137 146 255
3.82183 1.19568 3.68755 0 0 0 138 147 158 255
3.8009 1.19424 3.69617 0 0 0 104 119 128 255
3.83764 1.19671 3.67429 0 0 0 42 39 56 255
3.12248 1.16201 4.02185 0 0 0 87 75 62 255
2.15442 1.04822 4.48885 0 0 0 64 70 73 255
4.21589 1.40895 3.66875 0 0 0 36 56 60 255
3.12296 1.29764 4.07645 0 0 0 97 94 65 255
3.69264 1.37704 3.78436 0 0 0 80 75 77 255
4.20939 1.46163 3.68381 0 0 0 66 70 85 255
3.72809 1.38169 3.76693 0 0 0 105 94 94 255
3.82183 1.42194 3.68198 0 0 0 94 65 71 255
1.80672 1.07387 3.87471 0 0 0 163 180 195 255
1.93816 1.17457 4.46784 0 0 0 112 130 140 255
2.69477 1.28431 4.19525 0 0 0 95 105 111 255
2.51995 1.26318 4.2407 0 0 0 98 114 125 255
2.06732 1.23363 4.54877 0 0 0 153 104 84 255
1.80116 1.11255 3.85837 0 0 0 119 151 183 255
3.77841 1.47232 3.69437 0 0 0 158 110 88 255
2.5523 1.30787 4.21884 0 0 0 61 51 55 255
4.13946 1.54303 3.6829 0 0 0 21 83 70 255
2.51063 1.31293 4.23547 0 0 0 112 120 127 255
3.55681 1.48582 3.86719 0 0 0 167 138 94 255
2.63079 1.38157 4.18918 0 0 0 106 118 124 255
3.07158 1.46683 4.1633 0 0 0 112 125 143 255
3.77932 1.53735 3.7214 0 0 0 103 60 43 255
4.17412 1.62471 3.69283 0 0 0 27 56 71 255
1.93338 1.28746 4.5159 0 0 0 131 136 144 255
1.86811 1.26977 4.35825 0 0 0 43 50 80 255
1.58651 1.1468 3.71654 0 0 0 47 123 176 255
1.9176 1.31274 4.51271 0 0 0 33 36 45 255
1.88818 1.30657 4.44818 0 0 0 115 118 138 255
4.16459 1.66684 3.69785 0 0 0 54 60 70 255
3.78631 1.59338 3.69374 0 0 0 141 113 91 255
4.27323 1.73342 3.81834 0 0 0 139 167 189 255
4.17675 1.72538 3.7261 0 0 0 31 55 83 255
3.04984 1.57963 4.16413 0 0 0 118 146 169 255
5.19521 2.10935 4.99374 0 0 0 97 133 160 255
4.32421 1.80081 3.88991 0 0 0 92 122 146 255
4.69723 1.93782 4.36589 0 0 0 161 195 223 255
1.65156 1.2663 3.67495 0 0 0 126 171 200 255
2.56196 1.53688 4.26694 0 0 0 140 146 119 255
4.16336 1.78001 3.73664 0 0 0 28 58 71 255
4.23275 1.82343 3.80483 0 0 0 137 179 201 255
5.29197 2.22621 4.83521 0 0 0 174 207 222 255
1.46288 1.29333 3.65212 0 0 0 143 168 200 255
3.52315 1.75441 3.94064 0 0 0 106 53 25 255
4.22368 1.87859 3.8103 0 0 0 143 177 193 255
4.12165 1.86978 3.76432 0 0 0 105 120 99 255
1.04615 1.38958 4.40529 0 0 0 81 64 55 255
4.22816 1.93607 3.83505 0 0 0 148 181 193 255
2.50201 1.73672 4.3153 0 0 0 148 139 141 255
4.12365 1.98119 3.75535 0 0 0 36 58 72 255
3.744 1.91953 3.75765 0 0 0 83 110 106 255
2.18882 1.72738 4.46023 0 0 0 174 137 133 255
2.46137 1.77326 4.34886 0 0 0 169 119 117 255
4.11465 2.00715 3.7753 0 0 0 57 76 89 255
2.21667 1.74888 4.44502 0 0 0 180 148 141 255
2.35557 1.76952 4.37396 0 0 0 160 132 122 255
2.3922 1.77867 4.35766 0 0 0 164 138 124 255
1.36817 1.44422 3.73309 0 0 0 81 122 166 255
3.88714 1.96778 3.6843 0 0 0 71 91 90 255
4.1234 2.03967 3.77555 0 0 0 52 76 81 255
1.3897 1.45322 3.72873 0 0 0 159 191 217 255
4.07958 2.06152 3.77271 0 0 0 78 101 92 255
3.63682 2.082 3.85514 0 0 0 106 92 89 255
3.62913 2.08401 3.82953 0 0 0 105 94 91 255
3.85094 2.10041 3.69332 0 0 0 61 82 89 255
4.0447 2.26348 3.75976 0 0 0 51 85 99 255
1.72841 1.83514 4.00177 0 0 0 104 149 185 255
4.05713 2.29726 3.81233 0 0 0 75 110 117 255
1.24636 1.71062 3.87469 0 0 0 100 162 185 255
1.43163 1.76659 3.77297 0 0 0 136 180 186 255
1.27364 1.74925 3.82846 0 0 0 144 171 196 255
1.41164 1.7611 3.76589 0 0 0 56 115 118 255
1.34272 1.75981 3.78472 0 0 0 91 136 171 255
3.95663 2.3679 3.71446 0 0 0 150 194 189 255
1.57469 1.8375 3.82478 0 0 0 107 137 139 255
1.37781 1.81487 3.77489 0 0 0 38 101 141 255
1.45523 1.85653 3.78366 0 0 0 115 148 171 255
2.23764 2.1237 4.04703 0 0 0 98 79 56 255
1.3503 1.84441 3.79386 0 0 0 122 136 164 255
1.45881 1.86896 3.779 0 0 0 67 86 69 255
1.40407 1.85228 3.79122 0 0 0 105 129 140 255
1.50726 1.88651 3.79301 0 0 0 125 146 155 255
1.31176 1.84864 3.80429 0 0 0 134 133 150 255
2.29316 2.1484 4.0062 0 0 0 102 134 156 255
2.26681 2.14992 3.99299 0 0 0 75 81 111 255
3.19667 2.35069 3.6653 0 0 0 78 87 99 255
2.1222 2.16283 3.86496 0 0 0 127 138 145 255
2.63379 2.30245 3.53385 0 0 0 62 59 75 255
2.23416 2.26832 3.47624 0 0 0 137 191 235 255
2.6215 2.36994 3.4217 0 0 0 147 178 211 255
2.74847 2.41915 3.28755 0 0 0 131 145 164 255
2.90214 2.48442 3.05216 0 0 0 86 171 204 255
2.20885 2.38848 3.20822 0 0 0 114 112 120 255
3.04434 2.53031 2.96906 0 0 0 37 149 193 255
1.57457 2.31135 3.38254 0 0 0 71 76 78 255
2.29334 2.41913 3.13947 0 0 0 139 135 139 255
2.9665 2.522 2.94459 0 0 0 91 156 191 255
3.00781 2.5276 2.94116 0 0 0 158 208 238 255
2.99608 2.53415 2.90505 0 0 0 37 143 187 255
2.21201 2.41382 3.12418 0 0 0 114 96 87 255
2.88556 2.52449 2.90619 0 0 0 61 146 183 255
2.78622 2.5122 2.92438 0 0 0 101 165 196 255
2.84121 2.51235 2.89176 0 0 0 166 203 225 255
2.68998 2.49486 2.92801 0 0 0 88 117 141 255
2.78035 2.52049 2.90815 0 0 0 82 136 166 255
2.83318 2.51984 2.86659 0 0 0 95 143 173 255
2.75738 2.51926 2.89697 0 0 0 109 167 198 255
2.75114 2.52199 2.87063 0 0 0 83 122 153 255
2.06207 2.42102 3.04837 0 0 0 72 83 95 255
2.65626 2.51702 2.86983 0 0 0 48 81 114 255
2.32338 2.47109 2.96914 0 0 0 77 109 139 255
2.62919 2.51594 2.87113 0 0 0 99 125 150 255
2.77093 2.53642 2.79134 0 0 0 149 204 241 255
2.57859 2.5131 2.84359 0 0 0 83 95 110 255
2.82631 2.54784 2.74202 0 0 0 95 195 235 255
2.25048 2.47481 2.89691 0 0 0 94 106 118 255
2.54746 2.52906 2.80716 0 0 0 86 96 112 255
2.70163 2.55046 2.72769 0 0 0 191 213 232 255
4.20709 -0.467025 8.71874 0 0 0 170 188 201 255
4.40222 -0.353473 9.15443 0 0 0 116 134 149 255
3.44132 0.296435 4.39546 0 0 0 139 139 147 255
3.99346 0.434054 3.99475 0 0 0 38 27 32 255
3.67548 -0.0600719 8.1858 0 0 0 166 188 200 255
4.21985 -0.064002 8.79997 0 0 0 154 167 166 255
3.74636 0.453591 3.9489 0 0 0 21 32 36 255
4.18779 0.544941 3.68706 0 0 0 124 123 112 255
4.19034 0.609717 3.42169 0 0 0 141 149 150 255
3.1849 0.430674 3.97729 0 0 0 132 93 78 255
4.04707 0.658411 3.4494 0 0 0 130 114 97 255
3.64815 0.622371 3.83318 0 0 0 32 43 45 255
3.7244 0.650402 3.76155 0 0 0 68 76 83 255
3.71442 0.6635 3.7797 0 0 0 120 129 136 255
4.27504 0.771408 3.5154 0 0 0 101 113 106 255
1.40097 0.339734 4.35069 0 0 0 131 118 113 255
1.5781 0.379115 4.38862 0 0 0 186 170 164 255
3.17713 0.627317 3.99884 0 0 0 96 54 41 255
3.17085 0.65538 3.95748 0 0 0 104 86 70 255
3.76109 0.744099 3.73661 0 0 0 73 62 57 255
3.8081 0.746623 3.72085 0 0 0 102 86 73 255
3.84678 0.761 3.67693 0 0 0 97 81 84 255
1.40275 0.417111 4.35798 0 0 0 132 110 107 255
3.17889 0.685816 4.02651 0 0 0 72 36 21 255
3.81398 0.785833 3.69946 0 0 0 71 35 16 255
4.11382 0.845611 3.42815 0 0 0 16 31 34 255
3.5488 0.786747 3.88615 0 0 0 43 20 16 255
3.63142 0.802953 3.82696 0 0 0 30 9 1 255
3.71589 0.831022 3.75589 0 0 0 23 14 26 255
3.65528 0.83513 3.80124 0 0 0 116 104 79 255
3.3995 0.798187 4.04711 0 0 0 101 85 61 255
3.45221 0.806527 3.99846 0 0 0 61 52 57 255
3.72951 0.861102 3.73397 0 0 0 83 65 59 255
3.79655 0.868636 3.69447 0 0 0 82 49 27 255
3.48167 0.825918 3.97229 0 0 0 106 88 67 255
4.36176 0.956811 3.64984 0 0 0 117 136 156 255
3.76992 0.882175 3.70979 0 0 0 100 80 67 255
3.81586 0.88981 3.67711 0 0 0 86 70 60 255
3.42936 0.838726 4.01695 0 0 0 121 104 80 255
3.56529 0.863033 3.88503 0 0 0 100 89 74 255
1.28633 0.53812 4.33053 0 0 0 126 116 106 255
3.6121 0.904594 3.84999 0 0 0 57 29 16 255
2.89166 0.802776 4.02822 0 0 0 172 148 139 255
3.67335 0.913548 3.80583 0 0 0 43 24 9 255
3.78984 0.94119 3.71039 0 0 0 104 94 63 255
1.12527 0.544456 4.23256 0 0 0 187 172 163 255
3.73032 0.940049 3.75157 0 0 0 56 36 27 255
3.65103 0.93889 3.81624 0 0 0 57 54 41 255
3.88488 0.974066 3.62599 0 0 0 84 81 87 255
3.9538 0.988255 3.5987 0 0 0 78 68 61 255
3.71309 0.96427 3.75768 0 0 0 125 111 93 255
4.13978 1.02759 3.52095 0 0 0 16 36 39 255
1.43803 0.626399 4.41822 0 0 0 151 141 131 255
3.9494 1.02016 3.59547 0 0 0 40 27 37 255
3.98355 1.01999 3.56323 0 0 0 108 94 80 255
3.65359 0.998355 3.79835 0 0 0 51 41 56 255
3.52347 0.99292 3.89907 0 0 0 123 95 85 255
3.63282 1.00159 3.82599 0 0 0 82 71 70 255
1.5198 0.714995 4.42446 0 0 0 129 123 116 255
3.7128 1.06252 3.75894 0 0 0 109 103 94 255
3.80629 1.09316 3.68651 0 0 0 125 121 111 255
3.8594 1.10004 3.6373 0 0 0 94 86 76 255
3.93619 1.11252 3.60464 0 0 0 38 38 37 255
4.12346 1.15674 3.5451 0 0 0 22 42 66 255
3.9163 1.14103 3.60512 0 0 0 94 84 74 255
3.62737 1.12248 3.82835 0 0 0 63 73 81 255
3.68239 1.13468 3.77219 0 0 0 123 134 144 255
4.12695 1.22178 3.57734 0 0 0 52 52 65 255
1.94303 0.920546 4.65866 0 0 0 26 26 36 255
4.20862 1.40074 3.66549 0 0 0 56 76 81 255
3.08185 1.27731 4.14783 0 0 0 111 127 139 255
3.11737 1.29965 4.07797 0 0 0 101 95 66 255
3.74552 1.39023 3.74997 0 0 0 57 47 46 255
2.21516 1.20959 4.35549 0 0 0 158 119 87 255
1.93736 1.18816 4.48071 0 0 0 122 137 146 255
1.76569 1.11163 3.81629 0 0 0 40 83 113 255
4.15266 1.70541 3.70826 0 0 0 50 67 88 255
5.05506 2.05099 4.82306 0 0 0 112 148 175 255
4.12981 1.74766 3.71705 0 0 0 79 101 105 255
5.02568 2.12913 4.81402 0 0 0 137 176 199 255
2.86014 1.62155 4.12856 0 0 0 130 146 158 255
4.22082 1.87008 3.80532 0 0 0 133 169 186 255
1.48069 1.31253 3.66443 0 0 0 11 113 155 255
4.09013 1.86156 3.74299 0 0 0 105 118 91 255
3.87871 1.82524 3.62901 0 0 0 120 104 81 255
3.664 1.83102 3.8063 0 0 0 117 114 74 255
1.94683 1.62968 4.57721 0 0 0 121 121 124 255
2.22608 1.74115 4.43977 0 0 0 168 140 129 255
4.11415 2.00744 3.77405 0 0 0 63 82 94 255
3.88758 1.96709 3.68234 0 0 0 71 91 90 255
1.81821 1.67798 4.33831 0 0 0 48 43 53 255
3.63345 2.08674 3.84805 0 0 0 88 72 68 255
3.85024 2.10231 3.69261 0 0 0 63 87 89 255
1.8399 1.90685 4.48657 0 0 0 142 136 137 255
4.06133 2.30892 3.82047 0 0 0 74 112 116 255
1.72612 1.84026 3.98822 0 0 0 109 157 194 255
4.06727 2.39606 3.84451 0 0 0 74 121 117 255
3.77563 2.3365 3.76654 0 0 0 138 150 117 255
3.95769 2.36625 3.7227 0 0 0 106 151 145 255
1.21761 1.79757 3.96943 0 0 0 136 167 192 255
1.56874 1.8366 3.80846 0 0 0 83 128 143 255
2.23226 2.12346 4.04614 0 0 0 120 99 74 255
1.63619 1.95413 3.92719 0 0 0 52 128 166 255
2.12049 2.1616 3.86435 0 0 0 127 138 145 255
2.19159 2.21077 3.80151 0 0 0 127 151 171 255
2.33368 2.23711 3.7217 0 0 0 144 209 244 255
3.44984 2.42206 3.4485 0 0 0 158 205 237 255
3.02749 2.38207 3.55697 0 0 0 55 81 103 255
2.13114 2.24011 3.71055 0 0 0 49 70 83 255
3.03526 2.41632 3.35867 0 0 0 49 91 122 255
2.95581 2.4395 3.27683 0 0 0 101 144 171 255
2.90211 2.48586 3.04981 0 0 0 86 171 204 255
2.2095 2.40813 3.13643 0 0 0 120 101 89 255
2.98267 2.53542 2.89746 0 0 0 10 149 191 255
1.9415 2.41403 3.08902 0 0 0 61 101 133 255
2.7664 2.53071 2.81585 0 0 0 106 162 192 255
2.57354 2.51721 2.83621 0 0 0 110 111 128 255
2.82155 2.55166 2.74377 0 0 0 109 199 240 255
3.3588 -0.377098 8.31632 0 0 0 201 223 237 255
4.4003 -0.353265 9.15816 0 0 0 116 134 149 255
3.44017 0.301836 4.38825 0 0 0 176 174 182 255
3.6533 0.350273 4.17421 0 0 0 66 91 84 255
3.57011 0.330382 4.39194 0 0 0 156 164 171 255
3.49017 0.356077 4.08742 0 0 0 125 129 137 255
3.76831 0.385358 4.10686 0 0 0 141 107 88 255
3.77597 0.422295 3.91664 0 0 0 61 88 87 255
3.70959 0.433312 4.04712 0 0 0 9 24 29 255
3.76454 0.462842 3.83784 0 0 0 176 140 134 255
3.3017 0.406174 4.06038 0 0 0 59 87 86 255
3.93985 0.532501 3.55797 0 0 0 91 96 96 255
4.16182 0.647919 3.40338 0 0 0 20 63 63 255
4.05229 0.655955 3.45053 0 0 0 130 114 97 255
3.63124 0.587865 3.85172 0 0 0 51 63 67 255
3.68563 0.593719 3.8282 0 0 0 57 67 74 255
3.67917 0.626211 3.81652 0 0 0 120 130 135 255
3.63165 0.631207 3.84743 0 0 0 114 125 126 255
3.72161 0.651649 3.77742 0 0 0 95 103 110 255
4.27978 0.780215 3.52461 0 0 0 95 108 106 255
3.18938 0.612315 3.99395 0 0 0 49 18 30 255
3.59171 0.691877 3.87407 0 0 0 99 87 74 255
3.55328 0.700649 3.8925 0 0 0 24 15 22 255
3.66089 0.718776 3.8183 0 0 0 133 106 81 255
3.81536 0.758709 3.70451 0 0 0 119 96 65 255
1.20013 0.373877 4.1655 0 0 0 129 111 106 255
3.84513 0.760661 3.67801 0 0 0 101 85 87 255
3.73527 0.759947 3.75382 0 0 0 30 27 31 255
1.46814 0.432331 4.37076 0 0 0 124 111 104 255
3.16722 0.710088 3.97981 0 0 0 31 11 14 255
3.57839 0.774368 3.87603 0 0 0 121 102 62 255
3.82414 0.820143 3.69334 0 0 0 116 88 79 255
4.05056 0.853604 3.50865 0 0 0 123 125 97 255
3.71363 0.814931 3.75862 0 0 0 20 15 26 255
3.74828 0.819291 3.73797 0 0 0 86 83 84 255
1.34559 0.468552 4.26793 0 0 0 118 103 94 255
3.69576 0.826026 3.77921 0 0 0 124 101 59 255
3.77993 0.856886 3.70878 0 0 0 107 89 67 255
3.80344 0.870838 3.68954 0 0 0 55 27 28 255
4.11243 0.930637 3.4602 0 0 0 23 32 34 255
3.48614 0.840809 3.9607 0 0 0 131 110 90 255
4.37048 0.960716 3.65522 0 0 0 129 146 166 255
1.51142 0.53993 4.4341 0 0 0 173 163 158 255
3.53312 0.891521 3.9043 0 0 0 32 28 37 255
4.1277 0.98748 3.49705 0 0 0 27 89 95 255
1.38773 0.58601 4.32174 0 0 0 137 108 104 255
3.82816 0.948884 3.67582 0 0 0 104 94 81 255
3.88751 0.976422 3.62372 0 0 0 112 105 105 255
3.47395 0.927513 3.95578 0 0 0 116 99 82 255
3.7889 0.962976 3.71 0 0 0 125 112 78 255
1.45354 0.613433 4.43506 0 0 0 141 118 115 255
3.52265 0.957861 3.91498 0 0 0 53 42 20 255
2.34902 0.774067 4.32565 0 0 0 173 141 127 255
3.98427 1.02113 3.5636 0 0 0 124 108 94 255
1.12263 0.595271 4.22311 0 0 0 124 100 94 255
1.2789 0.626662 4.30616 0 0 0 130 119 112 255
2.38396 0.808272 4.31012 0 0 0 156 95 69 255
3.91364 1.03186 3.61979 0 0 0 99 83 83 255
3.95384 1.03686 3.58475 0 0 0 27 28 42 255
2.88961 0.89469 4.08361 0 0 0 175 162 152 255
3.58092 1.00291 3.85815 0 0 0 125 110 85 255
3.77413 1.05 3.72231 0 0 0 116 93 82 255
2.34949 0.844903 4.29731 0 0 0 179 160 148 255
2.37488 0.862824 4.28218 0 0 0 155 156 146 255
3.71386 1.06101 3.75363 0 0 0 113 106 97 255
3.85578 1.08514 3.63495 0 0 0 128 111 94 255
3.94288 1.09945 3.60235 0 0 0 38 35 41 255
3.97489 1.10195 3.58756 0 0 0 116 105 93 255
3.91564 1.12389 3.60707 0 0 0 117 109 97 255
4.12415 1.15079 3.54336 0 0 0 23 50 84 255
4.04445 1.17705 3.49358 0 0 0 135 139 119 255
3.67899 1.13546 3.77552 0 0 0 123 134 144 255
3.72178 1.15602 3.74636 0 0 0 141 152 164 255
3.7384 1.16071 3.7391 0 0 0 118 130 141 255
3.82469 1.19837 3.68993 0 0 0 119 128 139 255
3.0696 1.16896 4.04797 0 0 0 143 90 65 255
1.95264 1.01496 4.456 0 0 0 40 36 30 255
3.04715 1.26358 4.06107 0 0 0 114 132 145 255
2.22015 1.16251 4.4587 0 0 0 148 109 86 255
3.11686 1.29691 4.07825 0 0 0 88 83 60 255
3.95901 1.39864 3.57795 0 0 0 130 121 104 255
2.25518 1.18325 4.35221 0 0 0 170 133 107 255
2.79531 1.24877 4.12805 0 0 0 121 162 176 255
3.00045 1.31657 4.15042 0 0 0 70 71 59 255
3.76969 1.41491 3.7027 0 0 0 145 129 93 255
4.18926 1.48481 3.67419 0 0 0 92 100 115 255
3.96677 1.44538 3.55878 0 0 0 28 35 51 255
1.78658 1.0818 3.84812 0 0 0 161 192 212 255
2.47672 1.26149 4.26149 0 0 0 76 103 115 255
1.24425 1.03833 3.95823 0 0 0 133 146 147 255
1.76016 1.12196 3.81258 0 0 0 15 81 126 255
2.95018 1.3651 4.03357 0 0 0 49 46 49 255
3.55118 1.47146 3.86873 0 0 0 160 131 93 255
1.9245 1.26587 4.49089 0 0 0 127 132 140 255
2.88939 1.37945 4.06566 0 0 0 99 132 152 255
1.95981 1.28361 4.53355 0 0 0 50 44 49 255
2.55914 1.36047 4.22533 0 0 0 117 116 107 255
3.7866 1.59255 3.69492 0 0 0 141 113 91 255
4.16192 1.6722 3.69817 0 0 0 49 51 66 255
4.31644 1.73703 3.85674 0 0 0 166 205 226 255
3.58453 1.59437 3.82073 0 0 0 145 110 85 255
1.58573 1.20114 3.65094 0 0 0 3 92 141 255
5.14275 2.09174 4.93471 0 0 0 106 142 169 255
1.64777 1.26755 3.67532 0 0 0 123 156 170 255
3.76267 1.72276 3.72286 0 0 0 110 114 79 255
4.24597 1.83781 3.81325 0 0 0 163 208 227 255
2.90834 1.63959 4.24381 0 0 0 142 162 176 255
4.24235 1.85627 3.80839 0 0 0 167 213 230 255
2.04864 1.54881 4.50313 0 0 0 136 145 156 255
4.08916 1.8602 3.74602 0 0 0 113 124 92 255
3.56185 1.78213 3.89582 0 0 0 161 137 92 255
3.67143 1.83332 3.83864 0 0 0 119 107 72 255
1.94696 1.62583 4.57752 0 0 0 111 112 115 255
4.23321 1.95852 3.84468 0 0 0 153 185 197 255
1.59045 1.42214 3.71738 0 0 0 176 209 220 255
4.13283 1.96635 3.75752 0 0 0 32 54 70 255
4.11507 2.00897 3.77388 0 0 0 89 108 116 255
3.89584 1.97096 3.68107 0 0 0 84 106 96 255
2.70106 1.83847 4.24194 0 0 0 145 122 121 255
1.45823 1.52709 3.70087 0 0 0 182 201 211 255
3.85434 2.10586 3.68243 0 0 0 61 90 92 255
1.21105 1.57891 3.8775 0 0 0 58 90 98 255
1.84716 1.90334 4.51 0 0 0 119 108 109 255
3.45878 2.21337 4.11664 0 0 0 71 98 118 255
3.52891 2.22105 4.01551 0 0 0 31 46 40 255
3.59707 2.24123 3.98492 0 0 0 140 127 108 255
4.14234 2.36638 3.86796 0 0 0 209 243 250 255
3.56527 2.28366 3.94918 0 0 0 61 40 41 255
4.05346 2.35893 3.80733 0 0 0 62 105 107 255
1.6374 1.82217 3.84196 0 0 0 155 148 157 255
1.23633 1.77949 3.91054 0 0 0 145 170 192 255
1.2719 1.75063 3.83118 0 0 0 151 177 199 255
1.19553 1.8436 4.04067 0 0 0 27 104 145 255
3.83523 2.41354 3.61141 0 0 0 66 89 98 255
2.16869 2.14973 3.97957 0 0 0 96 63 46 255
2.33589 2.18001 3.91104 0 0 0 50 96 125 255
2.11381 2.16511 3.83757 0 0 0 112 119 135 255
3.32013 2.39516 3.5394 0 0 0 71 118 148 255
2.21082 2.24664 3.86509 0 0 0 149 174 194 255
2.33724 2.23803 3.72042 0 0 0 167 211 237 255
3.43255 2.4334 3.42984 0 0 0 59 174 219 255
2.65516 2.29084 3.55613 0 0 0 54 61 77 255
3.08546 2.40739 3.40812 0 0 0 104 153 180 255
2.87936 2.44014 3.20874 0 0 0 61 113 141 255
2.8833 2.47602 3.08039 0 0 0 13 99 140 255
2.93769 2.49325 3.01098 0 0 0 112 180 219 255
3.06051 2.52756 2.99398 0 0 0 6 137 185 255
2.99078 2.51901 2.93135 0 0 0 156 204 236 255
2.97774 2.53672 2.89423 0 0 0 19 154 205 255
2.77392 2.51883 2.909 0 0 0 69 124 154 255
2.75658 2.52171 2.88339 0 0 0 111 150 183 255
2.06058 2.42247 3.04519 0 0 0 71 74 82 255
2.76841 2.53054 2.81787 0 0 0 112 169 199 255
2.75296 2.53516 2.76701 0 0 0 191 218 244 255
3.48325 0.285656 4.44059 0 0 0 106 107 114 255
3.6286 -0.0817543 8.15999 0 0 0 164 190 203 255
3.20055 -0.13667 8.12192 0 0 0 177 199 215 255
4.49151 -0.0596478 8.93632 0 0 0 69 77 84 255
3.99283 0.467722 3.98651 0 0 0 173 80 102 255
3.92204 0.528389 3.5677 0 0 0 111 118 117 255
4.18279 0.584609 3.56129 0 0 0 124 137 148 255
3.87712 0.601985 3.61381 0 0 0 15 68 104 255
3.70126 0.648123 3.80359 0 0 0 114 124 130 255
1.55377 0.344613 4.38832 0 0 0 128 116 112 255
4.07738 0.812239 3.39103 0 0 0 17 28 35 255
3.15491 0.718984 3.98064 0 0 0 44 13 6 255
1.34309 0.472263 4.25254 0 0 0 107 96 86 255
4.06495 0.925938 3.43089 0 0 0 18 26 31 255
3.26348 0.849627 4.10404 0 0 0 26 35 36 255
3.49752 0.916488 3.94943 0 0 0 83 55 35 255
3.71515 0.962685 3.7574 0 0 0 125 111 92 255
3.82588 0.975953 3.67969 0 0 0 108 92 65 255
3.92105 1.0094 3.6096 0 0 0 84 70 61 255
2.35197 0.830117 4.30487 0 0 0 161 157 140 255
3.77072 1.06924 3.72128 0 0 0 129 106 91 255
1.24807 0.714712 4.32458 0 0 0 156 146 145 255
3.92395 1.13213 3.60158 0 0 0 104 93 83 255
4.04445 1.17705 3.49358 0 0 0 135 139 119 255
3.8146 1.19044 3.69188 0 0 0 127 141 151 255
4.05747 1.26674 3.51357 0 0 0 32 52 68 255
2.00986 1.0529 4.49989 0 0 0 36 69 81 255
3.05006 1.27427 4.12956 0 0 0 119 139 151 255
1.85022 1.07936 3.98529 0 0 0 61 64 85 255
2.80085 1.2464 4.12498 0 0 0 121 162 176 255
3.01275 1.28617 4.11932 0 0 0 118 128 130 255
3.45104 1.37316 4.03449 0 0 0 157 122 84 255
1.7377 1.14121 3.78782 0 0 0 7 81 150 255
1.74929 1.15193 3.81539 0 0 0 6 80 149 255
4.29353 1.71816 3.82525 0 0 0 160 202 220 255
3.58228 1.59115 3.82616 0 0 0 141 106 81 255
3.7836 1.59894 3.69383 0 0 0 143 117 93 255
1.40857 1.18945 3.74017 0 0 0 150 167 158 255
2.64169 1.50325 4.24206 0 0 0 133 149 137 255
2.43642 1.49955 4.30232 0 0 0 88 108 120 255
4.21804 1.82294 3.78962 0 0 0 137 179 201 255
3.93454 1.79774 3.5837 0 0 0 141 127 94 255
3.66596 1.83215 3.83852 0 0 0 119 107 72 255
3.57575 1.83765 3.84333 0 0 0 126 99 56 255
4.14213 1.95712 3.75542 0 0 0 65 90 103 255
1.31615 1.36951 3.72391 0 0 0 83 159 195 255
1.04369 1.46673 4.42703 0 0 0 45 34 42 255
1.43882 1.46958 3.70795 0 0 0 152 174 188 255
3.06762 2.03622 4.31075 0 0 0 37 30 33 255
1.86388 1.92041 4.54323 0 0 0 122 110 112 255
1.30904 1.66166 3.80799 0 0 0 176 181 202 255
3.36274 2.18325 4.0909 0 0 0 20 85 94 255
1.61995 1.78546 3.84377 0 0 0 169 163 159 255
1.72734 1.84911 3.97686 0 0 0 139 169 191 255
4.14702 2.36605 3.86587 0 0 0 211 240 249 255
3.56767 2.29096 3.95706 0 0 0 61 40 41 255
2.46811 2.13563 4.23011 0 0 0 84 95 108 255
1.4791 1.81864 3.77431 0 0 0 132 163 156 255
2.52215 2.12999 4.07866 0 0 0 168 190 208 255
3.78999 2.33612 3.76403 0 0 0 153 144 116 255
3.89659 2.35931 3.66879 0 0 0 51 90 89 255
2.5878 2.13188 3.96244 0 0 0 99 155 189 255
1.19281 1.84513 4.00943 0 0 0 26 104 145 255
3.85668 2.42333 3.67075 0 0 0 61 77 89 255
1.22305 1.93797 3.89909 0 0 0 38 108 151 255
2.82928 2.26805 3.72362 0 0 0 78 109 132 255
3.18559 2.35068 3.65338 0 0 0 88 102 114 255
1.7061 2.10361 4.00781 0 0 0 206 229 236 255
3.41963 2.43703 3.42883 0 0 0 54 171 218 255
3.22601 2.41185 3.44 0 0 0 39 114 152 255
2.64523 2.30887 3.52705 0 0 0 57 59 80 255
2.08246 2.26131 3.6025 0 0 0 142 189 222 255
2.58402 2.3988 3.33327 0 0 0 51 76 89 255
1.13568 2.1493 3.55666 0 0 0 43 54 65 255
1.19474 2.18204 3.4721 0 0 0 36 47 60 255
2.89845 2.49184 3.03564 0 0 0 110 176 204 255
2.92199 2.49833 3.01275 0 0 0 102 157 189 255
2.38798 2.43172 3.15321 0 0 0 153 180 201 255
2.16337 2.40935 3.13978 0 0 0 167 150 139 255
2.66351 2.49945 2.90296 0 0 0 79 103 131 255
1.95192 2.41431 3.08956 0 0 0 67 95 128 255
3.24011 -0.121959 8.20997 0 0 0 174 196 210 255
3.69075 0.641154 3.80548 0 0 0 65 75 81 255
3.8143 0.759628 3.70677 0 0 0 119 96 65 255
3.33357 0.789027 4.09362 0 0 0 96 73 39 255
3.59137 0.923289 3.86092 0 0 0 125 103 76 255
3.49659 0.920946 3.94337 0 0 0 106 81 57 255
3.95077 1.00509 3.5943 0 0 0 71 57 43 255
3.44316 1.03024 3.98791 0 0 0 127 137 143 255
3.90777 1.10958 3.62075 0 0 0 113 98 87 255
3.64354 1.10965 3.81811 0 0 0 127 137 143 255
1.72536 0.849235 4.32013 0 0 0 36 35 38 255
1.76204 0.959557 3.9363 0 0 0 213 218 230 255
2.95795 1.19946 4.12752 0 0 0 59 57 58 255
2.90779 1.19483 4.13137 0 0 0 84 106 121 255
3.44532 1.34291 4.02684 0 0 0 158 102 78 255
2.53563 1.21956 4.24931 0 0 0 65 87 101 255
2.69637 1.23428 4.18488 0 0 0 47 76 92 255
3.76292 1.42122 3.70195 0 0 0 134 117 80 255
2.97522 1.34367 4.02376 0 0 0 39 42 51 255
3.40693 1.44356 4.06416 0 0 0 54 41 37 255
1.27308 1.01842 3.85865 0 0 0 162 177 184 255
2.14583 1.26484 4.41075 0 0 0 48 46 47 255
1.02004 1.04858 4.20571 0 0 0 43 36 34 255
3.5267 1.47829 3.88281 0 0 0 150 130 83 255
1.72448 1.15227 3.76764 0 0 0 4 83 152 255
2.38532 1.38961 4.31223 0 0 0 62 58 67 255
1.96624 1.35607 4.58144 0 0 0 37 37 47 255
1.33756 1.18434 3.77925 0 0 0 180 175 130 255
3.7619 1.6321 3.70692 0 0 0 109 112 79 255
1.29558 1.21564 3.78248 0 0 0 149 139 114 255
2.42378 1.57071 4.32281 0 0 0 112 134 146 255
2.89308 1.59168 4.1117 0 0 0 143 164 185 255
3.33056 1.72331 4.23101 0 0 0 100 76 69 255
3.53038 1.70136 3.92992 0 0 0 153 118 65 255
1.38484 1.29139 3.70212 0 0 0 47 109 133 255
1.17437 1.4077 4.20975 0 0 0 40 29 38 255
2.41017 1.65479 4.32471 0 0 0 156 176 190 255
1.5947 1.42269 3.71868 0 0 0 176 209 220 255
0.998558 1.43235 4.40169 0 0 0 49 42 42 255
2.92159 1.81016 4.25297 0 0 0 48 45 51 255
3.72869 1.90966 3.76615 0 0 0 56 97 80 255
1.24762 1.44337 3.85435 0 0 0 8 61 108 255
3.33291 1.95092 4.19925 0 0 0 97 78 84 255
3.37022 1.97227 4.16052 0 0 0 95 84 68 255
1.49204 1.52586 3.71123 0 0 0 14 68 121 255
3.86771 2.12733 3.68382 0 0 0 54 99 93 255
1.20869 1.60675 3.90409 0 0 0 27 79 104 255
1.27332 1.62082 3.81149 0 0 0 9 75 122 255
1.31124 1.65521 3.80733 0 0 0 167 180 195 255
3.60359 2.22768 3.92134 0 0 0 134 137 100 255
1.30404 1.72113 3.82099 0 0 0 44 121 171 255
3.48811 2.257 4.03563 0 0 0 39 75 60 255
1.60876 1.80185 3.83895 0 0 0 194 185 179 255
3.58418 2.28089 3.90802 0 0 0 36 48 53 255
1.15154 1.78869 4.05155 0 0 0 72 73 78 255
3.79912 2.34993 3.75873 0 0 0 135 113 84 255
0.958946 1.86105 4.45938 0 0 0 99 87 94 255
1.52206 1.80039 3.79303 0 0 0 157 172 150 255
1.65789 1.99512 3.97742 0 0 0 90 134 159 255
2.18764 2.15217 3.97958 0 0 0 72 61 68 255
2.06136 2.17642 3.80416 0 0 0 146 150 146 255
2.11796 2.18599 3.7569 0 0 0 61 70 84 255
3.01674 2.37169 3.6041 0 0 0 60 90 113 255
3.25596 2.40276 3.4942 0 0 0 63 124 159 255
3.42094 2.4735 3.44424 0 0 0 36 169 215 255
1.52997 2.16967 3.81719 0 0 0 224 246 250 255
2.10406 2.24853 3.64137 0 0 0 112 168 205 255
2.17742 2.26039 3.56536 0 0 0 182 211 237 255
2.59537 2.36327 3.46263 0 0 0 148 163 181 255
2.86865 2.48107 3.08106 0 0 0 19 98 137 255
1.32529 2.27382 3.35327 0 0 0 54 68 80 255
3.59072 1.10429 3.85315 0 0 0 39 48 59 255
1.90565 0.888076 4.62469 0 0 0 34 30 43 255
3.79101 1.18016 3.71067 0 0 0 86 104 112 255
1.3574 0.938946 4.02958 0 0 0 230 244 249 255
2.45268 1.1556 4.27517 0 0 0 142 165 174 255
2.91546 1.2222 4.16468 0 0 0 46 65 86 255
1.7599 1.03418 3.89895 0 0 0 226 253 255 255
2.34332 1.18023 4.31327 0 0 0 57 62 68 255
2.65427 1.25434 4.19433 0 0 0 90 110 115 255
3.74054 1.44576 3.73338 0 0 0 92 92 58 255
3.473 1.44495 4.01066 0 0 0 159 130 69 255
1.68023 1.0922 3.65384 0 0 0 165 199 217 255
3.01931 1.49135 4.15998 0 0 0 51 113 140 255
1.52791 1.18633 3.67007 0 0 0 0 92 146 255
2.95161 1.56749 4.06865 0 0 0 122 157 180 255
1.56801 1.24641 3.65657 0 0 0 144 176 188 255
1.28912 1.25312 3.78141 0 0 0 140 129 120 255
2.36831 1.58567 4.34256 0 0 0 141 164 175 255
3.32507 1.69528 4.2349 0 0 0 65 59 56 255
3.57083 1.83077 3.85483 0 0 0 116 85 42 255
0.984049 1.39542 4.42054 0 0 0 89 73 70 255
1.63914 1.45094 3.74664 0 0 0 176 198 211 255
1.28318 1.50531 3.79192 0 0 0 158 177 190 255
1.88566 1.95018 4.5317 0 0 0 152 154 159 255
3.14095 2.17984 4.35601 0 0 0 136 152 163 255
1.98171 2.01643 4.30413 0 0 0 193 212 222 255
1.54187 1.78487 3.80087 0 0 0 186 197 179 255
1.08057 1.9101 4.26338 0 0 0 213 229 233 255
1.21682 1.90995 3.93619 0 0 0 3 94 148 255
1.49536 1.95905 3.78912 0 0 0 4 91 158 255
2.91254 2.287 3.74849 0 0 0 109 73 83 255
1.3343 1.95606 3.76463 0 0 0 101 155 191 255
1.96011 2.13749 3.84861 0 0 0 222 211 145 255
2.11843 2.1759 3.78451 0 0 0 86 96 108 255
2.61907 2.25176 3.68518 0 0 0 75 91 124 255
2.12844 2.2006 3.77772 0 0 0 57 66 81 255
2.79955 2.34861 3.43412 0 0 0 92 180 219 255
1.43907 2.11393 3.78222 0 0 0 202 224 233 255
1.89514 2.24927 3.73922 0 0 0 71 73 98 255
3.24464 0.347711 4.1602 0 0 0 91 113 107 255
3.18102 0.413246 3.90155 0 0 0 75 52 36 255
3.51583 0.640972 3.3831 0 0 0 35 45 49 255
3.52995 0.680348 3.3682 0 0 0 99 97 114 255
3.39219 0.634113 3.73353 0 0 0 55 45 41 255
3.4264 0.637994 3.80641 0 0 0 110 99 92 255
3.4619 0.651918 3.77545 0 0 0 130 103 80 255
1.56558 0.350859 4.17919 0 0 0 139 126 121 255
3.46603 0.674634 3.56428 0 0 0 104 91 83 255
1.58539 0.363656 4.18773 0 0 0 120 107 102 255
3.55492 0.711545 3.41242 0 0 0 46 59 47 255
3.5634 0.728849 3.41268 0 0 0 22 15 12 255
3.59579 0.745009 3.3375 0 0 0 40 20 16 255
1.17238 0.33588 4.33598 0 0 0 132 113 103 255
1.37555 0.372782 4.21111 0 0 0 179 153 143 255
3.25653 0.662217 4.10099 0 0 0 61 66 62 255
1.2178 0.35565 4.28506 0 0 0 186 169 162 255
1.19338 0.353482 4.36144 0 0 0 184 164 157 255
3.41636 0.768419 3.84438 0 0 0 109 100 94 255
3.4133 0.781112 3.71572 0 0 0 113 101 94 255
3.43246 0.781066 3.66293 0 0 0 102 79 47 255
3.27241 0.758113 4.05846 0 0 0 107 104 80 255
3.29515 0.759297 4.02276 0 0 0 37 40 30 255
3.34125 0.781856 4.00187 0 0 0 110 94 81 255
3.29805 0.785161 4.06959 0 0 0 63 42 11 255
3.34866 0.805727 3.97469 0 0 0 53 29 9 255
3.39365 0.825887 3.82825 0 0 0 32 19 12 255
2.38708 0.652963 4.25473 0 0 0 139 111 86 255
2.62113 0.700883 4.16735 0 0 0 157 122 95 255
3.28224 0.813161 4.02713 0 0 0 57 35 29 255
3.35442 0.835773 3.99561 0 0 0 49 26 2 255
3.42493 0.856382 3.76033 0 0 0 51 32 15 255
3.46824 0.87372 3.67353 0 0 0 71 58 51 255
3.29324 0.852809 4.09083 0 0 0 55 34 3 255
3.3505 0.876155 4.01604 0 0 0 73 47 17 255
3.31934 0.911814 3.99456 0 0 0 130 117 83 255
3.41212 0.931523 3.9041 0 0 0 28 20 30 255
3.35681 0.928765 3.94836 0 0 0 117 91 76 255
3.42104 0.942524 3.79733 0 0 0 50 32 19 255
3.56868 0.970607 3.53949 0 0 0 138 109 83 255
1.11659 0.559097 4.32608 0 0 0 179 161 156 255
3.50206 0.971509 3.64846 0 0 0 45 37 24 255
3.51799 1.00228 3.63419 0 0 0 103 84 70 255
1.21514 0.617572 4.2877 0 0 0 125 109 101 255
3.43157 1.00678 3.94395 0 0 0 120 128 135 255
3.54793 1.01839 3.59286 0 0 0 105 97 82 255
3.7399 1.04743 3.18631 0 0 0 92 90 89 255
3.42893 1.04242 3.89414 0 0 0 22 30 38 255
3.46668 1.0532 3.78015 0 0 0 108 115 121 255
3.73748 1.09506 3.17713 0 0 0 126 116 98 255
3.41412 1.05421 3.92849 0 0 0 99 107 116 255
3.43857 1.06293 3.87675 0 0 0 109 117 124 255
3.5107 1.06673 3.79502 0 0 0 106 117 124 255
3.44279 1.0659 3.82421 0 0 0 125 134 136 255
3.46189 1.07671 3.77962 0 0 0 115 123 129 255
3.50232 1.0818 3.83111 0 0 0 57 67 73 255
1.29619 0.714384 4.29309 0 0 0 140 135 126 255
3.51234 1.09368 3.80755 0 0 0 103 115 121 255
3.63543 1.14318 3.48405 0 0 0 35 54 58 255
1.0918 0.731644 4.28619 0 0 0 122 116 109 255
3.65132 1.16658 3.33434 0 0 0 124 138 145 255
1.91758 0.9315 4.5757 0 0 0 96 93 97 255
3.23612 1.19543 4.30182 0 0 0 69 64 63 255
1.94663 0.989738 4.73219 0 0 0 114 103 105 255
3.39035 1.22896 4.10397 0 0 0 49 56 68 255
1.94538 1.01702 4.78248 0 0 0 41 36 38 255
3.1369 1.21097 4.24569 0 0 0 129 97 66 255
3.41592 1.2596 4.04089 0 0 0 96 83 82 255
1.937 1.0593 4.68083 0 0 0 122 123 126 255
1.92733 1.10593 4.637 0 0 0 161 158 164 255
1.9245 1.12297 4.64592 0 0 0 52 61 72 255
2.62184 1.24678 4.3693 0 0 0 83 111 123 255
1.92011 1.1604 4.61237 0 0 0 43 47 49 255
2.98156 1.40807 4.15608 0 0 0 86 87 92 255
3.54914 1.50779 3.87462 0 0 0 96 65 39 255
4.01951 1.56259 3.42829 0 0 0 48 64 71 255
3.90019 1.53999 3.33323 0 0 0 26 56 52 255
1.80266 1.21042 3.85396 0 0 0 32 49 66 255
2.71991 1.46001 4.31318 0 0 0 79 111 108 255
1.60391 1.14807 3.5875 0 0 0 11 94 139 255
1.79922 1.22332 3.85776 0 0 0 30 46 65 255
1.52318 1.1955 3.62467 0 0 0 41 110 165 255
1.77475 1.27312 3.82824 0 0 0 103 146 188 255
1.19277 1.19151 3.98476 0 0 0 46 39 38 255
3.54875 1.74914 3.90603 0 0 0 98 73 29 255
3.9379 1.77112 3.486 0 0 0 24 62 82 255
3.79696 1.73302 3.36918 0 0 0 126 95 85 255
3.93592 1.82177 3.50024 0 0 0 57 77 59 255
3.63916 1.87047 3.76416 0 0 0 66 104 89 255
3.91125 1.95333 3.51872 0 0 0 38 62 82 255
1.19149 1.41806 3.97542 0 0 0 103 96 108 255
0.959125 1.49426 4.67972 0 0 0 95 92 91 255
2.20387 1.78761 4.67434 0 0 0 157 144 152 255
1.84798 1.76866 4.85272 0 0 0 70 61 59 255
3.91713 2.00242 3.54042 0 0 0 44 67 62 255
1.66234 1.55393 3.80336 0 0 0 109 134 159 255
3.117 2.12926 4.58701 0 0 0 72 38 34 255
1.59158 1.58744 3.75539 0 0 0 111 131 149 255
1.83291 1.99981 4.76675 0 0 0 87 73 75 255
1.54488 1.69185 3.75629 0 0 0 158 187 210 255
1.74667 1.8671 4.23926 0 0 0 77 74 84 255
3.98129 2.29815 3.67859 0 0 0 75 97 99 255
3.94621 2.30477 3.66957 0 0 0 162 190 189 255
1.25439 1.69371 3.85749 0 0 0 38 129 164 255
2.51229 2.1789 4.3452 0 0 0 172 182 192 255
1.27361 1.73149 3.82016 0 0 0 132 154 184 255
2.34035 2.16907 4.31952 0 0 0 72 60 64 255
2.59735 2.21142 4.23733 0 0 0 168 197 223 255
1.31104 1.76737 3.77469 0 0 0 78 125 150 255
1.49414 1.8626 3.80926 0 0 0 90 139 165 255
1.6134 1.98452 3.93342 0 0 0 39 99 136 255
2.88742 2.32934 3.80252 0 0 0 114 153 178 255
3.11298 2.37546 3.58042 0 0 0 138 160 179 255
3.05318 2.37647 3.61414 0 0 0 103 147 169 255
3.30574 2.41298 3.50037 0 0 0 68 140 171 255
3.44732 2.4196 3.41235 0 0 0 115 175 192 255
3.24034 2.41252 3.41768 0 0 0 62 144 178 255
3.23382 2.42608 3.39858 0 0 0 32 120 154 255
3.12308 2.41083 3.37898 0 0 0 28 85 120 255
3.16784 2.42833 3.38486 0 0 0 49 116 154 255
3.11398 2.42623 3.35804 0 0 0 100 165 200 255
1.9582 2.27731 3.77567 0 0 0 58 71 79 255
1.93271 2.2783 3.75582 0 0 0 114 114 128 255
2.97453 2.44607 3.25339 0 0 0 140 169 182 255
2.91965 2.44403 3.24306 0 0 0 145 169 186 255
2.88718 2.45168 3.17927 0 0 0 170 207 225 255
2.81841 2.4541 3.19698 0 0 0 90 137 173 255
2.85845 2.46805 3.16805 0 0 0 143 178 197 255
2.89364 2.5 2.94685 0 0 0 148 202 223 255
2.26088 2.40188 3.17319 0 0 0 133 112 112 255
1.42364 2.32335 3.33593 0 0 0 99 110 121 255
2.10404 2.46313 2.94661 0 0 0 108 105 111 255
2.2631 2.48755 2.87682 0 0 0 71 112 137 255
2.77441 2.55095 2.65515 0 0 0 164 207 243 255
2.23245 2.48407 2.87316 0 0 0 74 89 105 255
2.66182 2.54654 2.70756 0 0 0 167 199 216 255
3.23415 0.354472 4.1253 0 0 0 91 113 107 255
3.51418 0.633596 3.39232 0 0 0 35 45 49 255
1.64259 0.363714 4.14456 0 0 0 151 140 137 255
3.46515 0.676467 3.56575 0 0 0 105 86 72 255
3.55473 0.711532 3.41203 0 0 0 46 59 47 255
1.17075 0.328771 4.39273 0 0 0 132 113 104 255
3.56149 0.74254 3.41332 0 0 0 23 18 21 255
1.21545 0.366406 4.26711 0 0 0 189 172 164 255
1.63238 0.445407 4.22056 0 0 0 129 113 107 255
3.38442 0.762932 3.76318 0 0 0 109 100 94 255
3.45933 0.797696 3.61933 0 0 0 111 92 76 255
3.61184 0.836416 3.32829 0 0 0 51 29 9 255
3.2864 0.763499 4.10201 0 0 0 106 103 79 255
3.28238 0.796732 4.02717 0 0 0 61 38 8 255
3.42364 0.829524 3.75202 0 0 0 28 20 26 255
3.31731 0.814814 4.06543 0 0 0 120 96 73 255
3.34888 0.825262 3.98959 0 0 0 81 56 28 255
3.3894 0.844115 3.8276 0 0 0 34 28 33 255
2.98688 0.790628 3.95829 0 0 0 180 147 128 255
3.48319 0.869435 3.79784 0 0 0 36 23 20 255
3.28004 0.858564 4.05344 0 0 0 51 34 3 255
1.42679 0.577416 4.26501 0 0 0 184 172 164 255
3.32652 0.901612 3.99211 0 0 0 112 94 61 255
3.40975 0.918071 3.90526 0 0 0 22 23 36 255
3.32084 0.90394 3.99361 0 0 0 129 114 78 255
3.35382 0.92604 3.94825 0 0 0 117 91 76 255
3.50396 0.965134 3.64068 0 0 0 48 36 28 255
