ply
format ascii 1.0
comment VCGLIB generated
element vertex 1065
property float x
property float y
property float z
property float nx
property float ny
property float nz
property uchar red
property uchar green
property uchar blue
property uchar alpha
element face 0
property list uchar int vertex_indices
end_header
1.41449 1.61888 3.72622 0 0 0 179 191 201 255
3.40842 1.9993 4.13301 0 0 0 95 81 65 255
0.512706 1.57016 3.88855 0 0 0 18 36 53 255
1.49005 1.64476 3.7195 0 0 0 162 197 224 255
1.61514 1.68336 3.78837 0 0 0 60 97 120 255
0.567336 1.57476 3.77959 0 0 0 20 45 76 255
1.30248 1.64294 3.77857 0 0 0 173 189 200 255
1.55841 1.68012 3.75007 0 0 0 183 194 207 255
1.6671 1.70799 3.83038 0 0 0 35 88 137 255
1.76166 1.78344 4.00966 0 0 0 141 148 164 255
3.46328 2.01874 4.0837 0 0 0 84 77 75 255
3.55297 2.02356 3.99149 0 0 0 95 84 68 255
1.4079 1.66284 3.71484 0 0 0 179 190 198 255
1.64037 1.76186 3.83831 0 0 0 121 143 168 255
0.485048 1.4733 3.32285 0 0 0 165 161 155 255
0.508425 1.49782 3.38576 0 0 0 125 121 114 255
0.646198 1.81978 4.49801 0 0 0 49 57 47 255
3.04158 2.07444 4.23359 0 0 0 127 133 121 255
1.12247 1.85136 4.29813 0 0 0 89 88 85 255
2.11686 2.02005 4.33439 0 0 0 78 75 81 255
1.14706 1.84327 4.11717 0 0 0 222 235 239 255
2.97911 2.1485 4.26834 0 0 0 138 88 82 255
1.37987 1.78464 3.7726 0 0 0 137 161 180 255
1.61062 1.83011 3.80739 0 0 0 158 161 169 255
1.46469 1.80322 3.74723 0 0 0 155 180 174 255
3.37144 2.23056 4.24352 0 0 0 112 118 114 255
0.716645 1.71361 3.70919 0 0 0 203 212 216 255
3.45168 2.24731 4.06822 0 0 0 58 67 68 255
1.29563 1.84214 3.80603 0 0 0 130 133 142 255
1.53774 1.87669 3.79028 0 0 0 120 152 169 255
1.68475 1.94802 3.92825 0 0 0 45 87 128 255
1.40365 1.85821 3.74678 0 0 0 136 132 123 255
1.43077 1.86639 3.75681 0 0 0 140 141 135 255
2.62046 2.1772 4.11588 0 0 0 108 145 167 255
2.3154 2.15081 4.11154 0 0 0 138 163 179 255
0.622379 1.66234 3.32765 0 0 0 131 76 95 255
2.73806 2.22048 4.03319 0 0 0 44 65 100 255
0.647648 1.70296 3.35776 0 0 0 33 93 92 255
0.730618 1.75427 3.51168 0 0 0 39 79 91 255
2.38489 2.16666 3.94871 0 0 0 160 185 207 255
0.588017 1.67697 3.28068 0 0 0 184 204 207 255
2.44373 2.18647 4.01278 0 0 0 182 194 216 255
2.2248 2.17039 3.97809 0 0 0 165 165 173 255
2.36815 2.20626 3.97533 0 0 0 57 98 119 255
2.29495 2.19008 3.88996 0 0 0 173 190 217 255
0.700841 1.79208 3.41668 0 0 0 31 102 114 255
2.07381 2.16285 3.84687 0 0 0 119 105 92 255
2.28772 2.20272 3.8498 0 0 0 140 156 181 255
2.31624 2.19485 3.81729 0 0 0 180 202 223 255
3.00576 2.30476 3.79984 0 0 0 86 102 125 255
2.0924 2.17756 3.85115 0 0 0 70 69 61 255
2.22112 2.21168 3.82143 0 0 0 161 184 201 255
2.88135 2.29327 3.81222 0 0 0 104 122 146 255
2.01915 2.19734 3.82935 0 0 0 96 89 60 255
2.05337 2.21111 3.82559 0 0 0 179 178 171 255
2.36982 2.22271 3.74648 0 0 0 147 181 209 255
3.00683 2.32722 3.74805 0 0 0 118 180 212 255
0.676968 1.8471 3.39493 0 0 0 96 142 151 255
2.74519 2.30576 3.77535 0 0 0 130 143 167 255
3.08628 2.32677 3.70806 0 0 0 124 155 174 255
2.82288 2.33117 3.73892 0 0 0 129 161 183 255
0.680088 1.87529 3.41938 0 0 0 104 142 151 255
2.98571 2.3522 3.7051 0 0 0 33 107 144 255
2.2319 2.24362 3.6781 0 0 0 45 67 90 255
0.705311 1.96109 3.49314 0 0 0 29 48 53 255
2.45289 2.3287 3.59502 0 0 0 156 103 121 255
3.05764 2.39152 3.53569 0 0 0 137 162 184 255
2.2284 2.28502 3.55668 0 0 0 175 198 229 255
2.94244 2.38675 3.52329 0 0 0 70 84 107 255
2.99884 2.39279 3.49062 0 0 0 119 151 179 255
2.53025 2.34312 3.53138 0 0 0 140 153 170 255
2.19206 2.31207 3.50949 0 0 0 177 207 228 255
2.15976 2.31985 3.48199 0 0 0 103 121 149 255
2.57552 2.38623 3.47266 0 0 0 133 148 167 255
1.35128 2.23336 3.5412 0 0 0 77 87 93 255
2.60118 2.38846 3.42199 0 0 0 120 163 176 255
2.83902 2.40604 3.39667 0 0 0 139 151 163 255
3.0586 2.38144 3.24643 0 0 0 127 176 208 255
1.2066 2.22656 3.56434 0 0 0 51 63 73 255
2.6309 2.39441 3.39675 0 0 0 74 78 109 255
2.63153 2.41815 3.34968 0 0 0 110 146 176 255
2.77284 2.41741 3.32195 0 0 0 164 176 190 255
2.84038 2.43832 3.29774 0 0 0 129 148 168 255
2.59929 2.42191 3.31501 0 0 0 156 170 196 255
2.72804 2.42692 3.29373 0 0 0 78 99 127 255
1.69493 2.32101 3.41485 0 0 0 170 179 190 255
2.34009 2.39044 3.31796 0 0 0 135 115 97 255
2.45368 2.4062 3.31086 0 0 0 136 105 90 255
2.96337 2.44933 3.24106 0 0 0 168 179 193 255
2.3459 2.40308 3.2959 0 0 0 164 127 91 255
2.58898 2.43246 3.27356 0 0 0 48 62 88 255
1.04904 2.24714 3.46383 0 0 0 212 224 230 255
1.33883 2.28485 3.40648 0 0 0 58 68 72 255
1.60562 2.31666 3.36469 0 0 0 76 87 114 255
2.55214 2.43819 3.26179 0 0 0 147 164 184 255
1.66556 2.3457 3.3484 0 0 0 86 138 161 255
2.51312 2.4412 3.21563 0 0 0 132 144 166 255
2.82166 2.41712 3.07416 0 0 0 196 211 229 255
0.93248 2.2469 3.36186 0 0 0 215 224 229 255
1.20409 2.27051 3.32746 0 0 0 220 228 233 255
1.79459 2.37434 3.31628 0 0 0 176 204 236 255
1.8599 2.37088 3.27505 0 0 0 194 217 247 255
0.908844 2.27536 3.3666 0 0 0 53 58 66 255
0.972216 2.26205 3.33299 0 0 0 86 94 100 255
1.16171 2.30936 3.3545 0 0 0 59 67 74 255
2.41484 2.45184 3.20131 0 0 0 158 174 189 255
2.49148 2.46051 3.18921 0 0 0 50 65 99 255
1.23116 2.29504 3.30061 0 0 0 72 80 87 255
2.37053 2.44996 3.16157 0 0 0 166 188 207 255
2.21015 2.44475 3.10307 0 0 0 178 155 144 255
1.07407 2.33022 3.20981 0 0 0 206 223 227 255
1.26757 2.3433 3.20344 0 0 0 210 225 230 255
1.3401 2.35393 3.19392 0 0 0 209 224 231 255
2.05637 2.45973 3.05467 0 0 0 156 145 134 255
2.10562 0.193558 4.60075 0 0 0 92 85 85 255
3.64904 0.380057 4.31086 0 0 0 151 156 153 255
3.25184 0.428846 4.13737 0 0 0 147 112 92 255
0.975109 0.240726 4.42721 0 0 0 188 178 166 255
1.02556 0.268889 4.40419 0 0 0 150 138 126 255
1.71217 0.36224 4.37001 0 0 0 134 111 105 255
3.24842 0.485697 4.07746 0 0 0 57 27 25 255
0.983901 0.402525 4.31849 0 0 0 155 140 123 255
1.28776 0.607697 4.31495 0 0 0 145 126 117 255
2.98793 0.800597 4.05557 0 0 0 177 155 142 255
2.33266 0.8042 4.31276 0 0 0 163 137 117 255
1.92872 0.791327 4.49277 0 0 0 184 170 157 255
2.96093 0.926588 4.07743 0 0 0 176 154 148 255
0.747057 0.767871 4.38834 0 0 0 183 172 167 255
1.89748 0.869422 4.39263 0 0 0 44 37 37 255
3.46971 1.05721 4.20372 0 0 0 106 109 120 255
0.675059 0.866724 4.44128 0 0 0 123 85 70 255
1.88395 0.972661 4.10118 0 0 0 77 48 39 255
0.93301 0.965269 4.42916 0 0 0 72 56 54 255
0.935095 0.985186 4.43928 0 0 0 58 45 37 255
3.42748 1.26689 4.19821 0 0 0 65 66 76 255
3.12405 1.24387 4.13087 0 0 0 40 38 51 255
0.516949 1.0412 4.42181 0 0 0 116 90 78 255
2.75541 1.29273 4.26041 0 0 0 59 78 86 255
3.09951 1.2952 4.1624 0 0 0 123 131 134 255
0.835218 1.10769 4.43371 0 0 0 97 75 67 255
2.94269 1.29373 4.16952 0 0 0 104 134 142 255
1.67984 1.11783 3.67116 0 0 0 18 81 126 255
2.62896 1.32155 4.28963 0 0 0 44 44 44 255
2.69833 1.35036 4.26685 0 0 0 127 119 114 255
2.76225 1.3254 4.24301 0 0 0 52 73 82 255
0.359375 1.12858 4.50872 0 0 0 72 76 78 255
0.74241 1.17713 4.48552 0 0 0 69 38 37 255
2.99335 1.34985 4.14201 0 0 0 53 39 39 255
2.92153 1.37954 4.16028 0 0 0 103 139 152 255
1.45938 1.20732 3.65381 0 0 0 20 86 118 255
2.46501 1.40117 4.26397 0 0 0 154 168 173 255
0.998769 1.2745 4.45939 0 0 0 116 96 87 255
1.29344 1.20199 3.79091 0 0 0 166 142 107 255
3.03542 1.46386 4.11989 0 0 0 137 144 151 255
1.11012 1.35642 4.45224 0 0 0 127 104 101 255
1.11626 1.37865 4.47457 0 0 0 126 104 96 255
1.26947 1.24817 3.80676 0 0 0 110 130 142 255
1.6144 1.2893 3.68868 0 0 0 170 191 198 255
1.08112 1.39207 4.41693 0 0 0 139 113 101 255
1.4042 1.30018 3.6659 0 0 0 23 107 142 255
2.06415 1.51904 4.48383 0 0 0 142 152 158 255
2.61955 1.57801 4.2385 0 0 0 43 47 49 255
0.968497 1.42113 4.43677 0 0 0 108 86 80 255
1.1653 1.4409 4.17374 0 0 0 121 96 90 255
2.62913 1.60774 4.23749 0 0 0 45 46 49 255
0.983086 1.46906 4.4191 0 0 0 118 99 97 255
1.6436 1.44516 3.75809 0 0 0 186 206 218 255
1.2173 1.4337 3.9123 0 0 0 25 67 101 255
1.33704 1.45656 3.72996 0 0 0 158 177 196 255
1.53704 1.47197 3.71316 0 0 0 191 204 217 255
1.67872 1.56243 3.8033 0 0 0 155 164 180 255
1.24442 1.52871 3.80856 0 0 0 169 174 186 255
1.64587 1.60521 3.79462 0 0 0 36 74 101 255
0.426983 1.6293 4.44534 0 0 0 47 44 49 255
1.62304 1.64448 3.78324 0 0 0 181 199 209 255
1.30579 1.63193 3.79443 0 0 0 173 191 201 255
0.528137 1.56385 3.82509 0 0 0 9 28 49 255
1.416 1.63042 3.72189 0 0 0 176 192 200 255
1.78062 1.80658 4.04521 0 0 0 153 147 154 255
1.22347 1.68873 3.87732 0 0 0 104 152 174 255
1.12827 1.83679 4.25964 0 0 0 86 76 77 255
3.35739 2.10963 4.17315 0 0 0 99 93 88 255
3.07494 2.10673 4.26473 0 0 0 137 147 139 255
1.47171 1.76896 3.76688 0 0 0 152 182 181 255
2.1121 2.01979 4.33079 0 0 0 110 107 113 255
1.13787 1.84744 4.11672 0 0 0 224 239 241 255
0.722904 1.71305 3.71993 0 0 0 199 208 213 255
3.47713 2.23234 4.13006 0 0 0 129 132 86 255
1.17507 1.90517 4.01468 0 0 0 71 104 132 255
3.47041 2.26832 4.10082 0 0 0 40 54 50 255
2.52017 2.11185 4.01708 0 0 0 178 192 202 255
2.28513 2.12805 4.04095 0 0 0 127 158 173 255
0.732365 1.75612 3.51294 0 0 0 39 79 91 255
2.18836 2.14113 3.99881 0 0 0 107 66 47 255
2.39164 2.16103 3.95202 0 0 0 167 187 203 255
0.588175 1.6704 3.28112 0 0 0 181 207 210 255
0.66474 1.7711 3.34838 0 0 0 45 74 86 255
0.691877 1.77971 3.41457 0 0 0 77 105 102 255
2.99482 2.28367 3.76721 0 0 0 95 98 117 255
1.99698 2.16085 3.88054 0 0 0 223 200 124 255
2.22895 2.23498 3.84295 0 0 0 158 181 198 255
2.48866 2.2395 3.76328 0 0 0 124 155 187 255
2.36559 2.24618 3.80475 0 0 0 175 213 245 255
2.73773 2.28997 3.74678 0 0 0 118 135 160 255
2.84333 2.31301 3.7338 0 0 0 138 157 188 255
3.0853 2.31706 3.67954 0 0 0 90 118 138 255
3.11943 2.32529 3.68719 0 0 0 95 103 112 255
1.96855 2.24675 3.84549 0 0 0 105 106 83 255
2.23664 2.27316 3.69853 0 0 0 54 76 106 255
2.69701 2.32088 3.66185 0 0 0 59 46 73 255
2.68052 2.363 3.58491 0 0 0 109 133 167 255
2.22894 2.29036 3.60588 0 0 0 159 187 216 255
2.50503 2.33857 3.52119 0 0 0 122 141 157 255
2.27564 2.31576 3.5229 0 0 0 88 161 201 255
2.81609 2.40259 3.40018 0 0 0 119 148 166 255
1.02608 2.20534 3.57841 0 0 0 45 57 63 255
1.35691 2.23151 3.53819 0 0 0 72 81 88 255
2.49698 2.38598 3.43488 0 0 0 72 68 81 255
2.61171 2.40404 3.3844 0 0 0 81 94 112 255
2.40749 2.38004 3.3525 0 0 0 154 103 82 255
1.0453 2.24557 3.4654 0 0 0 210 225 231 255
1.59711 2.31971 3.39502 0 0 0 72 85 107 255
1.34035 2.29034 3.40192 0 0 0 61 70 76 255
1.85904 2.37147 3.27234 0 0 0 194 217 247 255
0.975252 2.26206 3.33176 0 0 0 52 59 67 255
1.16445 2.30339 3.35327 0 0 0 59 67 74 255
1.93778 0.148622 4.60454 0 0 0 145 134 140 255
3.22759 0.426707 4.17923 0 0 0 173 107 81 255
0.949838 0.368576 4.33366 0 0 0 140 114 104 255
1.08573 0.510516 4.39332 0 0 0 131 106 93 255
3.01875 0.812485 4.11569 0 0 0 166 145 131 255
1.90574 0.803506 4.53004 0 0 0 183 168 157 255
0.660777 0.724589 4.4536 0 0 0 61 31 34 255
0.748276 0.732176 4.39268 0 0 0 183 171 161 255
2.97126 0.945612 4.07166 0 0 0 155 127 114 255
1.4069 0.845338 4.36961 0 0 0 34 34 31 255
0.740773 0.825482 4.38332 0 0 0 38 38 38 255
1.34337 0.905998 4.04315 0 0 0 133 124 120 255
1.7597 0.958038 4.05925 0 0 0 175 172 182 255
1.75992 1.04377 3.79484 0 0 0 223 238 243 255
0.519031 1.02127 4.42684 0 0 0 115 89 76 255
0.796505 1.05416 4.45917 0 0 0 122 101 97 255
2.57022 1.22562 4.25328 0 0 0 67 80 92 255
2.70746 1.24118 4.26975 0 0 0 59 80 91 255
2.81833 1.27707 4.20458 0 0 0 150 170 185 255
2.63285 1.2988 4.29176 0 0 0 48 49 52 255
1.28136 1.11227 3.7691 0 0 0 9 80 131 255
1.424 1.11673 3.65278 0 0 0 63 136 173 255
1.57976 1.1263 3.69878 0 0 0 29 83 115 255
2.14529 1.28688 4.37052 0 0 0 43 35 43 255
2.93176 1.37293 4.15963 0 0 0 133 145 150 255
2.99079 1.35654 4.13976 0 0 0 52 39 39 255
0.327935 1.16138 4.46798 0 0 0 128 133 137 255
0.917234 1.20936 4.39209 0 0 0 54 41 34 255
1.39595 1.18898 3.71541 0 0 0 176 180 153 255
2.38518 1.40016 4.2929 0 0 0 70 63 69 255
1.64024 1.23369 3.68875 0 0 0 132 151 161 255
0.499303 1.25872 4.41774 0 0 0 120 87 77 255
1.11365 1.38097 4.47811 0 0 0 126 104 96 255
2.43827 1.53225 4.30468 0 0 0 82 102 103 255
1.15914 1.41561 4.39827 0 0 0 55 34 30 255
2.32835 1.54969 4.34624 0 0 0 157 169 175 255
2.6365 1.57977 4.23997 0 0 0 41 47 48 255
2.89346 1.61696 4.14593 0 0 0 150 167 178 255
2.99556 1.64071 4.18174 0 0 0 111 134 150 255
1.6529 1.42592 3.75426 0 0 0 174 196 208 255
1.1576 1.45847 4.17218 0 0 0 141 111 103 255
1.60498 1.43696 3.72954 0 0 0 184 180 214 255
2.05177 1.7081 4.49513 0 0 0 157 124 120 255
2.84753 1.8701 4.18012 0 0 0 154 121 118 255
1.27057 1.58817 3.78956 0 0 0 20 70 128 255
0.295494 1.56526 4.21945 0 0 0 14 23 25 255
1.45236 1.60006 3.72589 0 0 0 38 78 118 255
1.54821 1.63455 3.74085 0 0 0 169 178 195 255
0.557029 1.5658 3.76105 0 0 0 31 63 92 255
1.14858 1.80899 4.27585 0 0 0 101 69 72 255
1.8764 1.88088 4.33977 0 0 0 152 142 138 255
3.09944 2.13334 4.31539 0 0 0 138 149 147 255
0.562965 1.54677 3.43518 0 0 0 135 185 212 255
1.58104 1.81512 3.79452 0 0 0 178 167 146 255
2.95117 2.12104 4.2376 0 0 0 139 81 67 255
1.12722 1.85296 4.10465 0 0 0 220 236 236 255
1.33723 1.7742 3.768 0 0 0 158 193 212 255
0.622738 1.61119 3.40007 0 0 0 129 172 190 255
0.735393 1.72199 3.7086 0 0 0 199 211 215 255
2.36911 2.08098 4.05141 0 0 0 66 66 76 255
2.52143 2.1083 4.01933 0 0 0 178 192 202 255
0.583464 1.6819 3.27522 0 0 0 195 186 188 255
1.5099 1.96759 3.79061 0 0 0 13 88 150 255
2.08455 2.12161 3.94791 0 0 0 216 145 74 255
2.19365 2.14097 3.99454 0 0 0 91 60 50 255
0.72917 1.76437 3.49387 0 0 0 44 77 90 255
3.00375 2.302 3.80598 0 0 0 88 101 120 255
0.666577 1.78727 3.33215 0 0 0 25 90 107 255
2.04674 2.18204 3.81545 0 0 0 181 177 170 255
2.2417 2.21712 3.8196 0 0 0 164 193 211 255
2.10682 2.2085 3.75076 0 0 0 77 76 81 255
2.96388 2.33866 3.76413 0 0 0 27 71 107 255
1.51799 2.15708 3.76062 0 0 0 230 240 244 255
1.96197 2.22796 3.75449 0 0 0 70 87 106 255
2.10875 2.27125 3.59156 0 0 0 165 197 223 255
2.19735 2.28775 3.5638 0 0 0 184 205 227 255
2.23178 2.29205 3.5534 0 0 0 166 199 234 255
1.37127 2.22967 3.5417 0 0 0 69 77 83 255
2.60154 2.38419 3.46223 0 0 0 149 168 188 255
1.04463 2.20446 3.57115 0 0 0 45 56 64 255
1.17853 2.22063 3.57525 0 0 0 48 58 69 255
2.78025 2.41532 3.33232 0 0 0 153 165 181 255
2.6053 2.4036 3.37628 0 0 0 65 75 93 255
2.71341 2.42885 3.27508 0 0 0 62 81 110 255
2.98949 0.804511 4.1195 0 0 0 151 120 117 255
1.91303 0.852608 4.62283 0 0 0 62 56 49 255
1.78479 0.853722 4.09128 0 0 0 42 37 39 255
0.788952 0.844564 4.68178 0 0 0 32 33 33 255
0.53672 0.853156 4.34186 0 0 0 129 87 68 255
1.76528 0.968156 4.29408 0 0 0 226 224 232 255
1.00855 0.972844 4.35784 0 0 0 125 104 90 255
1.29886 0.965337 3.935 0 0 0 219 231 235 255
0.519275 0.972935 4.41293 0 0 0 125 102 89 255
1.73462 1.02472 3.8147 0 0 0 231 248 252 255
2.32217 1.20266 4.33061 0 0 0 103 65 63 255
2.79381 1.28577 4.2223 0 0 0 145 165 179 255
1.25631 1.14913 4.0188 0 0 0 22 59 110 255
2.56501 1.25659 4.22826 0 0 0 102 101 104 255
1.30802 1.18432 3.79166 0 0 0 160 162 121 255
2.43225 1.40284 4.2911 0 0 0 151 160 164 255
1.32981 1.25554 3.74816 0 0 0 147 134 88 255
0.505574 1.34346 4.45813 0 0 0 124 91 80 255
2.29708 1.55061 4.34785 0 0 0 154 166 174 255
2.38389 1.59581 4.3434 0 0 0 155 171 175 255
2.99229 1.62758 4.20532 0 0 0 111 136 151 255
1.23317 1.42463 3.89179 0 0 0 12 74 118 255
1.62066 1.45715 3.74827 0 0 0 72 86 107 255
0.39965 1.57646 4.52879 0 0 0 27 25 33 255
1.27262 1.51068 3.80433 0 0 0 82 88 104 255
0.375528 1.61042 4.47936 0 0 0 14 16 23 255
1.44704 1.58673 3.72476 0 0 0 37 70 105 255
1.56708 1.59282 3.7292 0 0 0 185 196 208 255
1.175 1.71038 4.17662 0 0 0 119 80 84 255
1.44137 1.65115 3.73433 0 0 0 26 82 125 255
3.04554 2.00549 4.19633 0 0 0 29 29 55 255
0.905933 1.89369 4.62535 0 0 0 103 85 85 255
1.84296 1.90086 4.17842 0 0 0 170 174 178 255
1.51947 1.76796 3.75667 0 0 0 149 169 142 255
3.077 2.13407 4.27586 0 0 0 137 151 147 255
0.585023 1.58635 3.41504 0 0 0 138 190 216 255
1.10075 1.8954 4.23554 0 0 0 215 233 232 255
0.772236 1.7415 3.70851 0 0 0 193 215 215 255
1.20994 1.90288 3.95121 0 0 0 7 89 137 255
1.6202 1.92948 3.86275 0 0 0 29 101 143 255
1.40437 2.01251 3.94588 0 0 0 19 100 148 255
1.98504 2.15424 3.87347 0 0 0 222 203 132 255
2.3071 2.19828 3.81354 0 0 0 169 194 218 255
1.84318 2.19121 3.83424 0 0 0 216 208 138 255
0.679068 1.95024 3.5023 0 0 0 70 111 107 255
1.43868 2.15166 3.71675 0 0 0 224 244 247 255
4.28794 -0.344168 8.76108 0 0 0 109 127 142 255
3.33557 -0.351051 8.07924 0 0 0 195 217 231 255
3.47304 0.289657 4.41852 0 0 0 106 107 114 255
3.57388 0.349544 4.11005 0 0 0 41 47 48 255
3.78233 0.388338 4.07951 0 0 0 136 81 79 255
3.79122 0.40511 3.98962 0 0 0 66 79 80 255
3.7667 0.400598 4.00135 0 0 0 42 24 26 255
3.76589 0.406782 3.9948 0 0 0 42 24 26 255
3.65107 -0.0343234 8.01552 0 0 0 182 194 202 255
3.26917 0.346562 4.27575 0 0 0 43 42 33 255
3.75644 0.457468 3.93024 0 0 0 20 29 28 255
4.17993 0.626051 3.41571 0 0 0 98 122 114 255
4.22489 0.641509 3.42462 0 0 0 195 204 209 255
4.17698 0.639302 3.4156 0 0 0 36 75 70 255
4.06489 0.651105 3.45096 0 0 0 105 101 87 255
3.62073 0.579168 3.86775 0 0 0 81 91 95 255
3.64482 0.588711 3.85887 0 0 0 90 102 106 255
3.68635 0.598562 3.8267 0 0 0 108 118 125 255
3.62157 0.599576 3.8601 0 0 0 21 31 35 255
3.65316 0.606881 3.84104 0 0 0 28 38 42 255
3.70242 0.612931 3.82041 0 0 0 22 32 38 255
3.19491 0.548538 3.93746 0 0 0 61 63 84 255
3.66871 0.615445 3.83601 0 0 0 18 28 32 255
3.70399 0.639626 3.80951 0 0 0 112 122 128 255
3.73561 0.648323 3.76408 0 0 0 59 67 74 255
3.62827 0.635669 3.84868 0 0 0 114 125 126 255
3.68491 0.64667 3.81014 0 0 0 44 53 59 255
3.71936 0.654642 3.7835 0 0 0 125 133 140 255
3.66972 0.649037 3.81924 0 0 0 93 102 104 255
3.70261 0.656046 3.80763 0 0 0 116 126 132 255
4.29549 0.772401 3.53476 0 0 0 81 94 87 255
3.71931 0.665773 3.78263 0 0 0 120 129 136 255
1.63197 0.36868 4.24712 0 0 0 170 159 156 255
1.25861 0.330579 4.26188 0 0 0 195 177 172 255
1.28669 0.340723 4.25903 0 0 0 132 118 113 255
1.57254 0.377422 4.23777 0 0 0 188 172 166 255
3.18367 0.630706 4.01119 0 0 0 86 47 29 255
3.66389 0.70312 3.82231 0 0 0 98 75 60 255
1.26707 0.359262 4.28168 0 0 0 190 168 161 255
3.80916 0.745907 3.72353 0 0 0 102 86 73 255
4.44961 0.832099 3.72445 0 0 0 96 124 118 255
1.49067 0.401428 4.36974 0 0 0 189 176 169 255
1.57034 0.40978 4.38044 0 0 0 180 164 158 255
3.22034 0.661449 4.03942 0 0 0 80 78 70 255
3.77102 0.747473 3.73575 0 0 0 103 91 85 255
3.84752 0.759667 3.68226 0 0 0 101 85 87 255
4.46321 0.839019 3.73858 0 0 0 95 120 117 255
1.64999 0.436259 4.40113 0 0 0 136 125 119 255
1.70523 0.433226 4.38024 0 0 0 136 118 115 255
3.82732 0.772576 3.70103 0 0 0 44 19 5 255
3.18633 0.675945 4.03231 0 0 0 89 55 33 255
3.76968 0.761616 3.73602 0 0 0 70 62 56 255
3.55254 0.729436 3.8991 0 0 0 67 43 21 255
3.65061 0.76186 3.82728 0 0 0 52 27 9 255
3.81419 0.796705 3.70192 0 0 0 71 35 12 255
4.18282 0.858108 3.50506 0 0 0 14 32 31 255
3.82673 0.817902 3.69586 0 0 0 116 88 79 255
3.74574 0.812063 3.74064 0 0 0 97 95 96 255
3.6329 0.79906 3.83425 0 0 0 30 9 1 255
3.64991 0.802341 3.81599 0 0 0 32 22 24 255
3.75987 0.818773 3.73491 0 0 0 111 82 49 255
3.811 0.835854 3.70146 0 0 0 61 27 10 255
1.36198 0.468593 4.26812 0 0 0 146 136 126 255
3.61522 0.822785 3.85405 0 0 0 124 105 79 255
3.45647 0.805917 4.00025 0 0 0 61 52 57 255
3.6594 0.837982 3.80552 0 0 0 116 104 79 255
3.71985 0.847111 3.74885 0 0 0 31 18 30 255
3.74279 0.856596 3.73225 0 0 0 134 105 76 255
3.79759 0.87483 3.69608 0 0 0 58 29 27 255
3.53235 0.836419 3.92017 0 0 0 34 42 49 255
3.82212 0.885802 3.67657 0 0 0 57 41 35 255
2.48078 0.689004 4.22338 0 0 0 182 130 125 255
2.44668 0.688649 4.24176 0 0 0 166 134 126 255
3.54356 0.85766 3.91924 0 0 0 41 14 7 255
3.60029 0.868605 3.86413 0 0 0 131 105 80 255
3.81554 0.898403 3.68562 0 0 0 104 88 52 255
3.64139 0.879211 3.83446 0 0 0 108 95 72 255
3.67621 0.887373 3.80274 0 0 0 92 82 70 255
2.45845 0.704589 4.22474 0 0 0 129 100 94 255
3.58415 0.877132 3.87569 0 0 0 66 44 24 255
3.62194 0.890574 3.8519 0 0 0 41 22 7 255
3.72724 0.906853 3.7511 0 0 0 35 25 18 255
2.50432 0.728946 4.19981 0 0 0 164 148 142 255
2.90353 0.79042 4.04005 0 0 0 123 101 97 255
3.67682 0.910325 3.80317 0 0 0 37 19 3 255
3.69574 0.907752 3.77779 0 0 0 101 87 69 255
4.38465 1.02596 3.70426 0 0 0 120 133 150 255
1.29938 0.547545 4.31325 0 0 0 131 121 111 255
2.54161 0.736472 4.1843 0 0 0 169 146 137 255
3.7561 0.92884 3.7313 0 0 0 111 99 71 255
2.95121 0.812901 4.03778 0 0 0 179 156 148 255
3.69333 0.922247 3.77508 0 0 0 79 65 47 255
3.7353 0.935124 3.75226 0 0 0 55 35 27 255
2.90328 0.806945 4.03376 0 0 0 168 143 133 255
3.61464 0.917289 3.85363 0 0 0 46 21 7 255
3.82925 0.954435 3.67772 0 0 0 126 113 92 255
3.75864 0.948681 3.7333 0 0 0 106 91 69 255
3.62554 0.936621 3.8466 0 0 0 124 105 92 255
3.81266 0.962218 3.70409 0 0 0 40 26 25 255
3.88909 0.976152 3.62598 0 0 0 92 86 92 255
4.17751 1.03284 3.54822 0 0 0 31 58 57 255
3.46673 0.934328 3.95233 0 0 0 126 111 90 255
3.60477 0.9569 3.85706 0 0 0 64 40 24 255
3.95239 1.00875 3.59696 0 0 0 43 29 18 255
3.98842 1.02508 3.56629 0 0 0 124 108 94 255
3.19537 0.911616 4.09528 0 0 0 103 101 72 255
3.52733 0.963855 3.90597 0 0 0 29 41 31 255
3.83368 1.01408 3.67755 0 0 0 64 54 46 255
2.62532 0.836434 4.20815 0 0 0 167 131 113 255
3.66919 0.9943 3.79103 0 0 0 44 38 45 255
3.63732 0.994688 3.82198 0 0 0 71 61 62 255
2.89291 0.888883 4.09573 0 0 0 172 156 141 255
3.53277 0.98598 3.89176 0 0 0 95 81 72 255
2.79018 0.888274 4.11154 0 0 0 176 154 146 255
3.40153 0.983695 4.0354 0 0 0 69 73 85 255
3.65768 1.018 3.79369 0 0 0 54 52 50 255
1.61636 0.715065 4.35136 0 0 0 138 132 126 255
1.51639 0.710579 4.3721 0 0 0 139 133 124 255
3.63656 1.03078 3.8421 0 0 0 57 45 39 255
3.69742 1.04535 3.76277 0 0 0 118 108 96 255
3.72327 1.04164 3.75367 0 0 0 61 56 48 255
1.46742 0.706463 4.38277 0 0 0 136 135 128 255
1.54909 0.717579 4.35623 0 0 0 189 183 176 255
1.62304 0.737842 4.37437 0 0 0 184 177 175 255
2.41045 0.864534 4.27783 0 0 0 168 165 156 255
3.79383 1.06786 3.70396 0 0 0 74 38 30 255
3.98441 1.10083 3.58165 0 0 0 124 110 88 255
3.72856 1.0645 3.75626 0 0 0 111 102 94 255
3.76852 1.07591 3.72339 0 0 0 139 116 101 255
1.57688 0.738141 4.42206 0 0 0 162 156 151 255
3.48678 1.04311 3.97298 0 0 0 78 88 94 255
1.61626 0.758987 4.42193 0 0 0 130 124 120 255
3.50531 1.05219 3.96316 0 0 0 98 108 114 255
3.61576 1.06871 3.84994 0 0 0 120 131 140 255
3.80639 1.09114 3.68671 0 0 0 119 115 107 255
1.21941 0.7008 4.34938 0 0 0 117 108 104 255
2.94073 0.969864 4.06929 0 0 0 145 105 69 255
3.64823 1.07922 3.82876 0 0 0 99 104 112 255
3.85884 1.10765 3.63276 0 0 0 71 68 60 255
1.13641 0.693462 4.29803 0 0 0 134 127 121 255
1.18123 0.697847 4.34692 0 0 0 132 123 119 255
1.39576 0.740121 4.33697 0 0 0 158 154 149 255
3.94943 1.12249 3.59007 0 0 0 45 41 47 255
1.08901 0.688607 4.25088 0 0 0 157 151 146 255
3.66056 1.09593 3.8142 0 0 0 44 52 58 255
4.15683 1.16758 3.57103 0 0 0 18 38 54 255
1.21391 0.720064 4.34373 0 0 0 121 111 110 255
1.13746 0.713408 4.3109 0 0 0 167 158 155 255
3.5752 1.10058 3.8661 0 0 0 126 135 146 255
3.55702 1.09582 3.79321 0 0 0 39 48 59 255
3.67747 1.11926 3.78309 0 0 0 39 49 55 255
3.60211 1.11937 3.84121 0 0 0 122 132 140 255
3.82029 1.14806 3.71013 0 0 0 130 141 152 255
4.0575 1.17528 3.53235 0 0 0 73 113 90 255
1.13003 0.734529 4.29194 0 0 0 116 110 105 255
3.632 1.12802 3.82023 0 0 0 132 143 150 255
3.64935 1.1282 3.80916 0 0 0 40 50 56 255
3.66484 1.12784 3.80387 0 0 0 106 116 122 255
3.68298 1.13734 3.77394 0 0 0 123 134 144 255
3.73201 1.1403 3.74498 0 0 0 32 43 56 255
1.08873 0.723575 4.15107 0 0 0 148 140 133 255
3.70037 1.14462 3.76228 0 0 0 40 51 62 255
4.16436 1.21768 3.59897 0 0 0 68 72 47 255
3.7172 1.15069 3.74982 0 0 0 132 143 156 255
3.74204 1.15775 3.74059 0 0 0 87 98 109 255
3.82806 1.17245 3.69524 0 0 0 46 55 68 255
3.67105 1.15213 3.7807 0 0 0 66 79 89 255
3.83914 1.1723 3.68729 0 0 0 66 69 85 255
1.9409 0.907564 4.63711 0 0 0 28 28 38 255
3.77272 1.17688 3.71134 0 0 0 120 137 146 255
3.82166 1.19604 3.68736 0 0 0 138 147 158 255
3.80088 1.19463 3.69623 0 0 0 104 119 128 255
3.83746 1.19708 3.6741 0 0 0 42 39 56 255
3.12331 1.16247 4.02386 0 0 0 87 75 62 255
2.15356 1.04569 4.47834 0 0 0 64 70 73 255
4.20734 1.40709 3.65724 0 0 0 36 56 60 255
3.12253 1.29769 4.07549 0 0 0 97 94 65 255
3.69156 1.37702 3.7826 0 0 0 80 75 77 255
4.2002 1.4594 3.67134 0 0 0 66 70 85 255
3.7268 1.38161 3.76486 0 0 0 105 94 94 255
3.8204 1.42181 3.67978 0 0 0 94 65 71 255
1.80819 1.07478 3.88504 0 0 0 163 180 195 255
1.93656 1.17326 4.45668 0 0 0 112 130 140 255
2.69442 1.28428 4.19421 0 0 0 95 105 111 255
2.51947 1.26304 4.23902 0 0 0 98 114 125 255
2.06668 1.2309 4.53736 0 0 0 153 104 84 255
1.80229 1.1139 3.87251 0 0 0 119 151 183 255
3.77711 1.47217 3.69234 0 0 0 158 110 88 255
2.55191 1.30777 4.2175 0 0 0 61 51 55 255
4.13128 1.54074 3.67153 0 0 0 21 83 70 255
2.51011 1.31275 4.23365 0 0 0 112 120 127 255
3.55921 1.48779 3.87282 0 0 0 167 138 94 255
2.63042 1.3815 4.18801 0 0 0 106 118 124 255
3.07271 1.47071 4.18288 0 0 0 112 125 143 255
3.77724 1.53686 3.71811 0 0 0 103 60 43 255
4.16367 1.6234 3.67868 0 0 0 27 56 71 255
1.93143 1.2856 4.50215 0 0 0 131 136 144 255
1.86711 1.26875 4.35074 0 0 0 43 50 80 255
1.58764 1.14849 3.72995 0 0 0 47 123 176 255
1.91568 1.31081 4.49888 0 0 0 33 36 45 255
1.88667 1.305 4.43694 0 0 0 115 118 138 255
4.15444 1.6645 3.68391 0 0 0 54 60 70 255
3.78429 1.59285 3.69058 0 0 0 141 113 91 255
4.25813 1.72811 3.79754 0 0 0 139 167 189 255
4.16576 1.72147 3.71083 0 0 0 31 55 83 255
3.04779 1.57896 4.15918 0 0 0 118 146 169 255
5.12023 2.08136 4.89222 0 0 0 97 133 160 255
4.30615 1.79411 3.86503 0 0 0 92 122 146 255
4.65742 1.92287 4.31148 0 0 0 161 195 223 255
1.65084 1.26996 3.69711 0 0 0 126 171 200 255
2.56054 1.53605 4.26204 0 0 0 140 146 119 255
4.15214 1.77575 3.72092 0 0 0 28 58 71 255
4.21847 1.81787 3.78497 0 0 0 137 179 201 255
5.21469 2.19573 4.73612 0 0 0 174 207 222 255
1.45836 1.29403 3.68617 0 0 0 143 168 200 255
3.52458 1.75906 3.94547 0 0 0 106 53 25 255
4.20927 1.87266 3.79018 0 0 0 143 177 193 255
4.11031 1.86499 3.74809 0 0 0 105 120 99 255
1.04704 1.38617 4.38378 0 0 0 81 64 55 255
4.21278 1.92941 3.81349 0 0 0 148 181 193 255
2.4998 1.73494 4.30717 0 0 0 148 139 141 255
4.11178 1.97566 3.7384 0 0 0 36 58 72 255
3.73968 1.91738 3.75054 0 0 0 83 110 106 255
2.18616 1.72445 4.44675 0 0 0 174 137 133 255
2.45888 1.77109 4.3393 0 0 0 169 119 117 255
4.10251 2.00135 3.75783 0 0 0 57 76 89 255
2.21402 1.74601 4.43206 0 0 0 180 148 141 255
2.35314 1.7672 4.36368 0 0 0 160 132 122 255
2.38981 1.77646 4.34794 0 0 0 164 138 124 255
1.36997 1.44711 3.7228 0 0 0 81 122 166 255
3.88138 1.96491 3.67549 0 0 0 71 91 90 255
4.11077 2.03348 3.75741 0 0 0 52 76 81 255
1.39179 1.45663 3.72132 0 0 0 159 191 217 255
4.06777 2.05555 3.7555 0 0 0 78 101 92 255
3.63587 2.08368 3.85675 0 0 0 106 92 89 255
3.62796 2.08571 3.83105 0 0 0 105 94 91 255
3.84492 2.097 3.68395 0 0 0 61 82 89 255
4.03955 2.2609 3.75367 0 0 0 51 85 99 255
1.7285 1.83608 4.00317 0 0 0 104 149 185 255
4.04381 2.28923 3.79258 0 0 0 75 110 117 255
1.25287 1.70031 3.83329 0 0 0 100 162 185 255
1.43674 1.75862 3.73922 0 0 0 136 180 186 255
1.27365 1.74995 3.82877 0 0 0 144 171 196 255
1.41645 1.75387 3.73282 0 0 0 56 115 118 255
1.34329 1.75774 3.7792 0 0 0 91 136 171 255
3.94664 2.36131 3.69942 0 0 0 150 194 189 255
1.57593 1.83727 3.82578 0 0 0 107 137 139 255
1.37848 1.8102 3.76384 0 0 0 38 101 141 255
1.45675 1.85132 3.77056 0 0 0 115 148 171 255
2.23758 2.12393 4.04693 0 0 0 98 79 56 255
1.35211 1.8372 3.77881 0 0 0 122 136 164 255
1.45974 1.8649 3.76912 0 0 0 67 86 69 255
1.40641 1.84648 3.77653 0 0 0 105 129 140 255
1.50753 1.88863 3.79777 0 0 0 125 146 155 255
1.31423 1.84253 3.78794 0 0 0 134 133 150 255
2.29339 2.14904 4.0073 0 0 0 102 134 156 255
2.26715 2.15074 3.9946 0 0 0 75 81 111 255
3.20139 2.3531 3.66995 0 0 0 78 87 99 255
2.1234 2.16531 3.87093 0 0 0 127 138 145 255
2.63846 2.30828 3.54698 0 0 0 62 59 75 255
2.23858 2.27642 3.49363 0 0 0 137 191 235 255
2.62888 2.37717 3.43835 0 0 0 147 178 211 255
2.7541 2.42177 3.29675 0 0 0 131 145 164 255
2.91468 2.50068 3.08006 0 0 0 86 171 204 255
2.21548 2.40504 3.23909 0 0 0 114 112 120 255
3.06102 2.55107 3.00344 0 0 0 37 149 193 255
1.57592 2.31996 3.39913 0 0 0 71 76 78 255
2.30169 2.43662 3.17021 0 0 0 139 135 139 255
2.97977 2.53886 2.97234 0 0 0 91 156 191 255
3.02146 2.54441 2.96884 0 0 0 158 208 238 255
3.01729 2.56925 2.95791 0 0 0 37 143 187 255
2.21867 2.42865 3.15057 0 0 0 114 96 87 255
2.8987 2.53971 2.9326 0 0 0 61 146 183 255
2.79781 2.52623 2.94877 0 0 0 101 165 196 255
2.85584 2.5353 2.92906 0 0 0 166 203 225 255
2.70284 2.51325 2.95858 0 0 0 88 117 141 255
2.79494 2.53935 2.93939 0 0 0 82 136 166 255
2.84498 2.5361 2.89301 0 0 0 95 143 173 255
2.77172 2.53871 2.92876 0 0 0 109 167 198 255
2.7655 2.54195 2.9028 0 0 0 83 122 153 255
2.0697 2.44018 3.08077 0 0 0 72 83 95 255
2.67179 2.53888 2.90475 0 0 0 48 81 114 255
2.33516 2.4909 3.00193 0 0 0 77 109 139 255
2.64675 2.54689 2.92109 0 0 0 99 125 150 255
2.78306 2.55368 2.81866 0 0 0 149 204 241 255
2.5916 2.53406 2.87689 0 0 0 83 95 110 255
2.84172 2.56866 2.77406 0 0 0 95 195 235 255
2.26235 2.50649 2.94662 0 0 0 94 106 118 255
2.55899 2.54586 2.83466 0 0 0 86 96 112 255
2.71861 2.57718 2.77022 0 0 0 191 213 232 255
4.10516 -0.429126 8.4067 0 0 0 170 188 201 255
4.28227 -0.315935 8.7935 0 0 0 116 134 149 255
3.43781 0.297338 4.38803 0 0 0 139 139 147 255
3.98994 0.435014 3.98937 0 0 0 38 27 32 255
3.60223 -0.0393342 7.92856 0 0 0 166 188 200 255
4.11424 -0.0392416 8.47532 0 0 0 154 167 166 255
3.74689 0.454133 3.95 0 0 0 21 32 36 255
4.18577 0.545822 3.68447 0 0 0 124 123 112 255
4.19247 0.610542 3.42458 0 0 0 141 149 150 255
3.18897 0.430546 3.98651 0 0 0 132 93 78 255
4.05104 0.659191 3.45495 0 0 0 130 114 97 255
3.65078 0.622872 3.83791 0 0 0 32 43 45 255
3.72735 0.650973 3.76661 0 0 0 68 76 83 255
3.71709 0.664073 3.78432 0 0 0 120 129 136 255
4.27176 0.773167 3.5115 0 0 0 101 113 106 255
1.40083 0.339622 4.34225 0 0 0 131 118 113 255
1.5777 0.378971 4.38129 0 0 0 186 170 164 255
3.18261 0.628188 4.01202 0 0 0 96 54 41 255
3.17547 0.656109 3.96831 0 0 0 104 86 70 255
3.76352 0.744748 3.74071 0 0 0 73 62 57 255
3.8102 0.747279 3.72434 0 0 0 102 86 73 255
3.84904 0.761691 3.68058 0 0 0 97 81 84 255
1.40257 0.416942 4.34889 0 0 0 132 110 107 255
3.18349 0.686901 4.03798 0 0 0 72 36 21 255
3.81616 0.786517 3.70305 0 0 0 71 35 16 255
4.11564 0.846429 3.43067 0 0 0 16 31 34 255
3.55058 0.787292 3.88957 0 0 0 43 20 16 255
3.63334 0.803552 3.83046 0 0 0 30 9 1 255
3.71801 0.831687 3.75955 0 0 0 23 14 26 255
3.65723 0.835759 3.80473 0 0 0 116 104 79 255
3.39981 0.798557 4.04785 0 0 0 101 85 61 255
3.45284 0.806947 3.99982 0 0 0 61 52 57 255
3.73166 0.861793 3.73763 0 0 0 83 65 59 255
3.79855 0.86934 3.69777 0 0 0 82 49 27 255
3.4824 0.826363 3.97382 0 0 0 106 88 67 255
4.35361 0.95711 3.63962 0 0 0 117 136 156 255
3.77189 0.882873 3.71308 0 0 0 100 80 67 255
3.81776 0.890521 3.68022 0 0 0 86 70 60 255
3.42974 0.839117 4.01783 0 0 0 121 104 80 255
3.56656 0.863574 3.88748 0 0 0 100 89 74 255
1.28687 0.537241 4.32656 0 0 0 126 116 106 255
3.6133 0.905157 3.85224 0 0 0 57 29 16 255
2.89507 0.803529 4.03765 0 0 0 172 148 139 255
3.67462 0.914142 3.80811 0 0 0 43 24 9 255
3.79121 0.941846 3.71271 0 0 0 104 94 63 255
1.12567 0.544062 4.22244 0 0 0 187 172 163 255
3.73171 0.940687 3.75399 0 0 0 56 36 27 255
3.65222 0.939473 3.81841 0 0 0 57 54 41 255
3.88621 0.974756 3.62811 0 0 0 84 81 87 255
3.95443 0.988875 3.59974 0 0 0 78 68 61 255
3.71445 0.964904 3.76006 0 0 0 125 111 93 255
4.13813 1.02795 3.51885 0 0 0 16 36 39 255
1.43764 0.625973 4.40637 0 0 0 151 141 131 255
3.94996 1.02076 3.5964 0 0 0 40 27 37 255
3.98411 1.0206 3.56414 0 0 0 108 94 80 255
3.65476 0.99895 3.80047 0 0 0 51 41 56 255
3.52425 0.993412 3.90063 0 0 0 123 95 85 255
3.63371 1.00214 3.82765 0 0 0 82 71 70 255
1.51923 0.714441 4.41328 0 0 0 129 123 116 255
3.71362 1.06308 3.76042 0 0 0 109 103 94 255
3.80695 1.09372 3.68765 0 0 0 125 121 111 255
3.86016 1.10063 3.63856 0 0 0 94 86 76 255
3.93627 1.11301 3.60487 0 0 0 38 38 37 255
4.12088 1.15678 3.5417 0 0 0 22 42 66 255
3.91652 1.14152 3.60554 0 0 0 94 84 74 255
3.62764 1.12291 3.82892 0 0 0 63 73 81 255
3.68291 1.13517 3.77317 0 0 0 123 134 144 255
4.12329 1.2215 3.57244 0 0 0 52 52 65 255
1.94033 0.919073 4.63823 0 0 0 26 26 36 255
4.20035 1.39898 3.65433 0 0 0 56 76 81 255
3.08056 1.27889 4.14963 0 0 0 111 127 139 255
3.11695 1.2997 4.07702 0 0 0 101 95 66 255
3.74423 1.39014 3.74791 0 0 0 57 47 46 255
2.21402 1.20893 4.34997 0 0 0 158 119 87 255
1.93569 1.18676 4.46893 0 0 0 122 137 146 255
1.76621 1.11319 3.83194 0 0 0 40 83 113 255
4.14261 1.70189 3.69422 0 0 0 50 67 88 255
4.99066 2.02708 4.73555 0 0 0 112 148 175 255
4.11997 1.74403 3.70319 0 0 0 79 101 105 255
4.96209 2.10397 4.72708 0 0 0 137 176 199 255
2.85922 1.62115 4.12606 0 0 0 130 146 158 255
4.20664 1.86428 3.78552 0 0 0 133 169 186 255
1.48188 1.31042 3.66338 0 0 0 11 113 155 255
4.07994 1.85726 3.72831 0 0 0 105 118 91 255
3.8749 1.82363 3.62327 0 0 0 120 104 81 255
3.669 1.83876 3.82349 0 0 0 117 114 74 255
1.94416 1.62602 4.5586 0 0 0 121 121 124 255
2.22346 1.73836 4.4271 0 0 0 168 140 129 255
4.10204 2.00165 3.75663 0 0 0 63 82 94 255
3.88184 1.96424 3.67358 0 0 0 71 91 90 255
1.81701 1.67598 4.32863 0 0 0 48 43 53 255
3.6306 2.09339 3.84438 0 0 0 88 72 68 255
3.84423 2.0989 3.68326 0 0 0 63 87 89 255
1.83775 1.90254 4.46936 0 0 0 142 136 137 255
4.04771 2.30065 3.80026 0 0 0 74 112 116 255
1.72626 1.84133 3.99007 0 0 0 109 157 194 255
4.05215 2.38628 3.82195 0 0 0 74 121 117 255
3.76838 2.33148 3.75469 0 0 0 138 150 117 255
3.94755 2.35958 3.70742 0 0 0 106 151 145 255
1.21767 1.7965 3.96308 0 0 0 136 167 192 255
1.56913 1.83875 3.81381 0 0 0 83 128 143 255
2.23221 2.1237 4.04609 0 0 0 120 99 74 255
1.6363 1.95599 3.9308 0 0 0 52 128 166 255
2.12169 2.16409 3.87034 0 0 0 127 138 145 255
2.19332 2.21403 3.80927 0 0 0 127 151 171 255
2.33627 2.24125 3.73151 0 0 0 144 209 244 255
3.45452 2.42591 3.45728 0 0 0 158 205 237 255
3.02692 2.37403 3.53363 0 0 0 55 81 103 255
2.13338 2.2446 3.72102 0 0 0 49 70 83 255
3.04577 2.42937 3.38332 0 0 0 49 91 122 255
2.96643 2.4525 3.29528 0 0 0 101 144 171 255
2.91463 2.50241 3.07801 0 0 0 86 171 204 255
2.21617 2.42313 3.16318 0 0 0 120 101 89 255
3.00225 2.56757 2.94634 0 0 0 10 149 191 255
1.94624 2.43502 3.13065 0 0 0 61 101 133 255
2.77912 2.54907 2.84488 0 0 0 106 162 192 255
2.58659 2.53832 2.8696 0 0 0 110 111 128 255
2.83514 2.56785 2.77008 0 0 0 109 199 240 255
3.29453 -0.346732 8.05257 0 0 0 201 223 237 255
4.28036 -0.315713 8.79686 0 0 0 116 134 149 255
3.43677 0.302713 4.38107 0 0 0 176 174 182 255
3.65136 0.351011 4.17077 0 0 0 66 91 84 255
3.56532 0.331435 4.38234 0 0 0 156 164 171 255
3.49115 0.356397 4.08952 0 0 0 125 129 137 255
3.76611 0.386152 4.10316 0 0 0 141 107 88 255
3.77691 0.422826 3.91842 0 0 0 61 88 87 255
3.70887 0.433919 4.04602 0 0 0 9 24 29 255
3.76681 0.463296 3.84181 0 0 0 176 140 134 255
3.30409 0.406252 4.06567 0 0 0 59 87 86 255
3.9444 0.533058 3.56476 0 0 0 91 96 96 255
4.16455 0.648745 3.40705 0 0 0 20 63 63 255
4.05617 0.656735 3.45594 0 0 0 130 114 97 255
3.6339 0.588325 3.85657 0 0 0 51 63 67 255
3.68811 0.594217 3.83261 0 0 0 57 67 74 255
3.68176 0.626733 3.82112 0 0 0 120 130 135 255
3.63413 0.631706 3.85194 0 0 0 114 125 126 255
3.7243 0.652216 3.78207 0 0 0 95 103 110 255
4.27664 0.780837 3.52071 0 0 0 95 108 106 255
3.1949 0.613181 4.00718 0 0 0 49 18 30 255
3.59379 0.692396 3.87797 0 0 0 99 87 74 255
3.55537 0.701155 3.89649 0 0 0 24 15 22 255
3.66313 0.719352 3.8223 0 0 0 133 106 81 255
3.81759 0.759382 3.70817 0 0 0 119 96 65 255
1.20031 0.373487 4.1604 0 0 0 129 111 106 255
3.8474 0.761352 3.68167 0 0 0 101 85 87 255
3.7376 0.76059 3.75781 0 0 0 30 27 31 255
1.46786 0.432146 4.36217 0 0 0 124 111 104 255
3.17126 0.710912 3.98937 0 0 0 31 11 14 255
3.58015 0.774916 3.87936 0 0 0 121 102 62 255
3.82612 0.820833 3.69658 0 0 0 116 88 79 255
4.0521 0.854369 3.5109 0 0 0 123 125 97 255
3.71582 0.815592 3.76241 0 0 0 20 15 26 255
3.75039 0.819962 3.74156 0 0 0 86 83 84 255
1.3456 0.467391 4.26238 0 0 0 118 103 94 255
3.69773 0.826667 3.78267 0 0 0 124 101 59 255
3.78195 0.857581 3.71215 0 0 0 107 89 67 255
3.80542 0.871545 3.6928 0 0 0 55 27 28 255
4.11306 0.931337 3.46116 0 0 0 23 32 34 255
3.48695 0.841266 3.96238 0 0 0 131 110 90 255
4.36207 0.960514 3.64459 0 0 0 129 146 166 255
1.51091 0.539671 4.42318 0 0 0 173 163 158 255
3.5342 0.892038 3.90643 0 0 0 32 28 37 255
4.12708 0.988006 3.49633 0 0 0 27 89 95 255
1.38766 0.58521 4.31054 0 0 0 137 108 104 255
3.82956 0.949559 3.67812 0 0 0 104 94 81 255
3.88883 0.977111 3.62582 0 0 0 112 105 105 255
3.47452 0.927949 3.95698 0 0 0 116 99 82 255
3.79015 0.96362 3.71212 0 0 0 125 112 78 255
1.4531 0.613036 4.42284 0 0 0 141 118 115 255
3.52335 0.958336 3.9164 0 0 0 53 42 20 255
2.35061 0.774569 4.33288 0 0 0 173 141 127 255
3.98481 1.02174 3.56447 0 0 0 124 108 94 255
1.12301 0.594805 4.2133 0 0 0 124 100 94 255
1.27893 0.625506 4.29714 0 0 0 130 119 112 255
2.38455 0.808358 4.31358 0 0 0 156 95 69 255
3.91435 1.03247 3.62095 0 0 0 99 83 83 255
3.95443 1.03747 3.58571 0 0 0 27 28 42 255
2.89292 0.895834 4.09357 0 0 0 175 162 152 255
3.58178 1.00343 3.85982 0 0 0 125 110 85 255
3.77486 1.05057 3.7236 0 0 0 116 93 82 255
2.35008 0.845014 4.30079 0 0 0 179 160 148 255
2.37653 0.863863 4.29063 0 0 0 155 156 146 255
3.71478 1.06159 3.75527 0 0 0 113 106 97 255
3.85674 1.08577 3.63653 0 0 0 128 111 94 255
3.94298 1.09995 3.6026 0 0 0 38 35 41 255
3.97468 1.10241 3.58736 0 0 0 116 105 93 255
3.91595 1.12441 3.60762 0 0 0 117 109 97 255
4.12164 1.15085 3.54005 0 0 0 23 50 84 255
4.04415 1.17747 3.49325 0 0 0 135 139 119 255
3.67949 1.13595 3.77647 0 0 0 123 134 144 255
3.72216 1.15649 3.74707 0 0 0 141 152 164 255
3.73866 1.16116 3.73962 0 0 0 118 130 141 255
3.82441 1.19871 3.68958 0 0 0 119 128 139 255
3.07076 1.16952 4.05093 0 0 0 143 90 65 255
1.95128 1.01411 4.44662 0 0 0 40 36 30 255
3.04747 1.26389 4.06192 0 0 0 114 132 145 255
2.22059 1.16413 4.46696 0 0 0 148 109 86 255
3.11644 1.29697 4.07732 0 0 0 88 83 60 255
3.95729 1.3985 3.57552 0 0 0 130 121 104 255
2.25407 1.18266 4.34703 0 0 0 170 133 107 255
2.79566 1.24906 4.12912 0 0 0 121 162 176 255
3.00246 1.31884 4.15774 0 0 0 70 71 59 255
3.76871 1.4149 3.70118 0 0 0 145 129 93 255
4.17997 1.48395 3.66173 0 0 0 92 100 115 255
3.96495 1.44516 3.55622 0 0 0 28 35 51 255
1.78601 1.08344 3.8673 0 0 0 161 192 212 255
2.47609 1.26125 4.25918 0 0 0 76 103 115 255
1.24429 1.03827 3.95908 0 0 0 133 146 147 255
1.76094 1.12363 3.8276 0 0 0 15 81 126 255
2.95095 1.36561 4.03561 0 0 0 49 46 49 255
3.55366 1.47346 3.8745 0 0 0 160 131 93 255
1.92273 1.2642 4.47826 0 0 0 127 132 140 255
2.8899 1.37986 4.06711 0 0 0 99 132 152 255
1.95771 1.28168 4.51919 0 0 0 50 44 49 255
2.55854 1.36026 4.22331 0 0 0 117 116 107 255
3.78457 1.59201 3.69173 0 0 0 141 113 91 255
4.15195 1.66917 3.68436 0 0 0 49 51 66 255
4.29953 1.73114 3.83356 0 0 0 166 205 226 255
3.58638 1.59808 3.82796 0 0 0 145 110 85 255
1.58661 1.20411 3.66723 0 0 0 3 92 141 255
5.07166 2.06518 4.83824 0 0 0 106 142 169 255
1.64707 1.27092 3.69651 0 0 0 123 156 170 255
3.75969 1.72163 3.71804 0 0 0 110 114 79 255
4.23114 1.83198 3.79268 0 0 0 163 208 227 255
2.9075 1.63972 4.24259 0 0 0 142 162 176 255
4.22765 1.85038 3.78801 0 0 0 167 213 230 255
2.04624 1.54618 4.48871 0 0 0 136 145 156 255
4.07895 1.85589 3.7313 0 0 0 113 124 92 255
3.56983 1.79183 3.92163 0 0 0 161 137 92 255
3.66725 1.83138 3.83143 0 0 0 119 107 72 255
1.94429 1.62218 4.55891 0 0 0 111 112 115 255
4.21738 1.95154 3.82246 0 0 0 153 185 197 255
1.58996 1.43086 3.73043 0 0 0 176 209 220 255
4.12081 1.96084 3.74041 0 0 0 32 54 70 255
4.10294 2.00317 3.75642 0 0 0 89 108 116 255
3.88996 1.96803 3.67212 0 0 0 84 106 96 255
2.69878 1.83674 4.2348 0 0 0 145 122 121 255
1.45603 1.52789 3.71889 0 0 0 182 201 211 255
3.84841 2.10248 3.67323 0 0 0 61 90 92 255
1.21213 1.57648 3.87061 0 0 0 58 90 98 255
1.84488 1.89882 4.49186 0 0 0 119 108 109 255
3.44732 2.2061 4.08042 0 0 0 71 98 118 255
3.52178 2.21614 4.00187 0 0 0 31 46 40 255
3.58813 2.23494 3.96992 0 0 0 140 127 108 255
4.12553 2.35612 3.84343 0 0 0 209 243 250 255
3.5599 2.28137 3.94597 0 0 0 61 40 41 255
4.03985 2.35037 3.78712 0 0 0 62 105 107 255
1.63784 1.82416 3.84702 0 0 0 155 148 157 255
1.23635 1.77916 3.90696 0 0 0 145 170 192 255
1.27191 1.7513 3.83136 0 0 0 151 177 199 255
1.19567 1.84156 4.03078 0 0 0 27 104 145 255
3.83429 2.41301 3.61116 0 0 0 66 89 98 255
2.16911 2.15079 3.98174 0 0 0 96 63 46 255
2.33689 2.18173 3.91507 0 0 0 50 96 125 255
2.11518 2.16794 3.84444 0 0 0 112 119 135 255
3.32411 2.40121 3.55057 0 0 0 71 118 148 255
2.21364 2.24906 3.87195 0 0 0 149 174 194 255
2.33984 2.24218 3.73025 0 0 0 167 211 237 255
3.44248 2.44299 3.44684 0 0 0 59 174 219 255
2.65962 2.2963 3.56855 0 0 0 54 61 77 255
3.09339 2.41343 3.4202 0 0 0 104 153 180 255
2.89094 2.45291 3.23164 0 0 0 61 113 141 255
2.89836 2.49862 3.12096 0 0 0 13 99 140 255
2.95123 2.50986 3.03938 0 0 0 112 180 219 255
3.07641 2.54623 3.02552 0 0 0 6 137 185 255
3.00609 2.54029 2.96559 0 0 0 156 204 236 255
2.99336 2.5573 2.92621 0 0 0 19 154 205 255
2.78846 2.53778 2.94037 0 0 0 69 124 154 255
2.77095 2.54148 2.91543 0 0 0 111 150 183 255
2.06825 2.44167 3.07768 0 0 0 71 74 82 255
2.78115 2.54891 2.84693 0 0 0 112 169 199 255
2.77231 2.57123 2.82571 0 0 0 191 218 244 255
3.47868 0.286744 4.43097 0 0 0 106 107 114 255
3.55747 -0.0605975 7.90606 0 0 0 164 190 203 255
3.14371 -0.114685 7.87556 0 0 0 177 199 215 255
4.37121 -0.0338518 8.59243 0 0 0 69 77 84 255
3.98927 0.46863 3.98109 0 0 0 173 80 102 255
3.9267 0.528925 3.57471 0 0 0 111 118 117 255
4.1828 0.585433 3.56148 0 0 0 124 137 148 255
3.88111 0.602599 3.62 0 0 0 15 68 104 255
3.70374 0.648673 3.80795 0 0 0 114 124 130 255
1.5534 0.344506 4.38072 0 0 0 128 116 112 255
4.08074 0.813143 3.39561 0 0 0 17 28 35 255
3.15894 0.719814 3.99024 0 0 0 44 13 6 255
1.34313 0.471096 4.24741 0 0 0 107 96 86 255
4.06704 0.926778 3.43382 0 0 0 18 26 31 255
3.26433 0.850423 4.10629 0 0 0 26 35 36 255
3.49804 0.916926 3.95054 0 0 0 83 55 35 255
3.7165 0.963317 3.75975 0 0 0 125 111 92 255
3.82707 0.976604 3.68167 0 0 0 108 92 65 255
3.92189 1.01004 3.61097 0 0 0 84 70 61 255
2.35253 0.830201 4.30819 0 0 0 161 157 140 255
3.77142 1.0698 3.7225 0 0 0 129 106 91 255
1.24679 0.71429 4.31334 0 0 0 156 146 145 255
3.92417 1.13264 3.602 0 0 0 104 93 83 255
4.04415 1.17747 3.49325 0 0 0 135 139 119 255
3.81448 1.19082 3.69179 0 0 0 127 141 151 255
4.05506 1.26872 3.51063 0 0 0 32 52 68 255
2.0077 1.05254 4.4925 0 0 0 36 69 81 255
3.04967 1.27627 4.13314 0 0 0 119 139 151 255
1.85125 1.08008 3.99258 0 0 0 61 64 85 255
2.80123 1.2467 4.12615 0 0 0 121 162 176 255
3.01274 1.28663 4.11957 0 0 0 118 128 130 255
3.44848 1.37255 4.02947 0 0 0 157 122 84 255
1.7392 1.1427 3.80029 0 0 0 7 81 150 255
1.75062 1.15324 3.82741 0 0 0 6 80 149 255
4.27793 1.7128 3.80388 0 0 0 160 202 220 255
3.58411 1.59481 3.83331 0 0 0 141 106 81 255
3.7816 1.5984 3.69069 0 0 0 143 117 93 255
1.40898 1.19085 3.75039 0 0 0 150 167 158 255
2.64042 1.5026 4.23793 0 0 0 133 149 137 255
2.43499 1.49863 4.29678 0 0 0 88 108 120 255
4.20441 1.81761 3.77065 0 0 0 137 179 201 255
3.93067 1.79619 3.57804 0 0 0 141 127 94 255
3.66186 1.83024 3.83145 0 0 0 119 107 72 255
3.57411 1.83797 3.8426 0 0 0 126 99 56 255
4.12993 1.95158 3.73811 0 0 0 65 90 103 255
1.31632 1.37091 3.73065 0 0 0 83 159 195 255
1.04463 1.46281 4.40423 0 0 0 45 34 42 255
1.43663 1.47761 3.72504 0 0 0 152 174 188 255
3.05755 2.02644 4.26945 0 0 0 37 30 33 255
1.86136 1.91547 4.52364 0 0 0 122 110 112 255
1.31637 1.65058 3.77409 0 0 0 176 181 202 255
3.35668 2.17885 4.07818 0 0 0 20 85 94 255
1.61891 1.78562 3.847 0 0 0 169 163 159 255
1.72752 1.8503 3.9791 0 0 0 139 169 191 255
4.13013 2.35576 3.84127 0 0 0 211 240 249 255
3.55716 2.28481 3.9308 0 0 0 61 40 41 255
2.46885 2.13459 4.22957 0 0 0 84 95 108 255
1.4811 1.81471 3.76339 0 0 0 132 163 156 255
2.52149 2.12944 4.07644 0 0 0 168 190 208 255
3.78253 2.33099 3.75192 0 0 0 153 144 116 255
3.88865 2.35396 3.65671 0 0 0 51 90 89 255
2.58824 2.13259 3.96394 0 0 0 99 155 189 255
1.19281 1.84413 4.00437 0 0 0 26 104 145 255
3.84911 2.41792 3.65903 0 0 0 61 77 89 255
1.22297 1.93815 3.89813 0 0 0 38 108 151 255
2.83163 2.27062 3.72971 0 0 0 78 109 132 255
3.18753 2.35244 3.6575 0 0 0 88 102 114 255
1.70602 2.10396 4.00765 0 0 0 206 229 236 255
3.4247 2.44105 3.43788 0 0 0 54 171 218 255
3.23367 2.41953 3.45564 0 0 0 39 114 152 255
2.64997 2.31475 3.54023 0 0 0 57 59 80 255
2.08529 2.26729 3.6161 0 0 0 142 189 222 255
2.59297 2.40375 3.34133 0 0 0 51 76 89 255
1.13535 2.15306 3.56445 0 0 0 43 54 65 255
1.19448 2.18728 3.48316 0 0 0 36 47 60 255
2.90918 2.50383 3.05755 0 0 0 110 176 204 255
2.9361 2.51382 3.04025 0 0 0 102 157 189 255
2.39774 2.45016 3.18489 0 0 0 153 180 201 255
2.17098 2.41719 3.14364 0 0 0 167 150 139 255
2.67697 2.51886 2.93492 0 0 0 79 103 131 255
1.95765 2.42489 3.11393 0 0 0 67 95 128 255
3.1807 -0.0998546 7.95495 0 0 0 174 196 210 255
3.69336 0.641694 3.81007 0 0 0 65 75 81 255
3.81649 0.760299 3.71038 0 0 0 119 96 65 255
3.33362 0.789347 4.09384 0 0 0 96 73 39 255
3.59249 0.92384 3.86305 0 0 0 125 103 76 255
3.49721 0.921396 3.94466 0 0 0 106 81 57 255
3.95142 1.00571 3.59536 0 0 0 71 57 43 255
3.44299 1.03053 3.98767 0 0 0 127 137 143 255
3.90805 1.11009 3.62127 0 0 0 113 98 87 255
3.64386 1.11009 3.81875 0 0 0 127 137 143 255
1.7237 0.849737 4.31823 0 0 0 36 35 38 255
1.76204 0.961212 3.94714 0 0 0 213 218 230 255
2.96142 1.20231 4.13881 0 0 0 59 57 58 255
2.9083 1.19541 4.13301 0 0 0 84 106 121 255
3.4466 1.34439 4.03073 0 0 0 158 102 78 255
2.53514 1.21942 4.2476 0 0 0 65 87 101 255
2.69628 1.23437 4.18463 0 0 0 47 76 92 255
3.76201 1.42123 3.70054 0 0 0 134 117 80 255
2.9761 1.34422 4.02603 0 0 0 39 42 51 255
3.40772 1.44519 4.06775 0 0 0 54 41 37 255
1.27324 1.01835 3.86136 0 0 0 162 177 184 255
2.14427 1.26377 4.40253 0 0 0 48 46 47 255
1.0207 1.04722 4.19306 0 0 0 43 36 34 255
3.52909 1.48024 3.88849 0 0 0 150 130 83 255
1.726 1.15387 3.78058 0 0 0 4 83 152 255
2.38406 1.38886 4.30711 0 0 0 62 58 67 255
1.96376 1.3536 4.56451 0 0 0 37 37 47 255
1.33774 1.1854 3.78722 0 0 0 180 175 130 255
3.75982 1.63148 3.70361 0 0 0 109 112 79 255
1.29805 1.21575 3.7828 0 0 0 149 139 114 255
2.42202 1.56945 4.31592 0 0 0 112 134 146 255
2.89233 1.59141 4.10972 0 0 0 143 164 185 255
3.33037 1.72277 4.22939 0 0 0 100 76 69 255
3.52833 1.70737 3.93171 0 0 0 153 118 65 255
1.38616 1.2937 3.71572 0 0 0 47 109 133 255
1.17453 1.40594 4.19832 0 0 0 40 29 38 255
2.40827 1.65327 4.31715 0 0 0 156 176 190 255
1.59399 1.43212 3.73252 0 0 0 176 209 220 255
0.999709 1.42861 4.37918 0 0 0 49 42 42 255
2.91615 1.80637 4.23995 0 0 0 48 45 51 255
3.72451 1.9076 3.75923 0 0 0 56 97 80 255
1.24427 1.44847 3.87461 0 0 0 8 61 108 255
3.32927 1.94682 4.1884 0 0 0 97 78 84 255
3.36891 1.97198 4.1593 0 0 0 95 84 68 255
1.49345 1.5209 3.70964 0 0 0 14 68 121 255
3.86138 2.12369 3.67406 0 0 0 54 99 93 255
1.20968 1.60541 3.90012 0 0 0 27 79 104 255
1.2797 1.60945 3.78134 0 0 0 9 75 122 255
1.31918 1.64291 3.77154 0 0 0 167 180 195 255
3.59704 2.22325 3.90944 0 0 0 134 137 100 255
1.30222 1.7165 3.82479 0 0 0 44 121 171 255
3.49204 2.26412 4.05146 0 0 0 39 75 60 255
1.60956 1.79355 3.81955 0 0 0 194 185 179 255
3.5898 2.28834 3.92392 0 0 0 36 48 53 255
1.15185 1.78663 4.03996 0 0 0 72 73 78 255
3.79151 2.34467 3.74645 0 0 0 135 113 84 255
0.960527 1.85433 4.43169 0 0 0 99 87 94 255
1.5224 1.80252 3.79849 0 0 0 157 172 150 255
1.65785 1.99648 3.97936 0 0 0 90 134 159 255
2.18807 2.15322 3.98174 0 0 0 72 61 68 255
2.06286 2.17969 3.81203 0 0 0 146 150 146 255
2.11989 2.18986 3.76625 0 0 0 61 70 84 255
3.01968 2.36838 3.6035 0 0 0 60 90 113 255
3.26102 2.40737 3.50449 0 0 0 63 124 159 255
3.42372 2.47576 3.44917 0 0 0 36 169 215 255
1.53009 2.17149 3.81963 0 0 0 224 246 250 255
