ply
format ascii 1.0
comment VCGLIB generated
element vertex 75
property float x
property float y
property float z
property float nx
property float ny
property float nz
property uchar red
property uchar green
property uchar blue
property uchar alpha
element face 0
property list uchar int vertex_indices
end_header
-1.76152 -0.507117 -8.14804 0 0 0 255 255 255 255
-3.13632 0.357053 4.51415 0 0 0 255 255 255 255
-3.05511 0.517808 4.51445 0 0 0 255 255 255 255
-3.05534 0.561393 4.37555 0 0 0 255 255 255 255
-3.06958 0.507124 4.49891 0 0 0 255 255 255 255
-2.96298 0.545414 4.53648 0 0 0 255 255 255 255
-2.93663 0.531054 4.58194 0 0 0 255 255 255 255
-2.93567 0.551188 4.58727 0 0 0 255 255 255 255
-2.94228 0.534539 4.5589 0 0 0 255 255 255 255
-3.12296 0.5187 4.50086 0 0 0 255 255 255 255
-2.83515 0.425924 4.50296 0 0 0 255 255 255 255
-2.94259 0.560365 4.54964 0 0 0 255 255 255 255
-2.83214 0.400259 4.53088 0 0 0 255 255 255 255
-2.94753 0.551101 4.54135 0 0 0 255 255 255 255
-3.04759 0.51601 4.52101 0 0 0 255 255 255 255
-2.94959 0.487614 4.5268 0 0 0 255 255 255 255
-2.95673 0.517559 4.53638 0 0 0 255 255 255 255
-3.07309 0.357712 4.50285 0 0 0 255 255 255 255
-2.83146 0.442837 4.50799 0 0 0 255 255 255 255
-3.17851 0.524369 4.52969 0 0 0 255 255 255 255
-3.1892 0.148385 6.42924 0 0 0 255 255 255 255
-2.81271 0.20063 5.31677 0 0 0 255 255 255 255
-3.18391 0.149256 6.4465 0 0 0 255 255 255 255
-3.57983 0.240897 6.32742 0 0 0 255 255 255 255
-3.24835 0.0923019 6.09233 0 0 0 255 255 255 255
-3.06725 0.162157 6.42217 0 0 0 255 255 255 255
-2.85507 0.108998 5.3022 0 0 0 255 255 255 255
-2.75931 0.173823 5.13957 0 0 0 255 255 255 255
-3.57829 0.237225 6.32219 0 0 0 255 255 255 255
-3.50645 0.142829 6.20059 0 0 0 255 255 255 255
-2.75664 0.0138782 5.12699 0 0 0 255 255 255 255
-3.20189 0.158076 6.53934 0 0 0 255 255 255 255
-3.51471 0.146237 6.20235 0 0 0 255 255 255 255
-2.76362 0.00887123 5.13638 0 0 0 255 255 255 255
-3.0543 0.152121 6.22191 0 0 0 255 255 255 255
-1.31704 -0.0724852 4.38325 0 0 0 255 255 255 255
-2.20727 0.145605 5.20886 0 0 0 255 255 255 255
-3.02794 0.56759 4.52544 0 0 0 255 255 255 255
-3.04909 0.567877 4.41684 0 0 0 255 255 255 255
-3.08578 0.579925 4.51955 0 0 0 255 255 255 255
-2.87604 1.43829 4.89613 0 0 0 255 255 255 255
-2.84535 1.44041 5.07597 0 0 0 255 255 255 255
-2.81134 1.5821 4.96624 0 0 0 255 255 255 255
-2.79087 1.57093 4.96016 0 0 0 255 255 255 255
-2.91499 1.45482 5.71024 0 0 0 255 255 255 255
-2.90878 1.4575 5.57497 0 0 0 255 255 255 255
-2.79673 1.37794 5.61825 0 0 0 255 255 255 255
-2.75888 1.36403 5.58869 0 0 0 255 255 255 255
-1.68137 1.0935 4.71194 0 0 0 255 255 255 255
-0.695574 1.36138 3.86589 0 0 0 255 255 255 255
-0.615201 1.07528 4.08641 0 0 0 255 255 255 255
-0.669707 1.36868 3.83016 0 0 0 255 255 255 255
-0.847714 1.0066 4.10855 0 0 0 255 255 255 255
-0.883941 1.0094 4.10466 0 0 0 255 255 255 255
-0.687053 1.36263 3.82835 0 0 0 255 255 255 255
-1.31556 1.0051 4.42416 0 0 0 255 255 255 255
0.82522 -0.21686 4.80171 0 0 0 255 255 255 255
0.915864 -0.24671 4.90466 0 0 0 255 255 255 255
0.813199 -0.219722 4.79224 0 0 0 255 255 255 255
2.34546 0.0143146 3.92623 0 0 0 255 255 255 255
2.33665 0.088615 3.93059 0 0 0 255 255 255 255
2.36484 0.0134049 3.92573 0 0 0 255 255 255 255
2.34445 0.00784615 3.92941 0 0 0 255 255 255 255
2.34549 0.0102145 3.92858 0 0 0 255 255 255 255
2.35024 0.114679 3.86918 0 0 0 255 255 255 255
2.34618 0.112866 3.84417 0 0 0 255 255 255 255
2.35139 0.137096 3.8747 0 0 0 255 255 255 255
2.49676 -0.0681811 4.04846 0 0 0 255 255 255 255
2.46527 -0.0554895 4.06116 0 0 0 255 255 255 255
2.48721 0.043788 4.02955 0 0 0 255 255 255 255
1.30521 1.28376 5.78908 0 0 0 255 255 255 255
1.3114 1.29112 5.84671 0 0 0 255 255 255 255
2.28883 1.0688 3.75602 0 0 0 255 255 255 255
2.34982 1.06801 3.71628 0 0 0 255 255 255 255
1.62466 1.19681 5.46205 0 0 0 255 255 255 255
