ply
format ascii 1.0
comment VCGLIB generated
element vertex 288
property float x
property float y
property float z
property float nx
property float ny
property float nz
property uchar red
property uchar green
property uchar blue
property uchar alpha
element face 0
property list uchar int vertex_indices
end_header
1.5453 -0.53712 6.01883 0 0 0 128 128 0 255
1.55183 -0.520044 6.02125 0 0 0 128 128 0 255
1.52653 -0.462134 6.02211 0 0 0 128 128 0 255
1.58201 -0.551545 6.02332 0 0 0 128 128 0 255
1.57833 -0.519511 6.02539 0 0 0 128 128 0 255
1.58619 -0.502854 6.02798 0 0 0 128 128 0 255
1.62398 -0.550702 6.02988 0 0 0 128 128 0 255
1.62894 -0.553724 6.03039 0 0 0 128 128 0 255
1.5346 -0.355839 6.03212 0 0 0 128 128 0 255
1.56251 -0.385156 6.03402 0 0 0 128 128 0 255
1.59723 -0.40631 6.03764 0 0 0 128 128 0 255
1.54534 -0.304787 6.03799 0 0 0 128 128 0 255
1.63378 -0.470683 6.03799 0 0 0 128 128 0 255
1.67588 -0.528701 6.03972 0 0 0 128 128 0 255
1.56547 -0.298585 6.04161 0 0 0 128 128 0 255
1.5733 -0.294414 6.04317 0 0 0 128 128 0 255
1.57113 -0.281972 6.04386 0 0 0 128 128 0 255
1.64268 -0.403614 6.04489 0 0 0 128 128 0 255
1.67923 -0.467986 6.04524 0 0 0 128 128 0 255
1.69776 -0.49437 6.04593 0 0 0 128 128 0 255
1.65231 -0.400744 6.04662 0 0 0 128 128 0 255
1.72288 -0.533108 6.04662 0 0 0 128 128 0 255
1.58569 -0.267409 6.04731 0 0 0 128 128 0 255
1.61073 -0.303919 6.04817 0 0 0 128 128 0 255
1.76125 -0.57158 6.04938 0 0 0 128 128 0 255
1.76494 -0.576411 6.04955 0 0 0 128 128 0 255
1.76346 -0.571536 6.04973 0 0 0 128 128 0 255
1.63636 -0.331053 6.0499 0 0 0 128 128 0 255
1.6085 -0.262046 6.05128 0 0 0 128 128 0 255
1.72489 -0.471975 6.05197 0 0 0 128 128 0 255
1.65001 -0.329441 6.05214 0 0 0 128 128 0 255
1.63822 -0.292665 6.05335 0 0 0 128 128 0 255
1.6608 -0.335021 6.05335 0 0 0 128 128 0 255
1.63769 -0.262352 6.05577 0 0 0 128 128 0 255
1.77076 -0.482648 6.05818 0 0 0 128 128 0 255
1.81115 -0.556308 6.05836 0 0 0 128 128 0 255
1.661 -0.272586 6.05853 0 0 0 128 128 0 255
1.66629 -0.272034 6.05939 0 0 0 128 128 0 255
1.69956 -0.303027 6.06198 0 0 0 128 128 0 255
1.69699 -0.291931 6.0625 0 0 0 128 128 0 255
1.4504 0.172689 6.06267 0 0 0 128 128 0 255
1.74643 -0.372098 6.06354 0 0 0 128 128 0 255
1.75501 -0.377723 6.0644 0 0 0 128 128 0 255
1.86878 -0.589042 6.06457 0 0 0 128 128 0 255
1.74712 -0.352463 6.06526 0 0 0 128 128 0 255
1.53875 0.0509385 6.0663 0 0 0 128 128 0 255
1.82678 -0.478847 6.06716 0 0 0 128 128 0 255
1.73591 -0.306311 6.06733 0 0 0 128 128 0 255
1.77521 -0.37375 6.06785 0 0 0 128 128 0 255
1.87209 -0.540814 6.06906 0 0 0 128 128 0 255
1.74381 -0.277166 6.07096 0 0 0 128 128 0 255
1.77761 -0.338473 6.07113 0 0 0 128 128 0 255
1.87674 -0.493006 6.07372 0 0 0 128 128 0 255
1.91087 -0.550738 6.07424 0 0 0 128 128 0 255
1.77159 -0.274825 6.07545 0 0 0 128 128 0 255
1.93625 -0.556472 6.07769 0 0 0 128 128 0 255
1.82179 -0.337586 6.07803 0 0 0 128 128 0 255
1.93941 -0.53099 6.08028 0 0 0 128 128 0 255
1.81735 -0.295757 6.0808 0 0 0 128 128 0 255
1.957 -0.555609 6.08097 0 0 0 128 128 0 255
1.9375 -0.512745 6.08149 0 0 0 128 128 0 255
1.86874 -0.381682 6.08166 0 0 0 128 128 0 255
1.55347 0.211771 6.08183 0 0 0 128 128 0 255
1.91047 -0.455762 6.082 0 0 0 128 128 0 255
1.86219 -0.356841 6.0827 0 0 0 128 128 0 255
1.86448 -0.359025 6.08287 0 0 0 128 128 0 255
1.83086 -0.289688 6.08339 0 0 0 128 128 0 255
1.85637 -0.327081 6.08425 0 0 0 128 128 0 255
1.99831 -0.589117 6.08459 0 0 0 128 128 0 255
2.00388 -0.597477 6.08477 0 0 0 128 128 0 255
1.93129 -0.457127 6.08511 0 0 0 128 128 0 255
1.93114 -0.452671 6.08546 0 0 0 128 128 0 255
2.00265 -0.5868 6.08546 0 0 0 128 128 0 255
1.86775 -0.323285 6.08632 0 0 0 128 128 0 255
1.85968 -0.306055 6.08649 0 0 0 128 128 0 255
1.85936 -0.282427 6.08839 0 0 0 128 128 0 255
1.94699 -0.381895 6.09374 0 0 0 128 128 0 255
2.00815 -0.49661 6.09374 0 0 0 128 128 0 255
1.64605 0.205603 6.09564 0 0 0 128 128 0 255
2.07062 -0.569827 6.09737 0 0 0 128 128 0 255
1.97881 -0.395526 6.09754 0 0 0 128 128 0 255
2.05159 -0.527845 6.09788 0 0 0 128 128 0 255
1.9689 -0.36228 6.09875 0 0 0 128 128 0 255
1.94578 -0.316812 6.09892 0 0 0 128 128 0 255
2.06698 -0.525307 6.10047 0 0 0 128 128 0 255
1.97785 -0.351843 6.10099 0 0 0 128 128 0 255
1.95089 -0.297089 6.10134 0 0 0 128 128 0 255
1.98893 -0.366337 6.10151 0 0 0 128 128 0 255
1.44831 0.649799 6.10168 0 0 0 128 128 0 255
2.00692 -0.38961 6.10237 0 0 0 128 128 0 255
2.09388 -0.550631 6.10255 0 0 0 128 128 0 255
2.06652 -0.497222 6.10272 0 0 0 128 128 0 255
2.09453 -0.543483 6.10324 0 0 0 128 128 0 255
2.07977 -0.496956 6.10479 0 0 0 128 128 0 255
2.16146 -0.604124 6.10859 0 0 0 128 128 0 255
2.06329 -0.396951 6.11049 0 0 0 128 128 0 255
2.02041 -0.314422 6.11066 0 0 0 128 128 0 255
2.05179 -0.369088 6.111 0 0 0 128 128 0 255
2.01871 -0.302862 6.11135 0 0 0 128 128 0 255
2.01944 -0.297942 6.11187 0 0 0 128 128 0 255
2.07676 -0.40337 6.11204 0 0 0 128 128 0 255
1.80868 0.124587 6.11411 0 0 0 128 128 0 255
2.2274 -0.606367 6.1186 0 0 0 128 128 0 255
2.08367 -0.315827 6.12032 0 0 0 128 128 0 255
2.08501 -0.316246 6.1205 0 0 0 128 128 0 255
2.19792 -0.528029 6.1205 0 0 0 128 128 0 255
2.08566 -0.309098 6.12119 0 0 0 128 128 0 255
2.19716 -0.518233 6.12119 0 0 0 128 128 0 255
2.19843 -0.516424 6.12153 0 0 0 128 128 0 255
2.1398 -0.39809 6.12222 0 0 0 128 128 0 255
2.27215 -0.623306 6.12412 0 0 0 128 128 0 255
1.70993 0.445908 6.12533 0 0 0 128 128 0 255
2.16345 -0.40475 6.12533 0 0 0 128 128 0 255
2.05629 -0.193299 6.12619 0 0 0 128 128 0 255
2.13642 -0.320565 6.12809 0 0 0 128 128 0 255
2.1703 -0.3841 6.12809 0 0 0 128 128 0 255
1.8493 0.222171 6.12844 0 0 0 128 128 0 255
1.90855 0.125701 6.12964 0 0 0 128 128 0 255
2.14128 -0.306643 6.12999 0 0 0 128 128 0 255
2.16176 -0.338786 6.13051 0 0 0 128 128 0 255
1.88123 0.191597 6.13085 0 0 0 128 128 0 255
2.19911 -0.400467 6.1312 0 0 0 128 128 0 255
2.06388 -0.140526 6.13172 0 0 0 128 128 0 255
2.26805 -0.523499 6.13172 0 0 0 128 128 0 255
1.64927 0.641348 6.13206 0 0 0 128 128 0 255
1.8525 0.26014 6.13206 0 0 0 128 128 0 255
2.20423 -0.380743 6.13362 0 0 0 128 128 0 255
1.76265 0.455886 6.13431 0 0 0 128 128 0 255
2.1616 -0.292412 6.13431 0 0 0 128 128 0 255
2.17101 -0.31006 6.13431 0 0 0 128 128 0 255
2.25863 -0.43673 6.13741 0 0 0 128 128 0 255
2.2472 -0.411095 6.13776 0 0 0 128 128 0 255
1.86946 0.309979 6.13879 0 0 0 128 128 0 255
2.20113 -0.312131 6.13879 0 0 0 128 128 0 255
1.70525 0.632661 6.14 0 0 0 128 128 0 255
1.98046 0.116442 6.14 0 0 0 128 128 0 255
1.52405 0.974624 6.14017 0 0 0 128 128 0 255
1.92252 0.227209 6.14017 0 0 0 128 128 0 255
2.31864 -0.515794 6.14017 0 0 0 128 128 0 255
2.33449 -0.54134 6.14052 0 0 0 128 128 0 255
2.27189 -0.409262 6.14173 0 0 0 128 128 0 255
2.3311 -0.518219 6.1419 0 0 0 128 128 0 255
1.8351 0.416314 6.14225 0 0 0 128 128 0 255
1.55012 0.961323 6.14311 0 0 0 128 128 0 255
2.35145 -0.518702 6.14501 0 0 0 128 128 0 255
2.39216 -0.588789 6.14552 0 0 0 128 128 0 255
1.92446 0.290571 6.1457 0 0 0 128 128 0 255
2.08474 -0.00587994 6.14604 0 0 0 128 128 0 255
1.55165 0.996137 6.14622 0 0 0 128 128 0 255
2.01071 0.151833 6.1476 0 0 0 128 128 0 255
2.26399 -0.314882 6.14829 0 0 0 128 128 0 255
2.08703 0.0191385 6.14846 0 0 0 128 128 0 255
1.59082 0.960356 6.14932 0 0 0 128 128 0 255
2.27221 -0.309365 6.15001 0 0 0 128 128 0 255
2.05074 0.116516 6.15088 0 0 0 128 128 0 255
1.88554 0.428476 6.15105 0 0 0 128 128 0 255
1.97305 0.264344 6.15105 0 0 0 128 128 0 255
2.3244 -0.392599 6.15122 0 0 0 128 128 0 255
2.33468 -0.409785 6.15139 0 0 0 128 128 0 255
2.43333 -0.590638 6.15174 0 0 0 128 128 0 255
1.60197 0.970837 6.15191 0 0 0 128 128 0 255
1.95184 0.318769 6.15226 0 0 0 128 128 0 255
2.40489 -0.531007 6.15226 0 0 0 128 128 0 255
2.01044 0.21515 6.15277 0 0 0 128 128 0 255
2.34352 -0.409607 6.15277 0 0 0 128 128 0 255
1.90839 0.419124 6.15381 0 0 0 128 128 0 255
1.99495 0.256757 6.15381 0 0 0 128 128 0 255
2.43682 -0.561582 6.15467 0 0 0 128 128 0 255
1.6246 0.96817 6.15519 0 0 0 128 128 0 255
2.00943 0.246346 6.15519 0 0 0 128 128 0 255
2.34942 -0.387192 6.15554 0 0 0 128 128 0 255
2.36817 -0.42026 6.15571 0 0 0 128 128 0 255
2.23341 -0.161202 6.15623 0 0 0 128 128 0 255
1.93109 0.414228 6.15692 0 0 0 128 128 0 255
2.028 0.232449 6.15692 0 0 0 128 128 0 255
2.09191 0.114667 6.15709 0 0 0 128 128 0 255
2.33076 -0.329149 6.15744 0 0 0 128 128 0 255
2.45025 -0.553285 6.15744 0 0 0 128 128 0 255
2.47128 -0.588538 6.15778 0 0 0 128 128 0 255
2.01404 0.281667 6.15882 0 0 0 128 128 0 255
2.48026 -0.592817 6.15882 0 0 0 128 128 0 255
1.87095 0.552153 6.15899 0 0 0 128 128 0 255
1.64876 0.973114 6.15933 0 0 0 128 128 0 255
2.45403 -0.533142 6.15968 0 0 0 128 128 0 255
2.04061 0.252769 6.16054 0 0 0 128 128 0 255
1.85783 0.61655 6.16227 0 0 0 128 128 0 255
2.00602 0.338586 6.16227 0 0 0 128 128 0 255
2.41698 -0.425969 6.16279 0 0 0 128 128 0 255
2.13598 0.105295 6.16313 0 0 0 128 128 0 255
2.37544 -0.343859 6.16313 0 0 0 128 128 0 255
2.42212 -0.420961 6.16399 0 0 0 128 128 0 255
2.06357 0.253676 6.16417 0 0 0 128 128 0 255
1.84308 0.690279 6.16607 0 0 0 128 128 0 255
1.79824 0.778566 6.16641 0 0 0 128 128 0 255
2.10325 0.2295 6.16831 0 0 0 128 128 0 255
1.86086 0.700893 6.16969 0 0 0 128 128 0 255
1.71535 0.978019 6.17004 0 0 0 128 128 0 255
2.0806 0.301287 6.17073 0 0 0 128 128 0 255
1.82131 0.789732 6.1709 0 0 0 128 128 0 255
2.10546 0.256747 6.1709 0 0 0 128 128 0 255
1.74361 0.93756 6.17107 0 0 0 128 128 0 255
2.45632 -0.384599 6.17228 0 0 0 128 128 0 255
2.47774 -0.418506 6.1728 0 0 0 128 128 0 255
2.48679 -0.425013 6.17366 0 0 0 128 128 0 255
2.43327 -0.314158 6.17452 0 0 0 128 128 0 255
2.48104 -0.397481 6.17504 0 0 0 128 128 0 255
2.42028 -0.28142 6.17521 0 0 0 128 128 0 255
2.42108 -0.278728 6.17556 0 0 0 128 128 0 255
1.85987 0.786493 6.17659 0 0 0 128 128 0 255
2.15145 0.256332 6.17798 0 0 0 128 128 0 255
2.10647 0.349076 6.17867 0 0 0 128 128 0 255
2.10694 0.348193 6.17867 0 0 0 128 128 0 255
1.8795 0.78109 6.17918 0 0 0 128 128 0 255
1.78827 0.964767 6.18022 0 0 0 128 128 0 255
2.16858 0.259798 6.18091 0 0 0 128 128 0 255
2.1558 0.285852 6.18108 0 0 0 128 128 0 255
2.14954 0.30178 6.18143 0 0 0 128 128 0 255
1.80435 0.959739 6.18229 0 0 0 128 128 0 255
2.21874 0.18455 6.18246 0 0 0 128 128 0 255
1.79773 0.986808 6.1835 0 0 0 128 128 0 255
1.9034 0.807434 6.18505 0 0 0 128 128 0 255
2.23931 0.177382 6.18505 0 0 0 128 128 0 255
2.03785 0.572004 6.18643 0 0 0 128 128 0 255
2.23207 0.20979 6.18661 0 0 0 128 128 0 255
1.96899 0.72001 6.18799 0 0 0 128 128 0 255
1.92426 0.818556 6.1892 0 0 0 128 128 0 255
1.97869 0.720651 6.18954 0 0 0 128 128 0 255
2.23885 0.232669 6.18954 0 0 0 128 128 0 255
1.85185 0.966936 6.19023 0 0 0 128 128 0 255
2.30689 0.123889 6.19109 0 0 0 128 128 0 255
1.9293 0.840508 6.19178 0 0 0 128 128 0 255
2.09563 0.534814 6.1923 0 0 0 128 128 0 255
2.31909 0.115661 6.1923 0 0 0 128 128 0 255
2.32539 0.11222 6.19299 0 0 0 128 128 0 255
2.09578 0.557559 6.1942 0 0 0 128 128 0 255
2.10523 0.552398 6.19524 0 0 0 128 128 0 255
2.13849 0.494202 6.19558 0 0 0 128 128 0 255
2.19907 0.397313 6.19696 0 0 0 128 128 0 255
2.10647 0.596125 6.19903 0 0 0 128 128 0 255
1.97656 0.841902 6.19921 0 0 0 128 128 0 255
2.25576 0.339142 6.20093 0 0 0 128 128 0 255
1.9445 0.931338 6.20162 0 0 0 128 128 0 255
2.26756 0.329568 6.20197 0 0 0 128 128 0 255
2.27817 0.315957 6.20249 0 0 0 128 128 0 255
2.12936 0.59926 6.20283 0 0 0 128 128 0 255
2.00397 0.855385 6.20456 0 0 0 128 128 0 255
1.94502 0.970145 6.2049 0 0 0 128 128 0 255
2.14225 0.610667 6.20577 0 0 0 128 128 0 255
1.98929 0.926886 6.20818 0 0 0 128 128 0 255
1.98416 0.94908 6.20922 0 0 0 128 128 0 255
2.15295 0.649233 6.2106 0 0 0 128 128 0 255
2.37211 0.24025 6.21077 0 0 0 128 128 0 255
2.12349 0.712856 6.21129 0 0 0 128 128 0 255
2.15176 0.672397 6.21233 0 0 0 128 128 0 255
2.02015 0.929735 6.21319 0 0 0 128 128 0 255
2.03283 0.947827 6.21664 0 0 0 128 128 0 255
2.21019 0.615153 6.21664 0 0 0 128 128 0 255
2.28644 0.484687 6.21768 0 0 0 128 128 0 255
2.49044 0.120886 6.21923 0 0 0 128 128 0 255
2.09488 0.915182 6.22355 0 0 0 128 128 0 255
2.50518 0.239801 6.23131 0 0 0 128 128 0 255
2.54281 0.169207 6.23131 0 0 0 128 128 0 255
2.65431 -0.039928 6.23131 0 0 0 128 128 0 255
2.66611 -0.0495016 6.23235 0 0 0 128 128 0 255
2.14508 0.948744 6.23407 0 0 0 128 128 0 255
2.67567 -0.0444043 6.23425 0 0 0 128 128 0 255
2.67575 -0.0194302 6.23632 0 0 0 128 128 0 255
2.20091 0.944514 6.24236 0 0 0 128 128 0 255
2.67712 0.0617576 6.24322 0 0 0 128 128 0 255
2.21659 0.938139 6.24426 0 0 0 128 128 0 255
2.67481 0.0786568 6.24426 0 0 0 128 128 0 255
2.6625 0.103828 6.24443 0 0 0 128 128 0 255
2.67419 0.0839957 6.2446 0 0 0 128 128 0 255
2.26619 0.90792 6.24944 0 0 0 128 128 0 255
2.268 0.906618 6.24961 0 0 0 128 128 0 255
2.26283 0.943527 6.25185 0 0 0 128 128 0 255
2.48675 0.592613 6.25755 0 0 0 128 128 0 255
2.50097 0.576399 6.25841 0 0 0 128 128 0 255
2.67881 0.242842 6.25841 0 0 0 128 128 0 255
2.50749 0.566273 6.25858 0 0 0 128 128 0 255
2.68829 0.250167 6.26048 0 0 0 128 128 0 255
2.69606 0.407293 6.27464 0 0 0 128 128 0 255
2.70207 0.412765 6.27602 0 0 0 128 128 0 255
2.51778 0.823339 6.28137 0 0 0 128 128 0 255
2.5428 0.925069 6.29362 0 0 0 128 128 0 255
2.56861 0.905966 6.29604 0 0 0 128 128 0 255
2.72 0.665971 6.29967 0 0 0 128 128 0 255
2.75875 1.26118 6.35473 0 0 0 128 128 0 255
