ply
format ascii 1.0
comment VCGLIB generated
element vertex 725
property float x
property float y
property float z
property float nx
property float ny
property float nz
property uchar red
property uchar green
property uchar blue
property uchar alpha
element face 0
property list uchar int vertex_indices
end_header
-2.61973 -0.802872 5.68589 0 0 0 128 0 0 255
-2.64198 -0.787539 5.68599 0 0 0 128 0 0 255
-2.62958 -0.784808 5.68681 0 0 0 128 0 0 255
-2.67665 -0.726533 5.689 0 0 0 128 0 0 255
-2.64529 -0.705178 5.6922 0 0 0 128 0 0 255
-2.66233 -0.687254 5.69275 0 0 0 128 0 0 255
-2.66598 -0.661325 5.69458 0 0 0 128 0 0 255
-2.35084 -0.808699 5.69869 0 0 0 128 0 0 255
-2.65698 -0.608043 5.69914 0 0 0 128 0 0 255
-2.65532 -0.596117 5.70015 0 0 0 128 0 0 255
-2.36004 -0.770985 5.70115 0 0 0 128 0 0 255
-2.30997 -0.791031 5.70207 0 0 0 128 0 0 255
-2.34319 -0.76872 5.70216 0 0 0 128 0 0 255
-2.28238 -0.797962 5.70289 0 0 0 128 0 0 255
-2.2742 -0.792547 5.70371 0 0 0 128 0 0 255
-2.64644 -0.477837 5.70974 0 0 0 128 0 0 255
-2.65063 -0.452748 5.71148 0 0 0 128 0 0 255
-2.64528 -0.408941 5.71514 0 0 0 128 0 0 255
-2.64131 -0.400843 5.71596 0 0 0 128 0 0 255
-2.61684 -0.416409 5.71596 0 0 0 128 0 0 255
-2.64586 -0.383782 5.71705 0 0 0 128 0 0 255
-2.03934 -0.633909 5.72756 0 0 0 128 0 0 255
-2.03406 -0.634912 5.72775 0 0 0 128 0 0 255
-2.00936 -0.648261 5.72793 0 0 0 128 0 0 255
-1.96144 -0.671669 5.72848 0 0 0 128 0 0 255
-2.06539 -0.598458 5.72903 0 0 0 128 0 0 255
-2.05726 -0.602449 5.72912 0 0 0 128 0 0 255
-2.03504 -0.604782 5.73003 0 0 0 128 0 0 255
-1.92951 -0.662472 5.73076 0 0 0 128 0 0 255
-2.04766 -0.574326 5.73177 0 0 0 128 0 0 255
-1.91053 -0.656847 5.73213 0 0 0 128 0 0 255
-2.66406 -0.173923 5.73241 0 0 0 128 0 0 255
-1.90481 -0.640417 5.73369 0 0 0 128 0 0 255
-2.66364 -0.156489 5.73378 0 0 0 128 0 0 255
-2.04136 -0.54765 5.73414 0 0 0 128 0 0 255
-2.63819 -0.16678 5.73423 0 0 0 128 0 0 255
-1.8957 -0.639133 5.73423 0 0 0 128 0 0 255
-1.96137 -0.556049 5.73743 0 0 0 128 0 0 255
-2.02082 -0.513505 5.7378 0 0 0 128 0 0 255
-2.01899 -0.508767 5.73826 0 0 0 128 0 0 255
-1.86644 -0.598733 5.7388 0 0 0 128 0 0 255
-1.85671 -0.600203 5.73917 0 0 0 128 0 0 255
-1.83255 -0.614392 5.73926 0 0 0 128 0 0 255
-1.85519 -0.594088 5.73972 0 0 0 128 0 0 255
-1.86709 -0.58298 5.73999 0 0 0 128 0 0 255
-2.00585 -0.489979 5.74036 0 0 0 128 0 0 255
-1.81419 -0.606013 5.74081 0 0 0 128 0 0 255
-1.86911 -0.567529 5.74109 0 0 0 128 0 0 255
-1.88016 -0.556957 5.74136 0 0 0 128 0 0 255
-1.84231 -0.564518 5.74264 0 0 0 128 0 0 255
-1.87085 -0.540457 5.7431 0 0 0 128 0 0 255
-1.81502 -0.570072 5.74356 0 0 0 128 0 0 255
-1.93247 -0.488273 5.7441 0 0 0 128 0 0 255
-1.82678 -0.553152 5.74429 0 0 0 128 0 0 255
-1.94859 -0.474481 5.74438 0 0 0 128 0 0 255
-1.72699 -0.614273 5.74447 0 0 0 128 0 0 255
-1.74027 -0.603467 5.74465 0 0 0 128 0 0 255
-1.7392 -0.601787 5.74483 0 0 0 128 0 0 255
-1.89813 -0.499498 5.74493 0 0 0 128 0 0 255
-1.77826 -0.566313 5.74566 0 0 0 128 0 0 255
-1.88519 -0.495927 5.74584 0 0 0 128 0 0 255
-1.69313 -0.616933 5.74593 0 0 0 128 0 0 255
-1.6834 -0.618402 5.7463 0 0 0 128 0 0 255
-1.73802 -0.581296 5.74648 0 0 0 128 0 0 255
-1.82531 -0.521038 5.74684 0 0 0 128 0 0 255
-1.81013 -0.5307 5.74684 0 0 0 128 0 0 255
-1.76833 -0.552567 5.74721 0 0 0 128 0 0 255
-1.70997 -0.583792 5.74767 0 0 0 128 0 0 255
-1.63781 -0.624983 5.74803 0 0 0 128 0 0 255
-1.76645 -0.538424 5.7484 0 0 0 128 0 0 255
-1.68407 -0.589649 5.74849 0 0 0 128 0 0 255
-1.83687 -0.488901 5.74876 0 0 0 128 0 0 255
-1.78624 -0.521107 5.74876 0 0 0 128 0 0 255
-1.81563 -0.496509 5.74922 0 0 0 128 0 0 255
-1.69369 -0.569368 5.74959 0 0 0 128 0 0 255
-1.65549 -0.591306 5.74977 0 0 0 128 0 0 255
-1.72752 -0.544304 5.74986 0 0 0 128 0 0 255
-1.78889 -0.502903 5.75004 0 0 0 128 0 0 255
-1.60388 -0.618237 5.75023 0 0 0 128 0 0 255
-1.69141 -0.560196 5.75041 0 0 0 128 0 0 255
-1.63344 -0.586451 5.75123 0 0 0 128 0 0 255
-1.61252 -0.592682 5.75178 0 0 0 128 0 0 255
-1.61957 -0.587011 5.75187 0 0 0 128 0 0 255
-1.73126 -0.514781 5.75196 0 0 0 128 0 0 255
-1.7157 -0.516414 5.7526 0 0 0 128 0 0 255
-1.57995 -0.599239 5.75288 0 0 0 128 0 0 255
-1.63403 -0.561292 5.75315 0 0 0 128 0 0 255
-1.71857 -0.500427 5.7537 0 0 0 128 0 0 255
-1.5285 -0.618982 5.75388 0 0 0 128 0 0 255
-1.64809 -0.540544 5.75406 0 0 0 128 0 0 255
-1.53081 -0.615154 5.75406 0 0 0 128 0 0 255
-1.60652 -0.564628 5.75425 0 0 0 128 0 0 255
-1.86372 -0.395104 5.7547 0 0 0 128 0 0 255
-1.50544 -0.621852 5.75479 0 0 0 128 0 0 255
-1.65264 -0.523484 5.75516 0 0 0 128 0 0 255
-1.85193 -0.389619 5.75571 0 0 0 128 0 0 255
-2.59135 0.0819632 5.7558 0 0 0 128 0 0 255
-1.51368 -0.601268 5.75598 0 0 0 128 0 0 255
-1.48077 -0.622201 5.75598 0 0 0 128 0 0 255
-1.63886 -0.520449 5.75607 0 0 0 128 0 0 255
-1.47464 -0.623742 5.75617 0 0 0 128 0 0 255
-2.58615 0.084554 5.75626 0 0 0 128 0 0 255
-1.83385 -0.392863 5.75635 0 0 0 128 0 0 255
-1.57735 -0.556039 5.75635 0 0 0 128 0 0 255
-1.65528 -0.50528 5.75644 0 0 0 128 0 0 255
-2.58311 0.0967835 5.75735 0 0 0 128 0 0 255
-1.49362 -0.593962 5.75754 0 0 0 128 0 0 255
-1.86073 -0.356875 5.75781 0 0 0 128 0 0 255
-1.8197 -0.3818 5.7579 0 0 0 128 0 0 255
-1.84057 -0.366164 5.75808 0 0 0 128 0 0 255
-1.48223 -0.583506 5.75891 0 0 0 128 0 0 255
-1.56944 -0.526842 5.759 0 0 0 128 0 0 255
-1.57566 -0.521708 5.75909 0 0 0 128 0 0 255
-1.56838 -0.525162 5.75918 0 0 0 128 0 0 255
-1.43599 -0.60584 5.75946 0 0 0 128 0 0 255
-1.48105 -0.563015 5.76055 0 0 0 128 0 0 255
-1.38992 -0.620985 5.76055 0 0 0 128 0 0 255
-1.73363 -0.401145 5.76064 0 0 0 128 0 0 255
-1.47123 -0.568079 5.76064 0 0 0 128 0 0 255
-1.44423 -0.585255 5.76064 0 0 0 128 0 0 255
-1.73003 -0.401075 5.76083 0 0 0 128 0 0 255
-1.72505 -0.400702 5.7611 0 0 0 128 0 0 255
-1.39133 -0.608289 5.76147 0 0 0 128 0 0 255
-1.3618 -0.627076 5.76147 0 0 0 128 0 0 255
-1.43245 -0.579771 5.76165 0 0 0 128 0 0 255
-1.48262 -0.54313 5.76201 0 0 0 128 0 0 255
-1.43576 -0.568218 5.76238 0 0 0 128 0 0 255
-1.67794 -0.401167 5.76338 0 0 0 128 0 0 255
-1.31376 -0.631672 5.76348 0 0 0 128 0 0 255
-1.3785 -0.588124 5.76366 0 0 0 128 0 0 255
-1.67105 -0.39965 5.76384 0 0 0 128 0 0 255
-1.30909 -0.629922 5.76384 0 0 0 128 0 0 255
-1.30211 -0.631999 5.76402 0 0 0 128 0 0 255
-1.24238 -0.662921 5.76457 0 0 0 128 0 0 255
-1.46214 -0.518391 5.76494 0 0 0 128 0 0 255
-1.44358 -0.5302 5.76494 0 0 0 128 0 0 255
-1.31564 -0.610411 5.76503 0 0 0 128 0 0 255
-2.30143 0.0179067 5.76512 0 0 0 128 0 0 255
-1.51684 -0.47769 5.7654 0 0 0 128 0 0 255
-1.25697 -0.643013 5.7654 0 0 0 128 0 0 255
-1.24493 -0.648311 5.76558 0 0 0 128 0 0 255
-1.51355 -0.476243 5.76567 0 0 0 128 0 0 255
-1.48993 -0.491272 5.76567 0 0 0 128 0 0 255
-1.23911 -0.648474 5.76585 0 0 0 128 0 0 255
-2.25789 0.0043714 5.76622 0 0 0 128 0 0 255
-1.32641 -0.588216 5.76622 0 0 0 128 0 0 255
-1.23697 -0.645113 5.76622 0 0 0 128 0 0 255
-1.52224 -0.460093 5.76649 0 0 0 128 0 0 255
-1.49501 -0.475052 5.76667 0 0 0 128 0 0 255
-1.77553 -0.291875 5.76704 0 0 0 128 0 0 255
-1.33257 -0.573677 5.76704 0 0 0 128 0 0 255
-2.26168 0.0244891 5.76759 0 0 0 128 0 0 255
-1.50179 -0.457758 5.76768 0 0 0 128 0 0 255
-1.4866 -0.46742 5.76768 0 0 0 128 0 0 255
-1.3806 -0.533676 5.76777 0 0 0 128 0 0 255
-1.79496 -0.26653 5.76804 0 0 0 128 0 0 255
-2.28663 0.0486206 5.76823 0 0 0 128 0 0 255
-2.26385 0.0341279 5.76823 0 0 0 128 0 0 255
-1.48455 -0.460465 5.76832 0 0 0 128 0 0 255
-1.34618 -0.548495 5.76832 0 0 0 128 0 0 255
-2.269 0.0409427 5.7685 0 0 0 128 0 0 255
-1.67248 -0.33855 5.7685 0 0 0 128 0 0 255
-1.34182 -0.545367 5.76878 0 0 0 128 0 0 255
-1.31797 -0.558179 5.76896 0 0 0 128 0 0 255
-1.67349 -0.330825 5.76905 0 0 0 128 0 0 255
-2.2355 0.0302545 5.76932 0 0 0 128 0 0 255
-1.21604 -0.615939 5.76951 0 0 0 128 0 0 255
-1.77521 -0.257848 5.76969 0 0 0 128 0 0 255
-1.19082 -0.628448 5.76978 0 0 0 128 0 0 255
-1.35596 -0.521025 5.76996 0 0 0 128 0 0 255
-1.15009 -0.651996 5.76996 0 0 0 128 0 0 255
-1.14081 -0.6579 5.76996 0 0 0 128 0 0 255
-1.34952 -0.523943 5.77006 0 0 0 128 0 0 255
-1.14089 -0.654306 5.77024 0 0 0 128 0 0 255
-1.77738 -0.248209 5.77033 0 0 0 128 0 0 255
-1.60019 -0.360929 5.77033 0 0 0 128 0 0 255
-2.26882 0.069159 5.7707 0 0 0 128 0 0 255
-2.25141 0.0592639 5.77079 0 0 0 128 0 0 255
-1.49796 -0.420067 5.77079 0 0 0 128 0 0 255
-1.77816 -0.238267 5.77106 0 0 0 128 0 0 255
-1.61065 -0.340112 5.77143 0 0 0 128 0 0 255
-1.60475 -0.343869 5.77143 0 0 0 128 0 0 255
-1.27569 -0.553207 5.77143 0 0 0 128 0 0 255
-1.14407 -0.636942 5.77143 0 0 0 128 0 0 255
-1.99149 -0.0966541 5.77152 0 0 0 128 0 0 255
-1.59839 -0.343192 5.77179 0 0 0 128 0 0 255
-1.29833 -0.532903 5.77188 0 0 0 128 0 0 255
-2.24508 0.0729404 5.77216 0 0 0 128 0 0 255
-1.13811 -0.631294 5.77216 0 0 0 128 0 0 255
-1.99036 -0.0855682 5.77243 0 0 0 128 0 0 255
-1.20071 -0.584385 5.77271 0 0 0 128 0 0 255
-1.56191 -0.351056 5.77298 0 0 0 128 0 0 255
-1.16451 -0.603872 5.77298 0 0 0 128 0 0 255
-2.24005 0.0827195 5.77316 0 0 0 128 0 0 255
-1.28157 -0.527045 5.77316 0 0 0 128 0 0 255
-1.60618 -0.318173 5.77334 0 0 0 128 0 0 255
-1.9887 -0.0736422 5.77344 0 0 0 128 0 0 255
-2.0045 -0.0612265 5.77362 0 0 0 128 0 0 255
-1.58334 -0.323261 5.77408 0 0 0 128 0 0 255
-1.13816 -0.605295 5.77417 0 0 0 128 0 0 255
-1.18465 -0.572179 5.77444 0 0 0 128 0 0 255
-1.15436 -0.587908 5.77472 0 0 0 128 0 0 255
-1.11723 -0.611526 5.77472 0 0 0 128 0 0 255
-1.9734 -0.0644931 5.7749 0 0 0 128 0 0 255
-1.67387 -0.255044 5.7749 0 0 0 128 0 0 255
-1.54816 -0.335022 5.7749 0 0 0 128 0 0 255
-1.23429 -0.534698 5.7749 0 0 0 128 0 0 255
-1.20982 -0.550265 5.7749 0 0 0 128 0 0 255
-2.23104 0.100597 5.77499 0 0 0 128 0 0 255
-1.06079 -0.643895 5.77499 0 0 0 128 0 0 255
-1.16856 -0.572972 5.77517 0 0 0 128 0 0 255
-1.10337 -0.612086 5.77536 0 0 0 128 0 0 255
-1.90668 -0.097492 5.77563 0 0 0 128 0 0 255
-1.04976 -0.641467 5.77572 0 0 0 128 0 0 255
-1.13368 -0.583357 5.77609 0 0 0 128 0 0 255
-1.97773 -0.0452155 5.77618 0 0 0 128 0 0 255
-1.48614 -0.356772 5.77627 0 0 0 128 0 0 255
-2.30318 0.164193 5.77636 0 0 0 128 0 0 255
-1.65941 -0.245358 5.77636 0 0 0 128 0 0 255
-1.66563 -0.240224 5.77645 0 0 0 128 0 0 255
-1.21339 -0.52793 5.77645 0 0 0 128 0 0 255
-1.49919 -0.34375 5.77663 0 0 0 128 0 0 255
-1.49697 -0.343983 5.77673 0 0 0 128 0 0 255
-1.6559 -0.241694 5.77682 0 0 0 128 0 0 255
-1.14069 -0.56828 5.77691 0 0 0 128 0 0 255
-1.01581 -0.647721 5.77691 0 0 0 128 0 0 255
-1.01244 -0.649868 5.77691 0 0 0 128 0 0 255
-1.21808 -0.516681 5.77709 0 0 0 128 0 0 255
-1.87313 -0.0987747 5.77718 0 0 0 128 0 0 255
-1.19539 -0.527579 5.77737 0 0 0 128 0 0 255
-2.27913 0.166597 5.77773 0 0 0 128 0 0 255
-1.14263 -0.556424 5.77773 0 0 0 128 0 0 255
-2.27891 0.168814 5.77791 0 0 0 128 0 0 255
-1.87178 -0.0854718 5.77828 0 0 0 128 0 0 255
-1.9033 -0.0642344 5.77837 0 0 0 128 0 0 255
-1.60746 -0.251262 5.77846 0 0 0 128 0 0 255
-1.8362 -0.102205 5.77874 0 0 0 128 0 0 255
-1.41042 -0.371893 5.77883 0 0 0 128 0 0 255
-1.82025 -0.108809 5.77901 0 0 0 128 0 0 255
-1.5725 -0.265241 5.7791 0 0 0 128 0 0 255
-1.02998 -0.61038 5.7791 0 0 0 128 0 0 255
-1.88668 -0.0641874 5.77919 0 0 0 128 0 0 255
-1.79311 -0.120174 5.77947 0 0 0 128 0 0 255
-1.54874 -0.274459 5.77956 0 0 0 128 0 0 255
-1.13531 -0.537473 5.77956 0 0 0 128 0 0 255
-1.59545 -0.24356 5.77965 0 0 0 128 0 0 255
-1.40485 -0.361274 5.77992 0 0 0 128 0 0 255
-1.10195 -0.553973 5.77992 0 0 0 128 0 0 255
-2.07762 0.0679038 5.78002 0 0 0 128 0 0 255
-1.87459 -0.0600794 5.78011 0 0 0 128 0 0 255
-1.489 -0.305381 5.78011 0 0 0 128 0 0 255
-1.10657 -0.546318 5.78029 0 0 0 128 0 0 255
-1.12237 -0.533902 5.78047 0 0 0 128 0 0 255
-1.40196 -0.354856 5.78056 0 0 0 128 0 0 255
-1.54739 -0.261156 5.78066 0 0 0 128 0 0 255
-1.54432 -0.261926 5.78075 0 0 0 128 0 0 255
-1.43632 -0.330632 5.78075 0 0 0 128 0 0 255
-1.76822 -0.118306 5.78084 0 0 0 128 0 0 255
-1.58046 -0.233034 5.7812 0 0 0 128 0 0 255
-1.58752 -0.227363 5.7813 0 0 0 128 0 0 255
-1.80751 -0.0850498 5.78148 0 0 0 128 0 0 255
-1.75182 -0.120476 5.78148 0 0 0 128 0 0 255
-1.57663 -0.230746 5.78157 0 0 0 128 0 0 255
-1.55892 -0.242018 5.78157 0 0 0 128 0 0 255
-1.84503 -0.0564612 5.78184 0 0 0 128 0 0 255
-1.36157 -0.364027 5.78184 0 0 0 128 0 0 255
-1.77393 -0.0993322 5.78203 0 0 0 128 0 0 255
-1.54612 -0.244259 5.78203 0 0 0 128 0 0 255
-2.02744 0.0666682 5.78239 0 0 0 128 0 0 255
-1.74425 -0.112308 5.78248 0 0 0 128 0 0 255
-1.0527 -0.551077 5.78257 0 0 0 128 0 0 255
-1.05855 -0.537915 5.78331 0 0 0 128 0 0 255
-2.06206 0.101675 5.7834 0 0 0 128 0 0 255
-1.80556 -0.0615013 5.7834 0 0 0 128 0 0 255
-1.4301 -0.300361 5.7834 0 0 0 128 0 0 255
-1.77297 -0.0810581 5.78349 0 0 0 128 0 0 255
-1.80143 -0.060591 5.78367 0 0 0 128 0 0 255
-1.37872 -0.32951 5.78367 0 0 0 128 0 0 255
-1.34075 -0.353664 5.78367 0 0 0 128 0 0 255
-1.43449 -0.290489 5.78395 0 0 0 128 0 0 255
-1.03119 -0.547063 5.78395 0 0 0 128 0 0 255
-1.78664 -0.0652815 5.78404 0 0 0 128 0 0 255
-1.49302 -0.252075 5.78404 0 0 0 128 0 0 255
-1.48573 -0.255529 5.78413 0 0 0 128 0 0 255
-1.70994 -0.110533 5.78431 0 0 0 128 0 0 255
-1.74577 -0.0830178 5.78468 0 0 0 128 0 0 255
-1.4744 -0.254479 5.78477 0 0 0 128 0 0 255
-1.68626 -0.116157 5.78504 0 0 0 128 0 0 255
-1.94959 0.0549076 5.78532 0 0 0 128 0 0 255
-1.99799 0.0868802 5.78541 0 0 0 128 0 0 255
-1.71258 -0.092329 5.78559 0 0 0 128 0 0 255
-1.37455 -0.306194 5.78568 0 0 0 128 0 0 255
-2.0935 0.154723 5.78596 0 0 0 128 0 0 255
-1.38063 -0.295249 5.78623 0 0 0 128 0 0 255
-1.73814 -0.0654436 5.78641 0 0 0 128 0 0 255
-1.27662 -0.359054 5.78641 0 0 0 128 0 0 255
-1.27409 -0.360664 5.78641 0 0 0 128 0 0 255
-1.26245 -0.36099 5.78696 0 0 0 128 0 0 255
-1.68302 -0.0887107 5.78733 0 0 0 128 0 0 255
-1.31178 -0.324887 5.78733 0 0 0 128 0 0 255
-2.06976 0.158504 5.78742 0 0 0 128 0 0 255
-1.41027 -0.259868 5.78751 0 0 0 128 0 0 255
-1.62688 -0.119703 5.78769 0 0 0 128 0 0 255
-1.92281 0.0709186 5.78787 0 0 0 128 0 0 255
-1.37438 -0.277978 5.78787 0 0 0 128 0 0 255
-1.70414 -0.0622921 5.78833 0 0 0 128 0 0 255
-1.37508 -0.27163 5.78833 0 0 0 128 0 0 255
-1.31855 -0.307593 5.78833 0 0 0 128 0 0 255
-1.90948 0.0695186 5.78842 0 0 0 128 0 0 255
-1.31802 -0.306753 5.78842 0 0 0 128 0 0 255
-2.07026 0.180069 5.78906 0 0 0 128 0 0 255
-1.67317 -0.0713699 5.78915 0 0 0 128 0 0 255
-1.38968 -0.251723 5.78915 0 0 0 128 0 0 255
-1.91794 0.0878859 5.78943 0 0 0 128 0 0 255
-1.62632 -0.0964576 5.78952 0 0 0 128 0 0 255
-2.05102 0.174912 5.78961 0 0 0 128 0 0 255
-1.91687 0.0895663 5.78961 0 0 0 128 0 0 255
-1.25907 -0.327733 5.7897 0 0 0 128 0 0 255
-1.24304 -0.337931 5.7897 0 0 0 128 0 0 255
-1.60868 -0.104135 5.78979 0 0 0 128 0 0 255
-1.57279 -0.122245 5.79016 0 0 0 128 0 0 255
-1.30227 -0.29317 5.79025 0 0 0 128 0 0 255
-1.61476 -0.0931899 5.79034 0 0 0 128 0 0 255
-1.21651 -0.346543 5.79034 0 0 0 128 0 0 255
-1.61253 -0.0934233 5.79043 0 0 0 128 0 0 255
-1.31669 -0.28045 5.79052 0 0 0 128 0 0 255
-1.37185 -0.244184 5.79062 0 0 0 128 0 0 255
-1.54796 -0.129783 5.7908 0 0 0 128 0 0 255
-1.57105 -0.113913 5.79089 0 0 0 128 0 0 255
-1.34746 -0.256156 5.79089 0 0 0 128 0 0 255
-1.18102 -0.359681 5.79107 0 0 0 128 0 0 255
-1.8521 0.0684232 5.79116 0 0 0 128 0 0 255
-1.22529 -0.326798 5.79144 0 0 0 128 0 0 255
-1.18172 -0.353333 5.79153 0 0 0 128 0 0 255
-1.85994 0.0840366 5.79199 0 0 0 128 0 0 255
-1.22576 -0.318233 5.79208 0 0 0 128 0 0 255
-1.53435 -0.11956 5.79226 0 0 0 128 0 0 255
-2.02517 0.195054 5.79244 0 0 0 128 0 0 255
-1.25738 -0.293402 5.79244 0 0 0 128 0 0 255
-1.84492 0.081563 5.79253 0 0 0 128 0 0 255
-1.59526 -0.073725 5.79281 0 0 0 128 0 0 255
-1.54978 -0.0991162 5.79308 0 0 0 128 0 0 255
-1.79708 0.0617499 5.79336 0 0 0 128 0 0 255
-1.53974 -0.101963 5.79336 0 0 0 128 0 0 255
-1.26539 -0.2706 5.79381 0 0 0 128 0 0 255
-2.03296 0.220072 5.794 0 0 0 128 0 0 255
-1.80937 0.0778298 5.794 0 0 0 128 0 0 255
-1.53502 -0.0908073 5.79445 0 0 0 128 0 0 255
-1.26902 -0.257671 5.79464 0 0 0 128 0 0 255
-1.78822 0.0738162 5.79473 0 0 0 128 0 0 255
-1.5486 -0.0786249 5.79473 0 0 0 128 0 0 255
-1.46569 -0.129011 5.79491 0 0 0 128 0 0 255
-1.96296 0.188521 5.795 0 0 0 128 0 0 255
-1.2504 -0.260074 5.79537 0 0 0 128 0 0 255
-1.46195 -0.123129 5.79555 0 0 0 128 0 0 255
-1.43512 -0.133117 5.7961 0 0 0 128 0 0 255
-2.10006 0.293447 5.79637 0 0 0 128 0 0 255
-1.96293 0.210925 5.79674 0 0 0 128 0 0 255
-1.75874 0.0810285 5.79674 0 0 0 128 0 0 255
-1.40553 -0.142499 5.79683 0 0 0 128 0 0 255
-1.72148 0.0632222 5.7972 0 0 0 128 0 0 255
-1.18486 -0.27816 5.7972 0 0 0 128 0 0 255
-1.18579 -0.274029 5.79747 0 0 0 128 0 0 255
-1.96993 0.226002 5.79756 0 0 0 128 0 0 255
-1.47581 -0.0871649 5.79765 0 0 0 128 0 0 255
-1.44437 -0.104808 5.79783 0 0 0 128 0 0 255
-1.18045 -0.265627 5.79838 0 0 0 128 0 0 255
-1.74184 0.0926983 5.79847 0 0 0 128 0 0 255
-1.417 -0.113956 5.79847 0 0 0 128 0 0 255
-1.66438 0.0505043 5.79902 0 0 0 128 0 0 255
-1.43657 -0.0944221 5.79902 0 0 0 128 0 0 255
-2.07053 0.310065 5.79911 0 0 0 128 0 0 255
-1.91359 0.210227 5.79911 0 0 0 128 0 0 255
-1.35451 -0.144271 5.79921 0 0 0 128 0 0 255
-1.92602 0.220495 5.7993 0 0 0 128 0 0 255
-1.36694 -0.134002 5.79939 0 0 0 128 0 0 255
-1.17372 -0.256921 5.79939 0 0 0 128 0 0 255
-2.11395 0.342411 5.79948 0 0 0 128 0 0 255
-1.66455 0.0576925 5.79957 0 0 0 128 0 0 255
-1.3842 -0.118296 5.79975 0 0 0 128 0 0 255
-1.94905 0.24577 5.80012 0 0 0 128 0 0 255
-2.12126 0.358864 5.80039 0 0 0 128 0 0 255
-2.09688 0.346892 5.80067 0 0 0 128 0 0 255
-1.41039 -0.0886568 5.80076 0 0 0 128 0 0 255
-2.12112 0.364676 5.80085 0 0 0 128 0 0 255
-1.68584 0.0912994 5.80112 0 0 0 128 0 0 255
-1.95791 0.269109 5.80149 0 0 0 128 0 0 255
-1.38417 -0.095891 5.80149 0 0 0 128 0 0 255
-1.95769 0.271326 5.80167 0 0 0 128 0 0 255
-1.6126 0.0517892 5.80167 0 0 0 128 0 0 255
-2.10742 0.371304 5.80204 0 0 0 128 0 0 255
-1.28456 -0.149824 5.80222 0 0 0 128 0 0 255
-2.11594 0.380266 5.80231 0 0 0 128 0 0 255
-1.95963 0.283182 5.8025 0 0 0 128 0 0 255
-1.5946 0.0521398 5.80259 0 0 0 128 0 0 255
-1.34401 -0.107279 5.80259 0 0 0 128 0 0 255
-2.024 0.334758 5.80332 0 0 0 128 0 0 255
-1.28911 -0.132763 5.80332 0 0 0 128 0 0 255
-1.94446 0.28652 5.8035 0 0 0 128 0 0 255
-1.33093 -0.0978967 5.80396 0 0 0 128 0 0 255
-1.29175 -0.114559 5.8046 0 0 0 128 0 0 255
-1.29912 -0.107511 5.80478 0 0 0 128 0 0 255
-1.93591 0.299963 5.80496 0 0 0 128 0 0 255
-2.11456 0.415974 5.80515 0 0 0 128 0 0 255
-2.00189 0.349019 5.80551 0 0 0 128 0 0 255
-1.21553 -0.151246 5.80551 0 0 0 128 0 0 255
-1.21055 -0.150872 5.80579 0 0 0 128 0 0 255
-1.99553 0.349696 5.80588 0 0 0 128 0 0 255
-1.29271 -0.0974289 5.80588 0 0 0 128 0 0 255
-1.22906 -0.129658 5.80652 0 0 0 128 0 0 255
-1.97945 0.348903 5.80661 0 0 0 128 0 0 255
-2.07847 0.413081 5.8067 0 0 0 128 0 0 255
-1.97362 0.348739 5.80688 0 0 0 128 0 0 255
-1.23145 -0.122236 5.80697 0 0 0 128 0 0 255
-1.26697 -0.096098 5.80725 0 0 0 128 0 0 255
-1.19542 -0.134535 5.8078 0 0 0 128 0 0 255
-1.49081 0.056927 5.80807 0 0 0 128 0 0 255
-1.15647 -0.153414 5.80825 0 0 0 128 0 0 255
-1.23218 -0.102889 5.80843 0 0 0 128 0 0 255
-1.16046 -0.148513 5.80843 0 0 0 128 0 0 255
-2.08634 0.441694 5.80853 0 0 0 128 0 0 255
-1.90519 0.337072 5.80935 0 0 0 128 0 0 255
-1.44283 0.0429251 5.80935 0 0 0 128 0 0 255
-1.22346 -0.0966336 5.80935 0 0 0 128 0 0 255
-1.21128 -0.0961198 5.80999 0 0 0 128 0 0 255
-1.10159 -0.165899 5.80999 0 0 0 128 0 0 255
-1.43602 0.0480365 5.81008 0 0 0 128 0 0 255
-2.20834 0.540553 5.81017 0 0 0 128 0 0 255
-1.1003 -0.162002 5.81035 0 0 0 128 0 0 255
-1.16397 -0.116773 5.81072 0 0 0 128 0 0 255
-1.09985 -0.157567 5.81072 0 0 0 128 0 0 255
-1.37859 0.0209419 5.81081 0 0 0 128 0 0 255
-1.10921 -0.148069 5.81099 0 0 0 128 0 0 255
-1.15033 -0.11955 5.81118 0 0 0 128 0 0 255
-1.14175 -0.119106 5.81163 0 0 0 128 0 0 255
-1.35806 0.0196822 5.81172 0 0 0 128 0 0 255
-1.10977 -0.135909 5.81191 0 0 0 128 0 0 255
-2.04525 0.461579 5.81209 0 0 0 128 0 0 255
-1.14937 -0.101276 5.81264 0 0 0 128 0 0 255
-2.04297 0.470751 5.81291 0 0 0 128 0 0 255
-1.08902 -0.134952 5.813 0 0 0 128 0 0 255
-1.12769 -0.104449 5.81346 0 0 0 128 0 0 255
-1.10446 -0.114508 5.81383 0 0 0 128 0 0 255
-1.31401 0.0199868 5.81392 0 0 0 128 0 0 255
-1.09948 -0.114134 5.8141 0 0 0 128 0 0 255
-1.02233 -0.154951 5.81474 0 0 0 128 0 0 255
-2.05554 0.510613 5.81538 0 0 0 128 0 0 255
-1.0844 -0.107202 5.81538 0 0 0 128 0 0 255
-1.02005 -0.145779 5.81556 0 0 0 128 0 0 255
-1.03709 -0.127856 5.81611 0 0 0 128 0 0 255
-2.13625 0.573765 5.81629 0 0 0 128 0 0 255
-1.28186 0.0314002 5.81639 0 0 0 128 0 0 255
-1.83374 0.386038 5.81666 0 0 0 128 0 0 255
-1.26684 0.0289267 5.81693 0 0 0 128 0 0 255
-1.28042 0.0411091 5.81721 0 0 0 128 0 0 255
-1.23992 0.0153444 5.81721 0 0 0 128 0 0 255
-1.03858 -0.111565 5.8173 0 0 0 128 0 0 255
-2.11943 0.589029 5.8183 0 0 0 128 0 0 255
-1.21534 0.0185891 5.81867 0 0 0 128 0 0 255
-1.82736 0.40912 5.81876 0 0 0 128 0 0 255
-1.80573 0.396541 5.81885 0 0 0 128 0 0 255
-2.17644 0.633558 5.81894 0 0 0 128 0 0 255
-2.01568 0.536007 5.81931 0 0 0 128 0 0 255
-1.19734 0.0189396 5.81958 0 0 0 128 0 0 255
-1.21905 0.0351127 5.81977 0 0 0 128 0 0 255
-1.20496 0.0367701 5.82059 0 0 0 128 0 0 255
-1.20513 0.0439584 5.82114 0 0 0 128 0 0 255
-1.19478 0.0397344 5.82132 0 0 0 128 0 0 255
-1.77898 0.425552 5.82242 0 0 0 128 0 0 255
-1.14542 0.0260359 5.82269 0 0 0 128 0 0 255
-1.97798 0.571039 5.82388 0 0 0 128 0 0 255
-1.29802 0.142001 5.82415 0 0 0 128 0 0 255
-1.12069 0.0350919 5.82461 0 0 0 128 0 0 255
-1.08014 0.0187327 5.82534 0 0 0 128 0 0 255
-1.69024 0.410407 5.82561 0 0 0 128 0 0 255
-1.91461 0.562592 5.82635 0 0 0 128 0 0 255
-1.07594 0.0290485 5.82635 0 0 0 128 0 0 255
-1.89445 0.553304 5.82662 0 0 0 128 0 0 255
-1.75385 0.465041 5.82671 0 0 0 128 0 0 255
-1.7637 0.483105 5.82763 0 0 0 128 0 0 255
-1.67204 0.425975 5.82772 0 0 0 128 0 0 255
-1.81156 0.515918 5.82781 0 0 0 128 0 0 255
-1.00557 0.00552509 5.82799 0 0 0 128 0 0 255
-1.91045 0.585907 5.82836 0 0 0 128 0 0 255
-1.75214 0.486373 5.82845 0 0 0 128 0 0 255
-0.962261 -0.0102273 5.8289 0 0 0 128 0 0 255
-1.94046 0.613259 5.829 0 0 0 128 0 0 255
-1.0135 0.0247325 5.82909 0 0 0 128 0 0 255
-1.00791 0.0223521 5.82918 0 0 0 128 0 0 255
-1.71895 0.477062 5.82936 0 0 0 128 0 0 255
-1.01283 0.031384 5.82964 0 0 0 128 0 0 255
-1.71206 0.478579 5.82982 0 0 0 128 0 0 255
-1.67409 0.454424 5.82982 0 0 0 128 0 0 255
-1.69667 0.484134 5.83101 0 0 0 128 0 0 255
-1.64498 0.453608 5.83119 0 0 0 128 0 0 255
-1.73765 0.518464 5.83165 0 0 0 128 0 0 255
-1.83563 0.597322 5.83293 0 0 0 128 0 0 255
-1.56541 0.427775 5.83311 0 0 0 128 0 0 255
-1.72307 0.54696 5.83457 0 0 0 128 0 0 255
-1.51093 0.420261 5.83521 0 0 0 128 0 0 255
-1.62371 0.50381 5.83612 0 0 0 128 0 0 255
-1.51686 0.437018 5.83622 0 0 0 128 0 0 255
-1.64359 0.524721 5.83676 0 0 0 128 0 0 255
-1.61231 0.514266 5.83749 0 0 0 128 0 0 255
-1.51559 0.453915 5.83759 0 0 0 128 0 0 255
-1.51568 0.457509 5.83786 0 0 0 128 0 0 255
-1.68791 0.583603 5.83914 0 0 0 128 0 0 255
-1.68124 0.582903 5.83941 0 0 0 128 0 0 255
-1.79717 0.670816 5.84051 0 0 0 128 0 0 255
-1.79188 0.669813 5.84069 0 0 0 128 0 0 255
-1.66802 0.598097 5.84124 0 0 0 128 0 0 255
-1.58713 0.563161 5.84252 0 0 0 128 0 0 255
-1.55209 0.545588 5.84289 0 0 0 128 0 0 255
-1.47362 0.495669 5.84289 0 0 0 128 0 0 255
-1.76249 0.680619 5.84298 0 0 0 128 0 0 255
-1.74983 0.672568 5.84298 0 0 0 128 0 0 255
-1.43796 0.475342 5.84307 0 0 0 128 0 0 255
-1.74485 0.672941 5.84325 0 0 0 128 0 0 255
-1.48684 0.51588 5.8438 0 0 0 128 0 0 255
-1.56562 0.567176 5.84389 0 0 0 128 0 0 255
-1.49798 0.530046 5.84435 0 0 0 128 0 0 255
-1.57675 0.581342 5.84444 0 0 0 128 0 0 255
-1.5025 0.534107 5.84444 0 0 0 128 0 0 255
-1.62094 0.610631 5.84453 0 0 0 128 0 0 255
-2.02371 0.868044 5.84462 0 0 0 128 0 0 255
-1.61281 0.60664 5.84462 0 0 0 128 0 0 255
-1.72376 0.694927 5.84599 0 0 0 128 0 0 255
-1.56772 0.621625 5.848 0 0 0 128 0 0 255
-1.67054 0.705921 5.84946 0 0 0 128 0 0 255
-1.69487 0.727298 5.84992 0 0 0 128 0 0 255
-1.53287 0.624239 5.84992 0 0 0 128 0 0 255
-1.48624 0.596935 5.8501 0 0 0 128 0 0 255
-1.5921 0.669001 5.85047 0 0 0 128 0 0 255
-1.59019 0.670145 5.85065 0 0 0 128 0 0 255
-1.58152 0.666994 5.85084 0 0 0 128 0 0 255
-1.70932 0.753017 5.8512 0 0 0 128 0 0 255
-1.45851 0.595815 5.85138 0 0 0 128 0 0 255
-1.22549 0.453479 5.85184 0 0 0 128 0 0 255
-1.57767 0.691687 5.85294 0 0 0 128 0 0 255
-1.45057 0.612012 5.85303 0 0 0 128 0 0 255
-1.65639 0.752388 5.85376 0 0 0 128 0 0 255
-1.61153 0.729751 5.85422 0 0 0 128 0 0 255
-1.49335 0.664009 5.85495 0 0 0 128 0 0 255
-1.48162 0.660089 5.85522 0 0 0 128 0 0 255
-1.53289 0.708048 5.85641 0 0 0 128 0 0 255
-1.7173 0.833628 5.85705 0 0 0 128 0 0 255
-1.6199 0.779929 5.85769 0 0 0 128 0 0 255
-1.79402 0.891879 5.85778 0 0 0 128 0 0 255
-1.76196 0.871482 5.85778 0 0 0 128 0 0 255
-1.42446 0.656776 5.85778 0 0 0 128 0 0 255
-1.31962 0.592435 5.85796 0 0 0 128 0 0 255
-1.32752 0.598643 5.85805 0 0 0 128 0 0 255
-1.18985 0.516961 5.85851 0 0 0 128 0 0 255
-1.25912 0.56457 5.85879 0 0 0 128 0 0 255
-1.66526 0.824131 5.85888 0 0 0 128 0 0 255
-1.62201 0.798973 5.85906 0 0 0 128 0 0 255
-1.71459 0.860234 5.85924 0 0 0 128 0 0 255
-1.81362 0.924412 5.85933 0 0 0 128 0 0 255
-1.62547 0.804714 5.85933 0 0 0 128 0 0 255
-1.70171 0.8544 5.85943 0 0 0 128 0 0 255
-1.23881 0.561093 5.85952 0 0 0 128 0 0 255
-1.1635 0.515538 5.8597 0 0 0 128 0 0 255
-1.79576 0.918952 5.85979 0 0 0 128 0 0 255
-1.24089 0.567138 5.85988 0 0 0 128 0 0 255
-1.42514 0.685529 5.85997 0 0 0 128 0 0 255
-2.11899 1.12813 5.86006 0 0 0 128 0 0 255
-1.84225 0.952068 5.86006 0 0 0 128 0 0 255
-1.83381 0.9467 5.86006 0 0 0 128 0 0 255
-1.71884 0.875917 5.86025 0 0 0 128 0 0 255
-2.06677 1.09844 5.86034 0 0 0 128 0 0 255
-1.9942 1.05228 5.86034 0 0 0 128 0 0 255
-2.05189 1.09016 5.86043 0 0 0 128 0 0 255
-1.99207 1.05564 5.8607 0 0 0 128 0 0 255
-1.62788 0.825135 5.8608 0 0 0 128 0 0 255
-1.52112 0.761937 5.86116 0 0 0 128 0 0 255
-1.49421 0.748355 5.86144 0 0 0 128 0 0 255
-1.76535 0.922033 5.86153 0 0 0 128 0 0 255
-1.13126 0.523358 5.86189 0 0 0 128 0 0 255
-1.78799 0.942337 5.86198 0 0 0 128 0 0 255
-1.77764 0.938113 5.86217 0 0 0 128 0 0 255
-1.51977 0.77524 5.86226 0 0 0 128 0 0 255
-1.61236 0.836501 5.86244 0 0 0 128 0 0 255
-2.02525 1.10036 5.86253 0 0 0 128 0 0 255
-1.3146 0.650618 5.86272 0 0 0 128 0 0 255
-1.23369 0.602683 5.86299 0 0 0 128 0 0 255
-1.32934 0.664714 5.86308 0 0 0 128 0 0 255
-1.57005 0.828474 5.8639 0 0 0 128 0 0 255
-1.30467 0.664364 5.86427 0 0 0 128 0 0 255
-1.10035 0.540279 5.86473 0 0 0 128 0 0 255
-1.7327 0.947286 5.86509 0 0 0 128 0 0 255
-1.21588 0.623221 5.86546 0 0 0 128 0 0 255
-1.17623 0.597993 5.86546 0 0 0 128 0 0 255
-1.56327 0.846585 5.86564 0 0 0 128 0 0 255
-1.1744 0.602731 5.86591 0 0 0 128 0 0 255
-1.07492 0.542987 5.86619 0 0 0 128 0 0 255
-1.95049 1.10237 5.86637 0 0 0 128 0 0 255
-1.75474 0.977836 5.86637 0 0 0 128 0 0 255
-1.58768 0.871557 5.86637 0 0 0 128 0 0 255
-1.68648 0.937952 5.86664 0 0 0 128 0 0 255
-1.5136 0.83151 5.86692 0 0 0 128 0 0 255
-1.19951 0.634051 5.8671 0 0 0 128 0 0 255
-1.04933 0.538506 5.8671 0 0 0 128 0 0 255
-1.04404 0.537503 5.86728 0 0 0 128 0 0 255
-1.50924 0.834637 5.86738 0 0 0 128 0 0 255
-1.36949 0.746911 5.86747 0 0 0 128 0 0 255
-1.04044 0.537573 5.86747 0 0 0 128 0 0 255
-1.74282 0.989132 5.86783 0 0 0 128 0 0 255
-1.71497 0.971419 5.86783 0 0 0 128 0 0 255
-1.19217 0.640002 5.86792 0 0 0 128 0 0 255
-1.29288 0.705254 5.86802 0 0 0 128 0 0 255
-1.85382 1.06801 5.86847 0 0 0 128 0 0 255
-1.47361 0.82731 5.86856 0 0 0 128 0 0 255
-1.32258 0.731229 5.86856 0 0 0 128 0 0 255
-1.47116 0.829294 5.86884 0 0 0 128 0 0 255
-2.12522 1.25247 5.86939 0 0 0 128 0 0 255
-1.40529 0.796832 5.86957 0 0 0 128 0 0 255
-1.24161 0.692699 5.86957 0 0 0 128 0 0 255
-1.40391 0.797135 5.86966 0 0 0 128 0 0 255
-1.26248 0.708335 5.86975 0 0 0 128 0 0 255
-1.09772 0.605884 5.86993 0 0 0 128 0 0 255
-1.01588 0.553817 5.86993 0 0 0 128 0 0 255
-1.49374 0.859003 5.87003 0 0 0 128 0 0 255
-1.09888 0.607797 5.87003 0 0 0 128 0 0 255
-1.31012 0.743365 5.87012 0 0 0 128 0 0 255
-1.18809 0.666912 5.87021 0 0 0 128 0 0 255
-1.16561 0.653796 5.8703 0 0 0 128 0 0 255
-1.51469 0.878233 5.87048 0 0 0 128 0 0 255
-1.15704 0.65424 5.87076 0 0 0 128 0 0 255
-1.49492 0.873916 5.87112 0 0 0 128 0 0 255
-1.33132 0.773378 5.8714 0 0 0 128 0 0 255
-1.25063 0.723226 5.87149 0 0 0 128 0 0 255
-1.35005 0.792375 5.87194 0 0 0 128 0 0 255
-1.56799 0.941643 5.87277 0 0 0 128 0 0 255
-1.05486 0.621102 5.87322 0 0 0 128 0 0 255
-1.20543 0.721617 5.87359 0 0 0 128 0 0 255
-1.48817 0.905027 5.87386 0 0 0 128 0 0 255
-0.972731 0.580658 5.87414 0 0 0 128 0 0 255
-1.3024 0.79275 5.87432 0 0 0 128 0 0 255
-1.3334 0.814827 5.8745 0 0 0 128 0 0 255
-0.962549 0.583622 5.87487 0 0 0 128 0 0 255
-1.41856 0.878446 5.87523 0 0 0 128 0 0 255
-1.19581 0.73674 5.87523 0 0 0 128 0 0 255
-0.954814 0.584603 5.87533 0 0 0 128 0 0 255
-1.51078 0.947736 5.87606 0 0 0 128 0 0 255
-1.32977 0.837302 5.87642 0 0 0 128 0 0 255
-1.11711 0.724443 5.87816 0 0 0 128 0 0 255
-0.800715 0.523156 5.87816 0 0 0 128 0 0 255
-1.27084 0.829322 5.87871 0 0 0 128 0 0 255
-1.39549 0.910981 5.87889 0 0 0 128 0 0 255
-1.1127 0.736976 5.87935 0 0 0 128 0 0 255
-1.04767 0.705051 5.88008 0 0 0 128 0 0 255
-1.12707 0.7591 5.88035 0 0 0 128 0 0 255
-1.04776 0.708645 5.88035 0 0 0 128 0 0 255
-1.51344 1.01434 5.88108 0 0 0 128 0 0 255
-1.3184 0.896163 5.88154 0 0 0 128 0 0 255
-1.38873 0.942091 5.88163 0 0 0 128 0 0 255
-1.08662 0.759335 5.88236 0 0 0 128 0 0 255
-1.08977 0.763699 5.88254 0 0 0 128 0 0 255
-0.977863 0.693686 5.88264 0 0 0 128 0 0 255
-1.15313 0.807551 5.88282 0 0 0 128 0 0 255
-1.50337 1.0339 5.88309 0 0 0 128 0 0 255
-1.37459 0.953154 5.88318 0 0 0 128 0 0 255
-1.47257 1.03201 5.88446 0 0 0 128 0 0 255
-1.17577 0.863259 5.88602 0 0 0 128 0 0 255
-0.966775 0.740924 5.88684 0 0 0 128 0 0 255
-1.30292 0.968933 5.88794 0 0 0 128 0 0 255
-1.29574 0.982072 5.88931 0 0 0 128 0 0 255
-0.956646 0.769887 5.88958 0 0 0 128 0 0 255
-0.918452 0.74795 5.88976 0 0 0 128 0 0 255
-1.28916 0.984967 5.88986 0 0 0 128 0 0 255
-1.19714 0.935865 5.89059 0 0 0 128 0 0 255
-1.21516 0.948514 5.89068 0 0 0 128 0 0 255
-1.20881 0.949191 5.89104 0 0 0 128 0 0 255
-1.05471 0.85234 5.89113 0 0 0 128 0 0 255
-1.04085 0.85178 5.89177 0 0 0 128 0 0 255
-1.1039 0.894255 5.89196 0 0 0 128 0 0 255
-1.11304 0.90597 5.89241 0 0 0 128 0 0 255
-1.01885 0.84723 5.89251 0 0 0 128 0 0 255
-1.08497 0.890474 5.8926 0 0 0 128 0 0 255
-1.25659 1.01381 5.89369 0 0 0 128 0 0 255
-0.979161 0.879811 5.89698 0 0 0 128 0 0 255
-1.25807 1.06551 5.89762 0 0 0 128 0 0 255
-1.38325 1.14633 5.89771 0 0 0 128 0 0 255
-1.24727 1.06572 5.89817 0 0 0 128 0 0 255
-1.22581 1.06033 5.89881 0 0 0 128 0 0 255
-1.25765 1.08294 5.89899 0 0 0 128 0 0 255
-1.22091 1.0997 5.9021 0 0 0 128 0 0 255
-1.08484 1.0155 5.90228 0 0 0 128 0 0 255
-1.03976 0.995079 5.90292 0 0 0 128 0 0 255
-1.03816 0.9976 5.9032 0 0 0 128 0 0 255
-1.19143 1.10691 5.90411 0 0 0 128 0 0 255
-0.991268 0.994917 5.9053 0 0 0 128 0 0 255
-1.04293 1.04785 5.90685 0 0 0 128 0 0 255
-1.05193 1.06537 5.90777 0 0 0 128 0 0 255
-1.0593 1.07242 5.90795 0 0 0 128 0 0 255
-1.06247 1.08979 5.90914 0 0 0 128 0 0 255
-1.06624 1.0969 5.9095 0 0 0 128 0 0 255
-1.39141 1.31793 5.9106 0 0 0 128 0 0 255
-0.999524 1.09931 5.91297 0 0 0 128 0 0 255
-1.05594 1.15408 5.91444 0 0 0 128 0 0 255
-1.30071 1.31334 5.91471 0 0 0 128 0 0 255
-1.2991 1.31586 5.91498 0 0 0 128 0 0 255
-1.11587 1.20519 5.91544 0 0 0 128 0 0 255
-1.30335 1.33154 5.91599 0 0 0 128 0 0 255
-1.09275 1.21173 5.91709 0 0 0 128 0 0 255
-1.00435 1.17556 5.91864 0 0 0 128 0 0 255
-1.03734 1.20008 5.91891 0 0 0 128 0 0 255
-1.46491 1.48744 5.9201 0 0 0 128 0 0 255
-0.889123 1.1294 5.92074 0 0 0 128 0 0 255
-1.42599 1.48156 5.92156 0 0 0 128 0 0 255
-1.51329 1.54182 5.92193 0 0 0 128 0 0 255
-0.992477 1.21285 5.92211 0 0 0 128 0 0 255
-1.00707 1.23276 5.92294 0 0 0 128 0 0 255
-1.0778 1.28366 5.92339 0 0 0 128 0 0 255
-1.45726 1.52742 5.92357 0 0 0 128 0 0 255
-0.970819 1.22268 5.92394 0 0 0 128 0 0 255
-0.761966 1.09453 5.92431 0 0 0 128 0 0 255
-1.26249 1.43302 5.92586 0 0 0 128 0 0 255
-0.996514 1.31456 5.92979 0 0 0 128 0 0 255
-0.994911 1.31708 5.93006 0 0 0 128 0 0 255
-1.05445 1.36322 5.9307 0 0 0 128 0 0 255
-1.05431 1.36903 5.93116 0 0 0 128 0 0 255
-1.09975 1.41683 5.93262 0 0 0 128 0 0 255
-1.11603 1.47321 5.93618 0 0 0 128 0 0 255
-1.13667 1.52647 5.93929 0 0 0 128 0 0 255
