ply
format ascii 1.0
comment VCGLIB generated
element vertex 351
property float x
property float y
property float z
property float nx
property float ny
property float nz
property uchar red
property uchar green
property uchar blue
property uchar alpha
element face 0
property list uchar int vertex_indices
end_header
0.29404 0.0652531 4.88003 0 0 0 128 0 0 255
0.301111 0.0915232 4.86391 0 0 0 128 0 0 255
0.307461 0.131627 4.85414 0 0 0 128 0 0 255
0.340393 0.119383 4.78451 0 0 0 128 0 0 255
0.34137 0.118392 4.78276 0 0 0 128 0 0 255
0.345003 0.146342 4.78039 0 0 0 128 0 0 255
0.345915 0.15333 4.7798 0 0 0 128 0 0 255
0.352383 0.15335 4.7697 0 0 0 128 0 0 255
0.418905 1.23394 4.80023 0 0 0 128 0 0 255
0.360615 0.0964632 4.75112 0 0 0 128 0 0 255
0.389766 0.591353 4.76723 0 0 0 128 0 0 255
0.374365 0.312973 4.75681 0 0 0 128 0 0 255
0.392925 0.60531 4.76454 0 0 0 128 0 0 255
0.392373 0.595332 4.76417 0 0 0 128 0 0 255
0.434069 1.23886 4.78034 0 0 0 128 0 0 255
0.442908 1.15691 4.76108 0 0 0 128 0 0 255
0.444659 1.15289 4.75867 0 0 0 128 0 0 255
0.387909 0.115196 4.71906 0 0 0 128 0 0 255
0.446865 1.16884 4.75776 0 0 0 128 0 0 255
0.407055 0.364567 4.72245 0 0 0 128 0 0 255
0.457869 1.25855 4.75445 0 0 0 128 0 0 255
0.460239 1.16464 4.74295 0 0 0 128 0 0 255
0.418451 0.409328 4.71467 0 0 0 128 0 0 255
0.466735 1.23145 4.74259 0 0 0 128 0 0 255
0.472725 1.31424 4.74428 0 0 0 128 0 0 255
0.420918 0.339373 4.70566 0 0 0 128 0 0 255
0.43774 0.604742 4.71349 0 0 0 128 0 0 255
0.471246 1.19741 4.73499 0 0 0 128 0 0 255
0.471635 1.17842 4.73289 0 0 0 128 0 0 255
0.431904 0.421068 4.70246 0 0 0 128 0 0 255
0.447155 0.617541 4.70571 0 0 0 128 0 0 255
0.458778 0.570331 4.69136 0 0 0 128 0 0 255
0.451648 0.427631 4.68537 0 0 0 128 0 0 255
0.45528 0.339619 4.67509 0 0 0 128 0 0 255
0.50161 1.14878 4.70414 0 0 0 128 0 0 255
0.46526 0.406308 4.67264 0 0 0 128 0 0 255
0.464727 0.38234 4.67114 0 0 0 128 0 0 255
0.467252 0.39926 4.67056 0 0 0 128 0 0 255
0.474814 0.420039 4.66655 0 0 0 128 0 0 255
0.486992 0.625558 4.67365 0 0 0 128 0 0 255
0.471922 0.353165 4.66345 0 0 0 128 0 0 255
0.466547 0.241392 4.65868 0 0 0 128 0 0 255
0.473011 0.255198 4.65513 0 0 0 128 0 0 255
0.475642 0.27311 4.65466 0 0 0 128 0 0 255
0.474691 0.226167 4.65176 0 0 0 128 0 0 255
0.533084 1.23684 4.68791 0 0 0 128 0 0 255
0.499854 0.591205 4.66206 0 0 0 128 0 0 255
0.487436 0.351713 4.65254 0 0 0 128 0 0 255
0.502586 0.565135 4.65833 0 0 0 128 0 0 255
0.501868 0.552164 4.65784 0 0 0 128 0 0 255
0.493432 0.384512 4.65102 0 0 0 128 0 0 255
0.484654 0.225866 4.64508 0 0 0 128 0 0 255
0.502329 0.530161 4.65593 0 0 0 128 0 0 255
0.503403 0.519133 4.65444 0 0 0 128 0 0 255
0.4893 0.233716 4.64267 0 0 0 128 0 0 255
0.491451 0.226652 4.64081 0 0 0 128 0 0 255
0.50434 0.367173 4.64294 0 0 0 128 0 0 255
0.510583 0.417947 4.64278 0 0 0 128 0 0 255
0.504003 0.252231 4.63506 0 0 0 128 0 0 255
0.531211 0.634174 4.64588 0 0 0 128 0 0 255
0.532558 0.611135 4.64355 0 0 0 128 0 0 255
0.515318 0.267839 4.62974 0 0 0 128 0 0 255
0.565158 1.15284 4.66239 0 0 0 128 0 0 255
0.57266 1.27254 4.6664 0 0 0 128 0 0 255
0.542516 0.711758 4.64493 0 0 0 128 0 0 255
0.53059 0.384268 4.62939 0 0 0 128 0 0 255
0.523579 0.257551 4.62465 0 0 0 128 0 0 255
0.524692 0.245514 4.62328 0 0 0 128 0 0 255
0.553658 0.688364 4.63761 0 0 0 128 0 0 255
0.537815 0.402003 4.62688 0 0 0 128 0 0 255
0.532827 0.263213 4.62036 0 0 0 128 0 0 255
0.551886 0.591448 4.63221 0 0 0 128 0 0 255
0.5572 0.671237 4.63476 0 0 0 128 0 0 255
0.553833 0.610373 4.63248 0 0 0 128 0 0 255
0.55672 0.646259 4.63339 0 0 0 128 0 0 255
0.534435 0.22716 4.61726 0 0 0 128 0 0 255
0.544298 0.372768 4.62186 0 0 0 128 0 0 255
0.543192 0.270823 4.61593 0 0 0 128 0 0 255
0.569904 0.687755 4.62988 0 0 0 128 0 0 255
0.559005 0.358204 4.61434 0 0 0 128 0 0 255
0.562151 0.36508 4.61342 0 0 0 128 0 0 255
0.560588 0.320143 4.61136 0 0 0 128 0 0 255
0.57202 0.392685 4.61106 0 0 0 128 0 0 255
0.567461 0.242867 4.604 0 0 0 128 0 0 255
0.578551 0.42642 4.61052 0 0 0 128 0 0 255
0.584052 0.373189 4.6054 0 0 0 128 0 0 255
0.583778 0.351199 4.60424 0 0 0 128 0 0 255
0.640669 1.25989 4.63596 0 0 0 128 0 0 255
0.586541 0.230067 4.59645 0 0 0 128 0 0 255
0.605771 0.405264 4.59997 0 0 0 128 0 0 255
0.597231 0.233605 4.59325 0 0 0 128 0 0 255
0.604535 0.348307 4.59726 0 0 0 128 0 0 255
0.599181 0.251523 4.59363 0 0 0 128 0 0 255
0.611664 0.372997 4.59649 0 0 0 128 0 0 255
0.60886 0.270097 4.59182 0 0 0 128 0 0 255
0.612969 0.326927 4.59368 0 0 0 128 0 0 255
0.619171 0.386664 4.59513 0 0 0 128 0 0 255
0.639742 0.42473 4.59201 0 0 0 128 0 0 255
0.638344 0.381779 4.59018 0 0 0 128 0 0 255
0.639797 0.372708 4.58941 0 0 0 128 0 0 255
0.643279 0.382547 4.58916 0 0 0 128 0 0 255
0.642286 0.364587 4.58848 0 0 0 128 0 0 255
0.638691 0.228703 4.58259 0 0 0 128 0 0 255
0.652203 0.384121 4.58746 0 0 0 128 0 0 255
0.69696 1.17531 4.6169 0 0 0 128 0 0 255
0.655172 0.419994 4.58862 0 0 0 128 0 0 255
0.656871 0.432917 4.58892 0 0 0 128 0 0 255
0.647697 0.249279 4.58187 0 0 0 128 0 0 255
0.659047 0.418806 4.58786 0 0 0 128 0 0 255
0.654868 0.27194 4.58168 0 0 0 128 0 0 255
0.715985 1.26943 4.61808 0 0 0 128 0 0 255
0.711059 1.14461 4.61311 0 0 0 128 0 0 255
0.672076 0.404157 4.58509 0 0 0 128 0 0 255
0.669371 0.355266 4.58326 0 0 0 128 0 0 255
0.670906 0.347185 4.58268 0 0 0 128 0 0 255
0.685802 0.580566 4.59115 0 0 0 128 0 0 255
0.684532 0.557617 4.59029 0 0 0 128 0 0 255
0.684256 0.552628 4.5901 0 0 0 128 0 0 255
0.671394 0.320146 4.5814 0 0 0 128 0 0 255
0.669396 0.230197 4.57764 0 0 0 128 0 0 255
0.691521 0.558264 4.58943 0 0 0 128 0 0 255
0.68473 0.417528 4.58404 0 0 0 128 0 0 255
0.67518 0.244912 4.57758 0 0 0 128 0 0 255
0.687707 0.435386 4.58449 0 0 0 128 0 0 255
0.690629 0.380203 4.58179 0 0 0 128 0 0 255
0.688863 0.348274 4.5806 0 0 0 128 0 0 255
0.694662 0.362983 4.58069 0 0 0 128 0 0 255
0.699853 0.420751 4.58268 0 0 0 128 0 0 255
0.744627 1.17591 4.61072 0 0 0 128 0 0 255
0.721228 0.698817 4.59264 0 0 0 128 0 0 255
0.714607 0.561072 4.58742 0 0 0 128 0 0 255
0.738752 0.87101 4.59862 0 0 0 128 0 0 255
0.705248 0.247346 4.57521 0 0 0 128 0 0 255
0.740581 0.86791 4.5984 0 0 0 128 0 0 255
0.737103 0.80505 4.59605 0 0 0 128 0 0 255
0.707022 0.243249 4.57497 0 0 0 128 0 0 255
0.743412 0.846742 4.59745 0 0 0 128 0 0 255
0.747239 0.843533 4.5972 0 0 0 128 0 0 255
0.722241 0.355512 4.57887 0 0 0 128 0 0 255
0.725006 0.387387 4.58004 0 0 0 128 0 0 255
0.720374 0.285559 4.57621 0 0 0 128 0 0 255
0.720323 0.266547 4.57548 0 0 0 128 0 0 255
0.719505 0.215551 4.57354 0 0 0 128 0 0 255
0.754066 0.822144 4.59625 0 0 0 128 0 0 255
0.749573 0.614221 4.58845 0 0 0 128 0 0 255
0.750903 0.620152 4.58868 0 0 0 128 0 0 255
0.730317 0.229966 4.57408 0 0 0 128 0 0 255
0.765877 0.836503 4.59682 0 0 0 128 0 0 255
0.755356 0.555848 4.58641 0 0 0 128 0 0 255
0.745424 0.358232 4.57904 0 0 0 128 0 0 255
0.804389 1.38782 4.61765 0 0 0 128 0 0 255
0.749743 0.38201 4.58003 0 0 0 128 0 0 255
0.798822 1.25102 4.6126 0 0 0 128 0 0 255
0.766639 0.669313 4.59082 0 0 0 128 0 0 255
0.760677 0.561553 4.58679 0 0 0 128 0 0 255
0.751683 0.380899 4.58006 0 0 0 128 0 0 255
0.784315 0.934551 4.60088 0 0 0 128 0 0 255
0.772676 0.687987 4.59174 0 0 0 128 0 0 255
0.771251 0.607994 4.5889 0 0 0 128 0 0 255
0.785057 0.821403 4.59701 0 0 0 128 0 0 255
0.763032 0.423291 4.5821 0 0 0 128 0 0 255
0.758615 0.343468 4.57911 0 0 0 128 0 0 255
0.758619 0.325451 4.5785 0 0 0 128 0 0 255
0.767132 0.389021 4.58122 0 0 0 128 0 0 255
0.778287 0.554536 4.58757 0 0 0 128 0 0 255
0.763108 0.26213 4.57671 0 0 0 128 0 0 255
0.791538 0.757966 4.59535 0 0 0 128 0 0 255
0.78243 0.593333 4.58919 0 0 0 128 0 0 255
0.772331 0.356686 4.58059 0 0 0 128 0 0 255
0.805232 0.825231 4.59882 0 0 0 128 0 0 255
0.780336 0.375233 4.58197 0 0 0 128 0 0 255
0.794685 0.580599 4.58998 0 0 0 128 0 0 255
0.794407 0.557591 4.58924 0 0 0 128 0 0 255
0.807488 0.776045 4.59753 0 0 0 128 0 0 255
0.7779 0.241237 4.57751 0 0 0 128 0 0 255
0.780435 0.251096 4.57811 0 0 0 128 0 0 255
0.779662 0.237127 4.57759 0 0 0 128 0 0 255
0.783897 0.223859 4.57773 0 0 0 128 0 0 255
0.787476 0.252675 4.57908 0 0 0 128 0 0 255
0.799992 0.42511 4.58596 0 0 0 128 0 0 255
0.798993 0.38913 4.58475 0 0 0 128 0 0 255
0.790216 0.230484 4.57881 0 0 0 128 0 0 255
0.798655 0.365124 4.584 0 0 0 128 0 0 255
0.826912 0.857965 4.60261 0 0 0 128 0 0 255
0.826133 0.825976 4.60156 0 0 0 128 0 0 255
0.858308 1.38966 4.62282 0 0 0 128 0 0 255
0.823476 0.760063 4.59925 0 0 0 128 0 0 255
0.816403 0.614327 4.59394 0 0 0 128 0 0 255
0.802263 0.340876 4.58386 0 0 0 128 0 0 255
0.828956 0.769738 4.60041 0 0 0 128 0 0 255
0.818081 0.573176 4.59305 0 0 0 128 0 0 255
0.823416 0.633919 4.59566 0 0 0 128 0 0 255
0.810137 0.34039 4.58519 0 0 0 128 0 0 255
0.862505 1.18015 4.61774 0 0 0 128 0 0 255
0.860297 1.14024 4.61625 0 0 0 128 0 0 255
0.839583 0.748053 4.60175 0 0 0 128 0 0 255
0.833938 0.628258 4.59746 0 0 0 128 0 0 255
0.833041 0.594273 4.59639 0 0 0 128 0 0 255
0.820013 0.358797 4.58757 0 0 0 128 0 0 255
0.866643 1.1839 4.61866 0 0 0 128 0 0 255
0.833452 0.566212 4.59574 0 0 0 128 0 0 255
0.85147 0.856441 4.60701 0 0 0 128 0 0 255
0.863432 1.05494 4.61465 0 0 0 128 0 0 255
0.820653 0.228593 4.58434 0 0 0 128 0 0 255
0.855798 0.846154 4.60768 0 0 0 128 0 0 255
0.833698 0.429022 4.59228 0 0 0 128 0 0 255
0.857359 0.839046 4.60786 0 0 0 128 0 0 255
0.83452 0.39092 4.59153 0 0 0 128 0 0 255
0.874278 1.07427 4.61757 0 0 0 128 0 0 255
0.829564 0.266074 4.58731 0 0 0 128 0 0 255
0.84619 0.531357 4.59771 0 0 0 128 0 0 255
0.840449 0.427589 4.59382 0 0 0 128 0 0 255
0.885979 1.16264 4.62255 0 0 0 128 0 0 255
0.870856 0.854199 4.61149 0 0 0 128 0 0 255
0.85413 0.551873 4.60017 0 0 0 128 0 0 255
0.87174 0.835115 4.61128 0 0 0 128 0 0 255
0.845159 0.337162 4.5929 0 0 0 128 0 0 255
0.850374 0.413928 4.59603 0 0 0 128 0 0 255
0.893568 1.17716 4.62487 0 0 0 128 0 0 255
0.917528 1.38388 4.63619 0 0 0 128 0 0 255
0.859621 0.337211 4.597 0 0 0 128 0 0 255
0.916496 1.34789 4.63513 0 0 0 128 0 0 255
0.86571 0.42994 4.60076 0 0 0 128 0 0 255
0.866791 0.414846 4.60078 0 0 0 128 0 0 255
0.857462 0.246222 4.59447 0 0 0 128 0 0 255
0.87655 0.539377 4.60634 0 0 0 128 0 0 255
0.923043 1.36248 4.63747 0 0 0 128 0 0 255
0.912941 1.17989 4.63063 0 0 0 128 0 0 255
0.872743 0.384401 4.60208 0 0 0 128 0 0 255
0.927734 1.36116 4.63897 0 0 0 128 0 0 255
0.874142 0.375293 4.60237 0 0 0 128 0 0 255
0.882017 0.414818 4.60579 0 0 0 128 0 0 255
0.884788 0.3966 4.60645 0 0 0 128 0 0 255
0.883837 0.26045 4.60378 0 0 0 128 0 0 255
0.931024 1.07949 4.63516 0 0 0 128 0 0 255
0.934551 1.12632 4.63727 0 0 0 128 0 0 255
0.915782 0.787081 4.62457 0 0 0 128 0 0 255
0.917864 0.790942 4.62544 0 0 0 128 0 0 255
0.925857 0.834454 4.62929 0 0 0 128 0 0 255
0.899195 0.352528 4.61125 0 0 0 128 0 0 255
0.912374 0.573969 4.61992 0 0 0 128 0 0 255
0.930686 0.888203 4.63206 0 0 0 128 0 0 255
0.896461 0.269582 4.6089 0 0 0 128 0 0 255
0.904802 0.370161 4.61382 0 0 0 128 0 0 255
0.897516 0.238455 4.60889 0 0 0 128 0 0 255
0.946516 1.10745 4.64182 0 0 0 128 0 0 255
0.948043 1.11836 4.64261 0 0 0 128 0 0 255
0.908443 0.38593 4.61558 0 0 0 128 0 0 255
0.907627 0.337906 4.61458 0 0 0 128 0 0 255
0.935592 0.82675 4.63328 0 0 0 128 0 0 255
0.935347 0.805731 4.63289 0 0 0 128 0 0 255
0.904435 0.246977 4.61197 0 0 0 128 0 0 255
0.903441 0.229017 4.6113 0 0 0 128 0 0 255
0.950172 1.05711 4.64271 0 0 0 128 0 0 255
0.923289 0.571188 4.62451 0 0 0 128 0 0 255
0.921357 0.536266 4.62321 0 0 0 128 0 0 255
0.921081 0.531277 4.62302 0 0 0 128 0 0 255
0.905628 0.218842 4.61213 0 0 0 128 0 0 255
0.917966 0.425316 4.62027 0 0 0 128 0 0 255
0.912997 0.335516 4.61691 0 0 0 128 0 0 255
0.93919 0.792432 4.63443 0 0 0 128 0 0 255
0.961192 1.09137 4.64814 0 0 0 128 0 0 255
0.932913 0.547451 4.62862 0 0 0 128 0 0 255
0.91696 0.259094 4.61783 0 0 0 128 0 0 255
0.966125 1.11505 4.65074 0 0 0 128 0 0 255
0.948074 0.788781 4.63852 0 0 0 128 0 0 255
0.971677 1.18277 4.65415 0 0 0 128 0 0 255
0.949569 0.750602 4.63884 0 0 0 128 0 0 255
0.930359 0.403376 4.62584 0 0 0 128 0 0 255
0.974931 1.17652 4.65568 0 0 0 128 0 0 255
0.929665 0.358344 4.62504 0 0 0 128 0 0 255
0.945307 0.608653 4.63531 0 0 0 128 0 0 255
0.943983 0.584707 4.63441 0 0 0 128 0 0 255
0.973413 1.10049 4.65417 0 0 0 128 0 0 255
0.931267 0.258037 4.62491 0 0 0 128 0 0 255
0.936402 0.334799 4.62825 0 0 0 128 0 0 255
0.979127 1.04296 4.65663 0 0 0 128 0 0 255
0.953566 0.564954 4.63921 0 0 0 128 0 0 255
0.947195 0.386087 4.63442 0 0 0 128 0 0 255
0.946956 0.350034 4.63404 0 0 0 128 0 0 255
0.944572 0.291099 4.63232 0 0 0 128 0 0 255
0.945772 0.233894 4.63263 0 0 0 128 0 0 255
0.956354 0.409436 4.63971 0 0 0 128 0 0 255
1.00927 1.35027 4.67543 0 0 0 128 0 0 255
0.951172 0.237486 4.63579 0 0 0 128 0 0 255
0.953797 0.269348 4.63749 0 0 0 128 0 0 255
1.01416 1.34488 4.67827 0 0 0 128 0 0 255
1.0172 1.3687 4.68019 0 0 0 128 0 0 255
0.964007 0.360744 4.64401 0 0 0 128 0 0 255
0.983114 0.386285 4.65636 0 0 0 128 0 0 255
0.986224 0.352958 4.65852 0 0 0 128 0 0 255
1.02502 0.936124 4.68501 0 0 0 128 0 0 255
0.998954 0.421072 4.66749 0 0 0 128 0 0 255
0.998347 0.410097 4.66708 0 0 0 128 0 0 255
0.995866 0.336128 4.6655 0 0 0 128 0 0 255
1.02973 0.933729 4.68848 0 0 0 128 0 0 255
0.998956 0.362935 4.66771 0 0 0 128 0 0 255
1.00534 0.420539 4.67228 0 0 0 128 0 0 255
1.00476 0.338389 4.67227 0 0 0 128 0 0 255
1.01012 0.335928 4.67654 0 0 0 128 0 0 255
1.00331 0.114955 4.67272 0 0 0 128 0 0 255
1.04072 0.763377 4.69829 0 0 0 128 0 0 255
1.0203 0.3942 4.68446 0 0 0 128 0 0 255
1.03257 0.574599 4.69316 0 0 0 128 0 0 255
1.03438 0.59349 4.69452 0 0 0 128 0 0 255
1.03394 0.585508 4.69422 0 0 0 128 0 0 255
1.02526 0.414822 4.68848 0 0 0 128 0 0 255
1.07017 1.17187 4.71946 0 0 0 128 0 0 255
1.02611 0.375644 4.68965 0 0 0 128 0 0 255
1.02162 0.280789 4.68676 0 0 0 128 0 0 255
1.02747 0.359482 4.69103 0 0 0 128 0 0 255
1.03142 0.309997 4.69524 0 0 0 128 0 0 255
1.05116 0.627092 4.70916 0 0 0 128 0 0 255
1.05315 0.649975 4.7107 0 0 0 128 0 0 255
1.04626 0.512216 4.70624 0 0 0 128 0 0 255
1.05085 0.568958 4.70974 0 0 0 128 0 0 255
1.04092 0.350248 4.70364 0 0 0 128 0 0 255
1.09048 1.22018 4.73761 0 0 0 128 0 0 255
1.04218 0.334087 4.70513 0 0 0 128 0 0 255
1.04521 0.375928 4.7074 0 0 0 128 0 0 255
1.07009 0.812888 4.72447 0 0 0 128 0 0 255
1.09172 1.19098 4.73933 0 0 0 128 0 0 255
1.07059 0.77072 4.72572 0 0 0 128 0 0 255
1.05072 0.41152 4.71227 0 0 0 128 0 0 255
1.09028 1.00055 4.74153 0 0 0 128 0 0 255
1.06806 0.549299 4.72755 0 0 0 128 0 0 255
1.07191 0.582031 4.73099 0 0 0 128 0 0 255
1.08415 0.730311 4.741 0 0 0 128 0 0 255
1.07794 0.534295 4.73892 0 0 0 128 0 0 255
1.08495 0.61386 4.74495 0 0 0 128 0 0 255
1.08921 0.667612 4.74849 0 0 0 128 0 0 255
1.09646 0.752167 4.75473 0 0 0 128 0 0 255
1.08685 0.578554 4.74823 0 0 0 128 0 0 255
1.09877 0.770997 4.75699 0 0 0 128 0 0 255
1.0898 0.59732 4.75126 0 0 0 128 0 0 255
1.10269 0.706376 4.76398 0 0 0 128 0 0 255
1.08923 0.364568 4.75836 0 0 0 128 0 0 255
1.09849 0.521156 4.76503 0 0 0 128 0 0 255
1.10871 0.652549 4.774 0 0 0 128 0 0 255
1.1147 0.750269 4.77847 0 0 0 128 0 0 255
1.11852 0.735801 4.78448 0 0 0 128 0 0 255
1.1123 0.602973 4.78116 0 0 0 128 0 0 255
1.1176 0.588326 4.78978 0 0 0 128 0 0 255
1.09659 0.111776 4.7804 0 0 0 128 0 0 255
1.12366 0.572567 4.80022 0 0 0 128 0 0 255
1.14083 0.543315 4.83336 0 0 0 128 0 0 255
1.11875 0.144205 4.81842 0 0 0 128 0 0 255
1.15209 0.0893672 4.92215 0 0 0 128 0 0 255
1.1539 0.0939775 4.93018 0 0 0 128 0 0 255
1.15345 0.0728375 4.93332 0 0 0 128 0 0 255
1.1533 0.0607253 4.93583 0 0 0 128 0 0 255
