ply
format ascii 1.0
comment VCGLIB generated
element vertex 520
property float x
property float y
property float z
property float nx
property float ny
property float nz
property uchar red
property uchar green
property uchar blue
property uchar alpha
element face 0
property list uchar int vertex_indices
end_header
-0.279362 0.634852 4.34864 0 0 0 128 128 128 255
-0.284951 0.644299 4.33726 0 0 0 128 128 128 255
-0.287436 0.78627 4.34061 0 0 0 128 128 128 255
-0.28949 0.764462 4.33521 0 0 0 128 128 128 255
-0.290157 0.790472 4.33542 0 0 0 128 128 128 255
-0.2912 0.806525 4.33432 0 0 0 128 128 128 255
-0.291042 0.675716 4.32698 0 0 0 128 128 128 255
-0.291862 0.662796 4.32465 0 0 0 128 128 128 255
-0.292804 0.720775 4.32623 0 0 0 128 128 128 255
-0.292182 0.416196 4.30974 0 0 0 128 128 128 255
-0.294819 0.736895 4.32339 0 0 0 128 128 128 255
-0.296059 0.771929 4.32312 0 0 0 128 128 128 255
-0.298001 0.655238 4.3129 0 0 0 128 128 128 255
-0.29877 0.689239 4.31347 0 0 0 128 128 128 255
-0.298273 0.448564 4.30062 0 0 0 128 128 128 255
-0.300737 0.748283 4.31337 0 0 0 128 128 128 255
-0.304334 0.819412 4.31121 0 0 0 128 128 128 255
-0.304935 0.45498 4.28969 0 0 0 128 128 128 255
-0.3053 0.43603 4.28803 0 0 0 128 128 128 255
-0.305716 0.359166 4.28305 0 0 0 128 128 128 255
-0.30658 0.40016 4.28394 0 0 0 128 128 128 255
-0.312073 0.874809 4.3016 0 0 0 128 128 128 255
-0.313467 0.585301 4.28338 0 0 0 128 128 128 255
-0.312436 0.393512 4.27438 0 0 0 128 128 128 255
-0.313313 0.366599 4.27156 0 0 0 128 128 128 255
-0.316082 0.365754 4.26736 0 0 0 128 128 128 255
-0.32145 0.813426 4.28394 0 0 0 128 128 128 255
-0.322057 0.818451 4.28332 0 0 0 128 128 128 255
-0.321022 0.484856 4.26666 0 0 0 128 128 128 255
-0.327615 1.14729 4.29321 0 0 0 128 128 128 255
-0.333745 1.18256 4.28659 0 0 0 128 128 128 255
-0.330429 0.707034 4.26555 0 0 0 128 128 128 255
-0.330464 0.42042 4.25014 0 0 0 128 128 128 255
-0.33897 1.23474 4.2824 0 0 0 128 128 128 255
-0.339627 1.16686 4.27793 0 0 0 128 128 128 255
-0.338351 0.788305 4.25944 0 0 0 128 128 128 255
-0.33836 0.789304 4.25948 0 0 0 128 128 128 255
-0.339814 0.816335 4.25906 0 0 0 128 128 128 255
-0.342352 1.12505 4.2722 0 0 0 128 128 128 255
-0.33691 0.387766 4.24003 0 0 0 128 128 128 255
-0.337099 0.410745 4.24101 0 0 0 128 128 128 255
-0.337383 0.369811 4.23848 0 0 0 128 128 128 255
-0.338073 0.453733 4.24205 0 0 0 128 128 128 255
-0.347336 1.42887 4.28199 0 0 0 128 128 128 255
-0.346524 1.25407 4.27377 0 0 0 128 128 128 255
-0.342453 0.68263 4.24867 0 0 0 128 128 128 255
-0.342888 0.73558 4.25092 0 0 0 128 128 128 255
-0.346798 1.21113 4.27116 0 0 0 128 128 128 255
-0.348386 1.17425 4.26726 0 0 0 128 128 128 255
-0.343898 0.473965 4.23591 0 0 0 128 128 128 255
-0.353762 1.28434 4.26656 0 0 0 128 128 128 255
-0.34828 0.539068 4.23407 0 0 0 128 128 128 255
-0.35392 1.14652 4.25917 0 0 0 128 128 128 255
-0.351553 0.462302 4.22625 0 0 0 128 128 128 255
-0.358042 1.25156 4.25984 0 0 0 128 128 128 255
-0.352678 0.519275 4.22792 0 0 0 128 128 128 255
-0.354625 0.515358 4.2255 0 0 0 128 128 128 255
-0.355099 0.492406 4.22377 0 0 0 128 128 128 255
-0.360718 1.01397 4.24448 0 0 0 128 128 128 255
-0.356757 0.369627 4.21556 0 0 0 128 128 128 255
-0.357266 0.431569 4.2182 0 0 0 128 128 128 255
-0.362087 1.01802 4.24316 0 0 0 128 128 128 255
-0.362816 1.02504 4.24272 0 0 0 128 128 128 255
-0.36049 0.660406 4.22645 0 0 0 128 128 128 255
-0.358364 0.319751 4.21122 0 0 0 128 128 128 255
-0.362709 0.848255 4.23371 0 0 0 128 128 128 255
-0.361799 0.655462 4.22477 0 0 0 128 128 128 255
-0.361069 0.401752 4.2125 0 0 0 128 128 128 255
-0.367139 1.14006 4.24392 0 0 0 128 128 128 255
-0.361363 0.354821 4.20977 0 0 0 128 128 128 255
-0.364074 0.684512 4.2238 0 0 0 128 128 128 255
-0.367622 1.11611 4.24217 0 0 0 128 128 128 255
-0.366499 0.646649 4.21927 0 0 0 128 128 128 255
-0.369677 1.03329 4.23572 0 0 0 128 128 128 255
-0.37002 0.907454 4.22892 0 0 0 128 128 128 255
-0.367141 0.388991 4.2054 0 0 0 128 128 128 255
-0.370159 0.332169 4.1994 0 0 0 128 128 128 255
-0.372977 0.504056 4.20529 0 0 0 128 128 128 255
-0.381149 1.41223 4.24324 0 0 0 128 128 128 255
-0.377454 0.79086 4.21537 0 0 0 128 128 128 255
-0.380074 1.10956 4.22894 0 0 0 128 128 128 255
-0.378788 0.866813 4.2179 0 0 0 128 128 128 255
-0.381687 1.21948 4.23291 0 0 0 128 128 128 255
-0.383051 1.38533 4.23997 0 0 0 128 128 128 255
-0.383811 1.39134 4.23952 0 0 0 128 128 128 255
-0.383225 1.14662 4.2277 0 0 0 128 128 128 255
-0.382747 0.826994 4.212 0 0 0 128 128 128 255
-0.384007 0.805061 4.20968 0 0 0 128 128 128 255
-0.383652 0.320633 4.18562 0 0 0 128 128 128 255
-0.390412 1.14286 4.22062 0 0 0 128 128 128 255
-0.389557 0.861171 4.20726 0 0 0 128 128 128 255
-0.388713 0.490588 4.18945 0 0 0 128 128 128 255
-0.388292 0.349743 4.18278 0 0 0 128 128 128 255
-0.396908 1.39776 4.22739 0 0 0 128 128 128 255
-0.390502 0.438705 4.18522 0 0 0 128 128 128 255
-0.396005 1.10808 4.21371 0 0 0 128 128 128 255
-0.391649 0.397788 4.18214 0 0 0 128 128 128 255
-0.395617 0.880335 4.20267 0 0 0 128 128 128 255
-0.392377 0.395812 4.18138 0 0 0 128 128 128 255
-0.403279 1.08332 4.20601 0 0 0 128 128 128 255
-0.401036 0.718684 4.18984 0 0 0 128 128 128 255
-0.399272 0.411994 4.17613 0 0 0 128 128 128 255
-0.400317 0.446983 4.17697 0 0 0 128 128 128 255
-0.402712 0.645817 4.18478 0 0 0 128 128 128 255
-0.404893 0.725785 4.18688 0 0 0 128 128 128 255
-0.407464 0.665925 4.18176 0 0 0 128 128 128 255
-0.409991 0.879746 4.19022 0 0 0 128 128 128 255
-0.410188 0.903723 4.19125 0 0 0 128 128 128 255
-0.409431 0.624027 4.17807 0 0 0 128 128 128 255
-0.409562 0.640012 4.17875 0 0 0 128 128 128 255
-0.410293 0.728929 4.18253 0 0 0 128 128 128 255
-0.413139 0.886821 4.18798 0 0 0 128 128 128 255
-0.411383 0.48424 4.16959 0 0 0 128 128 128 255
-0.412104 0.382377 4.164 0 0 0 128 128 128 255
-0.416116 0.680137 4.17543 0 0 0 128 128 128 255
-0.416305 0.703116 4.1764 0 0 0 128 128 128 255
-0.420508 0.832074 4.17942 0 0 0 128 128 128 255
-0.426746 1.39858 4.2023 0 0 0 128 128 128 255
-0.421798 0.410586 4.15782 0 0 0 128 128 128 255
-0.42257 0.504498 4.16181 0 0 0 128 128 128 255
-0.427449 1.00105 4.18234 0 0 0 128 128 128 255
-0.424743 0.477581 4.15886 0 0 0 128 128 128 255
-0.426108 0.448646 4.15643 0 0 0 128 128 128 255
-0.428168 0.503631 4.15758 0 0 0 128 128 128 255
-0.43413 0.934283 4.17414 0 0 0 128 128 128 255
-0.430937 0.348869 4.14805 0 0 0 128 128 128 255
-0.434773 0.815431 4.16791 0 0 0 128 128 128 255
-0.435998 0.667624 4.15987 0 0 0 128 128 128 255
-0.436171 0.688604 4.16076 0 0 0 128 128 128 255
-0.438589 0.684661 4.15887 0 0 0 128 128 128 255
-0.437232 0.419927 4.14702 0 0 0 128 128 128 255
-0.439698 0.41998 4.14532 0 0 0 128 128 128 255
-0.440864 0.561846 4.15135 0 0 0 128 128 128 255
-0.444301 0.879565 4.16431 0 0 0 128 128 128 255
-0.441953 0.393057 4.14248 0 0 0 128 128 128 255
-0.444062 0.448039 4.1437 0 0 0 128 128 128 255
-0.449736 0.834726 4.15849 0 0 0 128 128 128 255
-0.450069 0.7738 4.15534 0 0 0 128 128 128 255
-0.448709 0.303291 4.13367 0 0 0 128 128 128 255
-0.449178 0.25835 4.13121 0 0 0 128 128 128 255
-0.449326 0.276333 4.13198 0 0 0 128 128 128 255
-0.453909 0.83381 4.1557 0 0 0 128 128 128 255
-0.45258 0.570073 4.14394 0 0 0 128 128 128 255
-0.45318 0.643005 4.14704 0 0 0 128 128 128 255
-0.455291 0.899764 4.15797 0 0 0 128 128 128 255
-0.458691 1.31338 4.17557 0 0 0 128 128 128 255
-0.455737 0.441274 4.13576 0 0 0 128 128 128 255
-0.456944 0.588136 4.14201 0 0 0 128 128 128 255
-0.458997 0.837902 4.15265 0 0 0 128 128 128 255
-0.460336 1.00075 4.15958 0 0 0 128 128 128 255
-0.458157 0.426335 4.13353 0 0 0 128 128 128 255
-0.462494 0.95384 4.15599 0 0 0 128 128 128 255
-0.460395 0.595192 4.14019 0 0 0 128 128 128 255
-0.46189 0.777021 4.14793 0 0 0 128 128 128 255
-0.467196 1.42242 4.1754 0 0 0 128 128 128 255
-0.462452 0.32652 4.12615 0 0 0 128 128 128 255
-0.462906 0.277581 4.12355 0 0 0 128 128 128 255
-0.472064 1.39154 4.17096 0 0 0 128 128 128 255
-0.466902 0.345576 4.1244 0 0 0 128 128 128 255
-0.47137 0.889066 4.14753 0 0 0 128 128 128 255
-0.468824 0.369582 4.12441 0 0 0 128 128 128 255
-0.470313 0.445525 4.12714 0 0 0 128 128 128 255
-0.47488 1.001 4.15078 0 0 0 128 128 128 255
-0.47057 0.371609 4.12349 0 0 0 128 128 128 255
-0.471724 0.40659 4.12448 0 0 0 128 128 128 255
-0.47324 0.48553 4.12734 0 0 0 128 128 128 255
-0.473146 0.262767 4.11687 0 0 0 128 128 128 255
-0.479225 1.00207 4.14833 0 0 0 128 128 128 255
-0.478261 0.460636 4.12333 0 0 0 128 128 128 255
-0.483222 1.06407 4.14901 0 0 0 128 128 128 255
-0.478824 0.422685 4.12123 0 0 0 128 128 128 255
-0.47956 0.405714 4.12002 0 0 0 128 128 128 255
-0.484455 1.00116 4.14537 0 0 0 128 128 128 255
-0.479188 0.25387 4.11308 0 0 0 128 128 128 255
-0.487122 0.898304 4.13908 0 0 0 128 128 128 255
-0.483798 0.386798 4.11683 0 0 0 128 128 128 255
-0.483735 0.271918 4.11147 0 0 0 128 128 128 255
-0.487356 0.389846 4.11508 0 0 0 128 128 128 255
-0.488447 0.306948 4.11063 0 0 0 128 128 128 255
-0.493503 0.380939 4.11149 0 0 0 128 128 128 255
-0.493648 0.290037 4.10717 0 0 0 128 128 128 255
-0.495075 0.354987 4.10949 0 0 0 128 128 128 255
-0.497638 0.666695 4.12276 0 0 0 128 128 128 255
-0.50108 1.0853 4.14057 0 0 0 128 128 128 255
-0.501654 1.04635 4.13847 0 0 0 128 128 128 255
-0.496036 0.254105 4.1043 0 0 0 128 128 128 255
-0.497802 0.468904 4.11344 0 0 0 128 128 128 255
-0.500801 0.724675 4.12389 0 0 0 128 128 128 255
-0.503127 0.898523 4.13085 0 0 0 128 128 128 255
-0.504277 1.03839 4.1368 0 0 0 128 128 128 255
-0.50341 0.604833 4.11703 0 0 0 128 128 128 255
-0.503804 0.652788 4.11907 0 0 0 128 128 128 255
-0.504769 0.441019 4.10876 0 0 0 128 128 128 255
-0.507356 0.755724 4.12216 0 0 0 128 128 128 255
-0.50702 0.604876 4.11531 0 0 0 128 128 128 255
-0.506183 0.393086 4.10587 0 0 0 128 128 128 255
-0.514643 1.42212 4.14967 0 0 0 128 128 128 255
-0.512283 0.914617 4.12722 0 0 0 128 128 128 255
-0.518394 1.43715 4.14862 0 0 0 128 128 128 255
-0.516837 0.915668 4.12518 0 0 0 128 128 128 255
-0.513569 0.296269 4.098 0 0 0 128 128 128 255
-0.514563 0.417156 4.10314 0 0 0 128 128 128 255
-0.514187 0.260313 4.09606 0 0 0 128 128 128 255
-0.516051 0.4871 4.10571 0 0 0 128 128 128 255
-0.5169 0.479117 4.10497 0 0 0 128 128 128 255
-0.519318 0.661955 4.11235 0 0 0 128 128 128 255
-0.520025 0.747874 4.116 0 0 0 128 128 128 255
-0.521938 0.645998 4.11047 0 0 0 128 128 128 255
-0.52054 0.364272 4.09808 0 0 0 128 128 128 255
-0.527552 0.432271 4.09826 0 0 0 128 128 128 255
-0.530051 0.398328 4.09569 0 0 0 128 128 128 255
-0.537592 1.31547 4.13472 0 0 0 128 128 128 255
-0.533673 0.726028 4.10926 0 0 0 128 128 128 255
-0.538051 1.14564 4.12675 0 0 0 128 128 128 255
-0.532845 0.399351 4.09461 0 0 0 128 128 128 255
-0.53553 0.386387 4.09296 0 0 0 128 128 128 255
-0.538643 0.765032 4.10908 0 0 0 128 128 128 255
-0.539691 0.438369 4.09374 0 0 0 128 128 128 255
-0.540512 0.424389 4.09279 0 0 0 128 128 128 255
-0.54522 0.312537 4.08595 0 0 0 128 128 128 255
-0.546443 0.461397 4.09229 0 0 0 128 128 128 255
-0.551211 0.926966 4.11176 0 0 0 128 128 128 255
-0.550561 0.274611 4.08233 0 0 0 128 128 128 255
-0.550676 0.288598 4.08292 0 0 0 128 128 128 255
-0.552335 0.490409 4.09151 0 0 0 128 128 128 255
-0.555407 0.749172 4.1022 0 0 0 128 128 128 255
-0.553675 0.423484 4.08801 0 0 0 128 128 128 255
-0.562837 1.30767 4.125 0 0 0 128 128 128 255
-0.559284 0.760185 4.10137 0 0 0 128 128 128 255
-0.560352 0.312633 4.08076 0 0 0 128 128 128 255
-0.561444 0.445509 4.08641 0 0 0 128 128 128 255
-0.561895 0.384571 4.08351 0 0 0 128 128 128 255
-0.567339 0.931063 4.10646 0 0 0 128 128 128 255
-0.568292 0.931068 4.10616 0 0 0 128 128 128 255
-0.572871 1.13989 4.11415 0 0 0 128 128 128 255
-0.56664 0.265712 4.07665 0 0 0 128 128 128 255
-0.566664 0.26871 4.07677 0 0 0 128 128 128 255
-0.56972 0.640361 4.09259 0 0 0 128 128 128 255
-0.570544 0.62438 4.09162 0 0 0 128 128 128 255
-0.572885 0.909113 4.10374 0 0 0 128 128 128 255
-0.575711 0.670359 4.09214 0 0 0 128 128 128 255
-0.578241 0.97807 4.10524 0 0 0 128 128 128 255
-0.576128 0.370652 4.07854 0 0 0 128 128 128 255
-0.576703 0.440587 4.08152 0 0 0 128 128 128 255
-0.580499 0.66838 4.09067 0 0 0 128 128 128 255
-0.579343 0.410626 4.07943 0 0 0 128 128 128 255
-0.581043 0.617432 4.08823 0 0 0 128 128 128 255
-0.579386 0.298734 4.07439 0 0 0 128 128 128 255
-0.580782 0.468575 4.08162 0 0 0 128 128 128 255
-0.58631 1.14094 4.11024 0 0 0 128 128 128 255
-0.581072 0.386655 4.07787 0 0 0 128 128 128 255
-0.592101 1.14096 4.10867 0 0 0 128 128 128 255
-0.591417 0.940154 4.09987 0 0 0 128 128 128 255
-0.589565 0.361706 4.0745 0 0 0 128 128 128 255
-0.593057 0.432646 4.07678 0 0 0 128 128 128 255
-0.597908 0.431657 4.07556 0 0 0 128 128 128 255
-0.598709 0.410679 4.07444 0 0 0 128 128 128 255
-0.603968 0.457642 4.07532 0 0 0 128 128 128 255
-0.606372 0.393706 4.07195 0 0 0 128 128 128 255
-0.612574 0.910223 4.09351 0 0 0 128 128 128 255
-0.614537 1.149 4.10368 0 0 0 128 128 128 255
-0.613823 0.943192 4.09471 0 0 0 128 128 128 255
-0.614209 0.990148 4.09671 0 0 0 128 128 128 255
-0.614219 0.87226 4.09149 0 0 0 128 128 128 255
-0.614664 0.807321 4.08852 0 0 0 128 128 128 255
-0.61143 0.294803 4.0665 0 0 0 128 128 128 255
-0.613251 0.27782 4.06538 0 0 0 128 128 128 255
-0.613925 0.359743 4.06887 0 0 0 128 128 128 255
-0.614713 0.455653 4.07295 0 0 0 128 128 128 255
-0.617205 0.400705 4.07004 0 0 0 128 128 128 255
-0.61916 0.638481 4.08016 0 0 0 128 128 128 255
-0.622121 0.879255 4.09022 0 0 0 128 128 128 255
-0.623764 1.07907 4.09872 0 0 0 128 128 128 255
-0.623695 0.951188 4.09309 0 0 0 128 128 128 255
-0.624528 0.813317 4.08686 0 0 0 128 128 128 255
-0.627616 1.18896 4.10285 0 0 0 128 128 128 255
-0.628633 1.19296 4.10284 0 0 0 128 128 128 255
-0.630364 1.28387 4.10653 0 0 0 128 128 128 255
-0.632432 1.29586 4.10669 0 0 0 128 128 128 255
-0.627618 0.590523 4.0765 0 0 0 128 128 128 255
-0.629434 0.811315 4.08589 0 0 0 128 128 128 255
-0.629992 0.879251 4.08879 0 0 0 128 128 128 255
-0.63014 0.897235 4.08955 0 0 0 128 128 128 255
-0.627314 0.313781 4.06438 0 0 0 128 128 128 255
-0.6352 1.15299 4.09994 0 0 0 128 128 128 255
-0.635266 1.16098 4.10028 0 0 0 128 128 128 255
-0.62886 0.261827 4.06184 0 0 0 128 128 128 255
-0.628934 0.270819 4.06222 0 0 0 128 128 128 255
-0.637281 1.16598 4.10016 0 0 0 128 128 128 255
-0.63353 0.469628 4.07021 0 0 0 128 128 128 255
-0.639102 0.666437 4.07798 0 0 0 128 128 128 255
-0.639275 0.687417 4.07887 0 0 0 128 128 128 255
-0.639557 0.360718 4.06453 0 0 0 128 128 128 255
-0.641331 0.576515 4.07372 0 0 0 128 128 128 255
-0.642313 0.575514 4.07354 0 0 0 128 128 128 255
-0.641727 0.383692 4.06523 0 0 0 128 128 128 255
-0.645387 0.708384 4.07892 0 0 0 128 128 128 255
-0.644012 0.420652 4.06654 0 0 0 128 128 128 255
-0.645261 0.57251 4.073 0 0 0 128 128 128 255
-0.645461 0.355708 4.06351 0 0 0 128 128 128 255
-0.645969 0.296761 4.06087 0 0 0 128 128 128 255
-0.649443 0.719364 4.07886 0 0 0 128 128 128 255
-0.650875 0.410642 4.06523 0 0 0 128 128 128 255
-0.652229 0.454597 4.06699 0 0 0 128 128 128 255
-0.659169 1.17791 4.09766 0 0 0 128 128 128 255
-0.655432 0.481562 4.0678 0 0 0 128 128 128 255
-0.654635 0.263763 4.05842 0 0 0 128 128 128 255
-0.655704 0.272751 4.05869 0 0 0 128 128 128 255
-0.657668 0.390636 4.06361 0 0 0 128 128 128 255
-0.658046 0.315703 4.06032 0 0 0 128 128 128 255
-0.66814 0.938098 4.08633 0 0 0 128 128 128 255
-0.670239 0.951077 4.0867 0 0 0 128 128 128 255
-0.670425 0.731274 4.07718 0 0 0 128 128 128 255
-0.675926 1.15786 4.09518 0 0 0 128 128 128 255
-0.67325 0.468496 4.06561 0 0 0 128 128 128 255
-0.675097 0.450503 4.06471 0 0 0 128 128 128 255
-0.682313 0.964004 4.08637 0 0 0 128 128 128 255
-0.680639 0.274628 4.0568 0 0 0 128 128 128 255
-0.686776 0.778143 4.07813 0 0 0 128 128 128 255
-0.685822 0.297576 4.05754 0 0 0 128 128 128 255
-0.693332 0.967933 4.086 0 0 0 128 128 128 255
-0.695352 1.2137 4.09646 0 0 0 128 128 128 255
-0.694611 0.637217 4.07179 0 0 0 128 128 128 255
-0.695884 0.792071 4.07838 0 0 0 128 128 128 255
-0.696694 0.769086 4.07737 0 0 0 128 128 128 255
-0.698658 1.00786 4.08754 0 0 0 128 128 128 255
-0.698636 0.762078 4.07703 0 0 0 128 128 128 255
-0.69657 0.267528 4.05594 0 0 0 128 128 128 255
-0.702077 0.694112 4.07406 0 0 0 128 128 128 255
-0.712062 1.3005 4.09983 0 0 0 128 128 128 255
-0.705709 0.284441 4.05658 0 0 0 128 128 128 255
-0.710203 0.466245 4.06433 0 0 0 128 128 128 255
-0.714212 0.953787 4.08508 0 0 0 128 128 128 255
-0.716292 0.841866 4.08035 0 0 0 128 128 128 255
-0.718326 0.967739 4.08572 0 0 0 128 128 128 255
-0.714806 0.296352 4.05718 0 0 0 128 128 128 255
-0.720792 0.902773 4.08301 0 0 0 128 128 128 255
-0.718087 0.452187 4.06385 0 0 0 128 128 128 255
-0.724042 1.17651 4.09468 0 0 0 128 128 128 255
-0.725075 1.18049 4.09488 0 0 0 128 128 128 255
-0.727298 1.32935 4.10124 0 0 0 128 128 128 255
-0.728035 0.932679 4.08449 0 0 0 128 128 128 255
-0.73008 0.816758 4.07968 0 0 0 128 128 128 255
-0.726512 0.26127 4.05608 0 0 0 128 128 128 255
-0.728669 0.402127 4.06212 0 0 0 128 128 128 255
-0.729602 0.394125 4.06183 0 0 0 128 128 128 255
-0.731134 0.459053 4.06464 0 0 0 128 128 128 255
-0.731422 0.49402 4.06613 0 0 0 128 128 128 255
-0.734486 0.866671 4.08199 0 0 0 128 128 128 255
-0.737303 1.20935 4.09658 0 0 0 128 128 128 255
-0.731949 0.315167 4.05862 0 0 0 128 128 128 255
-0.732544 0.266203 4.0566 0 0 0 128 128 128 255
-0.735674 0.646845 4.0728 0 0 0 128 128 128 255
-0.741026 0.933544 4.08519 0 0 0 128 128 128 255
-0.73951 0.62782 4.07224 0 0 0 128 128 128 255
-0.74123 0.715726 4.07605 0 0 0 128 128 128 255
-0.741366 0.610813 4.07165 0 0 0 128 128 128 255
-0.743633 0.886555 4.08339 0 0 0 128 128 128 255
-0.740515 0.386013 4.06216 0 0 0 128 128 128 255
-0.742346 0.608804 4.07164 0 0 0 128 128 128 255
-0.74172 0.290081 4.05822 0 0 0 128 128 128 255
-0.744447 0.621769 4.07234 0 0 0 128 128 128 255
-0.745178 0.710686 4.07613 0 0 0 128 128 128 255
-0.748377 0.978423 4.0876 0 0 0 128 128 128 255
-0.747336 0.730644 4.07713 0 0 0 128 128 128 255
-0.749349 0.975414 4.08755 0 0 0 128 128 128 255
-0.749058 0.697651 4.0759 0 0 0 128 128 128 255
-0.751673 0.894454 4.08436 0 0 0 128 128 128 255
-0.750878 0.676647 4.07518 0 0 0 128 128 128 255
-0.763964 0.937265 4.08739 0 0 0 128 128 128 255
-0.763181 0.358756 4.06324 0 0 0 128 128 128 255
-0.770713 1.2749 4.10223 0 0 0 128 128 128 255
-0.76897 0.942194 4.08819 0 0 0 128 128 128 255
-0.770406 0.272727 4.06062 0 0 0 128 128 128 255
-0.775713 0.677319 4.07812 0 0 0 128 128 128 255
-0.778062 0.96305 4.09028 0 0 0 128 128 128 255
-0.773614 0.301657 4.06227 0 0 0 128 128 128 255
-0.777224 0.259639 4.06108 0 0 0 128 128 128 255
-0.785793 1.18176 4.10049 0 0 0 128 128 128 255
-0.785843 1.18775 4.10074 0 0 0 128 128 128 255
-0.788779 1.30461 4.10603 0 0 0 128 128 128 255
-0.782415 0.290536 4.06319 0 0 0 128 128 128 255
-0.786243 0.756098 4.08301 0 0 0 128 128 128 255
-0.785587 0.316466 4.0648 0 0 0 128 128 128 255
-0.793776 1.19263 4.10226 0 0 0 128 128 128 255
-0.79673 1.31248 4.10771 0 0 0 128 128 128 255
-0.793156 0.757989 4.08429 0 0 0 128 128 128 255
-0.796053 0.990755 4.09437 0 0 0 128 128 128 255
-0.796988 0.984744 4.0943 0 0 0 128 128 128 255
-0.803538 0.587954 4.07934 0 0 0 128 128 128 255
-0.804386 0.571953 4.07886 0 0 0 128 128 128 255
-0.802966 0.28021 4.06665 0 0 0 128 128 128 255
-0.809825 0.995521 4.09731 0 0 0 128 128 128 255
-0.804814 0.267188 4.06652 0 0 0 128 128 128 255
-0.814055 1.39113 4.11436 0 0 0 128 128 128 255
-0.810399 0.827645 4.09059 0 0 0 128 128 128 255
-0.806834 0.275146 4.06729 0 0 0 128 128 128 255
-0.812401 0.833605 4.09127 0 0 0 128 128 128 255
-0.826426 1.23703 4.11097 0 0 0 128 128 128 255
-0.819659 0.295896 4.07115 0 0 0 128 128 128 255
-0.827199 1.21303 4.11019 0 0 0 128 128 128 255
-0.827257 1.22003 4.11049 0 0 0 128 128 128 255
-0.831228 0.996127 4.10245 0 0 0 128 128 128 255
-0.834565 0.932111 4.10076 0 0 0 128 128 128 255
-0.837197 1.1349 4.10966 0 0 0 128 128 128 255
-0.839053 1.36069 4.11927 0 0 0 128 128 128 255
-0.836535 0.937068 4.10151 0 0 0 128 128 128 255
-0.840034 1.36267 4.11962 0 0 0 128 128 128 255
-0.837426 0.811148 4.09669 0 0 0 128 128 128 255
-0.834035 0.281626 4.07442 0 0 0 128 128 128 255
-0.83916 0.90504 4.10096 0 0 0 128 128 128 255
-0.840154 0.909017 4.1014 0 0 0 128 128 128 255
-0.840261 0.922005 4.10195 0 0 0 128 128 128 255
-0.838594 0.602285 4.08862 0 0 0 128 128 128 255
-0.842864 1.00489 4.10604 0 0 0 128 128 128 255
-0.837787 0.270557 4.07506 0 0 0 128 128 128 255
-0.843548 0.738078 4.09553 0 0 0 128 128 128 255
-0.843102 0.567219 4.08854 0 0 0 128 128 128 255
-0.843775 0.649142 4.09203 0 0 0 128 128 128 255
-0.84587 0.903903 4.10287 0 0 0 128 128 128 255
-0.856953 1.32235 4.12305 0 0 0 128 128 128 255
-0.852071 0.381167 4.08391 0 0 0 128 128 128 255
-0.85641 0.677846 4.09717 0 0 0 128 128 128 255
-0.862192 1.38119 4.1271 0 0 0 128 128 128 255
-0.854899 0.263193 4.08015 0 0 0 128 128 128 255
-0.855896 0.269166 4.08072 0 0 0 128 128 128 255
-0.856265 0.314124 4.08264 0 0 0 128 128 128 255
-0.858393 0.572881 4.09365 0 0 0 128 128 128 255
-0.859247 0.676784 4.09807 0 0 0 128 128 128 255
-0.862691 0.980477 4.11132 0 0 0 128 128 128 255
-0.864292 1.17529 4.11961 0 0 0 128 128 128 255
-0.866403 1.43205 4.13054 0 0 0 128 128 128 255
-0.857994 0.2941 4.08243 0 0 0 128 128 128 255
-0.86137 0.704714 4.09991 0 0 0 128 128 128 255
-0.863875 1.00943 4.11288 0 0 0 128 128 128 255
-0.865461 1.20225 4.12109 0 0 0 128 128 128 255
-0.862406 0.715682 4.1007 0 0 0 128 128 128 255
-0.866324 1.19223 4.12098 0 0 0 128 128 128 255
-0.867252 1.30513 4.12579 0 0 0 128 128 128 255
-0.865296 0.722611 4.10198 0 0 0 128 128 128 255
-0.868976 1.17019 4.12103 0 0 0 128 128 128 255
-0.866247 0.723588 4.10236 0 0 0 128 128 128 255
-0.868859 1.04129 4.11588 0 0 0 128 128 128 255
-0.870825 1.05124 4.11698 0 0 0 128 128 128 255
-0.867328 0.282891 4.0853 0 0 0 128 128 128 255
-0.871024 0.732469 4.10443 0 0 0 128 128 128 255
-0.869417 0.422737 4.0916 0 0 0 128 128 128 255
-0.872201 0.761419 4.10601 0 0 0 128 128 128 255
-0.873747 0.721412 4.10501 0 0 0 128 128 128 255
-0.874158 0.771365 4.10713 0 0 0 128 128 128 255
-0.880376 1.41374 4.13483 0 0 0 128 128 128 255
-0.880876 1.36077 4.13293 0 0 0 128 128 128 255
-0.881096 1.27382 4.12958 0 0 0 128 128 128 255
-0.876327 0.466537 4.09594 0 0 0 128 128 128 255
-0.878052 0.67634 4.10487 0 0 0 128 128 128 255
-0.880857 0.564352 4.10156 0 0 0 128 128 128 255
-0.879881 0.332547 4.09206 0 0 0 128 128 128 255
-0.882871 0.583288 4.1031 0 0 0 128 128 128 255
-0.88941 0.366277 4.0973 0 0 0 128 128 128 255
-0.89479 1.02066 4.12515 0 0 0 128 128 128 255
-0.891521 0.399198 4.09948 0 0 0 128 128 128 255
-0.891579 0.406192 4.09978 0 0 0 128 128 128 255
-0.896113 0.957674 4.12325 0 0 0 128 128 128 255
-0.897859 0.946635 4.12358 0 0 0 128 128 128 255
-0.900545 1.27333 4.13748 0 0 0 128 128 128 255
-0.893914 0.355166 4.0988 0 0 0 128 128 128 255
-0.903286 1.27226 4.13864 0 0 0 128 128 128 255
-0.902978 0.568767 4.11115 0 0 0 128 128 128 255
-0.913792 1.222 4.14148 0 0 0 128 128 128 255
-0.912549 0.631453 4.11807 0 0 0 128 128 128 255
-0.920938 0.670181 4.12371 0 0 0 128 128 128 255
-0.922671 0.664133 4.12436 0 0 0 128 128 128 255
-0.92277 0.676122 4.12487 0 0 0 128 128 128 255
-0.926568 1.02976 4.14038 0 0 0 128 128 128 255
-0.92197 0.362363 4.11243 0 0 0 128 128 128 255
-0.923826 0.588151 4.12204 0 0 0 128 128 128 255
-0.922587 0.329367 4.11148 0 0 0 128 128 128 255
-0.92824 0.586018 4.12427 0 0 0 128 128 128 255
-0.926724 0.294265 4.11232 0 0 0 128 128 128 255
-0.935323 1.0185 4.14457 0 0 0 128 128 128 255
-0.930542 0.330121 4.11574 0 0 0 128 128 128 255
-0.933283 0.449953 4.1218 0 0 0 128 128 128 255
-0.941528 1.0273 4.14832 0 0 0 128 128 128 255
-0.939943 0.516695 4.12806 0 0 0 128 128 128 255
-0.943305 0.503594 4.1295 0 0 0 128 128 128 255
-0.945173 0.1018 4.11544 0 0 0 128 128 128 255
-0.953362 0.681139 4.14217 0 0 0 128 128 128 255
-0.961105 1.41539 4.17447 0 0 0 128 128 128 255
-0.95418 0.159453 4.12312 0 0 0 128 128 128 255
-0.963761 0.913626 4.15736 0 0 0 128 128 128 255
-0.962747 0.687808 4.14829 0 0 0 128 128 128 255
-0.963354 0.353003 4.13621 0 0 0 128 128 128 255
-0.967838 0.89849 4.15943 0 0 0 128 128 128 255
-0.965995 0.470832 4.14233 0 0 0 128 128 128 255
-0.967884 0.700616 4.15211 0 0 0 128 128 128 255
-0.966184 0.29094 4.13578 0 0 0 128 128 128 255
-0.968672 0.593656 4.14866 0 0 0 128 128 128 255
-0.97283 0.695438 4.15523 0 0 0 128 128 128 255
-0.969875 0.134903 4.13249 0 0 0 128 128 128 255
-0.976439 0.134654 4.13706 0 0 0 128 128 128 255
-0.980973 0.686137 4.16053 0 0 0 128 128 128 255
-0.984612 0.536088 4.15765 0 0 0 128 128 128 255
-0.988444 0.707832 4.16674 0 0 0 128 128 128 255
-0.993108 0.690655 4.16961 0 0 0 128 128 128 255
-1.00231 1.04007 4.18937 0 0 0 128 128 128 255
-1.00227 0.653299 4.1754 0 0 0 128 128 128 255
-1.00803 1.06881 4.19496 0 0 0 128 128 128 255
-1.00278 0.336464 4.16442 0 0 0 128 128 128 255
-1.01028 0.778881 4.18643 0 0 0 128 128 128 255
-1.02272 0.816303 4.19847 0 0 0 128 128 128 255
-1.02223 0.484511 4.18635 0 0 0 128 128 128 255
-1.02725 0.825087 4.20287 0 0 0 128 128 128 255
-1.02755 0.5932 4.19503 0 0 0 128 128 128 255
-1.03823 0.572689 4.20453 0 0 0 128 128 128 255
-1.03906 0.327776 4.19692 0 0 0 128 128 128 255
-1.04258 0.499506 4.20637 0 0 0 128 128 128 255
-1.05489 0.490857 4.21908 0 0 0 128 128 128 255
-1.07083 0.134099 4.22593 0 0 0 128 128 128 255
-1.0713 0.191046 4.22836 0 0 0 128 128 128 255
-1.07273 0.136982 4.2284 0 0 0 128 128 128 255
