ply
format ascii 1.0
comment VCGLIB generated
element vertex 61
property float x
property float y
property float z
property float nx
property float ny
property float nz
property uchar red
property uchar green
property uchar blue
property uchar alpha
element face 0
property list uchar int vertex_indices
end_header
2.55986 0.137324 4.03867 0 0 0 0 128 128 255
2.55265 0.143315 4.03378 0 0 0 0 128 128 255
2.55097 0.13041 4.03283 0 0 0 0 128 128 255
2.54445 0.158294 4.02818 0 0 0 0 128 128 255
2.53662 0.1672 4.02291 0 0 0 0 128 128 255
2.53564 0.129755 4.02266 0 0 0 0 128 128 255
2.52711 0.120919 4.01715 0 0 0 0 128 128 255
2.51992 0.135187 4.01221 0 0 0 0 128 128 255
2.50154 0.140854 4.00007 0 0 0 0 128 128 255
2.50291 0.0434652 4.00288 0 0 0 0 128 128 255
2.51687 -0.0693144 4.01615 0 0 0 0 128 128 255
2.5049 -0.015517 4.00608 0 0 0 0 128 128 255
2.50616 -0.0582219 4.00862 0 0 0 0 128 128 255
2.50188 -0.0492701 4.00542 0 0 0 0 128 128 255
2.48217 0.0392022 3.98946 0 0 0 0 128 128 255
2.49943 -0.0500126 4.00385 0 0 0 0 128 128 255
2.5009 -0.0577689 4.00515 0 0 0 0 128 128 255
2.4883 -0.0144042 3.99518 0 0 0 0 128 128 255
2.48848 -0.015374 3.99534 0 0 0 0 128 128 255
2.48304 -0.000599965 3.99126 0 0 0 0 128 128 255
2.48184 -0.0122546 3.99089 0 0 0 0 128 128 255
2.49786 -0.0966015 4.00496 0 0 0 0 128 128 255
2.513 -0.193266 4.02043 0 0 0 0 128 128 255
2.48723 -0.0721565 3.99685 0 0 0 0 128 128 255
2.45486 0.0504748 3.97147 0 0 0 0 128 128 255
2.46643 -0.0445923 3.98215 0 0 0 0 128 128 255
2.49904 -0.226044 4.01347 0 0 0 0 128 128 255
2.44797 0.0371011 3.9674 0 0 0 0 128 128 255
2.49196 -0.205721 4.00745 0 0 0 0 128 128 255
2.46521 -0.0654553 3.98225 0 0 0 0 128 128 255
2.42886 0.102316 3.95366 0 0 0 0 128 128 255
2.45784 -0.0676613 3.97759 0 0 0 0 128 128 255
2.47911 -0.187108 3.99785 0 0 0 0 128 128 255
2.41421 0.110285 3.94419 0 0 0 0 128 128 255
2.44282 -0.0434508 3.96688 0 0 0 0 128 128 255
2.47484 -0.221037 3.99733 0 0 0 0 128 128 255
2.4549 -0.172869 3.98127 0 0 0 0 128 128 255
2.44621 -0.191776 3.97686 0 0 0 0 128 128 255
2.44579 -0.199043 3.97706 0 0 0 0 128 128 255
2.38075 0.133292 3.92272 0 0 0 0 128 128 255
2.44299 -0.217209 3.97648 0 0 0 0 128 128 255
2.37234 0.135959 3.91742 0 0 0 0 128 128 255
2.3753 0.117283 3.91953 0 0 0 0 128 128 255
2.38838 0.0173696 3.93008 0 0 0 0 128 128 255
2.36864 0.107101 3.91553 0 0 0 0 128 128 255
2.36521 0.115349 3.91325 0 0 0 0 128 128 255
2.42863 -0.219388 3.96742 0 0 0 0 128 128 255
2.36356 0.114865 3.91223 0 0 0 0 128 128 255
2.36354 0.0891633 3.91268 0 0 0 0 128 128 255
2.35139 0.0886992 3.90512 0 0 0 0 128 128 255
2.33713 0.136977 3.8955 0 0 0 0 128 128 255
2.35501 0.0137921 3.9093 0 0 0 0 128 128 255
2.35578 0.00991206 3.9099 0 0 0 0 128 128 255
2.33368 0.115411 3.89367 0 0 0 0 128 128 255
2.35533 0.00773221 3.9097 0 0 0 0 128 128 255
2.32003 0.113519 3.88529 0 0 0 0 128 128 255
2.26107 -0.160115 3.85956 0 0 0 0 128 128 255
2.24279 -0.166194 3.84892 0 0 0 0 128 128 255
2.23216 -0.142611 3.84121 0 0 0 0 128 128 255
2.23654 -0.165877 3.84516 0 0 0 0 128 128 255
2.23191 -0.202803 3.84468 0 0 0 0 128 128 255
