ply
format ascii 1.0
comment VCGLIB generated
element vertex 1011
property float x
property float y
property float z
property float nx
property float ny
property float nz
property uchar red
property uchar green
property uchar blue
property uchar alpha
element face 0
property list uchar int vertex_indices
end_header
-0.128528 0.0423683 3.41955 0 0 0 73 71 67 255
1.22412 0.0737023 3.5901 0 0 0 58 57 60 255
-0.0276465 0.186955 3.5006 0 0 0 166 185 149 255
0.996994 0.21768 3.55065 0 0 0 116 123 105 255
0.757547 0.331831 3.51831 0 0 0 85 88 79 255
0.829232 0.355868 3.58913 0 0 0 70 79 68 255
0.744888 0.39106 3.5274 0 0 0 121 126 106 255
0.250772 0.402692 3.54865 0 0 0 156 166 128 255
0.0802159 0.436313 3.53458 0 0 0 173 191 136 255
0.533505 0.472284 3.53819 0 0 0 168 181 127 255
-0.211116 0.464824 3.48354 0 0 0 186 170 156 255
0.873602 0.536358 3.5807 0 0 0 132 142 110 255
-0.387894 0.518942 3.4324 0 0 0 45 42 46 255
-0.0732731 0.528791 3.59258 0 0 0 99 107 96 255
0.987736 0.545098 3.5823 0 0 0 108 115 97 255
0.447613 0.567152 3.59462 0 0 0 140 156 112 255
0.145391 0.56977 3.56016 0 0 0 169 184 131 255
0.058062 0.606124 3.54718 0 0 0 92 100 88 255
0.504875 0.615161 3.60002 0 0 0 171 184 129 255
-0.0556735 0.621002 3.58383 0 0 0 153 169 136 255
0.451611 0.636773 3.63157 0 0 0 77 85 74 255
0.66427 0.642594 3.57997 0 0 0 139 150 108 255
0.0513435 0.61977 3.53419 0 0 0 78 85 83 255
0.264783 0.678724 3.56587 0 0 0 136 147 113 255
0.908454 0.696645 3.62272 0 0 0 167 180 126 255
1.11923 0.800862 3.61371 0 0 0 102 103 106 255
1.11021 0.934719 3.65 0 0 0 168 172 174 255
-0.08487 0.921414 3.6395 0 0 0 120 128 129 255
0.383771 0.927359 3.61282 0 0 0 197 206 208 255
-0.131122 1.00385 3.65935 0 0 0 73 80 78 255
1.14468 -0.0167648 3.84216 0 0 0 179 177 175 255
-0.127486 0.0459722 3.41532 0 0 0 70 68 64 255
-0.0310136 0.185731 3.50538 0 0 0 162 180 149 255
0.987692 0.215321 3.56736 0 0 0 119 125 110 255
0.844858 0.231998 3.54282 0 0 0 175 191 129 255
0.44831 0.335015 3.59235 0 0 0 75 82 76 255
0.859688 0.28623 3.57998 0 0 0 172 188 126 255
0.636269 0.369935 3.51267 0 0 0 116 122 94 255
0.251472 0.370335 3.54537 0 0 0 154 166 118 255
0.437078 0.3516 3.59179 0 0 0 67 74 72 255
0.762158 0.353096 3.52069 0 0 0 105 109 92 255
-0.244767 0.459435 3.57367 0 0 0 204 185 169 255
0.179311 0.477333 3.49331 0 0 0 76 82 82 255
0.595384 0.536827 3.50954 0 0 0 78 83 80 255
0.979715 0.538067 3.61414 0 0 0 103 109 96 255
0.135693 0.57843 3.57792 0 0 0 169 184 129 255
0.495807 0.648113 3.61434 0 0 0 156 168 120 255
0.776159 0.653512 3.60543 0 0 0 56 63 56 255
0.0516047 0.629051 3.53828 0 0 0 74 81 76 255
0.877163 0.698174 3.63309 0 0 0 165 178 128 255
0.509381 0.740065 3.59352 0 0 0 122 128 100 255
0.772283 0.720441 3.60994 0 0 0 158 170 125 255
1.06118 0.787272 3.61583 0 0 0 88 92 94 255
-0.365501 -0.216371 4.12585 0 0 0 144 141 138 255
1.24208 -0.109449 3.96487 0 0 0 104 114 119 255
-2.0558 -0.235918 5.63003 0 0 0 172 150 134 255
-1.42661 -0.113706 4.58468 0 0 0 183 159 145 255
-0.811555 -0.0410081 3.97278 0 0 0 176 148 137 255
-0.308701 -0.060339 4.05899 0 0 0 153 148 150 255
-1.01702 -0.0166572 3.90152 0 0 0 148 125 112 255
-0.930165 -0.0207541 3.9639 0 0 0 160 137 124 255
-0.872531 -0.0243609 3.97374 0 0 0 175 150 137 255
-0.723454 -0.0225819 3.95288 0 0 0 141 120 107 255
-0.710365 -0.0232884 3.95509 0 0 0 131 115 100 255
-2.04688 -0.201765 5.60169 0 0 0 202 183 167 255
-0.820933 -0.0170214 3.96258 0 0 0 139 116 101 255
-0.774647 -0.0202446 3.95873 0 0 0 150 123 111 255
-1.42636 -0.077285 4.55877 0 0 0 196 172 160 255
-0.995967 -0.00235967 3.92029 0 0 0 186 161 150 255
-0.99202 -0.00367566 3.92976 0 0 0 193 169 157 255
-0.638806 -0.0101238 3.9292 0 0 0 151 103 101 255
-2.06779 -0.184503 5.582 0 0 0 199 168 150 255
-1.00321 0.00271356 3.91018 0 0 0 131 92 76 255
-0.785615 -0.0023313 3.95191 0 0 0 177 145 131 255
-0.705446 0.000225424 3.93868 0 0 0 196 180 165 255
-0.600729 0.0118393 3.90465 0 0 0 192 165 155 255
-0.678753 0.0164385 3.92704 0 0 0 132 106 94 255
-0.716004 0.0295347 3.91925 0 0 0 180 150 140 255
1.20103 -0.0133582 3.99259 0 0 0 167 165 163 255
-0.994734 0.0581299 3.90242 0 0 0 192 166 152 255
-0.98821 0.0621036 3.902 0 0 0 200 175 161 255
-0.884915 0.0541013 3.9288 0 0 0 198 179 163 255
-0.78027 0.0487812 3.93049 0 0 0 195 166 154 255
-1.46003 0.00535338 4.52127 0 0 0 145 119 102 255
-1.45636 0.00468262 4.54935 0 0 0 139 103 86 255
-1.40067 0.00974484 4.54465 0 0 0 163 138 121 255
-1.04713 0.0710443 3.879 0 0 0 143 106 93 255
-0.696754 0.0595102 3.90428 0 0 0 204 177 166 255
-0.600763 0.0629259 3.88739 0 0 0 190 164 153 255
-0.669812 0.0660302 3.9092 0 0 0 163 147 132 255
-0.888683 0.0784522 3.912 0 0 0 129 98 86 255
-0.835992 0.0725085 3.93378 0 0 0 146 113 102 255
-0.762367 0.0736741 3.91729 0 0 0 129 98 86 255
-0.630608 0.0777518 3.89713 0 0 0 148 123 111 255
-0.594407 0.0793648 3.8776 0 0 0 167 144 131 255
-0.984828 0.0961216 3.88254 0 0 0 195 174 159 255
-1.02357 0.105597 3.89351 0 0 0 199 180 168 255
-1.02362 0.121999 3.89729 0 0 0 159 134 123 255
-0.989511 0.119209 3.88027 0 0 0 173 134 120 255
-0.989596 0.157268 3.87615 0 0 0 147 110 95 255
-0.115651 0.152694 3.67003 0 0 0 122 127 122 255
-1.34049 0.184947 4.37785 0 0 0 159 134 117 255
-1.01327 0.208745 3.91725 0 0 0 139 114 97 255
-1.38698 0.189487 4.49893 0 0 0 196 175 160 255
-1.04663 0.219469 3.88808 0 0 0 150 118 108 255
0.905682 0.189054 3.56566 0 0 0 149 160 129 255
-0.780589 0.224981 3.91585 0 0 0 198 175 160 255
1.02119 0.194583 3.56502 0 0 0 126 134 124 255
-0.800463 0.232147 3.9071 0 0 0 203 178 156 255
0.0731143 0.247815 3.5853 0 0 0 97 111 79 255
0.241844 0.245861 3.57455 0 0 0 93 108 69 255
0.283619 0.246066 3.56328 0 0 0 102 115 72 255
0.303394 0.246896 3.55871 0 0 0 81 89 64 255
0.337157 0.246986 3.54863 0 0 0 86 93 75 255
0.349366 0.241978 3.5656 0 0 0 145 158 115 255
0.378189 0.244613 3.55247 0 0 0 165 179 131 255
-1.72834 0.235785 5.01602 0 0 0 142 110 94 255
0.26404 0.251218 3.56367 0 0 0 144 154 128 255
0.31781 0.250646 3.55629 0 0 0 134 143 115 255
-1.34366 0.256561 4.35848 0 0 0 161 139 121 255
-1.36934 0.251745 4.4829 0 0 0 202 175 157 255
-1.03998 0.282043 3.88189 0 0 0 150 97 85 255
0.99036 0.234238 3.56163 0 0 0 151 162 133 255
0.38892 0.257646 3.55247 0 0 0 161 173 135 255
-1.73727 0.257816 5.02031 0 0 0 146 120 104 255
0.412799 0.270397 3.53766 0 0 0 62 70 56 255
-1.37595 0.283086 4.46325 0 0 0 124 101 86 255
-1.04387 0.303521 3.85139 0 0 0 152 124 107 255
-0.998405 0.300727 3.86528 0 0 0 156 135 118 255
-0.980812 0.298564 3.87396 0 0 0 143 112 98 255
-0.817991 0.303083 3.88527 0 0 0 140 116 102 255
-0.800158 0.299346 3.87927 0 0 0 139 102 89 255
-0.746603 0.298457 3.86864 0 0 0 154 128 107 255
0.427372 0.277376 3.53961 0 0 0 117 125 115 255
0.170504 0.29913 3.58348 0 0 0 100 112 77 255
0.45099 0.286345 3.54839 0 0 0 120 132 98 255
0.151915 0.30631 3.58496 0 0 0 154 169 131 255
0.263327 0.30015 3.55971 0 0 0 159 168 140 255
0.247648 0.308051 3.56273 0 0 0 102 112 90 255
0.468503 0.303182 3.54779 0 0 0 106 118 80 255
0.145488 0.321715 3.57887 0 0 0 87 102 61 255
0.27959 0.32021 3.55447 0 0 0 114 125 85 255
0.480512 0.312819 3.54661 0 0 0 171 185 139 255
0.740038 0.307639 3.54728 0 0 0 139 154 99 255
0.137542 0.332286 3.57968 0 0 0 157 173 131 255
0.763091 0.318862 3.54685 0 0 0 139 151 117 255
0.316148 0.340862 3.54671 0 0 0 68 77 58 255
-2.519 0.362278 6.41816 0 0 0 165 148 138 255
-1.64979 0.384769 4.88923 0 0 0 105 94 80 255
0.125346 0.35438 3.57104 0 0 0 119 134 95 255
-1.0601 0.393746 3.85028 0 0 0 105 94 79 255
0.173002 0.356765 3.55896 0 0 0 137 145 131 255
0.482496 0.343662 3.53846 0 0 0 84 97 70 255
-1.02761 0.398335 3.84798 0 0 0 151 137 129 255
-0.991027 0.394249 3.90024 0 0 0 127 113 100 255
-0.933495 0.38686 3.88911 0 0 0 138 122 109 255
-0.889813 0.390431 3.88754 0 0 0 150 134 121 255
-0.844905 0.390619 3.8888 0 0 0 133 116 109 255
0.337225 0.356964 3.54318 0 0 0 127 136 119 255
-0.660909 0.391948 3.85557 0 0 0 142 126 111 255
0.987272 0.339226 3.58087 0 0 0 143 150 134 255
-1.4603 0.411058 4.5197 0 0 0 108 97 92 255
-0.718065 0.395601 3.86618 0 0 0 148 133 121 255
-0.664795 0.390773 3.85194 0 0 0 163 147 130 255
0.126941 0.368795 3.57158 0 0 0 113 129 88 255
0.176557 0.374395 3.56664 0 0 0 89 98 80 255
0.476653 0.357138 3.54102 0 0 0 109 120 109 255
0.745616 0.350326 3.52853 0 0 0 135 143 122 255
-2.12662 0.425426 5.68653 0 0 0 175 163 153 255
-0.775218 0.412342 3.85954 0 0 0 188 176 166 255
-0.765215 0.406271 3.8893 0 0 0 125 113 103 255
-0.599883 0.398502 3.83072 0 0 0 191 177 162 255
0.619189 0.363743 3.52806 0 0 0 139 149 112 255
0.851554 0.349593 3.56201 0 0 0 78 87 68 255
-0.966106 0.416773 3.87276 0 0 0 142 132 122 255
-0.611454 0.409188 3.82604 0 0 0 123 110 97 255
-0.571892 0.409587 3.81291 0 0 0 119 104 89 255
0.670832 0.36419 3.54937 0 0 0 95 101 88 255
-2.11219 0.432205 5.66358 0 0 0 102 89 82 255
-1.01924 0.426752 3.82394 0 0 0 109 98 90 255
-0.881522 0.427474 3.85083 0 0 0 134 121 114 255
-0.773182 0.416042 3.85739 0 0 0 189 178 168 255
-0.646196 0.415887 3.83061 0 0 0 191 179 169 255
0.137286 0.390219 3.5646 0 0 0 156 167 138 255
-0.841009 0.426981 3.85613 0 0 0 115 101 97 255
-0.720411 0.424636 3.84836 0 0 0 120 109 100 255
-0.695505 0.422154 3.83623 0 0 0 113 102 93 255
-0.608776 0.419566 3.81838 0 0 0 117 105 92 255
0.296569 0.390237 3.54711 0 0 0 103 114 83 255
0.335996 0.389487 3.53909 0 0 0 58 65 49 255
-0.757976 0.438876 3.83562 0 0 0 130 117 105 255
-0.588518 0.429542 3.80412 0 0 0 184 169 157 255
-0.572064 0.428711 3.80193 0 0 0 152 138 125 255
0.111166 0.405962 3.57086 0 0 0 127 144 97 255
0.494945 0.397432 3.53852 0 0 0 147 156 126 255
0.710456 0.386248 3.53228 0 0 0 144 151 130 255
1.01235 0.375548 3.57462 0 0 0 121 128 108 255
-0.642988 0.43649 3.81617 0 0 0 129 119 107 255
0.207873 0.409488 3.55004 0 0 0 70 79 60 255
-0.0873627 0.42366 3.62438 0 0 0 144 158 126 255
0.676839 0.400922 3.53718 0 0 0 158 168 133 255
0.709836 0.401002 3.52448 0 0 0 133 140 121 255
0.727727 0.402972 3.52852 0 0 0 96 104 81 255
0.190221 0.425577 3.54939 0 0 0 138 147 130 255
0.498302 0.414312 3.54082 0 0 0 106 114 89 255
-0.0316518 0.439911 3.62962 0 0 0 106 120 90 255
0.248486 0.427927 3.54695 0 0 0 71 79 56 255
0.280053 0.428565 3.54068 0 0 0 75 85 57 255
0.30296 0.430338 3.53069 0 0 0 118 127 108 255
0.639852 0.418681 3.51355 0 0 0 161 171 138 255
-0.0155938 0.445265 3.61482 0 0 0 111 125 92 255
0.110877 0.443268 3.56964 0 0 0 117 132 93 255
0.748675 0.422012 3.52719 0 0 0 48 56 44 255
-0.0863638 0.458576 3.62511 0 0 0 170 181 153 255
0.00124431 0.456699 3.59525 0 0 0 96 110 85 255
0.227413 0.446372 3.53717 0 0 0 123 131 120 255
0.266736 0.446626 3.53263 0 0 0 151 158 123 255
0.0218483 0.468015 3.58198 0 0 0 145 156 132 255
0.116193 0.46357 3.56777 0 0 0 162 174 142 255
0.483853 0.450037 3.5344 0 0 0 67 74 67 255
0.474654 0.464026 3.53158 0 0 0 74 79 78 255
-1.43185 0.560129 4.48473 0 0 0 155 145 146 255
-0.832252 0.534803 3.85776 0 0 0 143 138 137 255
-0.776756 0.53525 3.84081 0 0 0 132 126 123 255
-0.0857419 0.49804 3.61052 0 0 0 160 167 152 255
-0.00418483 0.496725 3.59974 0 0 0 144 152 129 255
-0.709319 0.534951 3.82717 0 0 0 136 131 127 255
-0.638351 0.529463 3.81482 0 0 0 121 116 115 255
0.0515865 0.497284 3.58739 0 0 0 125 134 117 255
1.01053 0.462127 3.58673 0 0 0 117 123 110 255
-0.748754 0.538109 3.83034 0 0 0 134 128 126 255
0.0906404 0.500228 3.57686 0 0 0 146 155 128 255
-0.831306 0.548204 3.84898 0 0 0 156 151 150 255
-0.641546 0.541103 3.80421 0 0 0 132 122 124 255
-0.633421 0.534191 3.80896 0 0 0 104 97 95 255
-0.0493313 0.515802 3.61262 0 0 0 72 83 69 255
-0.765869 0.551263 3.82598 0 0 0 138 131 128 255
-0.688331 0.545908 3.81303 0 0 0 145 140 136 255
0.96312 0.48017 3.58766 0 0 0 117 125 115 255
-0.632023 0.551298 3.80006 0 0 0 132 120 121 255
-0.570314 0.547266 3.77079 0 0 0 158 150 153 255
0.494621 0.506687 3.52604 0 0 0 156 165 135 255
0.601976 0.502797 3.52185 0 0 0 111 119 105 255
-0.0282154 0.533751 3.60879 0 0 0 133 146 132 255
0.132794 0.529256 3.54577 0 0 0 131 141 118 255
0.898259 0.496504 3.55431 0 0 0 147 158 116 255
0.0556603 0.53497 3.56907 0 0 0 71 83 62 255
0.709975 0.510336 3.52753 0 0 0 113 116 108 255
1.00992 0.497408 3.60092 0 0 0 118 122 113 255
0.154545 0.535901 3.5483 0 0 0 78 87 70 255
-0.0223843 0.552894 3.60145 0 0 0 64 77 62 255
0.444275 0.541247 3.53867 0 0 0 73 80 74 255
0.551272 0.537732 3.53957 0 0 0 146 156 124 255
0.843329 0.527548 3.56145 0 0 0 114 121 114 255
0.896758 0.526468 3.56005 0 0 0 119 129 105 255
0.370151 0.553477 3.53525 0 0 0 126 133 126 255
-0.259944 0.590259 3.69402 0 0 0 111 98 91 255
0.392557 0.554141 3.54015 0 0 0 111 118 109 255
0.424254 0.554004 3.53154 0 0 0 138 146 132 255
1.0083 0.533957 3.60206 0 0 0 130 137 119 255
-0.02584 0.588146 3.593 0 0 0 162 176 146 255
0.182877 0.585632 3.55511 0 0 0 109 122 78 255
0.423027 0.570104 3.52365 0 0 0 98 105 99 255
-0.00581799 0.603794 3.58686 0 0 0 82 92 67 255
0.461836 0.586039 3.5469 0 0 0 111 123 87 255
0.183601 0.602052 3.55088 0 0 0 71 83 50 255
-0.00288701 0.62115 3.58535 0 0 0 143 156 130 255
0.370624 0.602931 3.52214 0 0 0 72 78 79 255
0.115116 0.62651 3.5723 0 0 0 80 88 77 255
0.189772 0.621079 3.54438 0 0 0 107 120 96 255
0.4797 0.626431 3.53952 0 0 0 99 107 92 255
-0.0254268 0.65807 3.58923 0 0 0 91 106 80 255
0.687293 0.633225 3.55031 0 0 0 146 153 135 255
0.109678 0.673235 3.56549 0 0 0 129 138 122 255
0.492045 0.660778 3.52971 0 0 0 144 156 137 255
0.548026 0.661589 3.53571 0 0 0 150 161 121 255
0.611594 0.658956 3.53594 0 0 0 143 154 123 255
0.106613 0.708102 3.56814 0 0 0 141 153 138 255
0.474788 0.687166 3.53482 0 0 0 102 112 100 255
0.75226 0.678645 3.5664 0 0 0 103 112 97 255
0.181847 0.711485 3.54995 0 0 0 64 74 66 255
0.457577 0.698258 3.54474 0 0 0 57 64 59 255
0.545484 0.696537 3.54474 0 0 0 144 153 123 255
-0.00272271 0.734659 3.58595 0 0 0 77 86 70 255
0.614795 0.697248 3.53386 0 0 0 152 162 140 255
0.632388 0.701349 3.54009 0 0 0 117 127 101 255
-0.0266009 0.736344 3.5958 0 0 0 151 158 142 255
0.664431 0.699516 3.55587 0 0 0 121 129 119 255
0.181299 0.733414 3.57699 0 0 0 122 131 114 255
0.612046 0.71647 3.53739 0 0 0 120 129 114 255
0.697126 0.715295 3.5578 0 0 0 120 128 114 255
-0.0599201 0.762961 3.59941 0 0 0 102 107 109 255
0.543382 0.737468 3.5507 0 0 0 146 158 113 255
0.696136 0.72801 3.54919 0 0 0 129 137 122 255
0.187741 0.765051 3.56334 0 0 0 153 156 162 255
0.222726 0.763328 3.55989 0 0 0 130 134 136 255
0.733401 0.735078 3.54494 0 0 0 154 163 135 255
-0.0532785 0.781251 3.58926 0 0 0 49 53 57 255
-0.000570115 0.781498 3.57536 0 0 0 114 115 118 255
0.022349 0.776718 3.57724 0 0 0 79 85 88 255
0.0484908 0.771777 3.5724 0 0 0 100 108 113 255
0.0881555 0.773813 3.56174 0 0 0 115 121 128 255
0.203038 0.775599 3.55811 0 0 0 58 62 66 255
0.223416 0.770986 3.55103 0 0 0 132 136 140 255
0.0267639 0.790051 3.56716 0 0 0 97 101 105 255
0.217448 0.777652 3.55054 0 0 0 57 61 65 255
0.244079 0.771019 3.55667 0 0 0 88 94 95 255
0.27253 0.775069 3.56098 0 0 0 103 109 110 255
0.297941 0.77483 3.55364 0 0 0 110 115 118 255
0.000280053 0.792298 3.565 0 0 0 119 120 124 255
0.051324 0.793754 3.55999 0 0 0 112 116 120 255
0.0618659 0.790251 3.56343 0 0 0 98 102 107 255
0.0834971 0.797629 3.59429 0 0 0 124 127 134 255
0.126415 0.783513 3.55521 0 0 0 82 87 89 255
0.162859 0.7865 3.55346 0 0 0 97 101 103 255
0.205173 0.78109 3.55325 0 0 0 56 60 64 255
0.227143 0.782561 3.55286 0 0 0 92 96 100 255
0.314158 0.785367 3.57783 0 0 0 105 109 113 255
0.361152 0.774069 3.551 0 0 0 103 107 110 255
0.657984 0.76353 3.55986 0 0 0 114 120 123 255
0.190508 0.790104 3.54805 0 0 0 90 94 98 255
0.439601 0.76981 3.49605 0 0 0 85 89 93 255
0.500474 0.773933 3.54845 0 0 0 130 133 138 255
0.521068 0.76956 3.54477 0 0 0 65 69 73 255
0.479964 0.780188 3.544 0 0 0 114 118 122 255
0.551045 0.781324 3.5473 0 0 0 116 122 125 255
0.576997 0.775381 3.54936 0 0 0 125 131 134 255
0.624151 0.770492 3.5587 0 0 0 106 112 115 255
0.41867 0.780124 3.4851 0 0 0 127 131 135 255
0.445209 0.789118 3.59698 0 0 0 137 141 145 255
0.464492 0.785281 3.54507 0 0 0 55 59 63 255
0.678081 0.778759 3.56439 0 0 0 118 124 127 255
0.725444 0.779326 3.5675 0 0 0 97 103 103 255
0.736323 0.775895 3.57241 0 0 0 80 86 87 255
0.38493 0.795312 3.52902 0 0 0 123 127 131 255
0.471235 0.796777 3.60793 0 0 0 60 64 68 255
0.644762 0.787922 3.54983 0 0 0 43 48 50 255
0.749437 0.775047 3.55377 0 0 0 99 105 106 255
0.773691 0.780016 3.59934 0 0 0 90 99 101 255
0.967067 0.778894 3.64232 0 0 0 152 159 157 255
0.999282 0.778109 3.65237 0 0 0 126 131 130 255
0.520077 0.794801 3.54425 0 0 0 118 122 124 255
0.555773 0.792282 3.54364 0 0 0 129 134 136 255
0.575726 0.79581 3.54844 0 0 0 65 70 72 255
0.624131 0.787494 3.54898 0 0 0 74 80 83 255
0.70468 0.789077 3.56478 0 0 0 82 84 89 255
0.801758 0.780626 3.56624 0 0 0 98 106 109 255
0.847312 0.781042 3.59981 0 0 0 101 107 112 255
0.983158 0.783148 3.64657 0 0 0 53 57 59 255
0.674058 0.793961 3.54863 0 0 0 125 129 133 255
0.759015 0.786328 3.55859 0 0 0 53 55 60 255
1.0441 0.785942 3.62527 0 0 0 86 87 90 255
0.595727 0.799697 3.54373 0 0 0 78 82 84 255
0.837163 0.794951 3.59586 0 0 0 56 62 65 255
0.928296 0.793009 3.62986 0 0 0 106 110 114 255
0.983199 0.791448 3.64098 0 0 0 57 61 63 255
1.10484 0.797403 3.74444 0 0 0 95 96 99 255
0.862083 0.796982 3.59089 0 0 0 56 62 65 255
0.876115 0.794394 3.60032 0 0 0 117 122 126 255
1.0164 0.795895 3.64785 0 0 0 129 130 133 255
1.13458 0.800221 3.70224 0 0 0 119 120 123 255
1.15697 0.799312 3.7062 0 0 0 79 80 83 255
0.769378 0.808171 3.59509 0 0 0 119 119 124 255
0.787135 0.798636 3.55259 0 0 0 53 54 57 255
0.849087 0.807436 3.59321 0 0 0 88 94 97 255
-0.939239 0.911186 3.66493 0 0 0 108 87 85 255
0.806848 0.804495 3.57636 0 0 0 109 115 118 255
0.876518 0.808587 3.59533 0 0 0 112 117 121 255
0.929078 0.809308 3.62569 0 0 0 107 108 111 255
0.978255 0.807094 3.63038 0 0 0 155 159 161 255
1.04161 0.805065 3.65127 0 0 0 147 148 151 255
1.09886 0.80646 3.67978 0 0 0 48 49 52 255
1.01337 0.815511 3.64054 0 0 0 111 115 117 255
1.15192 0.817157 3.68984 0 0 0 110 111 114 255
1.03642 0.819756 3.6491 0 0 0 114 115 118 255
1.0665 0.823242 3.67156 0 0 0 136 137 140 255
1.09516 0.824613 3.6787 0 0 0 111 112 115 255
-0.707666 0.934274 3.75373 0 0 0 127 105 99 255
0.509044 0.847024 3.55912 0 0 0 100 105 111 255
0.560857 0.845202 3.55156 0 0 0 65 73 78 255
0.606169 0.850979 3.55904 0 0 0 94 104 108 255
0.637791 0.848769 3.55771 0 0 0 88 93 101 255
0.579446 0.857216 3.55019 0 0 0 87 95 100 255
0.678814 0.853478 3.57148 0 0 0 90 95 101 255
0.713415 0.855233 3.58715 0 0 0 97 106 108 255
0.746078 0.851896 3.59631 0 0 0 85 93 98 255
-0.774311 0.958315 3.75314 0 0 0 95 70 60 255
-0.622178 0.950242 3.74751 0 0 0 106 92 86 255
0.776651 0.857937 3.59546 0 0 0 105 111 117 255
0.884244 0.846643 3.5946 0 0 0 85 90 94 255
-0.803884 0.967939 3.76136 0 0 0 87 62 44 255
-0.642762 0.9554 3.7477 0 0 0 78 60 55 255
-0.941326 0.972353 3.67247 0 0 0 64 42 34 255
0.890899 0.866601 3.64196 0 0 0 100 106 110 255
0.94826 0.867968 3.65242 0 0 0 99 104 112 255
0.985167 0.86721 3.65417 0 0 0 110 113 120 255
1.02118 0.864422 3.6612 0 0 0 102 105 112 255
-0.833796 0.981548 3.74387 0 0 0 82 63 51 255
-0.590217 0.963485 3.7329 0 0 0 74 52 39 255
1.05246 0.873197 3.68746 0 0 0 100 105 111 255
1.1516 0.87274 3.71928 0 0 0 90 91 94 255
1.02041 0.879192 3.67064 0 0 0 102 105 112 255
1.08763 0.880891 3.69787 0 0 0 68 72 76 255
1.11886 0.878505 3.72337 0 0 0 91 92 97 255
-0.763841 0.988127 3.73991 0 0 0 62 47 38 255
-0.715404 0.989256 3.73993 0 0 0 79 54 45 255
0.429286 0.901966 3.56218 0 0 0 162 171 173 255
-0.252232 0.951931 3.65606 0 0 0 137 111 97 255
0.527859 0.90123 3.56981 0 0 0 160 166 169 255
-0.915486 1.00584 3.63726 0 0 0 59 38 31 255
-0.713942 0.99988 3.7366 0 0 0 73 49 48 255
-0.648194 0.998783 3.71799 0 0 0 83 54 48 255
-0.517702 0.983827 3.69932 0 0 0 84 63 52 255
1.00072 0.914517 3.67458 0 0 0 176 180 184 255
-0.823894 1.03209 3.7203 0 0 0 69 49 43 255
1.12572 0.926739 3.75659 0 0 0 121 125 129 255
1.14882 0.930573 3.75732 0 0 0 104 107 109 255
-0.703663 1.03504 3.72044 0 0 0 96 68 60 255
-0.253088 1.00446 3.66961 0 0 0 109 96 93 255
-0.723723 1.04324 3.71776 0 0 0 120 92 83 255
-0.766824 1.05621 3.71989 0 0 0 95 65 50 255
0.947287 0.958006 3.6868 0 0 0 151 160 160 255
-0.808895 1.06602 3.71175 0 0 0 82 58 54 255
0.0920532 0.987679 3.55959 0 0 0 183 189 192 255
0.444458 0.973844 3.56163 0 0 0 189 195 196 255
0.982205 0.968938 3.69646 0 0 0 125 131 132 255
-0.731776 1.07795 3.70064 0 0 0 115 89 73 255
-0.85639 1.08841 3.67803 0 0 0 75 54 46 255
-0.775548 1.08583 3.70026 0 0 0 69 48 44 255
-0.175151 1.03627 3.64576 0 0 0 131 143 137 255
0.385071 0.994687 3.56036 0 0 0 193 199 200 255
-0.813782 1.09036 3.68933 0 0 0 71 49 42 255
-0.563875 1.08048 3.70886 0 0 0 101 82 68 255
-0.106132 1.03416 3.61135 0 0 0 70 79 79 255
0.697289 0.995036 3.58366 0 0 0 174 178 182 255
0.945981 0.991872 3.67461 0 0 0 126 130 132 255
-0.830831 1.11002 3.67521 0 0 0 90 69 58 255
0.0350653 1.03953 3.58947 0 0 0 153 159 162 255
0.332278 1.02036 3.56727 0 0 0 128 132 134 255
0.356132 1.01892 3.56336 0 0 0 193 197 199 255
-0.127939 1.05622 3.61378 0 0 0 159 172 160 255
0.915139 1.00669 3.65655 0 0 0 117 120 123 255
1.00068 1.00468 3.6784 0 0 0 185 191 192 255
-0.864812 1.11626 3.63031 0 0 0 72 49 42 255
-0.840474 1.12243 3.66622 0 0 0 96 75 62 255
-0.801396 1.12911 3.67061 0 0 0 82 60 51 255
-0.000316076 1.06766 3.59817 0 0 0 169 178 180 255
0.0553211 1.05782 3.56409 0 0 0 192 198 199 255
0.0730812 1.05941 3.56289 0 0 0 145 151 152 255
0.793643 1.02697 3.62717 0 0 0 166 170 172 255
0.762714 1.03075 3.62198 0 0 0 193 197 199 255
0.853407 1.02896 3.64583 0 0 0 148 155 158 255
0.991987 1.02911 3.68538 0 0 0 147 151 153 255
0.483854 1.0422 3.57484 0 0 0 187 193 196 255
0.696431 1.03924 3.59993 0 0 0 189 195 198 255
0.724935 1.03781 3.60663 0 0 0 148 154 156 255
-0.694145 1.14818 3.69723 0 0 0 127 100 85 255
0.0333654 1.0794 3.57196 0 0 0 180 186 187 255
0.113441 1.07849 3.58219 0 0 0 145 149 151 255
0.692973 1.04761 3.60342 0 0 0 155 162 165 255
-0.77611 1.15688 3.66708 0 0 0 85 63 55 255
0.191113 1.08316 3.57064 0 0 0 196 201 204 255
0.877048 1.05705 3.65127 0 0 0 196 202 205 255
0.911708 1.06605 3.67114 0 0 0 193 194 197 255
0.9303 1.06358 3.67819 0 0 0 177 181 183 255
-0.103592 1.12859 3.61 0 0 0 168 186 163 255
0.942255 1.072 3.69009 0 0 0 130 134 136 255
1.00571 1.07917 3.73348 0 0 0 165 171 172 255
0.137855 1.10753 3.57144 0 0 0 130 137 138 255
-0.586377 1.18538 3.68328 0 0 0 107 83 71 255
0.269074 1.09877 3.55682 0 0 0 141 150 150 255
0.746219 1.08213 3.61078 0 0 0 185 191 192 255
0.876753 1.08586 3.6516 0 0 0 182 186 190 255
1.11973 1.09883 3.77957 0 0 0 187 191 193 255
-0.80088 1.19661 3.62661 0 0 0 91 68 57 255
1.01774 1.09823 3.73079 0 0 0 192 198 199 255
-0.793386 1.20151 3.62516 0 0 0 79 55 46 255
1.06514 1.10313 3.71555 0 0 0 178 183 184 255
0.87654 1.11008 3.6598 0 0 0 105 109 113 255
-0.0886494 1.16132 3.60964 0 0 0 132 146 133 255
-0.0354119 1.15544 3.58156 0 0 0 192 196 200 255
1.01256 1.11769 3.73341 0 0 0 130 134 136 255
-0.645817 1.22164 3.67316 0 0 0 96 80 71 255
0.0866495 1.16275 3.58 0 0 0 184 193 193 255
-0.716192 1.2377 3.65396 0 0 0 106 85 76 255
0.124786 1.16896 3.56709 0 0 0 171 177 178 255
0.929674 1.15427 3.71808 0 0 0 83 89 92 255
-0.781939 1.24723 3.59472 0 0 0 92 70 62 255
-0.105575 1.19626 3.6141 0 0 0 86 90 85 255
0.834716 1.15986 3.67775 0 0 0 148 154 157 255
-0.546816 1.25571 3.69392 0 0 0 123 99 88 255
-0.0888556 1.2108 3.60357 0 0 0 146 151 150 255
0.906224 1.16691 3.70791 0 0 0 96 100 104 255
0.848578 1.16777 3.68519 0 0 0 96 102 105 255
-0.760145 1.26397 3.59809 0 0 0 95 75 66 255
0.868474 1.171 3.68832 0 0 0 123 134 135 255
0.965382 1.17164 3.70649 0 0 0 188 194 197 255
0.701562 1.18012 3.62478 0 0 0 175 181 184 255
0.126598 1.21155 3.58161 0 0 0 185 191 192 255
0.815243 1.18626 3.65866 0 0 0 169 178 180 255
0.941055 1.18959 3.70484 0 0 0 196 200 204 255
0.903582 1.19378 3.69396 0 0 0 194 198 202 255
0.414189 1.20431 3.58175 0 0 0 185 194 196 255
0.91011 1.19351 3.6949 0 0 0 195 196 201 255
0.881102 1.20058 3.67708 0 0 0 98 99 104 255
0.796018 1.20259 3.63862 0 0 0 127 131 133 255
-0.637522 1.31568 3.66896 0 0 0 116 94 84 255
-0.722409 1.31025 3.58668 0 0 0 103 79 69 255
0.898686 1.21864 3.68126 0 0 0 156 159 163 255
1.05763 1.23838 3.78668 0 0 0 141 147 150 255
1.08891 1.23598 3.7932 0 0 0 143 148 154 255
-0.738512 1.3199 3.55766 0 0 0 73 65 61 255
-0.602344 1.32734 3.6457 0 0 0 114 95 83 255
-0.711725 1.33193 3.56497 0 0 0 111 100 95 255
0.950943 1.2621 3.7212 0 0 0 139 145 148 255
-0.678321 1.34196 3.56111 0 0 0 94 78 68 255
-0.607188 1.35656 3.62063 0 0 0 92 72 65 255
-0.636402 1.43087 3.57427 0 0 0 127 111 101 255
-0.61684 1.43422 3.57037 0 0 0 87 74 67 255
-0.540927 1.45746 3.59933 0 0 0 147 119 110 255
-0.502947 1.4577 3.59467 0 0 0 135 99 93 255
-0.53377 1.5236 3.60173 0 0 0 102 88 87 255
-0.425035 1.51494 3.57502 0 0 0 140 105 100 255
-0.575203 1.52764 3.52436 0 0 0 112 99 98 255
-0.242662 1.53362 3.62205 0 0 0 122 107 107 255
1.21469 -0.0987734 4.00637 0 0 0 128 127 130 255
-0.31106 -0.0682105 4.06584 0 0 0 150 145 147 255
-2.06977 -0.214033 5.53407 0 0 0 147 120 104 255
-1.01418 -0.0134588 3.90003 0 0 0 148 125 112 255
-0.99437 -0.028505 3.96004 0 0 0 168 144 128 255
-0.927817 -0.0154878 3.96128 0 0 0 148 119 108 255
-0.870988 -0.0188441 3.97099 0 0 0 150 116 104 255
-0.808294 -0.0256114 3.96699 0 0 0 143 110 101 255
-0.718388 -0.0224245 3.95353 0 0 0 130 114 99 255
-0.7173 -0.0296005 3.96126 0 0 0 183 167 152 255
-0.635603 -0.00934297 3.928 0 0 0 151 103 101 255
-0.59161 -0.00862298 3.91459 0 0 0 141 105 99 255
-2.05454 -0.185008 5.59626 0 0 0 195 178 164 255
-1.42304 -0.062823 4.54791 0 0 0 197 178 165 255
-0.990334 0.00796167 3.92249 0 0 0 196 177 164 255
-0.68119 0.0139498 3.93037 0 0 0 136 106 96 255
-0.599427 0.0179626 3.90002 0 0 0 200 177 164 255
-0.990461 0.0494749 3.90886 0 0 0 200 175 160 255
-0.886186 0.0441111 3.9339 0 0 0 193 179 161 255
-0.705626 0.0407236 3.9135 0 0 0 199 177 165 255
-2.04206 -0.0941164 5.48121 0 0 0 139 113 101 255
-1.46763 0.00124414 4.54415 0 0 0 145 119 102 255
-1.0461 0.0724569 3.87832 0 0 0 136 105 90 255
-0.779068 0.074639 3.91687 0 0 0 144 104 95 255
-0.698459 0.0819749 3.89573 0 0 0 153 125 112 255
-1.91291 0.127792 5.3297 0 0 0 142 110 94 255
-1.01428 0.209497 3.91761 0 0 0 139 114 97 255
-1.7403 0.149636 5.14849 0 0 0 132 107 90 255
-0.828541 0.214441 3.91804 0 0 0 139 113 99 255
-0.773382 0.207357 3.92244 0 0 0 153 123 106 255
-1.3809 0.187163 4.4882 0 0 0 196 175 160 255
-0.919732 0.232198 3.91973 0 0 0 201 180 167 255
-0.783915 0.236706 3.90947 0 0 0 199 180 161 255
0.0716175 0.235217 3.59618 0 0 0 107 123 90 255
-1.39235 0.248449 4.50023 0 0 0 200 178 160 255
-1.04711 0.276503 3.88532 0 0 0 144 110 91 255
0.286187 0.247429 3.55767 0 0 0 83 93 67 255
-0.909438 0.279857 3.89992 0 0 0 200 177 163 255
0.389119 0.258671 3.55332 0 0 0 161 173 135 255
0.986906 0.239868 3.55371 0 0 0 139 150 123 255
-0.879721 0.296198 3.89799 0 0 0 139 108 94 255
-0.813718 0.29705 3.88439 0 0 0 134 107 93 255
0.260667 0.302088 3.56114 0 0 0 159 168 140 255
0.180841 0.355665 3.55624 0 0 0 138 148 122 255
-0.776739 0.389545 3.87095 0 0 0 142 126 112 255
0.127113 0.360627 3.57313 0 0 0 113 128 90 255
-1.88212 0.405616 5.20047 0 0 0 151 138 131 255
-0.656807 0.391053 3.85154 0 0 0 128 112 99 255
0.334146 0.362839 3.54356 0 0 0 124 133 116 255
0.738456 0.350998 3.52843 0 0 0 136 143 125 255
1.00034 0.341958 3.57694 0 0 0 145 152 134 255
0.178418 0.376353 3.5652 0 0 0 101 111 85 255
-0.977659 0.422041 3.85124 0 0 0 114 102 90 255
-0.898951 0.422846 3.85783 0 0 0 190 177 170 255
-0.839548 0.423958 3.86259 0 0 0 111 98 95 255
-0.932577 0.431361 3.86104 0 0 0 156 142 134 255
0.138698 0.389758 3.56442 0 0 0 148 159 130 255
-0.655954 0.432652 3.82071 0 0 0 127 119 106 255
-0.0853376 0.412564 3.62676 0 0 0 164 178 146 255
0.708982 0.396523 3.52708 0 0 0 133 140 121 255
0.190893 0.423631 3.5486 0 0 0 138 147 130 255
-0.0465535 0.437888 3.63595 0 0 0 95 109 82 255
0.243181 0.428958 3.54701 0 0 0 84 92 69 255
0.26268 0.439641 3.53913 0 0 0 148 153 131 255
0.63791 0.415682 3.51545 0 0 0 161 171 138 255
0.113083 0.469053 3.56724 0 0 0 155 166 135 255
0.483147 0.448803 3.53586 0 0 0 67 74 67 255
-0.259272 0.490726 3.68574 0 0 0 191 181 170 255
-1.41321 0.558449 4.46653 0 0 0 143 133 133 255
-0.024673 0.493235 3.60849 0 0 0 161 176 141 255
-0.95505 0.540767 3.83649 0 0 0 127 86 80 255
-0.833255 0.541138 3.8531 0 0 0 155 150 149 255
-0.758148 0.55029 3.82743 0 0 0 126 119 116 255
-0.696505 0.542864 3.81932 0 0 0 154 150 144 255
-0.0504147 0.515544 3.60365 0 0 0 74 85 71 255
-0.634025 0.548352 3.80041 0 0 0 132 120 121 255
0.66786 0.490715 3.54602 0 0 0 49 56 51 255
0.880083 0.491579 3.55554 0 0 0 141 150 126 255
0.890374 0.491666 3.55368 0 0 0 145 155 117 255
-0.00714717 0.537951 3.60489 0 0 0 159 175 135 255
0.0539688 0.533272 3.5673 0 0 0 71 83 62 255
0.0809198 0.532387 3.55999 0 0 0 156 169 144 255
-0.0282227 0.55407 3.60276 0 0 0 65 78 66 255
0.461992 0.534075 3.54793 0 0 0 128 136 122 255
0.0107979 0.566264 3.58643 0 0 0 164 176 140 255
0.546947 0.542138 3.53704 0 0 0 160 170 135 255
-0.268589 0.592515 3.69651 0 0 0 112 99 92 255
0.00962924 0.593079 3.58477 0 0 0 115 119 100 255
0.0524845 0.583411 3.59667 0 0 0 79 82 58 255
-0.0145133 0.62357 3.5893 0 0 0 158 173 138 255
0.756886 0.594326 3.53957 0 0 0 86 91 92 255
0.111095 0.631217 3.57057 0 0 0 74 81 75 255
0.125177 0.669482 3.55649 0 0 0 126 136 112 255
-0.0467243 0.692653 3.58259 0 0 0 50 61 50 255
0.998171 0.655093 3.61142 0 0 0 89 94 93 255
0.464392 0.700877 3.54246 0 0 0 71 80 64 255
-0.0290763 0.737006 3.5962 0 0 0 147 154 138 255
0.540022 0.702842 3.54636 0 0 0 145 155 122 255
0.0889938 0.731009 3.56907 0 0 0 143 150 133 255
0.162992 0.727704 3.57345 0 0 0 159 172 132 255
0.717611 0.698088 3.56047 0 0 0 54 61 55 255
0.490437 0.725346 3.54296 0 0 0 85 95 71 255
0.699316 0.721651 3.55102 0 0 0 146 155 137 255
-0.104904 0.781284 3.589 0 0 0 94 101 99 255
0.0878856 0.774867 3.56187 0 0 0 115 121 128 255
0.790572 0.739995 3.57329 0 0 0 157 169 123 255
-0.0346557 0.794611 3.57216 0 0 0 158 160 163 255
0.0484976 0.790437 3.56656 0 0 0 111 115 120 255
0.230004 0.784811 3.54864 0 0 0 174 178 182 255
0.415082 0.774968 3.46214 0 0 0 105 109 113 255
0.305911 0.789772 3.51788 0 0 0 69 73 77 255
0.314535 0.795409 3.57214 0 0 0 48 52 56 255
0.499563 0.775835 3.54606 0 0 0 94 98 103 255
0.623715 0.773935 3.55779 0 0 0 72 78 81 255
0.773109 0.776464 3.60737 0 0 0 90 99 101 255
0.96854 0.782878 3.6392 0 0 0 153 158 159 255
0.629625 0.792093 3.54699 0 0 0 153 158 160 255
1.03089 0.795613 3.65071 0 0 0 76 77 80 255
-0.933955 0.904193 3.66817 0 0 0 123 95 86 255
0.924497 0.806915 3.62226 0 0 0 128 129 132 255
0.979973 0.804087 3.63384 0 0 0 155 159 161 255
1.06476 0.808188 3.66733 0 0 0 46 47 50 255
1.04442 0.808066 3.61555 0 0 0 69 70 73 255
1.15077 0.81993 3.69457 0 0 0 110 111 114 255
-0.709938 0.933333 3.75696 0 0 0 127 105 99 255
0.645292 0.852951 3.56173 0 0 0 73 78 86 255
-0.617264 0.952275 3.74118 0 0 0 127 110 101 255
0.889768 0.863784 3.62859 0 0 0 100 106 110 255
-0.848193 0.980804 3.74721 0 0 0 64 45 31 255
-0.769794 0.985364 3.74127 0 0 0 63 51 41 255
-0.255945 0.950669 3.65662 0 0 0 137 111 97 255
0.428995 0.901456 3.56142 0 0 0 162 171 173 255
0.696213 0.901213 3.57767 0 0 0 142 150 155 255
-0.92085 1.00825 3.62974 0 0 0 64 47 39 255
-0.647468 0.999937 3.72263 0 0 0 78 47 41 255
-0.825587 1.03875 3.7145 0 0 0 78 57 54 255
0.99078 0.917198 3.67983 0 0 0 179 183 187 255
-0.890149 1.03855 3.66906 0 0 0 80 53 45 255
-0.72258 1.03918 3.71869 0 0 0 120 92 83 255
-0.258725 1.00467 3.67116 0 0 0 105 92 89 255
-0.608559 1.07649 3.705 0 0 0 92 71 60 255
-0.198595 1.03871 3.64608 0 0 0 129 138 133 255
-0.10713 1.03467 3.61062 0 0 0 70 79 79 255
0.955314 0.985211 3.68819 0 0 0 168 174 175 255
0.793108 0.982895 3.59452 0 0 0 168 172 174 255
0.0868598 1.02113 3.56182 0 0 0 159 165 168 255
-0.870414 1.11202 3.63635 0 0 0 80 59 48 255
0.327141 1.02101 3.57002 0 0 0 140 144 146 255
0.930695 1.01722 3.66046 0 0 0 136 140 142 255
-0.798854 1.13355 3.667 0 0 0 77 55 47 255
0.757504 1.02982 3.62074 0 0 0 193 197 199 255
0.476709 1.04924 3.57847 0 0 0 195 201 204 255
0.693023 1.04649 3.60293 0 0 0 155 162 165 255
-0.819798 1.154 3.6546 0 0 0 88 67 56 255
0.087113 1.08011 3.57095 0 0 0 194 200 201 255
0.113362 1.08155 3.58317 0 0 0 135 139 141 255
-0.911608 1.15691 3.5742 0 0 0 118 99 93 255
0.850908 1.05567 3.6508 0 0 0 110 116 119 255
0.792963 1.0678 3.62025 0 0 0 177 183 184 255
0.944565 1.07019 3.68875 0 0 0 126 130 132 255
-0.10438 1.12674 3.60931 0 0 0 168 186 163 255
0.745523 1.08072 3.60998 0 0 0 185 191 192 255
0.867293 1.08828 3.64861 0 0 0 169 173 177 255
-0.614228 1.18517 3.68494 0 0 0 109 89 77 255
-0.588173 1.18473 3.68047 0 0 0 107 83 71 255
0.698958 1.08801 3.60425 0 0 0 158 164 167 255
1 1.0891 3.73325 0 0 0 195 204 204 255
-0.794566 1.20102 3.62479 0 0 0 79 55 46 255
1.1214 1.1122 3.77601 0 0 0 150 151 154 255
-0.0338052 1.15366 3.583 0 0 0 187 192 195 255
0.047416 1.14244 3.57742 0 0 0 129 138 138 255
0.140557 1.13464 3.56709 0 0 0 186 195 195 255
0.188101 1.13135 3.56644 0 0 0 196 204 206 255
-0.654629 1.2177 3.67636 0 0 0 97 80 70 255
-0.198697 1.18071 3.62826 0 0 0 148 165 150 255
0.352344 1.12699 3.55416 0 0 0 189 195 198 255
0.918703 1.12208 3.69698 0 0 0 112 113 118 255
0.0749895 1.16011 3.57822 0 0 0 191 200 200 255
0.992627 1.13335 3.73029 0 0 0 197 201 203 255
-0.714223 1.23891 3.65308 0 0 0 97 77 70 255
-0.0305279 1.17742 3.57275 0 0 0 139 143 147 255
-0.773928 1.25058 3.59928 0 0 0 86 62 54 255
0.853227 1.16503 3.6883 0 0 0 88 94 97 255
0.96513 1.16374 3.71014 0 0 0 185 194 196 255
0.866811 1.177 3.68899 0 0 0 161 172 173 255
0.111989 1.21411 3.58318 0 0 0 192 198 199 255
0.903786 1.18974 3.69443 0 0 0 191 196 199 255
-0.58209 1.2827 3.63696 0 0 0 111 89 81 255
0.410221 1.20463 3.57902 0 0 0 192 201 203 255
-0.652076 1.32279 3.66475 0 0 0 115 96 84 255
-0.603322 1.33593 3.63893 0 0 0 95 76 64 255
-0.708952 1.33306 3.56308 0 0 0 111 100 95 255
-0.613714 1.35184 3.63003 0 0 0 127 104 93 255
-0.557361 1.36213 3.62429 0 0 0 106 85 72 255
-0.619034 1.43631 3.56893 0 0 0 87 74 67 255
-0.532971 1.53078 3.59644 0 0 0 135 113 106 255
-0.480225 1.51816 3.58291 0 0 0 122 106 99 255
-0.423477 1.51695 3.57663 0 0 0 140 105 100 255
-0.573114 1.53251 3.52649 0 0 0 124 110 108 255
1.22347 -0.10294 4.00279 0 0 0 106 117 126 255
-1.41553 -0.097855 4.56429 0 0 0 136 108 96 255
-0.708938 -0.0168647 3.94954 0 0 0 139 123 108 255
-0.302202 -0.0665742 4.113 0 0 0 160 165 164 255
-0.867122 -0.0164542 3.9727 0 0 0 146 107 95 255
-0.920693 -0.00289769 3.9524 0 0 0 141 108 95 255
-2.02084 -0.163779 5.53536 0 0 0 196 177 166 255
-0.696196 0.0142583 3.92512 0 0 0 145 129 114 255
-0.987843 0.0334188 3.92896 0 0 0 197 178 162 255
-0.87995 0.0305012 3.94632 0 0 0 197 182 164 255
-0.771197 0.0161567 3.93881 0 0 0 197 181 166 255
-1.47512 -0.0201899 4.56556 0 0 0 148 112 94 255
-0.695136 0.0451979 3.90971 0 0 0 194 180 166 255
-0.588793 0.0410063 3.88604 0 0 0 198 182 167 255
-1.0526 0.0592134 3.87562 0 0 0 149 120 105 255
-0.776476 0.0763414 3.91491 0 0 0 144 104 95 255
-0.694589 0.0790672 3.89402 0 0 0 136 103 93 255
-0.615848 0.0735344 3.89035 0 0 0 138 108 98 255
-0.101221 0.158149 3.66087 0 0 0 157 165 153 255
-1.75995 0.155985 5.1863 0 0 0 138 113 94 255
-0.950573 0.216487 3.92182 0 0 0 152 125 109 255
-0.8182 0.213606 3.91578 0 0 0 135 100 85 255
-0.76395 0.213851 3.91833 0 0 0 147 115 98 255
0.901125 0.193209 3.56327 0 0 0 161 174 133 255
-1.36573 0.200278 4.41846 0 0 0 132 108 86 255
1.01262 0.200442 3.56379 0 0 0 131 139 125 255
-0.916875 0.233885 3.92247 0 0 0 203 180 167 255
0.0741558 0.23884 3.59409 0 0 0 107 123 90 255
-0.786392 0.24435 3.90365 0 0 0 198 178 158 255
0.956338 0.217882 3.5256 0 0 0 122 131 114 255
-1.05133 0.276922 3.88202 0 0 0 165 134 115 255
-0.882918 0.268993 3.92421 0 0 0 153 126 109 255
0.35809 0.250147 3.55797 0 0 0 75 85 59 255
-1.75831 0.260385 5.03257 0 0 0 137 111 94 255
-0.814599 0.279481 3.89428 0 0 0 140 113 99 255
0.0941709 0.259652 3.57342 0 0 0 133 147 115 255
-1.05052 0.301728 3.85256 0 0 0 160 130 113 255
-0.987437 0.296894 3.87045 0 0 0 136 106 91 255
-0.732147 0.301781 3.86962 0 0 0 142 112 95 255
-0.88613 0.296595 3.89288 0 0 0 180 153 140 255
0.730656 0.312677 3.55484 0 0 0 78 89 63 255
-1.62766 0.390362 4.83781 0 0 0 101 91 81 255
-1.06463 0.388554 3.86327 0 0 0 153 138 123 255
0.132635 0.356362 3.56781 0 0 0 92 103 74 255
-0.902526 0.39784 3.87667 0 0 0 166 151 142 255
-0.782739 0.386947 3.87815 0 0 0 177 158 144 255
-0.652684 0.392453 3.84767 0 0 0 128 112 99 255
0.314987 0.369988 3.54906 0 0 0 145 156 114 255
0.335668 0.366005 3.54061 0 0 0 124 133 116 255
0.744863 0.354278 3.5296 0 0 0 137 145 123 255
-0.989121 0.40924 3.8792 0 0 0 154 140 125 255
-0.579221 0.411592 3.81655 0 0 0 147 133 118 255
0.133235 0.390253 3.56635 0 0 0 156 167 138 255
0.62704 0.359283 3.53272 0 0 0 113 121 97 255
0.999358 0.345958 3.57649 0 0 0 147 155 135 255
-0.696968 0.42506 3.83836 0 0 0 126 115 107 255
-0.651155 0.432912 3.81772 0 0 0 127 119 106 255
-0.0827197 0.404488 3.62051 0 0 0 169 183 151 255
-0.757841 0.438779 3.83288 0 0 0 130 117 105 255
-0.0427368 0.443034 3.63432 0 0 0 88 101 74 255
0.120995 0.428707 3.56427 0 0 0 134 149 114 255
0.649456 0.417224 3.51475 0 0 0 157 167 130 255
0.729039 0.423786 3.51817 0 0 0 53 61 51 255
-0.0813207 0.480121 3.61505 0 0 0 167 178 149 255
0.111189 0.473332 3.56918 0 0 0 155 167 133 255
0.763417 0.437614 3.5237 0 0 0 87 98 87 255
-0.264507 0.49664 3.68493 0 0 0 180 170 160 255
-0.0342766 0.482523 3.61282 0 0 0 167 184 148 255
-1.42466 0.557087 4.4825 0 0 0 155 145 146 255
-0.950389 0.541147 3.8326 0 0 0 135 90 83 255
-0.756766 0.543688 3.82782 0 0 0 92 86 81 255
-0.641317 0.542171 3.80132 0 0 0 132 122 124 255
0.502114 0.488935 3.51928 0 0 0 160 174 126 255
-0.568601 0.539869 3.77067 0 0 0 158 152 154 255
-0.0499754 0.518739 3.61328 0 0 0 72 83 69 255
0.643319 0.490938 3.53154 0 0 0 46 53 51 255
0.708348 0.491711 3.53379 0 0 0 125 131 122 255
0.891564 0.477595 3.55321 0 0 0 141 152 113 255
0.0120163 0.541435 3.59504 0 0 0 171 187 143 255
0.05706 0.533464 3.56666 0 0 0 71 83 62 255
-0.0377155 0.555048 3.60686 0 0 0 67 80 68 255
0.570164 0.522875 3.53583 0 0 0 57 63 54 255
0.848592 0.529711 3.56411 0 0 0 119 127 118 255
0.375526 0.553091 3.53897 0 0 0 124 131 125 255
-0.0708317 0.588995 3.5966 0 0 0 157 167 145 255
0.441249 0.561957 3.52979 0 0 0 134 144 119 255
0.019784 0.589967 3.58068 0 0 0 86 89 74 255
0.886689 0.550965 3.57207 0 0 0 144 156 120 255
1.002 0.54571 3.6009 0 0 0 114 122 102 255
0.453788 0.590013 3.53482 0 0 0 99 109 83 255
0.111319 0.626719 3.57065 0 0 0 74 82 72 255
-0.0231339 0.650615 3.58853 0 0 0 102 116 92 255
0.108161 0.638687 3.56615 0 0 0 70 77 72 255
-0.0709399 0.667448 3.57739 0 0 0 150 159 139 255
0.132723 0.664984 3.55322 0 0 0 141 151 127 255
0.541608 0.636937 3.54168 0 0 0 160 172 123 255
-0.053581 0.695249 3.58087 0 0 0 48 59 48 255
1.00156 0.649145 3.61111 0 0 0 93 96 95 255
-0.0412213 0.716633 3.59372 0 0 0 104 111 108 255
0.647519 0.683037 3.5409 0 0 0 68 76 65 255
0.766499 0.682102 3.56796 0 0 0 144 154 134 255
0.105324 0.729983 3.56869 0 0 0 161 174 140 255
0.464423 0.720192 3.5342 0 0 0 111 117 95 255
0.61469 0.700259 3.53438 0 0 0 152 162 140 255
0.722796 0.695678 3.5587 0 0 0 55 62 60 255
0.533005 0.727048 3.54508 0 0 0 155 163 122 255
0.694732 0.730412 3.54853 0 0 0 129 137 122 255
0.735136 0.724962 3.54026 0 0 0 144 154 132 255
-0.974502 0.841767 3.71926 0 0 0 54 38 29 255
-0.111615 0.784458 3.58976 0 0 0 97 104 102 255
0.047553 0.783059 3.5703 0 0 0 107 112 118 255
0.0312042 0.783755 3.53854 0 0 0 97 101 105 255
0.229693 0.781234 3.55166 0 0 0 173 177 181 255
0.282172 0.777302 3.53008 0 0 0 107 111 115 255
0.301455 0.780012 3.55397 0 0 0 130 134 138 255
0.321333 0.782916 3.54065 0 0 0 111 115 119 255
0.658146 0.766643 3.55684 0 0 0 114 120 123 255
0.553608 0.786645 3.54314 0 0 0 102 108 111 255
0.62802 0.782982 3.55311 0 0 0 159 165 168 255
0.474606 0.798032 3.56576 0 0 0 92 96 100 255
0.575495 0.79519 3.54144 0 0 0 65 70 72 255
0.783818 0.781582 3.57048 0 0 0 85 94 96 255
0.851659 0.786542 3.59623 0 0 0 117 122 127 255
-0.935408 0.899806 3.68125 0 0 0 129 99 86 255
1.0939 0.800919 3.72746 0 0 0 75 76 79 255
0.976936 0.81233 3.63677 0 0 0 106 110 112 255
-0.703319 0.938062 3.75526 0 0 0 127 105 99 255
0.563573 0.843246 3.54647 0 0 0 100 110 114 255
-0.652154 0.943518 3.72617 0 0 0 70 59 54 255
-0.783091 0.972679 3.75345 0 0 0 64 46 43 255
0.0955503 0.902859 3.57484 0 0 0 196 202 205 255
-0.916862 0.980392 3.67476 0 0 0 129 101 86 255
-0.715039 0.992766 3.73893 0 0 0 73 49 43 255
-0.9216 1.00239 3.63773 0 0 0 67 49 42 255
0.530243 0.913643 3.56358 0 0 0 173 179 182 255
0.704263 0.903462 3.57432 0 0 0 191 199 204 255
-0.645774 1.002 3.72318 0 0 0 78 47 41 255
-0.618724 1.00701 3.71578 0 0 0 86 62 54 255
-0.709458 1.03474 3.71799 0 0 0 103 76 68 255
-0.260554 1.0059 3.67214 0 0 0 105 92 89 255
0.851778 0.950987 3.63731 0 0 0 144 153 155 255
0.962863 0.968812 3.69655 0 0 0 144 150 151 255
0.930147 0.97601 3.67151 0 0 0 168 172 174 255
0.966424 0.960095 3.69864 0 0 0 180 189 189 255
-0.731884 1.08212 3.69885 0 0 0 115 89 73 255
-0.10711 1.03463 3.61074 0 0 0 70 79 79 255
0.407707 0.995806 3.55816 0 0 0 200 206 207 255
-0.675725 1.10254 3.70844 0 0 0 101 79 64 255
-0.125473 1.06541 3.60768 0 0 0 170 183 169 255
0.996582 1.01301 3.67818 0 0 0 168 174 175 255
-0.147064 1.08731 3.60572 0 0 0 98 113 99 255
-0.00657521 1.07161 3.59426 0 0 0 168 177 179 255
0.475056 1.05259 3.58184 0 0 0 195 201 204 255
0.758366 1.03367 3.62084 0 0 0 197 201 203 255
0.858243 1.03238 3.6441 0 0 0 187 193 196 255
0.913456 1.03002 3.66202 0 0 0 129 130 133 255
-0.0985742 1.09079 3.59275 0 0 0 77 89 83 255
-0.0363801 1.08452 3.59056 0 0 0 94 100 102 255
0.0627804 1.08041 3.55651 0 0 0 177 183 184 255
0.0904757 1.08749 3.57231 0 0 0 185 191 192 255
0.980676 1.0373 3.6891 0 0 0 91 95 97 255
-0.771946 1.16045 3.66291 0 0 0 72 51 40 255
0.729543 1.05753 3.62136 0 0 0 125 129 131 255
-0.906097 1.1622 3.57613 0 0 0 131 109 101 255
0.283897 1.08792 3.56179 0 0 0 197 206 206 255
-0.707765 1.18648 3.68946 0 0 0 100 77 64 255
-0.107851 1.13156 3.60993 0 0 0 170 190 165 255
0.134878 1.10313 3.57273 0 0 0 134 140 141 255
1.00365 1.0902 3.73436 0 0 0 195 204 204 255
-0.609828 1.18328 3.68483 0 0 0 113 91 80 255
0.7578 1.07978 3.61058 0 0 0 196 202 203 255
-0.0238012 1.14254 3.58555 0 0 0 199 208 210 255
0.00544778 1.1402 3.58384 0 0 0 197 206 208 255
0.0502097 1.1371 3.57771 0 0 0 109 118 118 255
0.143948 1.13649 3.56408 0 0 0 196 204 204 255
0.294347 1.10966 3.5577 0 0 0 197 206 206 255
1.06923 1.09499 3.72027 0 0 0 137 143 144 255
0.354236 1.13042 3.55164 0 0 0 189 195 198 255
-0.651132 1.22781 3.67615 0 0 0 106 91 82 255
-0.719184 1.24182 3.65116 0 0 0 95 75 68 255
0.0738078 1.16234 3.57449 0 0 0 191 200 200 255
-0.114649 1.20042 3.61544 0 0 0 82 87 81 255
-0.768625 1.25436 3.59627 0 0 0 78 62 58 255
-0.551304 1.26239 3.68383 0 0 0 93 72 65 255
-0.0723655 1.2121 3.5929 0 0 0 159 163 167 255
0.106179 1.21745 3.57962 0 0 0 190 196 197 255
0.650201 1.19584 3.63445 0 0 0 190 196 199 255
0.825778 1.18404 3.66705 0 0 0 148 157 159 255
0.90742 1.18941 3.69787 0 0 0 192 197 200 255
-0.564674 1.27454 3.63159 0 0 0 102 79 68 255
-0.733654 1.30799 3.59014 0 0 0 130 103 90 255
-0.651514 1.32448 3.66298 0 0 0 84 70 62 255
-0.118527 1.28731 3.63258 0 0 0 60 66 67 255
-0.604067 1.34371 3.63399 0 0 0 88 69 58 255
-0.554281 1.3579 3.6244 0 0 0 116 95 82 255
1.12571 1.34369 3.83878 0 0 0 131 135 137 255
-0.582191 1.43491 3.59798 0 0 0 94 76 69 255
-0.552685 1.45648 3.59996 0 0 0 150 122 113 255
-0.500137 1.45195 3.59432 0 0 0 145 110 104 255
-0.376234 1.45796 3.6063 0 0 0 157 126 116 255
-0.718422 1.46649 3.42789 0 0 0 157 136 125 255
-0.546021 1.51767 3.53827 0 0 0 66 66 63 255
-0.999801 -0.0225887 3.95385 0 0 0 139 113 99 255
-0.314699 -0.0753152 4.18555 0 0 0 161 162 162 255
-0.622223 -0.00164388 3.91897 0 0 0 138 101 95 255
-1.00409 0.085123 3.8832 0 0 0 143 106 92 255
-1.00578 0.117249 3.88776 0 0 0 145 104 91 255
-1.74922 0.213637 5.04209 0 0 0 127 95 77 255
0.241897 0.250453 3.5699 0 0 0 77 87 63 255
0.276772 0.257759 3.56135 0 0 0 99 109 83 255
0.478425 0.333724 3.54507 0 0 0 108 119 104 255
0.331302 0.366221 3.54406 0 0 0 127 136 119 255
0.996899 0.340393 3.5775 0 0 0 145 152 134 255
-0.838854 0.408716 3.86314 0 0 0 97 84 81 255
-0.0851987 0.404648 3.62067 0 0 0 169 183 151 255
0.0731333 0.448268 3.58712 0 0 0 169 187 133 255
0.722831 0.430463 3.50832 0 0 0 60 67 61 255
0.502086 0.472532 3.52061 0 0 0 171 185 137 255
0.889076 0.463323 3.56223 0 0 0 148 160 118 255
0.0607088 0.534292 3.56705 0 0 0 68 80 60 255
0.640672 0.48189 3.53643 0 0 0 56 63 61 255
0.0202827 0.549085 3.58211 0 0 0 171 187 144 255
-0.28488 0.595656 3.69685 0 0 0 121 103 93 255
0.543016 0.562396 3.53747 0 0 0 161 174 122 255
0.0864664 0.608016 3.58084 0 0 0 72 80 67 255
-0.0684256 0.647289 3.58497 0 0 0 160 174 142 255
0.533039 0.632155 3.54934 0 0 0 163 178 125 255
0.619847 0.643591 3.52311 0 0 0 156 166 137 255
0.137044 0.730305 3.56753 0 0 0 162 176 128 255
0.724186 0.683245 3.55876 0 0 0 55 62 59 255
0.763855 0.688476 3.56754 0 0 0 143 155 122 255
-0.126798 0.778966 3.59765 0 0 0 95 105 99 255
-0.964686 0.864589 3.70644 0 0 0 46 35 32 255
-0.939986 0.879774 3.70949 0 0 0 120 97 79 255
1.04226 0.811086 3.65331 0 0 0 77 78 81 255
0.397585 0.907826 3.56483 0 0 0 194 203 205 255
0.971756 0.928489 3.70313 0 0 0 197 203 204 255
-0.279097 1.01914 3.67979 0 0 0 136 112 106 255
-0.117976 1.01759 3.6172 0 0 0 78 87 87 255
0.407908 0.982405 3.55522 0 0 0 196 202 203 255
0.794937 0.966587 3.59895 0 0 0 184 190 191 255
0.840692 0.978111 3.6371 0 0 0 116 124 126 255
-0.187163 1.04973 3.64852 0 0 0 160 173 160 255
0.0623334 1.03043 3.57462 0 0 0 122 128 131 255
0.773005 1.00034 3.60285 0 0 0 136 140 142 255
0.871231 1.04849 3.65072 0 0 0 198 204 207 255
0.0969479 1.10175 3.57975 0 0 0 144 150 151 255
0.788935 1.07132 3.61853 0 0 0 163 169 170 255
-0.0799287 1.12204 3.60505 0 0 0 117 123 124 255
0.283275 1.10071 3.55982 0 0 0 200 209 209 255
0.873094 1.08498 3.64765 0 0 0 182 186 190 255
1.1197 1.0871 3.7789 0 0 0 188 192 194 255
0.978273 1.10839 3.71755 0 0 0 160 166 167 255
0.918609 1.14569 3.71613 0 0 0 97 98 103 255
0.974019 1.15613 3.71659 0 0 0 195 201 203 255
-0.560196 1.26537 3.68066 0 0 0 105 83 74 255
0.477344 1.17526 3.58024 0 0 0 97 108 109 255
-0.75184 1.29121 3.55312 0 0 0 150 121 101 255
0.0865196 1.218 3.56286 0 0 0 197 202 204 255
0.910097 1.18975 3.69486 0 0 0 192 197 200 255
-0.268404 1.38064 3.59684 0 0 0 139 112 96 255
-0.379537 1.45518 3.60782 0 0 0 156 125 116 255
-0.714997 1.4714 3.4379 0 0 0 154 133 122 255
1.24574 -0.0858029 3.94665 0 0 0 80 99 110 255
-0.98349 -0.0258699 3.9751 0 0 0 168 136 120 255
-0.809456 -0.0228069 3.96163 0 0 0 148 107 96 255
-0.315514 -0.0572039 4.02241 0 0 0 72 69 71 255
-0.913533 0.0213567 3.94762 0 0 0 136 101 86 255
1.17807 -0.0168769 4.01851 0 0 0 168 166 167 255
-2.04742 -0.11191 5.51523 0 0 0 140 107 92 255
-0.857332 0.0641266 3.92991 0 0 0 131 103 92 255
-0.619802 0.070446 3.89321 0 0 0 142 111 101 255
-0.985647 0.125844 3.87964 0 0 0 139 106 90 255
0.876481 0.200888 3.57256 0 0 0 165 181 133 255
-0.783248 0.221946 3.91953 0 0 0 174 148 134 255
0.0795952 0.24306 3.58935 0 0 0 104 117 94 255
0.375267 0.271642 3.54549 0 0 0 75 85 79 255
0.165189 0.314778 3.57845 0 0 0 91 101 77 255
0.267135 0.329233 3.55527 0 0 0 170 184 134 255
-2.18698 0.402075 5.9484 0 0 0 85 74 68 255
-0.951007 0.423799 3.86071 0 0 0 124 112 104 255
-0.0654295 0.373806 3.60087 0 0 0 170 187 147 255
-0.580366 0.420908 3.80871 0 0 0 129 115 102 255
0.263804 0.40411 3.5533 0 0 0 152 165 124 255
0.753645 0.397201 3.53382 0 0 0 124 132 111 255
0.537294 0.452453 3.53257 0 0 0 168 183 128 255
-0.902651 0.536595 3.88543 0 0 0 42 37 36 255
