ply
format ascii 1.0
comment VCGLIB generated
element vertex 1017
property float x
property float y
property float z
property float nx
property float ny
property float nz
property uchar red
property uchar green
property uchar blue
property uchar alpha
element face 0
property list uchar int vertex_indices
end_header
0.0514191 0.497746 3.58772 0 0 0 125 134 117 255
1.01079 0.461333 3.60172 0 0 0 117 123 110 255
-0.748754 0.538109 3.83034 0 0 0 134 128 126 255
0.0898089 0.500986 3.5796 0 0 0 146 155 128 255
-0.831306 0.548204 3.84898 0 0 0 156 151 150 255
-0.641546 0.541103 3.80421 0 0 0 132 122 124 255
-0.633421 0.534191 3.80896 0 0 0 104 97 95 255
-0.0427539 0.515525 3.59043 0 0 0 72 83 69 255
-0.765869 0.551263 3.82598 0 0 0 138 131 128 255
-0.688331 0.545908 3.81303 0 0 0 145 140 136 255
0.96318 0.479443 3.60294 0 0 0 117 125 115 255
-0.632023 0.551298 3.80006 0 0 0 132 120 121 255
-0.570314 0.547266 3.77079 0 0 0 158 150 153 255
0.489468 0.507776 3.56116 0 0 0 156 165 135 255
0.598042 0.503439 3.55661 0 0 0 111 119 105 255
-0.0229533 0.533484 3.59066 0 0 0 133 146 132 255
0.127427 0.530377 3.56683 0 0 0 131 141 118 255
0.897524 0.49699 3.5835 0 0 0 147 158 116 255
0.0524805 0.535882 3.58043 0 0 0 71 83 62 255
0.707165 0.511045 3.56222 0 0 0 113 116 108 255
1.01007 0.496816 3.60647 0 0 0 118 122 113 255
0.149599 0.537054 3.56817 0 0 0 78 87 70 255
-0.0187969 0.552811 3.58894 0 0 0 64 77 62 255
0.439994 0.542368 3.56523 0 0 0 73 80 74 255
0.548568 0.53863 3.56038 0 0 0 146 156 124 255
0.842273 0.527961 3.58819 0 0 0 114 121 114 255
0.896086 0.527002 3.5874 0 0 0 119 129 105 255
0.365428 0.554892 3.5608 0 0 0 126 133 126 255
-0.231793 0.587208 3.61353 0 0 0 111 98 91 255
0.388386 0.555436 3.5636 0 0 0 111 118 109 255
0.419351 0.555326 3.56084 0 0 0 138 146 132 255
1.00844 0.533511 3.60792 0 0 0 130 137 119 255
-0.0235479 0.588028 3.58505 0 0 0 162 176 146 255
0.179211 0.586387 3.57065 0 0 0 109 122 78 255
0.417352 0.571671 3.55755 0 0 0 98 105 99 255
-0.00486048 0.603645 3.58352 0 0 0 82 92 67 255
0.458613 0.587155 3.56764 0 0 0 111 123 87 255
0.17898 0.602958 3.57056 0 0 0 71 83 50 255
-0.00202586 0.620887 3.58242 0 0 0 143 156 130 255
0.364239 0.604625 3.55728 0 0 0 72 78 79 255
0.113485 0.627043 3.57861 0 0 0 80 88 77 255
0.18399 0.622456 3.56908 0 0 0 107 120 96 255
0.47645 0.627536 3.5615 0 0 0 99 107 92 255
-0.0232607 0.657577 3.58186 0 0 0 91 106 80 255
0.685787 0.634447 3.56706 0 0 0 146 153 135 255
0.106727 0.674116 3.57696 0 0 0 129 138 122 255
0.487484 0.662917 3.56096 0 0 0 144 156 137 255
0.544874 0.663465 3.55981 0 0 0 150 161 121 255
0.607952 0.661208 3.5689 0 0 0 143 154 123 255
0.104373 0.708498 3.57708 0 0 0 141 153 138 255
0.470528 0.689117 3.5633 0 0 0 102 112 100 255
0.751094 0.679798 3.58375 0 0 0 103 112 97 255
0.17771 0.712923 3.56748 0 0 0 64 74 66 255
0.454055 0.699638 3.56788 0 0 0 57 64 59 255
0.542938 0.698113 3.56434 0 0 0 144 153 123 255
-0.0011918 0.734341 3.58053 0 0 0 77 86 70 255
0.611599 0.69947 3.56318 0 0 0 152 162 140 255
0.629749 0.703295 3.56558 0 0 0 117 127 101 255
-0.0224981 0.73509 3.58183 0 0 0 151 158 142 255
0.66309 0.700579 3.57023 0 0 0 121 129 119 255
0.181055 0.733524 3.57802 0 0 0 122 131 114 255
0.609193 0.718511 3.56353 0 0 0 120 129 114 255
0.695777 0.71651 3.57401 0 0 0 120 128 114 255
-0.0553842 0.760954 3.58476 0 0 0 102 107 109 255
0.541331 0.738924 3.56644 0 0 0 146 158 113 255
0.694217 0.729919 3.57189 0 0 0 129 137 122 255
0.185344 0.76582 3.57379 0 0 0 153 156 162 255
0.2199 0.764551 3.57254 0 0 0 130 134 136 255
0.731238 0.73777 3.57385 0 0 0 154 163 135 255
-0.0504417 0.779761 3.58017 0 0 0 49 53 57 255
-0.000780625 0.781237 3.5763 0 0 0 114 115 118 255
0.0224265 0.776305 3.5772 0 0 0 79 85 88 255
0.0467204 0.771961 3.57917 0 0 0 100 108 113 255
0.0857075 0.77428 3.57138 0 0 0 115 121 128 255
0.200378 0.776521 3.56991 0 0 0 58 62 66 255
0.219415 0.772632 3.56901 0 0 0 132 136 140 255
0.0242534 0.790674 3.57632 0 0 0 97 101 105 255
0.213675 0.779104 3.56746 0 0 0 57 61 65 255
0.241289 0.772129 3.56964 0 0 0 88 94 95 255
0.267781 0.777038 3.584 0 0 0 103 109 110 255
0.295018 0.776093 3.5683 0 0 0 110 115 118 255
-0.00176006 0.792786 3.57224 0 0 0 119 120 124 255
0.0468884 0.795148 3.57641 0 0 0 112 116 120 255
0.0585551 0.791292 3.57584 0 0 0 98 102 107 255
0.0854953 0.796379 3.58695 0 0 0 124 127 134 255
0.122323 0.784436 3.57198 0 0 0 82 87 89 255
0.158818 0.787737 3.57058 0 0 0 97 101 103 255
0.201823 0.782321 3.56809 0 0 0 56 60 64 255
0.224117 0.783811 3.56657 0 0 0 92 96 100 255
0.314317 0.784933 3.57735 0 0 0 105 109 113 255
0.358278 0.775551 3.56678 0 0 0 103 107 110 255
0.656245 0.765377 3.57781 0 0 0 114 120 123 255
0.186156 0.79174 3.56692 0 0 0 90 94 98 255
0.431412 0.77508 3.54606 0 0 0 85 89 93 255
0.498116 0.775307 3.56537 0 0 0 130 133 138 255
0.518763 0.77102 3.56193 0 0 0 65 69 73 255
0.477061 0.781914 3.56386 0 0 0 114 118 122 255
0.548971 0.782824 3.56379 0 0 0 116 122 125 255
0.574931 0.777013 3.56674 0 0 0 125 131 134 255
0.622564 0.771837 3.57395 0 0 0 106 112 115 255
0.40931 0.785838 3.54027 0 0 0 127 131 135 255
0.448215 0.78663 3.57837 0 0 0 137 141 145 255
0.461636 0.787103 3.56385 0 0 0 55 59 63 255
0.676853 0.780104 3.57815 0 0 0 118 124 127 255
0.72429 0.780792 3.58289 0 0 0 97 103 103 255
0.735407 0.777052 3.58533 0 0 0 80 86 87 255
0.379775 0.798324 3.55816 0 0 0 123 127 131 255
0.474818 0.793689 3.5845 0 0 0 60 64 68 255
0.642522 0.790228 3.57227 0 0 0 43 48 50 255
0.747657 0.777652 3.57941 0 0 0 99 105 106 255
0.773957 0.779435 3.59553 0 0 0 90 99 101 255
0.96721 0.776603 3.62116 0 0 0 152 159 157 255
0.99917 0.775879 3.62867 0 0 0 126 131 130 255
0.517747 0.796554 3.56134 0 0 0 118 122 124 255
0.5532 0.794394 3.56405 0 0 0 129 134 136 255
0.573404 0.798032 3.56747 0 0 0 65 70 72 255
0.621902 0.789527 3.57027 0 0 0 74 80 83 255
0.703521 0.790489 3.57904 0 0 0 82 84 89 255
0.800645 0.782741 3.58695 0 0 0 98 106 109 255
0.847296 0.781002 3.60078 0 0 0 101 107 112 255
0.983183 0.780935 3.62519 0 0 0 53 57 59 255
0.671703 0.796763 3.57421 0 0 0 125 129 133 255
0.757435 0.788927 3.58198 0 0 0 53 55 60 255
1.04406 0.785889 3.6238 0 0 0 86 87 90 255
0.593108 0.802185 3.56653 0 0 0 78 82 84 255
0.837101 0.794949 3.5983 0 0 0 56 62 65 255
0.928534 0.791508 3.6165 0 0 0 106 110 114 255
0.983217 0.789519 3.62261 0 0 0 57 61 63 255
1.10232 0.788994 3.66639 0 0 0 95 96 99 255
0.861771 0.797832 3.60027 0 0 0 56 62 65 255
0.876018 0.79464 3.60429 0 0 0 117 122 126 255
1.01627 0.793697 3.62872 0 0 0 129 130 133 255
1.13248 0.794622 3.65096 0 0 0 119 120 123 255
1.15446 0.793399 3.65274 0 0 0 79 80 83 255
0.769495 0.807909 3.59343 0 0 0 119 119 124 255
0.785397 0.801906 3.58222 0 0 0 53 54 57 255
0.848861 0.808033 3.59913 0 0 0 88 94 97 255
-0.939239 0.911186 3.66493 0 0 0 108 87 85 255
0.806298 0.805674 3.58676 0 0 0 109 115 118 255
0.876304 0.809342 3.60193 0 0 0 112 117 121 255
0.929264 0.808068 3.61425 0 0 0 107 108 111 255
0.978283 0.805889 3.61949 0 0 0 155 159 161 255
1.04149 0.804209 3.64359 0 0 0 147 148 151 255
1.09787 0.802771 3.64748 0 0 0 48 49 52 255
1.01324 0.813424 3.62227 0 0 0 111 115 117 255
1.15006 0.812517 3.6494 0 0 0 110 111 114 255
1.03618 0.817797 3.63221 0 0 0 114 115 118 255
1.06583 0.819899 3.64196 0 0 0 136 137 140 255
1.09365 0.818962 3.62941 0 0 0 111 112 115 255
-0.707666 0.934274 3.75373 0 0 0 127 105 99 255
0.507464 0.848311 3.57056 0 0 0 100 105 111 255
0.558866 0.846973 3.56779 0 0 0 65 73 78 255
0.604567 0.852778 3.5734 0 0 0 94 104 108 255
0.636205 0.850708 3.57319 0 0 0 88 93 101 255
0.577068 0.859813 3.56995 0 0 0 87 95 100 255
0.677903 0.85478 3.58153 0 0 0 90 95 101 255
0.713292 0.855467 3.5886 0 0 0 97 106 108 255
0.746525 0.851071 3.59001 0 0 0 85 93 98 255
-0.774311 0.958315 3.75314 0 0 0 95 70 60 255
-0.622178 0.950242 3.74751 0 0 0 106 92 86 255
0.776773 0.857793 3.59301 0 0 0 105 111 117 255
0.884096 0.847092 3.60237 0 0 0 85 90 94 255
-0.803884 0.967939 3.76136 0 0 0 87 62 44 255
-0.642762 0.9554 3.7477 0 0 0 78 60 55 255
-0.941326 0.972353 3.67247 0 0 0 64 42 34 255
0.891687 0.862968 3.61293 0 0 0 100 106 110 255
0.948586 0.8642 3.62258 0 0 0 99 104 112 255
0.985171 0.863446 3.62392 0 0 0 110 113 120 255
1.02087 0.860203 3.62825 0 0 0 102 105 112 255
-0.833796 0.981548 3.74387 0 0 0 82 63 51 255
-0.590217 0.963485 3.7329 0 0 0 74 52 39 255
1.05158 0.867157 3.63994 0 0 0 100 105 111 255
1.14877 0.864668 3.65705 0 0 0 90 91 94 255
1.02003 0.874131 3.63135 0 0 0 102 105 112 255
1.08623 0.874454 3.64833 0 0 0 68 72 76 255
1.11652 0.87021 3.65923 0 0 0 91 92 97 255
-0.763841 0.988127 3.73991 0 0 0 62 47 38 255
-0.715404 0.989256 3.73993 0 0 0 79 54 45 255
0.427646 0.903295 3.57232 0 0 0 162 171 173 255
-0.228677 0.942114 3.5892 0 0 0 137 111 97 255
0.526988 0.90199 3.57652 0 0 0 160 166 169 255
-0.915486 1.00584 3.63726 0 0 0 59 38 31 255
-0.713942 0.99988 3.7366 0 0 0 73 49 48 255
-0.648194 0.998783 3.71799 0 0 0 83 54 48 255
-0.517702 0.983827 3.69932 0 0 0 84 63 52 255
1.00054 0.908433 3.63058 0 0 0 176 180 184 255
-0.823894 1.03209 3.7203 0 0 0 69 49 43 255
1.12229 0.914092 3.66682 0 0 0 121 125 129 255
1.14491 0.918426 3.67054 0 0 0 104 107 109 255
-0.703663 1.03504 3.72044 0 0 0 96 68 60 255
-0.225202 0.991341 3.59036 0 0 0 109 96 93 255
-0.723723 1.04324 3.71776 0 0 0 120 92 83 255
-0.766824 1.05621 3.71989 0 0 0 95 65 50 255
0.947882 0.950076 3.63501 0 0 0 151 160 160 255
-0.808895 1.06602 3.71175 0 0 0 82 58 54 255
0.0872396 0.989823 3.57858 0 0 0 183 189 192 255
0.442852 0.975391 3.57185 0 0 0 189 195 196 255
0.982257 0.959963 3.6371 0 0 0 125 131 132 255
-0.731776 1.07795 3.70064 0 0 0 115 89 73 255
-0.85639 1.08841 3.67803 0 0 0 75 54 46 255
-0.775548 1.08583 3.70026 0 0 0 69 48 44 255
-0.155424 1.02558 3.58648 0 0 0 131 143 137 255
0.382441 0.996738 3.57577 0 0 0 193 199 200 255
-0.813782 1.09036 3.68933 0 0 0 71 49 42 255
-0.563875 1.08048 3.70886 0 0 0 101 82 68 255
-0.0962554 1.02861 3.58004 0 0 0 70 79 79 255
0.696655 0.996303 3.59113 0 0 0 174 178 182 255
0.946483 0.984903 3.63146 0 0 0 126 130 132 255
-0.830831 1.11002 3.67521 0 0 0 90 69 58 255
0.0361252 1.03817 3.58608 0 0 0 153 159 162 255
0.330113 1.02168 3.57925 0 0 0 128 132 134 255
0.353643 1.02078 3.57736 0 0 0 193 197 199 255
-0.116427 1.04949 3.57807 0 0 0 159 172 160 255
0.915807 1.00123 3.62326 0 0 0 117 120 123 255
1.00048 0.998134 3.63702 0 0 0 185 191 192 255
-0.864812 1.11626 3.63031 0 0 0 72 49 42 255
-0.840474 1.12243 3.66622 0 0 0 96 75 62 255
-0.801396 1.12911 3.67061 0 0 0 82 60 51 255
0.00311777 1.06441 3.58681 0 0 0 169 178 180 255
0.051882 1.05933 3.57728 0 0 0 192 198 199 255
0.0695738 1.06112 3.57652 0 0 0 145 151 152 255
0.794716 1.02368 3.60745 0 0 0 166 170 172 255
0.76376 1.02794 3.60562 0 0 0 193 197 199 255
0.854505 1.02402 3.6164 0 0 0 148 155 158 255
0.991874 1.0211 3.63709 0 0 0 147 151 153 255
0.483113 1.04311 3.5799 0 0 0 187 193 196 255
0.696948 1.03807 3.59399 0 0 0 189 195 198 255
0.725393 1.03678 3.60044 0 0 0 148 154 156 255
-0.694145 1.14818 3.69723 0 0 0 127 100 85 255
0.0317901 1.07955 3.57824 0 0 0 180 186 187 255
0.113093 1.07796 3.58415 0 0 0 145 149 151 255
0.693632 1.04616 3.59582 0 0 0 155 162 165 255
-0.77611 1.15688 3.66708 0 0 0 85 63 55 255
0.189734 1.08353 3.57721 0 0 0 196 201 204 255
0.877933 1.05196 3.62111 0 0 0 196 202 205 255
0.912528 1.05885 3.62903 0 0 0 193 194 197 255
0.930951 1.05577 3.63235 0 0 0 177 181 183 255
-0.0932252 1.12151 3.57728 0 0 0 168 186 163 255
0.942843 1.06267 3.6361 0 0 0 130 134 136 255
1.00521 1.06502 3.6535 0 0 0 165 171 172 255
0.135746 1.10852 3.58049 0 0 0 130 137 138 255
-0.586377 1.18538 3.68328 0 0 0 107 83 71 255
0.264714 1.10214 3.57821 0 0 0 141 150 150 255
0.746889 1.08021 3.60152 0 0 0 185 191 192 255
0.87767 1.08034 3.62032 0 0 0 182 186 190 255
1.11573 1.08012 3.67424 0 0 0 187 191 193 255
-0.80088 1.19661 3.62661 0 0 0 91 68 57 255
1.01702 1.08464 3.65615 0 0 0 192 198 199 255
-0.793386 1.20151 3.62516 0 0 0 79 55 46 255
1.06373 1.09223 3.65539 0 0 0 178 183 184 255
0.877661 1.1031 3.62229 0 0 0 105 109 113 255
-0.079395 1.15509 3.57976 0 0 0 132 146 133 255
-0.0332347 1.15325 3.57463 0 0 0 192 196 200 255
1.01192 1.10328 3.65633 0 0 0 130 134 136 255
-0.645817 1.22164 3.67316 0 0 0 96 80 71 255
0.0860955 1.16259 3.58256 0 0 0 184 193 193 255
-0.716192 1.2377 3.65396 0 0 0 106 85 76 255
0.121909 1.17074 3.57905 0 0 0 171 177 178 255
0.930752 1.1399 3.64524 0 0 0 83 89 92 255
-0.781939 1.24723 3.59472 0 0 0 92 70 62 255
-0.0936809 1.18783 3.57634 0 0 0 86 90 85 255
0.836709 1.15029 3.6299 0 0 0 148 154 157 255
-0.546816 1.25571 3.69392 0 0 0 123 99 88 255
-0.0790945 1.2035 3.57227 0 0 0 146 151 150 255
0.907624 1.15371 3.64201 0 0 0 96 100 104 255
0.850523 1.15736 3.63323 0 0 0 96 102 105 255
-0.760145 1.26397 3.59809 0 0 0 95 75 66 255
0.870229 1.1599 3.6332 0 0 0 123 134 135 255
0.965642 1.15939 3.645 0 0 0 188 194 197 255
0.702791 1.17712 3.60889 0 0 0 175 181 184 255
0.126075 1.21132 3.58424 0 0 0 185 191 192 255
0.816953 1.17877 3.62223 0 0 0 169 178 180 255
0.941731 1.17712 3.64382 0 0 0 196 200 204 255
0.904757 1.18261 3.63994 0 0 0 194 198 202 255
0.414141 1.20405 3.58245 0 0 0 185 194 196 255
0.9112 1.18219 3.64006 0 0 0 195 196 201 255
0.882285 1.19178 3.6348 0 0 0 98 99 104 255
0.797172 1.19802 3.61634 0 0 0 127 131 133 255
-0.637522 1.31568 3.66896 0 0 0 116 94 84 255
-0.722409 1.31025 3.58668 0 0 0 103 79 69 255
0.899738 1.20889 3.63546 0 0 0 156 159 163 255
1.05541 1.21528 3.67964 0 0 0 141 147 150 255
1.08583 1.21287 3.68681 0 0 0 143 148 154 255
-0.738512 1.3199 3.55766 0 0 0 73 65 61 255
-0.602344 1.32734 3.6457 0 0 0 114 95 83 255
-0.711725 1.33193 3.56497 0 0 0 111 100 95 255
0.951526 1.24664 3.65255 0 0 0 139 145 148 255
-0.678321 1.34196 3.56111 0 0 0 94 78 68 255
-0.607188 1.35656 3.62063 0 0 0 92 72 65 255
-0.636402 1.43087 3.57427 0 0 0 127 111 101 255
-0.61684 1.43422 3.57037 0 0 0 87 74 67 255
-0.540927 1.45746 3.59933 0 0 0 147 119 110 255
-0.502947 1.4577 3.59467 0 0 0 135 99 93 255
-0.53377 1.5236 3.60173 0 0 0 102 88 87 255
-0.425035 1.51494 3.57502 0 0 0 140 105 100 255
-0.575203 1.52764 3.52436 0 0 0 112 99 98 255
-0.242662 1.53362 3.62205 0 0 0 122 107 107 255
1.21469 -0.0987734 4.00637 0 0 0 128 127 130 255
-0.259754 -0.0492226 3.90723 0 0 0 150 145 147 255
-2.06977 -0.214033 5.53407 0 0 0 147 120 104 255
-1.01418 -0.0134588 3.90003 0 0 0 148 125 112 255
-0.99437 -0.028505 3.96004 0 0 0 168 144 128 255
-0.927817 -0.0154878 3.96128 0 0 0 148 119 108 255
-0.870988 -0.0188441 3.97099 0 0 0 150 116 104 255
-0.808294 -0.0256114 3.96699 0 0 0 143 110 101 255
-0.718388 -0.0224245 3.95353 0 0 0 130 114 99 255
-0.7173 -0.0296005 3.96126 0 0 0 183 167 152 255
-0.635603 -0.00934297 3.928 0 0 0 151 103 101 255
-0.59161 -0.00862298 3.91459 0 0 0 141 105 99 255
-2.05454 -0.185008 5.59626 0 0 0 195 178 164 255
-1.42304 -0.062823 4.54791 0 0 0 197 178 165 255
-0.990334 0.00796167 3.92249 0 0 0 196 177 164 255
-0.68119 0.0139498 3.93037 0 0 0 136 106 96 255
-0.599427 0.0179626 3.90002 0 0 0 200 177 164 255
-0.990461 0.0494749 3.90886 0 0 0 200 175 160 255
-0.886186 0.0441111 3.9339 0 0 0 193 179 161 255
-0.705626 0.0407236 3.9135 0 0 0 199 177 165 255
-2.04206 -0.0941164 5.48121 0 0 0 139 113 101 255
-1.46763 0.00124414 4.54415 0 0 0 145 119 102 255
-1.0461 0.0724569 3.87832 0 0 0 136 105 90 255
-0.779068 0.074639 3.91687 0 0 0 144 104 95 255
-0.698459 0.0819749 3.89573 0 0 0 153 125 112 255
-1.91291 0.127792 5.3297 0 0 0 142 110 94 255
-1.01428 0.209497 3.91761 0 0 0 139 114 97 255
-1.7403 0.149636 5.14849 0 0 0 132 107 90 255
-0.828541 0.214441 3.91804 0 0 0 139 113 99 255
-0.773382 0.207357 3.92244 0 0 0 153 123 106 255
-1.3809 0.187163 4.4882 0 0 0 196 175 160 255
-0.919732 0.232198 3.91973 0 0 0 201 180 167 255
-0.783915 0.236706 3.90947 0 0 0 199 180 161 255
0.0740171 0.237052 3.58629 0 0 0 107 123 90 255
-1.39235 0.248449 4.50023 0 0 0 200 178 160 255
-1.04711 0.276503 3.88532 0 0 0 144 110 91 255
0.282955 0.247934 3.57235 0 0 0 83 93 67 255
-0.909438 0.279857 3.89992 0 0 0 200 177 163 255
0.385906 0.25878 3.57071 0 0 0 161 173 135 255
0.987001 0.237095 3.59521 0 0 0 139 150 123 255
-0.879721 0.296198 3.89799 0 0 0 139 108 94 255
-0.813718 0.29705 3.88439 0 0 0 134 107 93 255
0.257684 0.302694 3.57431 0 0 0 159 168 140 255
0.176486 0.356401 3.57388 0 0 0 138 148 122 255
-0.776739 0.389545 3.87095 0 0 0 142 126 112 255
0.126388 0.361483 3.57541 0 0 0 113 128 90 255
-1.88212 0.405616 5.20047 0 0 0 151 138 131 255
-0.656807 0.391053 3.85154 0 0 0 128 112 99 255
0.330476 0.363299 3.56196 0 0 0 124 133 116 255
0.735711 0.350276 3.56565 0 0 0 136 143 125 255
1.00051 0.340942 3.59973 0 0 0 145 152 134 255
0.17546 0.376965 3.57715 0 0 0 101 111 85 255
-0.977659 0.422041 3.85124 0 0 0 114 102 90 255
-0.898951 0.422846 3.85783 0 0 0 190 177 170 255
-0.839548 0.423958 3.86259 0 0 0 111 98 95 255
-0.932577 0.431361 3.86104 0 0 0 156 142 134 255
0.136322 0.390503 3.57342 0 0 0 148 159 130 255
-0.655954 0.432652 3.82071 0 0 0 127 119 106 255
-0.0755723 0.413796 3.59442 0 0 0 164 178 146 255
0.705816 0.395913 3.56622 0 0 0 133 140 121 255
0.185795 0.424052 3.5701 0 0 0 138 147 130 255
-0.0363055 0.438788 3.60073 0 0 0 95 109 82 255
0.238497 0.429372 3.56813 0 0 0 84 92 69 255
0.256959 0.440019 3.56574 0 0 0 148 153 131 255
0.633583 0.415511 3.55735 0 0 0 161 171 138 255
0.111573 0.469997 3.57258 0 0 0 155 166 135 255
0.479 0.449338 3.56339 0 0 0 67 74 67 255
-0.234597 0.490457 3.61511 0 0 0 191 181 170 255
-1.41321 0.558449 4.46653 0 0 0 143 133 133 255
-0.0186508 0.493359 3.58755 0 0 0 161 176 141 255
-0.95505 0.540767 3.83649 0 0 0 127 86 80 255
-0.833255 0.541138 3.8531 0 0 0 155 150 149 255
-0.758148 0.55029 3.82743 0 0 0 126 119 116 255
-0.696505 0.542864 3.81932 0 0 0 154 150 144 255
-0.0447059 0.515356 3.58444 0 0 0 74 85 71 255
-0.634025 0.548352 3.80041 0 0 0 132 120 121 255
0.665865 0.490812 3.56789 0 0 0 49 56 51 255
0.879244 0.491963 3.58325 0 0 0 141 150 126 255
0.889568 0.492105 3.58302 0 0 0 145 155 117 255
-0.00304271 0.537812 3.59041 0 0 0 159 175 135 255
0.0508155 0.534021 3.57863 0 0 0 71 83 62 255
0.076383 0.533355 3.57681 0 0 0 156 169 144 255
-0.0242101 0.553912 3.58888 0 0 0 65 78 66 255
0.458939 0.534894 3.56753 0 0 0 128 136 122 255
0.011439 0.566389 3.58403 0 0 0 164 176 140 255
0.544038 0.543127 3.55919 0 0 0 160 170 135 255
-0.239215 0.589276 3.61306 0 0 0 112 99 92 255
0.00985121 0.593135 3.58393 0 0 0 115 119 100 255
0.0545496 0.583137 3.58899 0 0 0 79 82 58 255
-0.0127667 0.623116 3.58336 0 0 0 158 173 138 255
0.754999 0.59561 3.56773 0 0 0 86 91 92 255
0.108754 0.631949 3.57961 0 0 0 74 81 75 255
0.120731 0.670859 3.57401 0 0 0 126 136 112 255
-0.0454388 0.692421 3.57826 0 0 0 50 61 50 255
0.998204 0.654789 3.61022 0 0 0 89 94 93 255
0.460542 0.702473 3.56802 0 0 0 71 80 64 255
-0.0254292 0.735861 3.58383 0 0 0 147 154 138 255
0.537565 0.704371 3.56506 0 0 0 145 155 122 255
0.0868966 0.731381 3.5773 0 0 0 143 150 133 255
0.162361 0.727837 3.57615 0 0 0 159 172 132 255
0.716301 0.699345 3.57728 0 0 0 54 61 55 255
0.486677 0.727356 3.56904 0 0 0 85 95 71 255
0.697549 0.723347 3.57227 0 0 0 146 155 137 255
-0.100858 0.77988 3.57628 0 0 0 94 101 99 255
0.0854568 0.775326 3.57143 0 0 0 115 121 128 255
0.789792 0.741329 3.5866 0 0 0 157 169 123 255
-0.035523 0.794427 3.57537 0 0 0 158 160 163 255
0.0473312 0.790601 3.571 0 0 0 111 115 120 255
0.225901 0.786665 3.56717 0 0 0 174 178 182 255
0.402769 0.7826 3.53346 0 0 0 105 109 113 255
0.298242 0.793783 3.55595 0 0 0 69 73 77 255
0.314 0.795344 3.5752 0 0 0 48 52 56 255
0.497264 0.777176 3.56252 0 0 0 94 98 103 255
0.622039 0.775403 3.57381 0 0 0 72 78 81 255
0.773709 0.775307 3.59826 0 0 0 90 99 101 255
0.968642 0.781042 3.62212 0 0 0 153 158 159 255
0.627231 0.794395 3.57009 0 0 0 153 158 160 255
1.03066 0.793567 3.63188 0 0 0 76 77 80 255
-0.933955 0.904193 3.66817 0 0 0 123 95 86 255
0.924663 0.80589 3.61232 0 0 0 128 129 132 255
0.980005 0.802492 3.61941 0 0 0 155 159 161 255
1.06406 0.804622 3.63528 0 0 0 46 47 50 255
1.04446 0.808511 3.61875 0 0 0 69 70 73 255
1.14864 0.814505 3.64783 0 0 0 110 111 114 255
-0.709938 0.933333 3.75696 0 0 0 127 105 99 255
0.643872 0.854822 3.57576 0 0 0 73 78 86 255
-0.617264 0.952275 3.74118 0 0 0 127 110 101 255
0.890238 0.861664 3.61155 0 0 0 100 106 110 255
-0.848193 0.980804 3.74721 0 0 0 64 45 31 255
-0.769794 0.985364 3.74127 0 0 0 63 51 41 255
-0.231887 0.940691 3.58852 0 0 0 137 111 97 255
0.427378 0.902762 3.57141 0 0 0 162 171 173 255
0.695323 0.902592 3.58841 0 0 0 142 150 155 255
-0.92085 1.00825 3.62974 0 0 0 64 47 39 255
-0.647468 0.999937 3.72263 0 0 0 78 47 41 255
-0.825587 1.03875 3.7145 0 0 0 78 57 54 255
0.990733 0.910546 3.63247 0 0 0 179 183 187 255
-0.890149 1.03855 3.66906 0 0 0 80 53 45 255
-0.72258 1.03918 3.71869 0 0 0 120 92 83 255
-0.230204 0.991321 3.59043 0 0 0 105 92 89 255
-0.608559 1.07649 3.705 0 0 0 92 71 60 255
-0.177093 1.02737 3.58267 0 0 0 129 138 133 255
-0.0974987 1.02927 3.58012 0 0 0 70 79 79 255
0.955766 0.977024 3.63619 0 0 0 168 174 175 255
0.792973 0.983415 3.59622 0 0 0 168 172 174 255
0.0826944 1.02306 3.57822 0 0 0 159 165 168 255
-0.870414 1.11202 3.63635 0 0 0 80 59 48 255
0.325465 1.02187 3.57937 0 0 0 140 144 146 255
0.931219 1.01151 3.62541 0 0 0 136 140 142 255
-0.798854 1.13355 3.667 0 0 0 77 55 47 255
0.758534 1.02715 3.60491 0 0 0 193 197 199 255
0.476469 1.04946 3.58019 0 0 0 195 201 204 255
0.693639 1.04516 3.59576 0 0 0 155 162 165 255
-0.819798 1.154 3.6546 0 0 0 88 67 56 255
0.0854101 1.0805 3.57804 0 0 0 194 200 201 255
0.113154 1.0809 3.58457 0 0 0 135 139 141 255
-0.911608 1.15691 3.5742 0 0 0 118 99 93 255
0.852101 1.05018 3.61896 0 0 0 110 116 119 255
0.793763 1.06512 3.60603 0 0 0 177 183 184 255
0.945093 1.06126 3.63677 0 0 0 126 130 132 255
-0.0943764 1.11993 3.57776 0 0 0 168 186 163 255
0.746136 1.07897 3.60149 0 0 0 185 191 192 255
0.868291 1.08275 3.61829 0 0 0 169 173 177 255
-0.614228 1.18517 3.68494 0 0 0 109 89 77 255
-0.588173 1.18473 3.68047 0 0 0 107 83 71 255
0.699761 1.08609 3.59483 0 0 0 158 164 167 255
0.999651 1.07486 3.65452 0 0 0 195 204 204 255
-0.794566 1.20102 3.62479 0 0 0 79 55 46 255
1.11749 1.09345 3.67358 0 0 0 150 151 154 255
-0.0315142 1.15143 3.57565 0 0 0 187 192 195 255
0.0479565 1.14136 3.5759 0 0 0 129 138 138 255
0.137776 1.13609 3.57901 0 0 0 186 195 195 255
0.186065 1.13238 3.57579 0 0 0 196 204 206 255
-0.654629 1.2177 3.67636 0 0 0 97 80 70 255
-0.175129 1.16572 3.55898 0 0 0 148 165 150 255
0.348523 1.13083 3.5751 0 0 0 189 195 198 255
0.919817 1.11045 3.63635 0 0 0 112 113 118 255
0.0748389 1.15965 3.5792 0 0 0 191 200 200 255
0.992449 1.1186 3.65419 0 0 0 197 201 203 255
-0.714223 1.23891 3.65308 0 0 0 97 77 70 255
-0.0296703 1.17624 3.57021 0 0 0 139 143 147 255
-0.773928 1.25058 3.59928 0 0 0 86 62 54 255
0.855203 1.15411 3.63371 0 0 0 88 94 97 255
0.965418 1.15101 3.6458 0 0 0 185 194 196 255
0.868608 1.1657 3.63328 0 0 0 161 172 173 255
0.112116 1.21332 3.58319 0 0 0 192 198 199 255
0.904967 1.17856 3.64001 0 0 0 191 196 199 255
-0.58209 1.2827 3.63696 0 0 0 111 89 81 255
0.409683 1.205 3.58267 0 0 0 192 201 203 255
-0.652076 1.32279 3.66475 0 0 0 115 96 84 255
-0.603322 1.33593 3.63893 0 0 0 95 76 64 255
-0.708952 1.33306 3.56308 0 0 0 111 100 95 255
-0.613714 1.35184 3.63003 0 0 0 127 104 93 255
-0.557361 1.36213 3.62429 0 0 0 106 85 72 255
-0.619034 1.43631 3.56893 0 0 0 87 74 67 255
-0.532971 1.53078 3.59644 0 0 0 135 113 106 255
-0.480225 1.51816 3.58291 0 0 0 122 106 99 255
-0.423477 1.51695 3.57663 0 0 0 140 105 100 255
-0.573114 1.53251 3.52649 0 0 0 124 110 108 255
1.22347 -0.10294 4.00279 0 0 0 106 117 126 255
-1.41553 -0.097855 4.56429 0 0 0 136 108 96 255
-0.708938 -0.0168647 3.94954 0 0 0 139 123 108 255
-0.250035 -0.0471105 3.94853 0 0 0 160 165 164 255
-0.867122 -0.0164542 3.9727 0 0 0 146 107 95 255
-0.920693 -0.00289769 3.9524 0 0 0 141 108 95 255
-2.02084 -0.163779 5.53536 0 0 0 196 177 166 255
-0.696196 0.0142583 3.92512 0 0 0 145 129 114 255
-0.987843 0.0334188 3.92896 0 0 0 197 178 162 255
-0.87995 0.0305012 3.94632 0 0 0 197 182 164 255
-0.771197 0.0161567 3.93881 0 0 0 197 181 166 255
-1.47512 -0.0201899 4.56556 0 0 0 148 112 94 255
-0.695136 0.0451979 3.90971 0 0 0 194 180 166 255
-0.588793 0.0410063 3.88604 0 0 0 198 182 167 255
-1.0526 0.0592134 3.87562 0 0 0 149 120 105 255
-0.776476 0.0763414 3.91491 0 0 0 144 104 95 255
-0.694589 0.0790672 3.89402 0 0 0 136 103 93 255
-0.615848 0.0735344 3.89035 0 0 0 138 108 98 255
-0.0827223 0.165748 3.60068 0 0 0 157 165 153 255
-1.75995 0.155985 5.1863 0 0 0 138 113 94 255
-0.950573 0.216487 3.92182 0 0 0 152 125 109 255
-0.8182 0.213606 3.91578 0 0 0 135 100 85 255
-0.76395 0.213851 3.91833 0 0 0 147 115 98 255
0.900393 0.191357 3.59199 0 0 0 161 174 133 255
-1.36573 0.200278 4.41846 0 0 0 132 108 86 255
1.01296 0.197708 3.5994 0 0 0 131 139 125 255
-0.916875 0.233885 3.92247 0 0 0 203 180 167 255
0.0763212 0.240658 3.58504 0 0 0 107 123 90 255
-0.786392 0.24435 3.90365 0 0 0 198 178 158 255
0.95586 0.213702 3.58722 0 0 0 122 131 114 255
-1.05133 0.276922 3.88202 0 0 0 165 134 115 255
-0.882918 0.268993 3.92421 0 0 0 153 126 109 255
0.355366 0.250487 3.57179 0 0 0 75 85 59 255
-1.75831 0.260385 5.03257 0 0 0 137 111 94 255
-0.814599 0.279481 3.89428 0 0 0 140 113 99 255
0.0924675 0.260812 3.57903 0 0 0 133 147 115 255
-1.05052 0.301728 3.85256 0 0 0 160 130 113 255
-0.987437 0.296894 3.87045 0 0 0 136 106 91 255
-0.732147 0.301781 3.86962 0 0 0 142 112 95 255
-0.88613 0.296595 3.89288 0 0 0 180 153 140 255
0.729197 0.31207 3.57421 0 0 0 78 89 63 255
-1.62766 0.390362 4.83781 0 0 0 101 91 81 255
-1.06463 0.388554 3.86327 0 0 0 153 138 123 255
0.130817 0.357102 3.5745 0 0 0 92 103 74 255
-0.902526 0.39784 3.87667 0 0 0 166 151 142 255
-0.782739 0.386947 3.87815 0 0 0 177 158 144 255
-0.652684 0.392453 3.84767 0 0 0 128 112 99 255
0.311516 0.370309 3.56614 0 0 0 145 156 114 255
0.331644 0.366476 3.56087 0 0 0 124 133 116 255
0.742326 0.353638 3.56489 0 0 0 137 145 123 255
-0.989121 0.40924 3.8792 0 0 0 154 140 125 255
-0.579221 0.411592 3.81655 0 0 0 147 133 118 255
0.13138 0.390978 3.57324 0 0 0 156 167 138 255
0.623773 0.358679 3.56351 0 0 0 113 121 97 255
0.999546 0.344829 3.59916 0 0 0 147 155 135 255
-0.696968 0.42506 3.83836 0 0 0 126 115 107 255
-0.651155 0.432912 3.81772 0 0 0 127 119 106 255
-0.0739713 0.405475 3.59163 0 0 0 169 183 151 255
-0.757841 0.438779 3.83288 0 0 0 130 117 105 255
-0.0329668 0.443875 3.60061 0 0 0 88 101 74 255
0.118852 0.429546 3.57217 0 0 0 134 149 114 255
0.645223 0.417195 3.55694 0 0 0 157 167 130 255
0.725873 0.423295 3.56069 0 0 0 53 61 51 255
-0.0738273 0.480292 3.59039 0 0 0 167 178 149 255
0.110141 0.474271 3.5727 0 0 0 155 167 133 255
0.761032 0.437377 3.56075 0 0 0 87 98 87 255
-0.239881 0.496197 3.61478 0 0 0 180 170 160 255
-0.0277444 0.482847 3.59023 0 0 0 167 184 148 255
-1.42466 0.557087 4.4825 0 0 0 155 145 146 255
-0.950389 0.541147 3.8326 0 0 0 135 90 83 255
-0.756766 0.543688 3.82782 0 0 0 92 86 81 255
-0.641317 0.542171 3.80132 0 0 0 132 122 124 255
0.496514 0.489709 3.55822 0 0 0 160 174 126 255
-0.568601 0.539869 3.77067 0 0 0 158 152 154 255
-0.0433989 0.518471 3.59109 0 0 0 72 83 69 255
0.640597 0.491017 3.55915 0 0 0 46 53 51 255
0.705892 0.492323 3.56365 0 0 0 125 131 122 255
0.890775 0.47775 3.58336 0 0 0 141 152 113 255
0.0141124 0.5415 3.58743 0 0 0 171 187 143 255
0.0535919 0.534255 3.57918 0 0 0 71 83 62 255
-0.0325034 0.554754 3.58904 0 0 0 67 80 68 255
0.567275 0.523585 3.55931 0 0 0 57 63 54 255
0.847687 0.530005 3.58839 0 0 0 119 127 118 255
0.371486 0.554427 3.56093 0 0 0 124 131 125 255
-0.0671788 0.588635 3.58456 0 0 0 157 167 145 255
0.436026 0.563338 3.56212 0 0 0 134 144 119 255
0.0193742 0.590158 3.58206 0 0 0 86 89 74 255
0.88621 0.551425 3.58958 0 0 0 144 156 120 255
1.00217 0.545145 3.60747 0 0 0 114 122 102 255
0.449647 0.591187 3.56128 0 0 0 99 109 83 255
0.109001 0.627424 3.5796 0 0 0 74 82 72 255
-0.0210966 0.650258 3.58153 0 0 0 102 116 92 255
0.104967 0.639497 3.57856 0 0 0 70 77 72 255
-0.0708917 0.667371 3.57728 0 0 0 150 159 139 255
0.127644 0.666708 3.57329 0 0 0 141 151 127 255
0.538969 0.638338 3.56161 0 0 0 160 172 123 255
-0.0528618 0.695035 3.57851 0 0 0 48 59 48 255
1.0016 0.64876 3.60947 0 0 0 93 96 95 255
-0.0380907 0.715679 3.58325 0 0 0 104 111 108 255
0.644983 0.685001 3.56621 0 0 0 68 76 65 255
0.765359 0.683358 3.58591 0 0 0 144 154 134 255
0.10298 0.730397 3.57806 0 0 0 161 174 140 255
0.459227 0.722602 3.56854 0 0 0 111 117 95 255
0.611551 0.702488 3.56314 0 0 0 152 162 140 255
0.721382 0.697081 3.57711 0 0 0 55 62 60 255
0.530704 0.728531 3.56239 0 0 0 155 163 122 255
0.692782 0.732388 3.5714 0 0 0 129 137 122 255
0.732738 0.727849 3.57253 0 0 0 144 154 132 255
-0.974502 0.841767 3.71926 0 0 0 54 38 29 255
-0.107482 0.7831 3.5768 0 0 0 97 104 102 255
0.0469556 0.782783 3.5728 0 0 0 107 112 118 255
0.0236491 0.786273 3.56557 0 0 0 97 101 105 255
0.226108 0.782784 3.5679 0 0 0 173 177 181 255
0.27618 0.780084 3.55905 0 0 0 107 111 115 255
0.295295 0.782867 3.58492 0 0 0 130 134 138 255
0.316452 0.785289 3.56578 0 0 0 111 115 119 255
0.656229 0.768661 3.57669 0 0 0 114 120 123 255
0.55097 0.78869 3.56408 0 0 0 102 108 111 255
0.626006 0.784815 3.57257 0 0 0 159 165 168 255
0.474012 0.798129 3.57014 0 0 0 92 96 100 255
0.572562 0.797947 3.56547 0 0 0 65 70 72 255
0.782816 0.783289 3.58761 0 0 0 85 94 96 255
0.851512 0.786859 3.60058 0 0 0 117 122 127 255
-0.935408 0.899806 3.68125 0 0 0 129 99 86 255
1.09191 0.793387 3.65921 0 0 0 75 76 79 255
0.976996 0.810242 3.61847 0 0 0 106 110 112 255
-0.703319 0.938062 3.75526 0 0 0 127 105 99 255
0.56081 0.845814 3.56893 0 0 0 100 110 114 255
-0.652154 0.943518 3.72617 0 0 0 70 59 54 255
-0.783091 0.972679 3.75345 0 0 0 64 46 43 255
0.09293 0.903637 3.58537 0 0 0 196 202 205 255
-0.916862 0.980392 3.67476 0 0 0 129 101 86 255
-0.715039 0.992766 3.73893 0 0 0 73 49 43 255
-0.9216 1.00239 3.63773 0 0 0 67 49 42 255
0.52881 0.915089 3.57445 0 0 0 173 179 182 255
0.703069 0.905407 3.58904 0 0 0 191 199 204 255
-0.645774 1.002 3.72318 0 0 0 78 47 41 255
-0.618724 1.00701 3.71578 0 0 0 86 62 54 255
-0.709458 1.03474 3.71799 0 0 0 103 76 68 255
-0.231964 0.992489 3.59132 0 0 0 105 92 89 255
0.85261 0.947787 3.61524 0 0 0 144 153 155 255
0.963252 0.959947 3.63887 0 0 0 144 150 151 255
0.930866 0.969133 3.6291 0 0 0 168 172 174 255
0.966756 0.95119 3.6394 0 0 0 180 189 189 255
-0.731884 1.08212 3.69885 0 0 0 115 89 73 255
-0.0974514 1.02921 3.58016 0 0 0 70 79 79 255
0.405076 0.998006 3.57413 0 0 0 200 206 207 255
-0.675725 1.10254 3.70844 0 0 0 101 79 64 255
-0.114999 1.05915 3.57519 0 0 0 170 183 169 255
0.996431 1.00595 3.63475 0 0 0 168 174 175 255
-0.135999 1.0803 3.57224 0 0 0 98 113 99 255
-0.00324639 1.06854 3.58327 0 0 0 168 177 179 255
0.47518 1.05235 3.58113 0 0 0 195 201 204 255
0.759374 1.03104 3.60528 0 0 0 197 201 203 255
0.859224 1.02779 3.61624 0 0 0 187 193 196 255
0.914186 1.02392 3.62546 0 0 0 129 130 133 255
-0.091534 1.08619 3.57055 0 0 0 77 89 83 255
-0.0328622 1.08175 3.57902 0 0 0 94 100 102 255
0.0585573 1.08251 3.57272 0 0 0 177 183 184 255
0.0887935 1.08793 3.57932 0 0 0 185 191 192 255
0.980723 1.02856 3.63718 0 0 0 91 95 97 255
-0.771946 1.16045 3.66291 0 0 0 72 51 40 255
0.730823 1.05433 3.60422 0 0 0 125 129 131 255
-0.906097 1.1622 3.57613 0 0 0 131 109 101 255
0.280322 1.09074 3.57968 0 0 0 197 206 206 255
-0.707765 1.18648 3.68946 0 0 0 100 77 64 255
-0.097224 1.12436 3.57648 0 0 0 170 190 165 255
0.133078 1.10394 3.58044 0 0 0 134 140 141 255
1.00321 1.07596 3.65549 0 0 0 195 204 204 255
-0.609828 1.18328 3.68483 0 0 0 113 91 80 255
0.758407 1.07799 3.60162 0 0 0 196 202 203 255
-0.0211673 1.14004 3.57698 0 0 0 199 208 210 255
0.00743735 1.13806 3.57732 0 0 0 197 206 208 255
0.050696 1.13608 3.57638 0 0 0 109 118 118 255
0.140494 1.13851 3.57878 0 0 0 196 204 204 255
0.29055 1.11276 3.57704 0 0 0 197 206 206 255
1.06768 1.08364 3.65696 0 0 0 137 143 144 255
0.349923 1.1349 3.57522 0 0 0 189 195 198 255
-0.651132 1.22781 3.67615 0 0 0 106 91 82 255
-0.719184 1.24182 3.65116 0 0 0 95 75 68 255
0.0733928 1.16213 3.57643 0 0 0 191 200 200 255
-0.102332 1.19173 3.57662 0 0 0 82 87 81 255
-0.768625 1.25436 3.59627 0 0 0 78 62 58 255
-0.551304 1.26239 3.68383 0 0 0 93 72 65 255
-0.0648703 1.20618 3.5687 0 0 0 159 163 167 255
0.105871 1.21707 3.58131 0 0 0 190 196 197 255
0.652597 1.1904 3.60944 0 0 0 190 196 199 255
0.827573 1.17567 3.62615 0 0 0 148 157 159 255
0.908581 1.17789 3.64191 0 0 0 192 197 200 255
-0.564674 1.27454 3.63159 0 0 0 102 79 68 255
-0.733654 1.30799 3.59014 0 0 0 130 103 90 255
-0.651514 1.32448 3.66298 0 0 0 84 70 62 255
-0.100526 1.27364 3.57554 0 0 0 60 66 67 255
-0.604067 1.34371 3.63399 0 0 0 88 69 58 255
-0.554281 1.3579 3.6244 0 0 0 116 95 82 255
1.12151 1.31235 3.72882 0 0 0 131 135 137 255
-0.582191 1.43491 3.59798 0 0 0 94 76 69 255
-0.552685 1.45648 3.59996 0 0 0 150 122 113 255
-0.500137 1.45195 3.59432 0 0 0 145 110 104 255
-0.376234 1.45796 3.6063 0 0 0 157 126 116 255
-0.718422 1.46649 3.42789 0 0 0 157 136 125 255
-0.546021 1.51767 3.53827 0 0 0 66 66 63 255
-0.999801 -0.0225887 3.95385 0 0 0 139 113 99 255
-0.314699 -0.0753152 4.18555 0 0 0 161 162 162 255
-0.622223 -0.00164388 3.91897 0 0 0 138 101 95 255
-1.00409 0.085123 3.8832 0 0 0 143 106 92 255
-1.00578 0.117249 3.88776 0 0 0 145 104 91 255
-1.74922 0.213637 5.04209 0 0 0 127 95 77 255
0.240654 0.251396 3.57468 0 0 0 77 87 63 255
0.274045 0.258374 3.57348 0 0 0 99 109 83 255
0.475195 0.333775 3.56598 0 0 0 108 119 104 255
0.327254 0.366634 3.56438 0 0 0 127 136 119 255
0.997061 0.339288 3.59982 0 0 0 145 152 134 255
-0.838854 0.408716 3.86314 0 0 0 97 84 81 255
-0.0766156 0.405626 3.59239 0 0 0 169 183 151 255
0.0747563 0.44906 3.58047 0 0 0 169 187 133 255
0.718891 0.430101 3.55951 0 0 0 60 67 61 255
0.496648 0.473023 3.55854 0 0 0 171 185 137 255
0.888508 0.463264 3.58395 0 0 0 148 160 118 255
0.0573845 0.535117 3.57906 0 0 0 68 80 60 255
0.638514 0.481845 3.55826 0 0 0 56 63 61 255
0.0202516 0.549353 3.58206 0 0 0 171 187 144 255
-0.254153 0.592263 3.61065 0 0 0 121 103 93 255
0.539873 0.56378 3.56095 0 0 0 161 174 122 255
0.0855498 0.608343 3.58425 0 0 0 72 80 67 255
-0.0669369 0.647126 3.58003 0 0 0 160 174 142 255
0.531264 0.632965 3.56266 0 0 0 163 178 125 255
0.615246 0.646354 3.56543 0 0 0 156 166 137 255
0.135348 0.730636 3.57456 0 0 0 162 176 128 255
0.722767 0.684605 3.5773 0 0 0 55 62 59 255
0.762707 0.689688 3.58565 0 0 0 143 155 122 255
-0.120758 0.776946 3.57897 0 0 0 95 105 99 255
-0.964686 0.864589 3.70644 0 0 0 46 35 32 255
-0.939986 0.879774 3.70949 0 0 0 120 97 79 255
1.04212 0.810114 3.64441 0 0 0 77 78 81 255
0.396505 0.9085 3.57133 0 0 0 194 203 205 255
0.972051 0.919007 3.63707 0 0 0 197 203 204 255
-0.248009 1.0047 3.5927 0 0 0 136 112 106 255
-0.106505 1.01139 3.58117 0 0 0 78 87 87 255
0.405226 0.9846 3.57146 0 0 0 196 202 203 255
0.794986 0.966521 3.59767 0 0 0 184 190 191 255
0.841667 0.974484 3.61305 0 0 0 116 124 126 255
-0.165552 1.03791 3.58419 0 0 0 160 173 160 255
0.0602917 1.03097 3.58274 0 0 0 122 128 131 255
0.773218 0.999861 3.59898 0 0 0 136 140 142 255
0.872175 1.04343 3.62025 0 0 0 198 204 207 255
0.0964056 1.10143 3.58237 0 0 0 144 150 151 255
0.789725 1.06874 3.60466 0 0 0 163 169 170 255
-0.0720742 1.11649 3.57981 0 0 0 117 123 124 255
0.279333 1.10391 3.57952 0 0 0 200 209 209 255
0.873962 1.07995 3.61903 0 0 0 182 186 190 255
1.11571 1.0688 3.67385 0 0 0 188 192 194 255
0.978384 1.09558 3.64909 0 0 0 160 166 167 255
0.919908 1.13154 3.64358 0 0 0 97 98 103 255
0.974174 1.14269 3.64847 0 0 0 195 201 203 255
-0.560196 1.26537 3.68066 0 0 0 105 83 74 255
0.476713 1.17619 3.58449 0 0 0 97 108 109 255
-0.75184 1.29121 3.55312 0 0 0 150 121 101 255
0.0853661 1.21844 3.56766 0 0 0 197 202 204 255
0.911182 1.17855 3.64027 0 0 0 192 197 200 255
-0.268404 1.38064 3.59684 0 0 0 139 112 96 255
-0.379537 1.45518 3.60782 0 0 0 156 125 116 255
-0.714997 1.4714 3.4379 0 0 0 154 133 122 255
1.24574 -0.0858029 3.94665 0 0 0 80 99 110 255
-0.98349 -0.0258699 3.9751 0 0 0 168 136 120 255
-0.809456 -0.0228069 3.96163 0 0 0 148 107 96 255
-0.271088 -0.0421342 3.88869 0 0 0 72 69 71 255
-0.913533 0.0213567 3.94762 0 0 0 136 101 86 255
1.17807 -0.0168769 4.01851 0 0 0 168 166 167 255
-2.04742 -0.11191 5.51523 0 0 0 140 107 92 255
-0.857332 0.0641266 3.92991 0 0 0 131 103 92 255
-0.619802 0.070446 3.89321 0 0 0 142 111 101 255
-0.985647 0.125844 3.87964 0 0 0 139 106 90 255
0.875931 0.199723 3.58989 0 0 0 165 181 133 255
-0.783248 0.221946 3.91953 0 0 0 174 148 134 255
0.0807664 0.244673 3.58404 0 0 0 104 117 94 255
0.37158 0.271711 3.56509 0 0 0 75 85 79 255
0.164785 0.315988 3.57926 0 0 0 91 101 77 255
0.263435 0.329744 3.57202 0 0 0 170 184 134 255
-2.18695 0.401996 5.9484 0 0 0 85 74 68 255
-0.951007 0.423799 3.86071 0 0 0 124 112 104 255
-0.0616676 0.374666 3.58814 0 0 0 170 187 147 255
-0.580366 0.420908 3.80871 0 0 0 129 115 102 255
0.260087 0.404497 3.57043 0 0 0 152 165 124 255
0.751544 0.396853 3.56461 0 0 0 124 132 111 255
0.533896 0.452606 3.55824 0 0 0 168 183 128 255
-0.902651 0.536595 3.88543 0 0 0 42 37 36 255
0.56525 0.526941 3.55995 0 0 0 59 65 55 255
-0.261986 0.611368 3.59792 0 0 0 114 92 79 255
-0.0524132 0.597469 3.58175 0 0 0 164 179 144 255
-0.0635809 0.627732 3.58113 0 0 0 159 175 144 255
0.0559679 0.623911 3.57355 0 0 0 98 105 100 255
0.736514 0.654654 3.57462 0 0 0 50 56 57 255
0.521041 0.727413 3.56269 0 0 0 147 154 120 255
0.769189 0.726759 3.576 0 0 0 159 173 123 255
0.923339 0.703703 3.60557 0 0 0 154 169 116 255
-0.959786 0.854221 3.71135 0 0 0 59 42 35 255
0.756443 0.759194 3.58583 0 0 0 56 62 52 255
0.0512801 0.79506 3.57959 0 0 0 106 110 114 255
0.186733 0.772897 3.57173 0 0 0 160 164 169 255
-0.80788 0.885853 3.81285 0 0 0 47 38 33 255
-0.247719 0.912644 3.59466 0 0 0 132 101 85 255
0.0945434 0.891643 3.58843 0 0 0 146 152 154 255
0.543472 0.940345 3.57217 0 0 0 146 152 155 255
0.719886 0.910798 3.59172 0 0 0 194 203 207 255
-0.121442 0.991371 3.58444 0 0 0 65 74 74 255
0.175705 1.01209 3.57197 0 0 0 142 146 148 255
0.833465 0.987285 3.61186 0 0 0 121 129 131 255
-0.15539 1.05553 3.58197 0 0 0 154 169 152 255
0.958958 1.03191 3.63254 0 0 0 98 104 105 255
-0.092434 1.08964 3.56984 0 0 0 84 96 92 255
0.702852 1.04941 3.59952 0 0 0 190 196 199 255
0.745003 1.02662 3.6025 0 0 0 196 202 203 255
0.874851 1.04605 3.62023 0 0 0 198 204 207 255
0.283924 1.10812 3.57737 0 0 0 198 207 207 255
1.10586 1.05449 3.67345 0 0 0 183 188 189 255
0.163179 1.12404 3.5788 0 0 0 197 206 206 255
0.976593 1.10218 3.64863 0 0 0 165 171 172 255
1.04472 1.1211 3.65721 0 0 0 94 100 101 255
0.441217 1.16127 3.57674 0 0 0 109 118 120 255
0.975551 1.16582 3.64794 0 0 0 160 165 169 255
-0.560735 1.27321 3.67171 0 0 0 89 68 60 255
0.642288 1.20891 3.60414 0 0 0 197 205 207 255
-0.230838 0.0342154 3.75242 0 0 0 45 44 47 255
1.2109 0.0708396 3.76343 0 0 0 53 53 53 255
-0.752565 0.251982 3.89786 0 0 0 149 122 99 255
0.846911 0.210813 3.58343 0 0 0 165 185 125 255
0.434054 0.317914 3.5686 0 0 0 77 84 77 255
-0.0697985 0.355026 3.60025 0 0 0 168 185 145 255
0.404493 0.366989 3.55917 0 0 0 65 75 72 255
0.852868 0.31069 3.59118 0 0 0 167 183 125 255
0.647585 0.353168 3.5672 0 0 0 98 106 81 255
0.763052 0.321858 3.56933 0 0 0 130 140 117 255
-0.0673407 0.419835 3.59281 0 0 0 160 176 138 255
0.0553237 0.406735 3.59037 0 0 0 171 189 135 255
0.476624 0.417722 3.56522 0 0 0 70 77 75 255
0.800906 0.415265 3.56365 0 0 0 61 68 64 255
0.175371 0.483842 3.56243 0 0 0 65 77 73 255
0.432517 0.457678 3.57458 0 0 0 48 55 53 255
-0.838736 0.5377 3.73223 0 0 0 41 36 38 255
0.860883 0.492721 3.58708 0 0 0 79 86 83 255
0.608506 0.552401 3.56053 0 0 0 82 89 84 255
0.0457636 0.647103 3.56857 0 0 0 50 56 56 255
0.493272 0.654663 3.55947 0 0 0 165 176 145 255
1.09457 0.801989 3.65055 0 0 0 63 64 67 255
-0.774049 1.01708 3.73824 0 0 0 144 120 93 255
-0.190902 0.994788 3.58632 0 0 0 60 64 63 255
0.719315 0.949196 3.59032 0 0 0 198 203 206 255
0.891836 0.943677 3.61695 0 0 0 195 204 205 255
0.0712213 1.11445 3.57915 0 0 0 122 128 129 255
1.09172 1.05021 3.67184 0 0 0 166 172 173 255
-0.22828 -0.151044 3.80499 0 0 0 73 73 76 255
-0.219179 -0.132413 3.8081 0 0 0 66 56 60 255
1.23362 0.00311437 3.82035 0 0 0 157 137 117 255
-0.234041 -0.0181915 3.76891 0 0 0 174 183 185 255
0.0756379 0.226603 3.58456 0 0 0 138 160 123 255
0.983825 0.299863 3.61267 0 0 0 121 134 121 255
0.451861 0.294634 3.57902 0 0 0 121 135 105 255
1.6906 0.312056 3.80955 0 0 0 203 190 184 255
0.775974 0.313729 3.58914 0 0 0 106 121 86 255
1.65443 0.337729 3.80127 0 0 0 188 157 138 255
0.491653 0.326469 3.58322 0 0 0 134 149 110 255
1.72441 0.341108 3.81841 0 0 0 197 180 175 255
1.75885 0.342684 3.82983 0 0 0 195 183 183 255
0.631371 0.340928 3.58228 0 0 0 100 118 73 255
0.476569 0.378813 3.58276 0 0 0 80 93 80 255
1.73467 0.39548 3.82043 0 0 0 207 193 197 255
0.655828 0.387149 3.57934 0 0 0 79 91 82 255
0.737378 0.403229 3.58464 0 0 0 127 141 122 255
0.278244 0.410468 3.58345 0 0 0 140 158 115 255
1.79522 0.439581 3.83925 0 0 0 159 134 125 255
1.802 0.437431 3.84235 0 0 0 162 134 121 255
1.73458 0.443103 3.81966 0 0 0 204 191 194 255
1.82531 0.44483 3.85214 0 0 0 196 185 185 255
1.9804 0.446877 3.8984 0 0 0 168 129 106 255
1.71655 0.447848 3.81432 0 0 0 210 186 178 255
1.71833 0.458399 3.81278 0 0 0 163 131 110 255
0.669696 0.451786 3.5811 0 0 0 117 131 112 255
1.78659 0.468266 3.83318 0 0 0 160 130 115 255
0.599016 0.454564 3.57743 0 0 0 115 130 102 255
1.71592 0.477548 3.81355 0 0 0 184 126 89 255
0.592049 0.466494 3.57689 0 0 0 87 104 76 255
1.88218 0.486667 3.86474 0 0 0 181 123 88 255
0.997379 0.479327 3.60795 0 0 0 72 82 76 255
1.73418 0.490833 3.8167 0 0 0 204 195 199 255
1.81883 0.494979 3.84669 0 0 0 209 177 163 255
0.665266 0.476505 3.57923 0 0 0 101 112 101 255
1.95328 0.498558 3.88611 0 0 0 196 182 184 255
2.00505 0.499726 3.90348 0 0 0 196 187 182 255
2.05702 0.501913 3.92019 0 0 0 198 182 172 255
0.721033 0.487645 3.58296 0 0 0 83 93 87 255
0.686059 0.493002 3.57989 0 0 0 63 75 71 255
0.789869 0.509861 3.58442 0 0 0 66 78 82 255
0.614999 0.524344 3.57828 0 0 0 80 92 88 255
0.684054 0.532976 3.58198 0 0 0 80 93 92 255
0.379571 0.536946 3.57535 0 0 0 68 86 85 255
0.86064 0.542696 3.59859 0 0 0 95 109 90 255
0.871718 0.549397 3.59885 0 0 0 125 138 124 255
0.203857 0.55048 3.57774 0 0 0 115 129 112 255
0.866542 0.56215 3.59659 0 0 0 42 53 52 255
0.877765 0.560446 3.59743 0 0 0 78 89 76 255
0.891198 0.567797 3.60003 0 0 0 131 143 123 255
0.892094 0.58461 3.59922 0 0 0 71 77 78 255
0.770382 0.594306 3.58793 0 0 0 58 69 70 255
2.15524 0.624813 3.93603 0 0 0 200 159 125 255
0.606222 0.615268 3.58623 0 0 0 58 72 65 255
0.696262 0.628696 3.57666 0 0 0 86 100 93 255
0.155222 0.630038 3.58298 0 0 0 97 118 86 255
0.683157 0.647964 3.57634 0 0 0 138 153 119 255
0.943985 0.666779 3.60621 0 0 0 107 119 100 255
0.95333 0.676721 3.60665 0 0 0 54 64 56 255
0.962194 0.688959 3.60795 0 0 0 115 126 111 255
0.662207 0.684891 3.57768 0 0 0 69 76 73 255
0.0128742 0.686244 3.58079 0 0 0 109 125 110 255
0.734244 0.704093 3.58933 0 0 0 59 73 52 255
0.164466 0.707604 3.57785 0 0 0 116 133 114 255
0.623618 0.714584 3.57789 0 0 0 82 96 74 255
0.725034 0.71821 3.58807 0 0 0 106 119 103 255
0.940526 0.726277 3.60478 0 0 0 154 170 128 255
0.499851 0.731855 3.57987 0 0 0 100 110 83 255
-0.0389736 0.728961 3.57446 0 0 0 119 131 123 255
0.677355 0.741682 3.58226 0 0 0 92 104 100 255
0.800484 0.744512 3.59202 0 0 0 150 166 124 255
0.833978 0.741356 3.59749 0 0 0 118 131 114 255
0.138709 0.769617 3.57043 0 0 0 65 77 83 255
0.643194 0.776009 3.58674 0 0 0 45 53 60 255
0.826364 0.78016 3.59721 0 0 0 103 110 107 255
0.0487452 0.77689 3.60921 0 0 0 82 93 99 255
0.915956 0.78749 3.60495 0 0 0 125 133 138 255
-0.0206791 0.779022 3.57661 0 0 0 51 58 56 255
0.811154 0.794796 3.59479 0 0 0 40 48 53 255
1.08473 0.803176 3.66475 0 0 0 89 105 107 255
0.112915 0.797965 3.58216 0 0 0 90 98 103 255
0.442313 0.796747 3.58785 0 0 0 122 132 138 255
0.91494 0.802134 3.60398 0 0 0 131 136 142 255
0.242949 0.798597 3.5727 0 0 0 113 113 121 255
0.750717 0.806415 3.59092 0 0 0 122 126 128 255
0.819311 0.805497 3.59753 0 0 0 67 72 78 255
1.11089 0.813783 3.6314 0 0 0 77 82 88 255
1.13076 0.819894 3.62894 0 0 0 93 98 104 255
0.901278 0.845307 3.60602 0 0 0 65 75 83 255
1.06492 0.858972 3.61941 0 0 0 83 92 102 255
0.807409 0.859098 3.59655 0 0 0 86 95 108 255
0.833832 0.863433 3.60369 0 0 0 101 112 125 255
0.924007 0.858078 3.60328 0 0 0 92 107 115 255
1.0881 0.861065 3.62671 0 0 0 64 71 83 255
0.49674 0.85489 3.57402 0 0 0 78 86 95 255
1.25427 0.877246 3.67733 0 0 0 133 157 167 255
2.08064 0.933781 3.90203 0 0 0 159 156 154 255
-0.0535187 0.895956 3.57262 0 0 0 120 130 138 255
0.651478 0.904469 3.58738 0 0 0 127 142 147 255
1.90284 0.96342 3.85323 0 0 0 158 159 140 255
2.06123 0.969894 3.89705 0 0 0 170 172 168 255
0.0799201 0.954349 3.58802 0 0 0 187 197 203 255
2.02149 1.00058 3.88844 0 0 0 165 170 170 255
1.8828 1.02954 3.84901 0 0 0 158 169 176 255
0.703252 1.01818 3.59293 0 0 0 144 152 157 255
0.155439 1.05978 3.58407 0 0 0 180 188 195 255
0.171388 1.07203 3.5829 0 0 0 156 168 172 255
0.177523 1.10445 3.58195 0 0 0 148 159 166 255
0.225871 1.11762 3.58351 0 0 0 159 169 176 255
0.209696 1.15926 3.58472 0 0 0 103 118 125 255
0.40552 1.16283 3.58343 0 0 0 118 129 140 255
1.39023 1.39231 3.72736 0 0 0 193 156 155 255
1.4635 1.39045 3.73913 0 0 0 186 136 121 255
1.5588 1.40303 3.766 0 0 0 194 167 162 255
1.8532 1.41819 3.81912 0 0 0 185 138 131 255
1.96288 1.41314 3.82222 0 0 0 197 156 144 255
1.59035 1.4106 3.77306 0 0 0 192 188 195 255
1.61382 1.40314 3.76956 0 0 0 199 173 164 255
1.78726 1.4206 3.81332 0 0 0 194 147 136 255
1.89265 1.42213 3.82988 0 0 0 203 156 147 255
2.08282 1.41212 3.81078 0 0 0 197 163 161 255
1.75045 1.42459 3.80524 0 0 0 182 156 152 255
1.38793 1.41448 3.72613 0 0 0 206 185 181 255
1.58957 1.42364 3.77216 0 0 0 192 188 193 255
1.55816 1.42851 3.76554 0 0 0 187 176 174 255
1.77954 1.43849 3.80815 0 0 0 193 159 158 255
2.0013 1.44274 3.81983 0 0 0 187 179 178 255
2.07842 1.44037 3.80975 0 0 0 206 171 171 255
1.73883 1.44556 3.79937 0 0 0 175 146 143 255
0.721941 1.53879 3.62375 0 0 0 134 145 147 255
0.740891 1.53757 3.62867 0 0 0 95 105 112 255
0.583228 1.54222 3.60886 0 0 0 114 127 135 255
0.536379 1.54338 3.60791 0 0 0 115 127 135 255
0.567518 1.54278 3.60763 0 0 0 114 128 138 255
0.679203 1.55005 3.61904 0 0 0 124 133 139 255
0.789918 1.55011 3.62888 0 0 0 122 133 142 255
0.865836 1.55232 3.63557 0 0 0 119 130 137 255
0.494476 1.55428 3.60969 0 0 0 65 70 78 255
0.505106 1.54928 3.61032 0 0 0 68 75 82 255
0.514571 1.55311 3.60602 0 0 0 128 136 141 255
0.638098 1.55161 3.612 0 0 0 139 146 151 255
0.901153 1.55911 3.63866 0 0 0 142 152 159 255
0.90529 1.55384 3.64129 0 0 0 125 135 144 255
0.535543 1.55731 3.60636 0 0 0 146 152 162 255
0.765683 1.55724 3.62772 0 0 0 126 136 143 255
0.823584 1.55615 3.63061 0 0 0 116 127 138 255
0.838532 1.55652 3.63133 0 0 0 84 97 105 255
0.86573 1.55801 3.63534 0 0 0 127 137 143 255
0.938547 1.55981 3.64309 0 0 0 130 142 148 255
0.577538 1.561 3.60842 0 0 0 76 79 88 255
0.590808 1.56005 3.61407 0 0 0 144 151 158 255
0.617923 1.56459 3.61369 0 0 0 113 120 124 255
0.684828 1.5677 3.62282 0 0 0 147 155 160 255
0.721303 1.56557 3.62264 0 0 0 148 157 159 255
0.796648 1.57363 3.63117 0 0 0 128 136 143 255
-0.213926 -0.121514 3.68607 0 0 0 65 63 65 255
-0.233193 -0.107541 3.76592 0 0 0 220 211 213 255
-0.20725 -0.0207841 3.81918 0 0 0 148 152 154 255
-0.196014 0.0230882 3.62234 0 0 0 85 87 86 255
1.65477 0.342249 3.80004 0 0 0 209 171 153 255
0.716291 0.349809 3.58699 0 0 0 137 146 123 255
0.292592 0.366834 3.57971 0 0 0 160 177 128 255
0.846032 0.366808 3.5953 0 0 0 66 76 73 255
1.72754 0.393548 3.81709 0 0 0 194 194 206 255
0.86104 0.415253 3.59421 0 0 0 54 68 64 255
1.00634 0.417003 3.60825 0 0 0 114 128 110 255
1.95322 0.433415 3.89064 0 0 0 197 165 149 255
1.71789 0.444305 3.81464 0 0 0 207 183 177 255
1.88554 0.437171 3.86998 0 0 0 171 148 138 255
