ply
format ascii 1.0
comment VCGLIB generated
element vertex 1019
property float x
property float y
property float z
property float nx
property float ny
property float nz
property uchar red
property uchar green
property uchar blue
property uchar alpha
element face 0
property list uchar int vertex_indices
end_header
0.929469 0.808187 3.61365 0 0 0 107 108 111 255
0.97838 0.805765 3.61883 0 0 0 155 159 161 255
1.04228 0.805098 3.64916 0 0 0 147 148 151 255
1.09889 0.803777 3.65476 0 0 0 48 49 52 255
1.01347 0.813479 3.62343 0 0 0 111 115 117 255
1.15016 0.812262 3.64539 0 0 0 110 111 114 255
1.0361 0.817232 3.62646 0 0 0 114 115 118 255
1.06592 0.819594 3.6374 0 0 0 136 137 140 255
1.09403 0.819086 3.62895 0 0 0 111 112 115 255
-0.707666 0.934274 3.75373 0 0 0 127 105 99 255
0.506764 0.848031 3.57406 0 0 0 100 105 111 255
0.558067 0.84685 3.57281 0 0 0 65 73 78 255
0.603838 0.852643 3.57857 0 0 0 94 104 108 255
0.635532 0.850741 3.57912 0 0 0 88 93 101 255
0.576259 0.859678 3.5754 0 0 0 87 95 100 255
0.677322 0.854515 3.58582 0 0 0 90 95 101 255
0.7128 0.855265 3.59325 0 0 0 97 106 108 255
0.74609 0.851037 3.59589 0 0 0 85 93 98 255
-0.774311 0.958315 3.75314 0 0 0 95 70 60 255
-0.622178 0.950242 3.74751 0 0 0 106 92 86 255
0.776392 0.857671 3.59847 0 0 0 105 111 117 255
0.884086 0.847157 3.60514 0 0 0 85 90 94 255
-0.803884 0.967939 3.76136 0 0 0 87 62 44 255
-0.642762 0.9554 3.7477 0 0 0 78 60 55 255
-0.941326 0.972353 3.67247 0 0 0 64 42 34 255
0.891619 0.862584 3.61463 0 0 0 100 106 110 255
0.948693 0.864001 3.62466 0 0 0 99 104 112 255
0.985241 0.863043 3.62424 0 0 0 110 113 120 255
1.02092 0.859706 3.62774 0 0 0 102 105 112 255
-0.833796 0.981548 3.74387 0 0 0 82 63 51 255
-0.590217 0.963485 3.7329 0 0 0 74 52 39 255
1.05165 0.866556 3.63837 0 0 0 100 105 111 255
1.14889 0.864093 3.65405 0 0 0 90 91 94 255
1.02012 0.873609 3.62976 0 0 0 102 105 112 255
1.08619 0.873607 3.64422 0 0 0 68 72 76 255
1.11646 0.869322 3.65432 0 0 0 91 92 97 255
-0.763841 0.988127 3.73991 0 0 0 62 47 38 255
-0.715404 0.989256 3.73993 0 0 0 79 54 45 255
0.427648 0.903161 3.57249 0 0 0 162 171 173 255
-0.222581 0.939204 3.57225 0 0 0 137 111 97 255
0.526738 0.902196 3.57953 0 0 0 160 166 169 255
-0.915486 1.00584 3.63726 0 0 0 59 38 31 255
-0.713942 0.99988 3.7366 0 0 0 73 49 48 255
-0.648194 0.998783 3.71799 0 0 0 83 54 48 255
-0.517702 0.983827 3.69932 0 0 0 84 63 52 255
1.0008 0.90807 3.62745 0 0 0 176 180 184 255
-0.823894 1.03209 3.7203 0 0 0 69 49 43 255
1.12218 0.912991 3.65677 0 0 0 121 125 129 255
1.14494 0.917599 3.66125 0 0 0 104 107 109 255
-0.703663 1.03504 3.72044 0 0 0 96 68 60 255
-0.218452 0.988444 3.57167 0 0 0 109 96 93 255
-0.723723 1.04324 3.71776 0 0 0 120 92 83 255
-0.766824 1.05621 3.71989 0 0 0 95 65 50 255
0.948209 0.949638 3.63171 0 0 0 151 160 160 255
-0.808895 1.06602 3.71175 0 0 0 82 58 54 255
0.0888878 0.98826 3.57147 0 0 0 183 189 192 255
0.442768 0.974955 3.57187 0 0 0 189 195 196 255
0.98249 0.959214 3.63273 0 0 0 125 131 132 255
-0.731776 1.07795 3.70064 0 0 0 115 89 73 255
-0.85639 1.08841 3.67803 0 0 0 75 54 46 255
-0.775548 1.08583 3.70026 0 0 0 69 48 44 255
-0.150469 1.02313 3.57286 0 0 0 131 143 137 255
0.38239 0.996373 3.57609 0 0 0 193 199 200 255
-0.813782 1.09036 3.68933 0 0 0 71 49 42 255
-0.563875 1.08048 3.70886 0 0 0 101 82 68 255
-0.0922611 1.02612 3.56765 0 0 0 70 79 79 255
0.696542 0.996219 3.5936 0 0 0 174 178 182 255
0.946906 0.984557 3.62809 0 0 0 126 130 132 255
-0.830831 1.11002 3.67521 0 0 0 90 69 58 255
0.0394612 1.03602 3.57355 0 0 0 153 159 162 255
0.330811 1.02075 3.57488 0 0 0 128 132 134 255
0.354184 1.02006 3.57413 0 0 0 193 197 199 255
-0.112362 1.04688 3.56583 0 0 0 159 172 160 255
0.916126 1.00096 3.62289 0 0 0 117 120 123 255
1.00074 0.997472 3.6348 0 0 0 185 191 192 255
-0.864812 1.11626 3.63031 0 0 0 72 49 42 255
-0.840474 1.12243 3.66622 0 0 0 96 75 62 255
-0.801396 1.12911 3.67061 0 0 0 82 60 51 255
0.00608963 1.0623 3.57645 0 0 0 169 178 180 255
0.0539834 1.05753 3.56929 0 0 0 192 198 199 255
0.071589 1.05922 3.56836 0 0 0 145 151 152 255
0.794926 1.02354 3.60831 0 0 0 166 170 172 255
0.763944 1.02773 3.60606 0 0 0 193 197 199 255
0.854788 1.02366 3.61573 0 0 0 148 155 158 255
0.992147 1.02036 3.63491 0 0 0 147 151 153 255
0.483373 1.04255 3.57818 0 0 0 187 193 196 255
0.696954 1.03791 3.5956 0 0 0 189 195 198 255
0.725531 1.03666 3.6015 0 0 0 148 154 156 255
-0.694145 1.14818 3.69723 0 0 0 127 100 85 255
0.0339592 1.07799 3.57109 0 0 0 180 186 187 255
0.115172 1.07606 3.57541 0 0 0 145 149 151 255
0.693672 1.04587 3.59669 0 0 0 155 162 165 255
-0.77611 1.15688 3.66708 0 0 0 85 63 55 255
0.190924 1.08211 3.57165 0 0 0 196 201 204 255
0.878339 1.05171 3.62051 0 0 0 196 202 205 255
0.912934 1.05833 3.62728 0 0 0 193 194 197 255
0.931355 1.05521 3.63035 0 0 0 177 181 183 255
-0.0889435 1.11855 3.56391 0 0 0 168 186 163 255
0.943273 1.06195 3.6328 0 0 0 130 134 136 255
1.00557 1.06376 3.64595 0 0 0 165 171 172 255
0.137365 1.10688 3.57382 0 0 0 130 137 138 255
-0.586377 1.18538 3.68328 0 0 0 107 83 71 255
0.265454 1.10124 3.57489 0 0 0 141 150 150 255
0.7471 1.08002 3.60198 0 0 0 185 191 192 255
0.878004 1.07964 3.61801 0 0 0 182 186 190 255
1.11561 1.07782 3.66257 0 0 0 187 191 193 255
-0.80088 1.19661 3.62661 0 0 0 91 68 57 255
1.01748 1.08353 3.64885 0 0 0 192 198 199 255
-0.793386 1.20151 3.62516 0 0 0 79 55 46 255
1.06413 1.09122 3.65016 0 0 0 178 183 184 255
0.87805 1.10237 3.61964 0 0 0 105 109 113 255
-0.075718 1.15193 3.56799 0 0 0 132 146 133 255
-0.030714 1.15094 3.56661 0 0 0 192 196 200 255
1.01243 1.10209 3.64797 0 0 0 130 134 136 255
-0.645817 1.22164 3.67316 0 0 0 96 80 71 255
0.0884036 1.16018 3.57319 0 0 0 184 193 193 255
-0.716192 1.2377 3.65396 0 0 0 106 85 76 255
0.12361 1.16887 3.57225 0 0 0 171 177 178 255
0.931262 1.13875 3.64011 0 0 0 83 89 92 255
-0.781939 1.24723 3.59472 0 0 0 92 70 62 255
-0.0894756 1.18466 3.56365 0 0 0 86 90 85 255
0.837154 1.14929 3.62658 0 0 0 148 154 157 255
-0.546816 1.25571 3.69392 0 0 0 123 99 88 255
-0.0750305 1.20065 3.56027 0 0 0 146 151 150 255
0.908113 1.15248 3.63711 0 0 0 96 100 104 255
0.851001 1.15605 3.62809 0 0 0 96 102 105 255
-0.760145 1.26397 3.59809 0 0 0 95 75 66 255
0.87073 1.15904 3.63033 0 0 0 123 134 135 255
0.966127 1.15832 3.64108 0 0 0 188 194 197 255
0.703208 1.17686 3.60877 0 0 0 175 181 184 255
0.128555 1.20883 3.57395 0 0 0 185 191 192 255
0.817489 1.17791 3.61881 0 0 0 169 178 180 255
0.94228 1.17592 3.63846 0 0 0 196 200 204 255
0.905389 1.18186 3.63664 0 0 0 194 198 202 255
0.414776 1.20298 3.57898 0 0 0 185 194 196 255
0.911831 1.18143 3.63671 0 0 0 195 196 201 255
0.882916 1.19112 3.63183 0 0 0 98 99 104 255
0.797715 1.19735 3.61372 0 0 0 127 131 133 255
-0.637522 1.31568 3.66896 0 0 0 116 94 84 255
-0.722409 1.31025 3.58668 0 0 0 103 79 69 255
0.900398 1.2082 3.63232 0 0 0 156 159 163 255
1.05564 1.21241 3.66493 0 0 0 141 147 150 255
1.08623 1.21086 3.67702 0 0 0 143 148 154 255
-0.738512 1.3199 3.55766 0 0 0 73 65 61 255
-0.602344 1.32734 3.6457 0 0 0 114 95 83 255
-0.711725 1.33193 3.56497 0 0 0 111 100 95 255
0.952208 1.24512 3.645 0 0 0 139 145 148 255
-0.678321 1.34196 3.56111 0 0 0 94 78 68 255
-0.607188 1.35656 3.62063 0 0 0 92 72 65 255
-0.636402 1.43087 3.57427 0 0 0 127 111 101 255
-0.61684 1.43422 3.57037 0 0 0 87 74 67 255
-0.540927 1.45746 3.59933 0 0 0 147 119 110 255
-0.502947 1.4577 3.59467 0 0 0 135 99 93 255
-0.53377 1.5236 3.60173 0 0 0 102 88 87 255
-0.425035 1.51494 3.57502 0 0 0 140 105 100 255
-0.575203 1.52764 3.52436 0 0 0 112 99 98 255
-0.242662 1.53362 3.62205 0 0 0 122 107 107 255
1.21469 -0.0987734 4.00637 0 0 0 128 127 130 255
-0.250353 -0.0447392 3.87634 0 0 0 150 145 147 255
-2.06977 -0.214033 5.53407 0 0 0 147 120 104 255
-1.01418 -0.0134588 3.90003 0 0 0 148 125 112 255
-0.99437 -0.028505 3.96004 0 0 0 168 144 128 255
-0.927817 -0.0154878 3.96128 0 0 0 148 119 108 255
-0.870988 -0.0188441 3.97099 0 0 0 150 116 104 255
-0.808294 -0.0256114 3.96699 0 0 0 143 110 101 255
-0.718388 -0.0224245 3.95353 0 0 0 130 114 99 255
-0.7173 -0.0296005 3.96126 0 0 0 183 167 152 255
-0.635603 -0.00934297 3.928 0 0 0 151 103 101 255
-0.59161 -0.00862298 3.91459 0 0 0 141 105 99 255
-2.05454 -0.185008 5.59626 0 0 0 195 178 164 255
-1.42304 -0.062823 4.54791 0 0 0 197 178 165 255
-0.990334 0.00796167 3.92249 0 0 0 196 177 164 255
-0.68119 0.0139498 3.93037 0 0 0 136 106 96 255
-0.599427 0.0179626 3.90002 0 0 0 200 177 164 255
-0.990461 0.0494749 3.90886 0 0 0 200 175 160 255
-0.886186 0.0441111 3.9339 0 0 0 193 179 161 255
-0.705626 0.0407236 3.9135 0 0 0 199 177 165 255
-2.04206 -0.0941164 5.48121 0 0 0 139 113 101 255
-1.46763 0.00124414 4.54415 0 0 0 145 119 102 255
-1.0461 0.0724569 3.87832 0 0 0 136 105 90 255
-0.779068 0.074639 3.91687 0 0 0 144 104 95 255
-0.698459 0.0819749 3.89573 0 0 0 153 125 112 255
-1.91291 0.127792 5.3297 0 0 0 142 110 94 255
-1.01428 0.209497 3.91761 0 0 0 139 114 97 255
-1.7403 0.149636 5.14849 0 0 0 132 107 90 255
-0.828541 0.214441 3.91804 0 0 0 139 113 99 255
-0.773382 0.207357 3.92244 0 0 0 153 123 106 255
-1.3809 0.187163 4.4882 0 0 0 196 175 160 255
-0.919732 0.232198 3.91973 0 0 0 201 180 167 255
-0.783915 0.236706 3.90947 0 0 0 199 180 161 255
0.0761884 0.23857 3.57755 0 0 0 107 123 90 255
-1.39235 0.248449 4.50023 0 0 0 200 178 160 255
-1.04711 0.276503 3.88532 0 0 0 144 110 91 255
0.283011 0.248646 3.57089 0 0 0 83 93 67 255
-0.909438 0.279857 3.89992 0 0 0 200 177 163 255
0.385317 0.259135 3.57168 0 0 0 161 173 135 255
0.986479 0.237342 3.59961 0 0 0 139 150 123 255
-0.879721 0.296198 3.89799 0 0 0 139 108 94 255
-0.813718 0.29705 3.88439 0 0 0 134 107 93 255
0.257886 0.303298 3.57223 0 0 0 159 168 140 255
0.177026 0.356906 3.57117 0 0 0 138 148 122 255
-0.776739 0.389545 3.87095 0 0 0 142 126 112 255
0.127312 0.361905 3.57091 0 0 0 113 128 90 255
-1.88212 0.405616 5.20047 0 0 0 151 138 131 255
-0.656807 0.391053 3.85154 0 0 0 128 112 99 255
0.329876 0.363531 3.56411 0 0 0 124 133 116 255
0.734877 0.350343 3.57448 0 0 0 136 143 125 255
1.00016 0.341359 3.60225 0 0 0 145 152 134 255
0.176484 0.37763 3.57215 0 0 0 101 111 85 255
-0.977659 0.422041 3.85124 0 0 0 114 102 90 255
-0.898951 0.422846 3.85783 0 0 0 190 177 170 255
-0.839548 0.423958 3.86259 0 0 0 111 98 95 255
-0.932577 0.431361 3.86104 0 0 0 156 142 134 255
0.137677 0.391105 3.56701 0 0 0 148 159 130 255
-0.655954 0.432652 3.82071 0 0 0 127 119 106 255
-0.0717483 0.414294 3.582 0 0 0 164 178 146 255
0.704959 0.396061 3.57471 0 0 0 133 140 121 255
0.186525 0.424449 3.56571 0 0 0 138 147 130 255
-0.0319674 0.439496 3.58587 0 0 0 95 109 82 255
0.238561 0.429555 3.56629 0 0 0 84 92 69 255
0.256629 0.440005 3.56534 0 0 0 148 153 131 255
0.632203 0.415225 3.56776 0 0 0 161 171 138 255
0.11282 0.470144 3.56675 0 0 0 155 166 135 255
0.478264 0.44952 3.56632 0 0 0 67 74 67 255
-0.227379 0.49071 3.59551 0 0 0 191 181 170 255
-1.41321 0.558449 4.46653 0 0 0 143 133 133 255
-0.0152341 0.493521 3.57499 0 0 0 161 176 141 255
-0.95505 0.540767 3.83649 0 0 0 127 86 80 255
-0.833255 0.541138 3.8531 0 0 0 155 150 149 255
-0.758148 0.55029 3.82743 0 0 0 126 119 116 255
-0.696505 0.542864 3.81932 0 0 0 154 150 144 255
-0.0416704 0.515418 3.5744 0 0 0 74 85 71 255
-0.634025 0.548352 3.80041 0 0 0 132 120 121 255
0.665059 0.490873 3.57247 0 0 0 49 56 51 255
0.878691 0.491872 3.58914 0 0 0 141 150 126 255
0.889063 0.492037 3.58967 0 0 0 145 155 117 255
-0.00024766 0.53765 3.57989 0 0 0 159 175 135 255
0.0523732 0.533754 3.57168 0 0 0 71 83 62 255
0.0776576 0.53324 3.57127 0 0 0 156 169 144 255
-0.02096 0.553718 3.57702 0 0 0 65 78 66 255
0.458322 0.534922 3.5693 0 0 0 128 136 122 255
0.0139841 0.566201 3.57438 0 0 0 164 176 140 255
0.543296 0.543322 3.56345 0 0 0 160 170 135 255
-0.231704 0.58885 3.59265 0 0 0 112 99 92 255
0.0122809 0.592945 3.57523 0 0 0 115 119 100 255
0.0569974 0.582956 3.57909 0 0 0 79 82 58 255
-0.00970215 0.622771 3.57233 0 0 0 158 173 138 255
0.754327 0.595812 3.57687 0 0 0 86 91 92 255
0.11061 0.63165 3.57123 0 0 0 74 81 75 255
0.121561 0.670237 3.56943 0 0 0 126 136 112 255
-0.0423386 0.69167 3.56765 0 0 0 50 61 50 255
0.998026 0.654598 3.61314 0 0 0 89 94 93 255
0.459711 0.702333 3.57169 0 0 0 71 80 64 255
-0.0227426 0.734925 3.57455 0 0 0 147 154 138 255
0.53685 0.704447 3.56955 0 0 0 145 155 122 255
0.0879688 0.730746 3.57282 0 0 0 143 150 133 255
0.163478 0.727026 3.56967 0 0 0 159 172 132 255
0.715576 0.699324 3.58439 0 0 0 54 61 55 255
0.486011 0.727536 3.57342 0 0 0 85 95 71 255
0.696838 0.72341 3.5791 0 0 0 146 155 137 255
-0.0969625 0.7783 3.56301 0 0 0 94 101 99 255
0.086896 0.774694 3.5657 0 0 0 115 121 128 255
0.789542 0.741569 3.59167 0 0 0 157 169 123 255
-0.0321729 0.793396 3.56388 0 0 0 158 160 163 255
0.0498172 0.789447 3.56049 0 0 0 111 115 120 255
0.226294 0.786133 3.56444 0 0 0 174 178 182 255
0.401425 0.782585 3.53987 0 0 0 105 109 113 255
0.297988 0.793525 3.55632 0 0 0 69 73 77 255
0.313929 0.795109 3.57535 0 0 0 48 52 56 255
0.496564 0.777286 3.56698 0 0 0 94 98 103 255
0.62137 0.775449 3.57912 0 0 0 72 78 81 255
0.773716 0.775784 3.60223 0 0 0 90 99 101 255
0.968745 0.781008 3.6231 0 0 0 153 158 159 255
0.626699 0.79459 3.57484 0 0 0 153 158 160 255
1.03082 0.793479 3.63079 0 0 0 76 77 80 255
-0.933955 0.904193 3.66817 0 0 0 123 95 86 255
0.924828 0.805984 3.61245 0 0 0 128 129 132 255
0.980131 0.802434 3.6196 0 0 0 155 159 161 255
1.06415 0.804347 3.63304 0 0 0 46 47 50 255
1.04506 0.809177 3.62452 0 0 0 69 70 73 255
1.14876 0.814264 3.64396 0 0 0 110 111 114 255
-0.709938 0.933333 3.75696 0 0 0 127 105 99 255
0.643224 0.854696 3.58086 0 0 0 73 78 86 255
-0.617264 0.952275 3.74118 0 0 0 127 110 101 255
0.890136 0.861351 3.61444 0 0 0 100 106 110 255
-0.848193 0.980804 3.74721 0 0 0 64 45 31 255
-0.769794 0.985364 3.74127 0 0 0 63 51 41 255
-0.225687 0.937743 3.57126 0 0 0 137 111 97 255
0.427362 0.902611 3.57159 0 0 0 162 171 173 255
0.695119 0.902742 3.59202 0 0 0 142 150 155 255
-0.92085 1.00825 3.62974 0 0 0 64 47 39 255
-0.647468 0.999937 3.72263 0 0 0 78 47 41 255
-0.825587 1.03875 3.7145 0 0 0 78 57 54 255
0.990941 0.910027 3.62814 0 0 0 179 183 187 255
-0.890149 1.03855 3.66906 0 0 0 80 53 45 255
-0.72258 1.03918 3.71869 0 0 0 120 92 83 255
-0.223438 0.988426 3.57147 0 0 0 105 92 89 255
-0.608559 1.07649 3.705 0 0 0 92 71 60 255
-0.171902 1.02489 3.56884 0 0 0 129 138 133 255
-0.0934635 1.02671 3.5675 0 0 0 70 79 79 255
0.956067 0.976179 3.62947 0 0 0 168 174 175 255
0.792906 0.98354 3.60085 0 0 0 168 172 174 255
0.0842683 1.02141 3.57157 0 0 0 159 165 168 255
-0.870414 1.11202 3.63635 0 0 0 80 59 48 255
0.326201 1.02092 3.57487 0 0 0 140 144 146 255
0.931587 1.01135 3.62602 0 0 0 136 140 142 255
-0.798854 1.13355 3.667 0 0 0 77 55 47 255
0.758728 1.02694 3.60527 0 0 0 193 197 199 255
0.476872 1.04881 3.57747 0 0 0 195 201 204 255
0.693681 1.04486 3.59658 0 0 0 155 162 165 255
-0.819798 1.154 3.6546 0 0 0 88 67 56 255
0.0876693 1.07846 3.56867 0 0 0 194 200 201 255
0.115348 1.07895 3.57535 0 0 0 135 139 141 255
-0.911608 1.15691 3.5742 0 0 0 118 99 93 255
0.852499 1.04973 3.61678 0 0 0 110 116 119 255
0.793961 1.0651 3.60792 0 0 0 177 183 184 255
0.945527 1.06058 3.63364 0 0 0 126 130 132 255
-0.0900434 1.11694 3.5642 0 0 0 168 186 163 255
0.746344 1.07878 3.60194 0 0 0 185 191 192 255
0.868575 1.08202 3.61629 0 0 0 169 173 177 255
-0.614228 1.18517 3.68494 0 0 0 109 89 77 255
-0.588173 1.18473 3.68047 0 0 0 107 83 71 255
0.699922 1.08578 3.59495 0 0 0 158 164 167 255
1.00005 1.07359 3.64661 0 0 0 195 204 204 255
-0.794566 1.20102 3.62479 0 0 0 79 55 46 255
1.11746 1.0913 3.66162 0 0 0 150 151 154 255
-0.0289942 1.14918 3.56772 0 0 0 187 192 195 255
0.0501316 1.13902 3.56746 0 0 0 129 138 138 255
0.139046 1.13451 3.57378 0 0 0 186 195 195 255
0.187347 1.13067 3.56962 0 0 0 196 204 206 255
-0.654629 1.2177 3.67636 0 0 0 97 80 70 255
-0.171232 1.16287 3.54914 0 0 0 148 165 150 255
0.348739 1.13005 3.5739 0 0 0 189 195 198 255
0.920246 1.10944 3.63202 0 0 0 112 113 118 255
0.0769546 1.15727 3.57065 0 0 0 191 200 200 255
0.992919 1.11733 3.64686 0 0 0 197 201 203 255
-0.714223 1.23891 3.65308 0 0 0 97 77 70 255
-0.0270428 1.17409 3.56223 0 0 0 139 143 147 255
-0.773928 1.25058 3.59928 0 0 0 86 62 54 255
0.855669 1.15298 3.62969 0 0 0 88 94 97 255
0.965877 1.14992 3.64202 0 0 0 185 194 196 255
0.869134 1.16479 3.63 0 0 0 161 172 173 255
0.114743 1.21065 3.57231 0 0 0 192 198 199 255
0.90559 1.17779 3.6366 0 0 0 191 196 199 255
-0.58209 1.2827 3.63696 0 0 0 111 89 81 255
0.410345 1.20387 3.57894 0 0 0 192 201 203 255
-0.652076 1.32279 3.66475 0 0 0 115 96 84 255
-0.603322 1.33593 3.63893 0 0 0 95 76 64 255
-0.708952 1.33306 3.56308 0 0 0 111 100 95 255
-0.613714 1.35184 3.63003 0 0 0 127 104 93 255
-0.557361 1.36213 3.62429 0 0 0 106 85 72 255
-0.619034 1.43631 3.56893 0 0 0 87 74 67 255
-0.532971 1.53078 3.59644 0 0 0 135 113 106 255
-0.480225 1.51816 3.58291 0 0 0 122 106 99 255
-0.423477 1.51695 3.57663 0 0 0 140 105 100 255
-0.573114 1.53251 3.52649 0 0 0 124 110 108 255
1.22347 -0.10294 4.00279 0 0 0 106 117 126 255
-1.41553 -0.097855 4.56429 0 0 0 136 108 96 255
-0.708938 -0.0168647 3.94954 0 0 0 139 123 108 255
-0.239968 -0.0422449 3.91478 0 0 0 160 165 164 255
-0.867122 -0.0164542 3.9727 0 0 0 146 107 95 255
-0.920693 -0.00289769 3.9524 0 0 0 141 108 95 255
-2.02084 -0.163779 5.53536 0 0 0 196 177 166 255
-0.696196 0.0142583 3.92512 0 0 0 145 129 114 255
-0.987843 0.0334188 3.92896 0 0 0 197 178 162 255
-0.87995 0.0305012 3.94632 0 0 0 197 182 164 255
-0.771197 0.0161567 3.93881 0 0 0 197 181 166 255
-1.47512 -0.0201899 4.56556 0 0 0 148 112 94 255
-0.695136 0.0451979 3.90971 0 0 0 194 180 166 255
-0.588793 0.0410063 3.88604 0 0 0 198 182 167 255
-1.0526 0.0592134 3.87562 0 0 0 149 120 105 255
-0.776476 0.0763414 3.91491 0 0 0 144 104 95 255
-0.694589 0.0790672 3.89402 0 0 0 136 103 93 255
-0.615848 0.0735344 3.89035 0 0 0 138 108 98 255
-0.0768872 0.168636 3.58518 0 0 0 157 165 153 255
-1.75995 0.155985 5.1863 0 0 0 138 113 94 255
-0.950573 0.216487 3.92182 0 0 0 152 125 109 255
-0.8182 0.213606 3.91578 0 0 0 135 100 85 255
-0.76395 0.213851 3.91833 0 0 0 147 115 98 255
0.90011 0.192205 3.59585 0 0 0 161 174 133 255
-1.36573 0.200278 4.41846 0 0 0 132 108 86 255
1.01246 0.196701 3.61171 0 0 0 131 139 125 255
-0.916875 0.233885 3.92247 0 0 0 203 180 167 255
0.0784203 0.242144 3.57654 0 0 0 107 123 90 255
-0.786392 0.24435 3.90365 0 0 0 198 178 158 255
0.9554 0.214089 3.59261 0 0 0 122 131 114 255
-1.05133 0.276922 3.88202 0 0 0 165 134 115 255
-0.882918 0.268993 3.92421 0 0 0 153 126 109 255
0.354858 0.250953 3.57376 0 0 0 75 85 59 255
-1.75831 0.260385 5.03257 0 0 0 137 111 94 255
-0.814599 0.279481 3.89428 0 0 0 140 113 99 255
0.0942046 0.262357 3.57192 0 0 0 133 147 115 255
-1.05052 0.301728 3.85256 0 0 0 160 130 113 255
-0.987437 0.296894 3.87045 0 0 0 136 106 91 255
-0.732147 0.301781 3.86962 0 0 0 142 112 95 255
-0.88613 0.296595 3.89288 0 0 0 180 153 140 255
0.728396 0.312153 3.58209 0 0 0 78 89 63 255
-1.62766 0.390362 4.83781 0 0 0 101 91 81 255
-1.06463 0.388554 3.86327 0 0 0 153 138 123 255
0.131701 0.357556 3.57015 0 0 0 92 103 74 255
-0.902526 0.39784 3.87667 0 0 0 166 151 142 255
-0.782739 0.386947 3.87815 0 0 0 177 158 144 255
-0.652684 0.392453 3.84767 0 0 0 128 112 99 255
0.311153 0.370616 3.56684 0 0 0 145 156 114 255
0.331037 0.366707 3.56303 0 0 0 124 133 116 255
0.74152 0.353735 3.5729 0 0 0 137 145 123 255
-0.989121 0.40924 3.8792 0 0 0 154 140 125 255
-0.579221 0.411592 3.81655 0 0 0 147 133 118 255
0.132576 0.391516 3.56775 0 0 0 156 167 138 255
0.622548 0.35851 3.57226 0 0 0 113 121 97 255
0.999191 0.345242 3.60174 0 0 0 147 155 135 255
-0.696968 0.42506 3.83836 0 0 0 126 115 107 255
-0.651155 0.432912 3.81772 0 0 0 127 119 106 255
-0.0704613 0.405933 3.58015 0 0 0 169 183 151 255
-0.757841 0.438779 3.83288 0 0 0 130 117 105 255
-0.0286052 0.444602 3.5857 0 0 0 88 101 74 255
0.119724 0.42976 3.56807 0 0 0 134 149 114 255
0.643992 0.417039 3.56641 0 0 0 157 167 130 255
0.724945 0.423344 3.57062 0 0 0 53 61 51 255
-0.0700349 0.480665 3.5786 0 0 0 167 178 149 255
0.111527 0.474457 3.56638 0 0 0 155 167 133 255
0.760164 0.437359 3.57075 0 0 0 87 98 87 255
-0.232327 0.496461 3.59422 0 0 0 180 170 160 255
-0.023851 0.483106 3.57593 0 0 0 167 184 148 255
-1.42466 0.557087 4.4825 0 0 0 155 145 146 255
-0.950389 0.541147 3.8326 0 0 0 135 90 83 255
-0.756766 0.543688 3.82782 0 0 0 92 86 81 255
-0.641317 0.542171 3.80132 0 0 0 132 122 124 255
0.494943 0.489399 3.56695 0 0 0 160 174 126 255
-0.568601 0.539869 3.77067 0 0 0 158 152 154 255
-0.039949 0.518578 3.57951 0 0 0 72 83 69 255
0.639651 0.491188 3.56696 0 0 0 46 53 51 255
0.705016 0.492366 3.57173 0 0 0 125 131 122 255
0.890236 0.477632 3.59073 0 0 0 141 152 113 255
0.0165028 0.541263 3.57798 0 0 0 171 187 143 255
0.0551421 0.533976 3.57216 0 0 0 71 83 62 255
-0.0289333 0.554554 3.57602 0 0 0 67 80 68 255
0.566334 0.523721 3.56562 0 0 0 57 63 54 255
0.847353 0.530299 3.5934 0 0 0 119 127 118 255
0.37105 0.554341 3.56111 0 0 0 124 131 125 255
-0.0638984 0.58851 3.57452 0 0 0 157 167 145 255
0.435196 0.563395 3.56594 0 0 0 134 144 119 255
0.0214867 0.589944 3.57438 0 0 0 86 89 74 255
0.885937 0.551662 3.59276 0 0 0 144 156 120 255
1.00197 0.545319 3.60927 0 0 0 114 122 102 255
0.448993 0.591375 3.56452 0 0 0 99 109 83 255
0.110715 0.627077 3.57166 0 0 0 74 82 72 255
-0.0181958 0.649603 3.57086 0 0 0 102 116 92 255
0.106902 0.63923 3.57001 0 0 0 70 77 72 255
-0.0683169 0.666475 3.5684 0 0 0 150 159 139 255
0.128257 0.666055 3.5695 0 0 0 141 151 127 255
0.537712 0.637929 3.56779 0 0 0 160 172 123 255
-0.0497997 0.694218 3.56801 0 0 0 48 59 48 255
1.00141 0.64853 3.61334 0 0 0 93 96 95 255
-0.0347315 0.714741 3.57133 0 0 0 104 111 108 255
0.644197 0.685091 3.57267 0 0 0 68 76 65 255
0.764899 0.6836 3.5934 0 0 0 144 154 134 255
0.103829 0.729908 3.57476 0 0 0 161 174 140 255
0.458414 0.722684 3.57313 0 0 0 111 117 95 255
0.610883 0.702604 3.56767 0 0 0 152 162 140 255
0.720683 0.697133 3.58467 0 0 0 55 62 60 255
0.529978 0.728418 3.56591 0 0 0 155 163 122 255
0.692091 0.732474 3.57807 0 0 0 129 137 122 255
0.732056 0.728058 3.58132 0 0 0 144 154 132 255
-0.974502 0.841767 3.71926 0 0 0 54 38 29 255
-0.103481 0.781498 3.56336 0 0 0 97 104 102 255
0.0494325 0.781602 3.56212 0 0 0 107 112 118 255
0.0254655 0.785469 3.55879 0 0 0 97 101 105 255
0.226525 0.782248 3.56503 0 0 0 173 177 181 255
0.275841 0.779597 3.55923 0 0 0 107 111 115 255
0.295281 0.782586 3.58455 0 0 0 130 134 138 255
0.316421 0.784532 3.56321 0 0 0 111 115 119 255
0.655628 0.768908 3.58327 0 0 0 114 120 123 255
0.550223 0.788696 3.56882 0 0 0 102 108 111 255
0.625407 0.784931 3.57757 0 0 0 159 165 168 255
0.473817 0.797815 3.56955 0 0 0 92 96 100 255
0.571872 0.798053 3.57068 0 0 0 65 70 72 255
0.782761 0.783794 3.59202 0 0 0 85 94 96 255
0.851543 0.787075 3.60263 0 0 0 117 122 127 255
-0.935408 0.899806 3.68125 0 0 0 129 99 86 255
1.09253 0.793795 3.6605 0 0 0 75 76 79 255
0.977108 0.810134 3.61836 0 0 0 106 110 112 255
-0.703319 0.938062 3.75526 0 0 0 127 105 99 255
0.560152 0.845663 3.57268 0 0 0 100 110 114 255
-0.652154 0.943518 3.72617 0 0 0 70 59 54 255
-0.783091 0.972679 3.75345 0 0 0 64 46 43 255
0.0949379 0.902541 3.57746 0 0 0 196 202 205 255
-0.916862 0.980392 3.67476 0 0 0 129 101 86 255
-0.715039 0.992766 3.73893 0 0 0 73 49 43 255
-0.9216 1.00239 3.63773 0 0 0 67 49 42 255
0.528662 0.915437 3.57735 0 0 0 173 179 182 255
0.702883 0.90564 3.59301 0 0 0 191 199 204 255
-0.645774 1.002 3.72318 0 0 0 78 47 41 255
-0.618724 1.00701 3.71578 0 0 0 86 62 54 255
-0.709458 1.03474 3.71799 0 0 0 103 76 68 255
-0.225173 0.989588 3.57233 0 0 0 105 92 89 255
0.852885 0.947475 3.61311 0 0 0 144 153 155 255
0.96352 0.959216 3.63386 0 0 0 144 150 151 255
0.931161 0.96874 3.62716 0 0 0 168 172 174 255
0.967005 0.9504 3.63351 0 0 0 180 189 189 255
-0.731884 1.08212 3.69885 0 0 0 115 89 73 255
-0.0934163 1.02666 3.56755 0 0 0 70 79 79 255
0.404997 0.997722 3.57474 0 0 0 200 206 207 255
-0.675725 1.10254 3.70844 0 0 0 101 79 64 255
-0.111143 1.05659 3.56368 0 0 0 170 183 169 255
0.996707 1.00532 3.63281 0 0 0 168 174 175 255
-0.131876 1.07762 3.56022 0 0 0 98 113 99 255
-0.00038463 1.06637 3.57328 0 0 0 168 177 179 255
0.475646 1.05168 3.57808 0 0 0 195 201 204 255
0.759579 1.03083 3.60558 0 0 0 197 201 203 255
0.859555 1.02751 3.61565 0 0 0 187 193 196 255
0.914544 1.02362 3.62503 0 0 0 129 130 133 255
-0.0881872 1.0837 3.56032 0 0 0 77 89 83 255
-0.0297458 1.07924 3.56823 0 0 0 94 100 102 255
0.060119 1.08099 3.56714 0 0 0 177 183 184 255
0.0911227 1.08578 3.56954 0 0 0 185 191 192 255
0.981005 1.02779 3.63486 0 0 0 91 95 97 255
-0.771946 1.16045 3.66291 0 0 0 72 51 40 255
0.731058 1.05395 3.60345 0 0 0 125 129 131 255
-0.906097 1.1622 3.57613 0 0 0 131 109 101 255
0.281128 1.08966 3.57552 0 0 0 197 206 206 255
-0.707765 1.18648 3.68946 0 0 0 100 77 64 255
-0.0928844 1.12137 3.563 0 0 0 170 190 165 255
0.134927 1.10221 3.57279 0 0 0 134 140 141 255
1.00363 1.07474 3.64763 0 0 0 195 204 204 255
-0.609828 1.18328 3.68483 0 0 0 113 91 80 255
0.758615 1.07789 3.60261 0 0 0 196 202 203 255
-0.018362 1.13767 3.56771 0 0 0 199 208 210 255
0.0102541 1.13574 3.56756 0 0 0 197 206 208 255
0.052893 1.13384 3.56798 0 0 0 109 118 118 255
0.141686 1.13701 3.57397 0 0 0 196 204 204 255
0.291378 1.11172 3.57284 0 0 0 197 206 206 255
1.06808 1.08266 3.65204 0 0 0 137 143 144 255
0.350061 1.13414 3.57445 0 0 0 189 195 198 255
-0.651132 1.22781 3.67615 0 0 0 106 91 82 255
-0.719184 1.24182 3.65116 0 0 0 95 75 68 255
0.0754344 1.15978 3.56822 0 0 0 191 200 200 255
-0.0977138 1.18829 3.56248 0 0 0 82 87 81 255
-0.768625 1.25436 3.59627 0 0 0 78 62 58 255
-0.551304 1.26239 3.68383 0 0 0 93 72 65 255
-0.0613373 1.20375 3.55862 0 0 0 159 163 167 255
0.10855 1.21427 3.5701 0 0 0 190 196 197 255
0.652987 1.18939 3.60689 0 0 0 190 196 199 255
0.828141 1.17487 3.62279 0 0 0 148 157 159 255
0.909199 1.17705 3.63817 0 0 0 192 197 200 255
-0.564674 1.27454 3.63159 0 0 0 102 79 68 255
-0.733654 1.30799 3.59014 0 0 0 130 103 90 255
-0.651514 1.32448 3.66298 0 0 0 84 70 62 255
-0.095349 1.26963 3.55992 0 0 0 60 66 67 255
-0.604067 1.34371 3.63399 0 0 0 88 69 58 255
-0.554281 1.3579 3.6244 0 0 0 116 95 82 255
1.12167 1.31045 3.727 0 0 0 131 135 137 255
-0.582191 1.43491 3.59798 0 0 0 94 76 69 255
-0.552685 1.45648 3.59996 0 0 0 150 122 113 255
-0.500137 1.45195 3.59432 0 0 0 145 110 104 255
-0.376234 1.45796 3.6063 0 0 0 157 126 116 255
-0.718422 1.46649 3.42789 0 0 0 157 136 125 255
-0.546021 1.51767 3.53827 0 0 0 66 66 63 255
-0.999801 -0.0225887 3.95385 0 0 0 139 113 99 255
-0.314699 -0.0753152 4.18555 0 0 0 161 162 162 255
-0.622223 -0.00164388 3.91897 0 0 0 138 101 95 255
-1.00409 0.085123 3.8832 0 0 0 143 106 92 255
-1.00578 0.117249 3.88776 0 0 0 145 104 91 255
-1.74922 0.213637 5.04209 0 0 0 127 95 77 255
0.241116 0.252261 3.57159 0 0 0 77 87 63 255
0.274288 0.259249 3.57202 0 0 0 99 109 83 255
0.474536 0.334131 3.56812 0 0 0 108 119 104 255
0.326708 0.366897 3.56634 0 0 0 127 136 119 255
0.996687 0.339754 3.60178 0 0 0 145 152 134 255
-0.838854 0.408716 3.86314 0 0 0 97 84 81 255
-0.0730226 0.406103 3.58067 0 0 0 169 183 151 255
0.0766595 0.449128 3.57135 0 0 0 169 187 133 255
0.71797 0.430222 3.57003 0 0 0 60 67 61 255
0.495004 0.47264 3.56751 0 0 0 171 185 137 255
0.88786 0.462969 3.59151 0 0 0 148 160 118 255
0.0588219 0.534784 3.57234 0 0 0 68 80 60 255
0.63748 0.481915 3.56663 0 0 0 56 63 61 255
0.0224261 0.549044 3.5731 0 0 0 171 187 144 255
-0.246341 0.591822 3.58976 0 0 0 121 103 93 255
0.539407 0.564103 3.56335 0 0 0 161 174 122 255
0.0877213 0.608054 3.57469 0 0 0 72 80 67 255
-0.0647928 0.646173 3.57249 0 0 0 160 174 142 255
0.529944 0.632424 3.56853 0 0 0 163 178 125 255
0.614236 0.646428 3.57335 0 0 0 156 166 137 255
0.136469 0.729954 3.56886 0 0 0 162 176 128 255
0.721972 0.684576 3.58567 0 0 0 55 62 59 255
0.762291 0.689985 3.59267 0 0 0 143 155 122 255
-0.116496 0.775252 3.56469 0 0 0 95 105 99 255
-0.964686 0.864589 3.70644 0 0 0 46 35 32 255
-0.939986 0.879774 3.70949 0 0 0 120 97 79 255
1.04237 0.810102 3.6424 0 0 0 77 78 81 255
0.396827 0.907983 3.56853 0 0 0 194 203 205 255
0.972309 0.918391 3.6312 0 0 0 197 203 204 255
-0.241151 1.00171 3.57304 0 0 0 136 112 106 255
-0.102595 1.00868 3.56864 0 0 0 78 87 87 255
0.404957 0.984249 3.57272 0 0 0 196 202 203 255
0.794944 0.966593 3.60158 0 0 0 184 190 191 255
0.841948 0.973992 3.61008 0 0 0 116 124 126 255
-0.160419 1.03546 3.57042 0 0 0 160 173 160 255
0.0626479 1.02905 3.57332 0 0 0 122 128 131 255
0.773178 0.999706 3.60155 0 0 0 136 140 142 255
0.87259 1.04316 3.61915 0 0 0 198 204 207 255
0.0989019 1.09913 3.57179 0 0 0 144 150 151 255
0.789911 1.06875 3.60687 0 0 0 163 169 170 255
-0.0680279 1.11358 3.5667 0 0 0 117 123 124 255
0.280197 1.1028 3.57513 0 0 0 200 209 209 255
0.874282 1.07929 3.61707 0 0 0 182 186 190 255
1.11545 1.06627 3.66208 0 0 0 188 192 194 255
0.978895 1.09459 3.64278 0 0 0 160 166 167 255
0.920371 1.13024 3.63795 0 0 0 97 98 103 255
0.974591 1.14149 3.64419 0 0 0 195 201 203 255
-0.560196 1.26537 3.68066 0 0 0 105 83 74 255
0.477095 1.17534 3.5824 0 0 0 97 108 109 255
-0.75184 1.29121 3.55312 0 0 0 150 121 101 255
0.0875358 1.21609 3.55915 0 0 0 197 202 204 255
0.911804 1.17774 3.63662 0 0 0 192 197 200 255
-0.268404 1.38064 3.59684 0 0 0 139 112 96 255
-0.379537 1.45518 3.60782 0 0 0 156 125 116 255
-0.714997 1.4714 3.4379 0 0 0 154 133 122 255
1.24574 -0.0858029 3.94665 0 0 0 80 99 110 255
-0.98349 -0.0258699 3.9751 0 0 0 168 136 120 255
-0.809456 -0.0228069 3.96163 0 0 0 148 107 96 255
-0.261984 -0.037953 3.85913 0 0 0 72 69 71 255
-0.913533 0.0213567 3.94762 0 0 0 136 101 86 255
1.17807 -0.0168769 4.01851 0 0 0 168 166 167 255
-2.04742 -0.11191 5.51523 0 0 0 140 107 92 255
-0.857332 0.0641266 3.92991 0 0 0 131 103 92 255
-0.619802 0.070446 3.89321 0 0 0 142 111 101 255
-0.985647 0.125844 3.87964 0 0 0 139 106 90 255
0.875594 0.200774 3.59127 0 0 0 165 181 133 255
-0.783248 0.221946 3.91953 0 0 0 174 148 134 255
0.0828133 0.246191 3.57579 0 0 0 104 117 94 255
0.371121 0.272244 3.56649 0 0 0 75 85 79 255
0.16545 0.31656 3.57612 0 0 0 91 101 77 255
0.263767 0.330409 3.56932 0 0 0 170 184 134 255
-2.18695 0.401996 5.9484 0 0 0 85 74 68 255
-0.951007 0.423799 3.86071 0 0 0 124 112 104 255
-0.0595927 0.374722 3.58095 0 0 0 170 187 147 255
-0.580366 0.420908 3.80871 0 0 0 129 115 102 255
0.260257 0.404859 3.56823 0 0 0 152 165 124 255
0.750821 0.397029 3.57253 0 0 0 124 132 111 255
0.532475 0.452303 3.56592 0 0 0 168 183 128 255
-0.902651 0.536595 3.88543 0 0 0 42 37 36 255
0.564353 0.527113 3.56608 0 0 0 59 65 55 255
-0.254522 0.610898 3.57758 0 0 0 114 92 79 255
-0.0497018 0.597257 3.57344 0 0 0 164 179 144 255
-0.0617106 0.62685 3.57459 0 0 0 159 175 144 255
0.058073 0.623751 3.5652 0 0 0 98 105 100 255
0.735703 0.654633 3.58386 0 0 0 50 56 57 255
0.52038 0.727264 3.56543 0 0 0 147 154 120 255
0.768619 0.727066 3.58568 0 0 0 159 173 123 255
0.923166 0.703558 3.60568 0 0 0 154 169 116 255
-0.959786 0.854221 3.71135 0 0 0 59 42 35 255
0.756244 0.759606 3.59087 0 0 0 56 62 52 255
0.0532897 0.794349 3.57225 0 0 0 106 110 114 255
0.18771 0.772207 3.56616 0 0 0 160 164 169 255
-0.80788 0.885853 3.81285 0 0 0 47 38 33 255
-0.241647 0.909583 3.57722 0 0 0 132 101 85 255
0.0963312 0.890533 3.58127 0 0 0 146 152 154 255
0.543289 0.940783 3.57566 0 0 0 146 152 155 255
0.719791 0.911292 3.59664 0 0 0 194 203 207 255
-0.117005 0.988345 3.56973 0 0 0 65 74 74 255
0.176831 1.01088 3.56652 0 0 0 142 146 148 255
0.83367 0.986721 3.60984 0 0 0 121 129 131 255
-0.150648 1.05318 3.56936 0 0 0 154 169 152 255
0.959219 1.03108 3.62977 0 0 0 98 104 105 255
-0.0890655 1.08712 3.55953 0 0 0 84 96 92 255
0.702958 1.04902 3.59956 0 0 0 190 196 199 255
0.745191 1.02641 3.60272 0 0 0 196 202 203 255
0.875275 1.04585 3.61953 0 0 0 198 204 207 255
0.28474 1.10712 3.57337 0 0 0 198 207 207 255
1.1057 1.0523 3.66331 0 0 0 183 188 189 255
0.164801 1.12217 3.57129 0 0 0 197 206 206 255
0.977117 1.10124 3.64287 0 0 0 165 171 172 255
1.04533 1.12039 3.6519 0 0 0 94 100 101 255
0.441162 1.16103 3.57817 0 0 0 109 118 120 255
0.976069 1.16479 3.64407 0 0 0 160 165 169 255
-0.560735 1.27321 3.67171 0 0 0 89 68 60 255
0.642764 1.20805 3.60156 0 0 0 197 205 207 255
-0.230838 0.0342154 3.75242 0 0 0 45 44 47 255
1.2109 0.0708396 3.76343 0 0 0 53 53 53 255
-0.752565 0.251982 3.89786 0 0 0 149 122 99 255
0.846442 0.210986 3.59209 0 0 0 165 185 125 255
0.433772 0.31848 3.56726 0 0 0 77 84 77 255
-0.0648735 0.356809 3.58495 0 0 0 168 185 145 255
0.403477 0.367012 3.56306 0 0 0 65 75 72 255
0.852261 0.310674 3.59815 0 0 0 167 183 125 255
0.646537 0.35317 3.57592 0 0 0 98 106 81 255
0.762262 0.321879 3.5778 0 0 0 130 140 117 255
-0.0636489 0.420387 3.58106 0 0 0 160 176 138 255
0.0584894 0.40759 3.57771 0 0 0 171 189 135 255
0.475944 0.417919 3.56714 0 0 0 70 77 75 255
0.800101 0.415185 3.57429 0 0 0 61 68 64 255
0.175509 0.483813 3.56066 0 0 0 65 77 73 255
0.431791 0.457554 3.57536 0 0 0 48 55 53 255
-0.838736 0.5377 3.73223 0 0 0 41 36 38 255
0.860352 0.492691 3.5933 0 0 0 79 86 83 255
0.607599 0.552585 3.56735 0 0 0 82 89 84 255
0.0471479 0.64674 3.56329 0 0 0 50 56 56 255
0.491945 0.654414 3.56639 0 0 0 165 176 145 255
1.09545 0.802793 3.65575 0 0 0 63 64 67 255
-0.774049 1.01708 3.73824 0 0 0 144 120 93 255
-0.185999 0.99223 3.57313 0 0 0 60 64 63 255
0.718843 0.949208 3.59674 0 0 0 198 203 206 255
0.892215 0.943787 3.61687 0 0 0 195 204 205 255
0.0732407 1.11243 3.57126 0 0 0 122 128 129 255
1.09153 1.04795 3.66101 0 0 0 166 172 173 255
-0.2224 -0.147933 3.78565 0 0 0 73 73 76 255
-0.210688 -0.128103 3.78357 0 0 0 66 56 60 255
1.23374 0.0148763 3.77026 0 0 0 157 137 117 255
-0.222583 -0.0134772 3.73915 0 0 0 174 183 185 255
0.0761558 0.227312 3.5809 0 0 0 138 160 123 255
0.982919 0.300704 3.61538 0 0 0 121 134 121 255
0.44924 0.294526 3.58791 0 0 0 121 135 105 255
1.68271 0.317103 3.75862 0 0 0 203 190 184 255
0.774922 0.314019 3.59954 0 0 0 106 121 86 255
1.64712 0.34239 3.75071 0 0 0 188 157 138 255
0.490048 0.326759 3.59002 0 0 0 134 149 110 255
1.71561 0.345575 3.76561 0 0 0 197 180 175 255
1.74928 0.347329 3.77447 0 0 0 195 183 183 255
0.629837 0.341206 3.59119 0 0 0 100 118 73 255
0.475056 0.379181 3.58784 0 0 0 80 93 80 255
1.72489 0.399115 3.76316 0 0 0 207 193 197 255
0.654203 0.387407 3.58823 0 0 0 79 91 82 255
0.736387 0.403715 3.59253 0 0 0 127 141 122 255
0.278071 0.41098 3.58285 0 0 0 140 158 115 255
1.78399 0.442718 3.77666 0 0 0 159 134 125 255
1.79047 0.44066 3.7787 0 0 0 162 134 121 255
1.72505 0.445856 3.76281 0 0 0 204 191 194 255
1.81255 0.44794 3.78467 0 0 0 196 185 185 255
1.95999 0.450844 3.80829 0 0 0 168 129 106 255
1.7078 0.450201 3.7617 0 0 0 210 186 178 255
1.70948 0.460392 3.76079 0 0 0 163 131 110 255
0.668045 0.451939 3.59191 0 0 0 117 131 112 255
1.77601 0.470737 3.77303 0 0 0 160 130 115 255
0.59753 0.45487 3.58592 0 0 0 115 130 102 255
1.70693 0.479543 3.75855 0 0 0 184 126 89 255
0.590613 0.46681 3.58518 0 0 0 87 104 76 255
1.8678 0.488669 3.79466 0 0 0 181 123 88 255
0.996847 0.479804 3.6114 0 0 0 72 82 76 255
1.72452 0.492837 3.758 0 0 0 204 195 199 255
1.80617 0.4972 3.77782 0 0 0 209 177 163 255
0.663275 0.476622 3.58863 0 0 0 101 112 101 255
1.93487 0.500909 3.80197 0 0 0 196 182 184 255
1.98401 0.502014 3.81332 0 0 0 196 187 182 255
2.03254 0.504393 3.82062 0 0 0 198 182 172 255
0.719726 0.487862 3.59394 0 0 0 83 93 87 255
0.684462 0.493234 3.58881 0 0 0 63 75 71 255
0.789025 0.510325 3.5904 0 0 0 66 78 82 255
0.6142 0.524863 3.58421 0 0 0 80 92 88 255
0.68339 0.53353 3.58769 0 0 0 80 93 92 255
0.377283 0.536808 3.58174 0 0 0 68 86 85 255
0.860524 0.543379 3.59967 0 0 0 95 109 90 255
0.871483 0.55 3.60036 0 0 0 125 138 124 255
0.203405 0.550404 3.57661 0 0 0 115 129 112 255
0.866156 0.562682 3.59849 0 0 0 42 53 52 255
0.877492 0.561014 3.59895 0 0 0 78 89 76 255
0.890731 0.568215 3.60396 0 0 0 131 143 123 255
0.891922 0.585137 3.60158 0 0 0 71 77 78 255
0.76978 0.594713 3.59616 0 0 0 58 69 70 255
2.12489 0.622721 3.8259 0 0 0 200 159 125 255
0.604936 0.61548 3.59402 0 0 0 58 72 65 255
0.694869 0.628924 3.58625 0 0 0 86 100 93 255
0.15598 0.62977 3.57919 0 0 0 97 118 86 255
0.682118 0.648275 3.5829 0 0 0 138 153 119 255
0.943369 0.666776 3.61083 0 0 0 107 119 100 255
0.95305 0.676815 3.60992 0 0 0 54 64 56 255
0.962441 0.689218 3.60916 0 0 0 115 126 111 255
0.661097 0.685146 3.58423 0 0 0 69 76 73 255
0.0160503 0.685475 3.57036 0 0 0 109 125 110 255
0.733452 0.704385 3.59773 0 0 0 59 73 52 255
0.163446 0.706948 3.57767 0 0 0 116 133 114 255
0.623113 0.714913 3.58157 0 0 0 82 96 74 255
0.723882 0.71843 3.5981 0 0 0 106 119 103 255
0.940098 0.726275 3.60913 0 0 0 154 170 128 255
0.49897 0.731958 3.58322 0 0 0 100 110 83 255
-0.0355613 0.727799 3.56305 0 0 0 119 131 123 255
0.676094 0.741844 3.58973 0 0 0 92 104 100 255
0.800414 0.744809 3.59593 0 0 0 150 166 124 255
0.834125 0.741666 3.6006 0 0 0 118 131 114 255
0.140852 0.768949 3.56108 0 0 0 65 77 83 255
0.642442 0.776215 3.59287 0 0 0 45 53 60 255
0.826793 0.780414 3.59836 0 0 0 103 110 107 255
0.0553843 0.775809 3.59097 0 0 0 82 93 99 255
0.916272 0.787544 3.60546 0 0 0 125 133 138 255
-0.0152394 0.777767 3.56107 0 0 0 51 58 56 255
0.811251 0.794971 3.59702 0 0 0 40 48 53 255
1.08456 0.801953 3.64864 0 0 0 89 105 107 255
0.116198 0.797075 3.57156 0 0 0 90 98 103 255
0.442065 0.796525 3.58624 0 0 0 122 132 138 255
0.915095 0.802158 3.60615 0 0 0 131 136 142 255
0.243835 0.79813 3.5683 0 0 0 113 113 121 255
0.750757 0.806622 3.59376 0 0 0 122 126 128 255
0.81932 0.805636 3.60073 0 0 0 67 72 78 255
1.11194 0.813533 3.62563 0 0 0 77 82 88 255
1.13115 0.819239 3.62146 0 0 0 93 98 104 255
0.901966 0.845236 3.60443 0 0 0 65 75 83 255
1.06493 0.858337 3.61915 0 0 0 83 92 102 255
0.806349 0.859186 3.6067 0 0 0 86 95 108 255
0.83316 0.863489 3.61232 0 0 0 101 112 125 255
0.923441 0.857985 3.61112 0 0 0 92 107 115 255
1.08804 0.860295 3.62582 0 0 0 64 71 83 255
0.494709 0.854782 3.58099 0 0 0 78 86 95 255
1.25408 0.875438 3.66374 0 0 0 133 157 167 255
2.05715 0.922917 3.80938 0 0 0 159 156 154 255
-0.0477941 0.893805 3.55731 0 0 0 120 130 138 255
0.651193 0.904236 3.58811 0 0 0 127 142 147 255
1.88802 0.954201 3.78006 0 0 0 158 159 140 255
2.03915 0.958302 3.80828 0 0 0 170 172 168 255
0.0823111 0.952498 3.57859 0 0 0 187 197 203 255
2.00013 0.988292 3.79819 0 0 0 165 170 170 255
1.86859 1.01871 3.77859 0 0 0 158 169 176 255
0.70366 1.01785 3.59337 0 0 0 144 152 157 255
0.158047 1.05777 3.57466 0 0 0 180 188 195 255
0.174262 1.06998 3.57271 0 0 0 156 168 172 255
0.180797 1.10214 3.5701 0 0 0 148 159 166 255
0.228821 1.11562 3.57364 0 0 0 159 169 176 255
0.212483 1.15686 3.57425 0 0 0 103 118 125 255
0.406621 1.16167 3.5801 0 0 0 118 129 140 255
1.38909 1.38379 3.69982 0 0 0 193 156 155 255
1.46116 1.38071 3.70802 0 0 0 186 136 121 255
1.55447 1.39084 3.72534 0 0 0 194 167 162 255
1.84115 1.39994 3.75724 0 0 0 185 138 131 255
1.94813 1.39377 3.75727 0 0 0 197 156 144 255
1.58555 1.39781 3.72961 0 0 0 192 188 195 255
1.60902 1.39077 3.72827 0 0 0 199 173 164 255
1.77781 1.40417 3.75714 0 0 0 194 147 136 255
1.87942 1.40313 3.76511 0 0 0 203 156 147 255
2.06392 1.39055 3.74092 0 0 0 197 163 161 255
1.74187 1.40864 3.75096 0 0 0 182 156 152 255
1.38685 1.40547 3.6963 0 0 0 206 185 181 255
1.58464 1.41039 3.72683 0 0 0 192 188 193 255
1.55371 1.41549 3.72119 0 0 0 187 176 174 255
1.77031 1.42185 3.75171 0 0 0 193 159 158 255
1.98523 1.42205 3.75124 0 0 0 187 179 178 255
2.05935 1.41803 3.73788 0 0 0 206 171 171 255
1.73022 1.42902 3.74295 0 0 0 175 146 143 255
0.72334 1.5355 3.61711 0 0 0 134 145 147 255
0.742725 1.53388 3.61981 0 0 0 95 105 112 255
0.585304 1.53861 3.59953 0 0 0 114 127 135 255
0.538507 1.53951 3.59768 0 0 0 115 127 135 255
0.569597 1.53924 3.59853 0 0 0 114 128 138 255
0.681099 1.54594 3.6083 0 0 0 124 133 139 255
0.791562 1.54632 3.62016 0 0 0 122 133 142 255
0.867363 1.54862 3.62786 0 0 0 119 130 137 255
0.49759 1.54975 3.59609 0 0 0 65 70 78 255
0.507951 1.54505 3.59809 0 0 0 68 75 82 255
0.517443 1.54911 3.59451 0 0 0 128 136 141 255
0.640441 1.54801 3.60237 0 0 0 139 146 151 255
0.902723 1.55473 3.62836 0 0 0 142 152 159 255
0.906604 1.54919 3.63048 0 0 0 125 135 144 255
0.538244 1.55307 3.59412 0 0 0 146 152 162 255
0.767816 1.55302 3.61651 0 0 0 126 136 143 255
0.825214 1.55252 3.6227 0 0 0 116 127 138 255
0.840123 1.55273 3.62297 0 0 0 84 97 105 255
0.867374 1.5541 3.62662 0 0 0 127 137 143 255
0.939816 1.55498 3.63196 0 0 0 130 142 148 255
0.580413 1.55698 3.59666 0 0 0 76 79 88 255
0.593646 1.55583 3.6017 0 0 0 144 151 158 255
0.620667 1.56065 3.60246 0 0 0 113 120 124 255
0.687306 1.56304 3.60948 0 0 0 147 155 160 255
0.723418 1.56164 3.61261 0 0 0 148 157 159 255
0.798846 1.56915 3.61918 0 0 0 128 136 143 255
-0.220387 -0.125266 3.69647 0 0 0 65 63 65 255
-0.227606 -0.104799 3.74775 0 0 0 220 211 213 255
-0.194291 -0.0152601 3.7845 0 0 0 148 152 154 255
-0.187139 0.0266776 3.60169 0 0 0 85 87 86 255
1.64762 0.346457 3.75213 0 0 0 209 171 153 255
0.715404 0.350324 3.59512 0 0 0 137 146 123 255
0.291357 0.36711 3.5821 0 0 0 160 177 128 255
0.845451 0.367625 3.59971 0 0 0 66 76 73 255
1.71817 0.397267 3.76087 0 0 0 194 194 206 255
0.860439 0.415971 3.59882 0 0 0 54 68 64 255
1.0062 0.417969 3.60921 0 0 0 114 128 110 255
1.93502 0.437273 3.80847 0 0 0 197 165 149 255
1.70896 0.4469 3.76034 0 0 0 207 183 177 255
1.86969 0.44114 3.79118 0 0 0 171 148 138 255
1.80207 0.452814 3.78127 0 0 0 198 172 158 255
1.95839 0.459033 3.80647 0 0 0 172 132 98 255
1.69196 0.470272 3.75663 0 0 0 181 124 83 255
1.86389 0.479299 3.79378 0 0 0 173 125 97 255
-0.0335577 0.461477 3.5685 0 0 0 160 174 154 255
1.71539 0.495248 3.75662 0 0 0 209 191 188 255
1.93129 0.497726 3.80323 0 0 0 196 182 184 255
1.98098 0.498908 3.81701 0 0 0 185 154 135 255
2.02812 0.500759 3.8208 0 0 0 174 155 141 255
0.0369125 0.463579 3.57517 0 0 0 168 185 146 255
1.86013 0.500071 3.79169 0 0 0 201 183 181 255
0.888605 0.566532 3.60265 0 0 0 131 143 123 255
-0.0644728 0.57768 3.56255 0 0 0 131 145 127 255
0.899088 0.651624 3.60667 0 0 0 94 108 104 255
0.8408 0.670346 3.60728 0 0 0 98 110 92 255
1.254 0.680881 3.66839 0 0 0 110 86 77 255
0.0913521 0.694752 3.57473 0 0 0 53 62 64 255
0.528897 0.694867 3.57738 0 0 0 109 120 102 255
1.48639 0.731567 3.7039 0 0 0 141 152 153 255
-0.0351598 0.724651 3.5618 0 0 0 108 120 113 255
-0.0327188 0.758342 3.56027 0 0 0 126 131 134 255
0.916103 0.792553 3.60544 0 0 0 130 135 141 255
0.275617 0.791131 3.57392 0 0 0 114 120 124 255
0.728011 0.797763 3.59111 0 0 0 133 139 140 255
1.08598 0.800732 3.63514 0 0 0 136 151 154 255
1.56802 0.815438 3.71978 0 0 0 151 117 95 255
0.911006 0.809726 3.60421 0 0 0 111 116 122 255
1.11432 0.808662 3.62187 0 0 0 103 108 113 255
1.87298 0.881292 3.78125 0 0 0 122 142 155 255
1.06591 0.869095 3.62325 0 0 0 82 91 100 255
1.86762 0.930468 3.77836 0 0 0 120 135 140 255
1.0394 0.911385 3.61236 0 0 0 158 170 176 255
2.03504 0.958668 3.80786 0 0 0 151 156 155 255
1.99201 0.990245 3.79557 0 0 0 154 159 156 255
2.10598 0.992299 3.8055 0 0 0 131 166 177 255
2.05865 1.02591 3.79465 0 0 0 119 133 129 255
0.352172 1.05686 3.57743 0 0 0 112 122 130 255
0.021692 1.09264 3.55829 0 0 0 117 131 137 255
0.189415 1.10372 3.57047 0 0 0 143 154 162 255
1.93394 1.14684 3.78453 0 0 0 179 166 120 255
1.40273 1.17565 3.69203 0 0 0 168 181 187 255
0.0620175 1.16272 3.56343 0 0 0 170 182 190 255
0.691645 1.19131 3.59846 0 0 0 133 143 147 255
1.28292 1.32928 3.68319 0 0 0 174 196 203 255
1.88208 1.35149 3.77544 0 0 0 181 194 196 255
1.54453 1.39465 3.72251 0 0 0 184 135 129 255
1.38836 1.39566 3.69825 0 0 0 207 183 183 255
1.58633 1.3999 3.72966 0 0 0 192 188 195 255
1.73068 1.41013 3.74571 0 0 0 194 167 165 255
1.76992 1.4221 3.75072 0 0 0 193 159 158 255
1.87441 1.41442 3.7606 0 0 0 202 178 184 255
2.01622 1.41005 3.74147 0 0 0 192 180 180 255
1.54357 1.41526 3.71859 0 0 0 198 176 176 255
0.483066 1.53633 3.59551 0 0 0 107 116 127 255
0.721973 1.54016 3.61668 0 0 0 142 152 153 255
0.593631 1.55162 3.5998 0 0 0 144 151 158 255
0.725495 1.55827 3.61643 0 0 0 144 152 154 255
0.869767 1.55039 3.62686 0 0 0 121 132 138 255
0.902504 1.5581 3.6278 0 0 0 149 159 164 255
-0.216393 -0.125457 3.70137 0 0 0 69 61 67 255
-0.223483 -0.135173 3.77433 0 0 0 70 65 67 255
1.24422 0.0451322 3.71655 0 0 0 61 57 63 255
-0.172563 0.051663 3.5521 0 0 0 102 103 103 255
1.64735 0.337698 3.7498 0 0 0 190 159 140 255
0.47936 0.328341 3.58875 0 0 0 125 139 108 255
1.67328 0.390511 3.75048 0 0 0 193 180 167 255
1.70487 0.396322 3.75935 0 0 0 182 181 194 255
0.866261 0.402755 3.6054 0 0 0 70 86 66 255
1.64006 0.425278 3.74202 0 0 0 183 130 97 255
1.79465 0.423 3.78218 0 0 0 204 157 137 255
1.88131 0.424719 3.79642 0 0 0 189 149 126 255
1.71569 0.449978 3.7611 0 0 0 201 189 193 255
1.00714 0.445788 3.61496 0 0 0 115 127 109 255
1.64546 0.465172 3.74511 0 0 0 209 186 185 255
1.87169 0.463811 3.79434 0 0 0 178 124 85 255
1.95958 0.465903 3.80666 0 0 0 181 126 88 255
0.664188 0.455288 3.58994 0 0 0 118 131 108 255
1.98518 0.495989 3.81435 0 0 0 194 185 179 255
0.0352574 0.463678 3.5759 0 0 0 168 185 146 255
0.28161 0.461171 3.58235 0 0 0 90 104 97 255
1.71087 0.498934 3.7567 0 0 0 195 192 195 255
1.78931 0.499073 3.77452 0 0 0 215 185 177 255
1.86301 0.500582 3.79238 0 0 0 194 194 188 255
1.86943 0.502141 3.79432 0 0 0 195 190 184 255
0.0455957 0.57133 3.57781 0 0 0 161 179 137 255
-0.0374583 0.582361 3.56227 0 0 0 147 163 143 255
0.621491 0.61274 3.59412 0 0 0 51 64 63 255
1.25728 0.675831 3.66968 0 0 0 146 108 86 255
1.4661 0.71412 3.7013 0 0 0 87 105 105 255
0.256381 0.692985 3.57524 0 0 0 158 173 133 255
0.83306 0.720919 3.60127 0 0 0 118 134 92 255
1.49323 0.730909 3.7055 0 0 0 149 158 158 255
-0.0345601 0.726663 3.56252 0 0 0 119 131 123 255
0.74547 0.729534 3.59904 0 0 0 153 171 128 255
1.25719 0.742973 3.67279 0 0 0 49 101 125 255
-0.146795 0.774644 3.55349 0 0 0 83 89 93 255
0.195147 0.794608 3.5675 0 0 0 112 119 122 255
0.734567 0.800245 3.59474 0 0 0 136 140 144 255
0.794859 0.8003 3.59664 0 0 0 47 55 60 255
0.91427 0.797137 3.60702 0 0 0 105 110 116 255
0.431986 0.791317 3.5703 0 0 0 71 83 89 255
1.08254 0.797909 3.61632 0 0 0 89 105 107 255
1.10931 0.812166 3.5868 0 0 0 102 108 112 255
1.4494 0.842713 3.69898 0 0 0 197 142 93 255
0.827686 0.860688 3.61219 0 0 0 81 92 105 255
1.06584 0.864539 3.62361 0 0 0 84 93 104 255
1.25364 0.881317 3.66274 0 0 0 143 166 175 255
2.00473 0.899911 3.79524 0 0 0 70 70 75 255
2.00584 0.913801 3.79775 0 0 0 65 65 72 255
2.0501 0.915553 3.80677 0 0 0 166 153 144 255
1.89201 0.948632 3.7805 0 0 0 182 167 141 255
1.99658 0.936811 3.79996 0 0 0 64 68 72 255
2.03959 0.949925 3.80711 0 0 0 168 169 165 255
1.97646 0.946064 3.79671 0 0 0 70 68 76 255
1.92958 0.982038 3.78602 0 0 0 158 138 120 255
1.99778 0.985095 3.79756 0 0 0 150 155 154 255
0.92276 0.955467 3.60815 0 0 0 154 169 175 255
1.25198 0.988367 3.6695 0 0 0 156 171 178 255
0.365131 0.991524 3.58258 0 0 0 143 154 160 255
1.85369 1.01814 3.77489 0 0 0 185 201 208 255
2.06 1.02862 3.79416 0 0 0 128 143 138 255
0.761979 1.01386 3.59847 0 0 0 151 162 168 255
2.11338 1.09658 3.79821 0 0 0 146 163 136 255
1.98769 1.12427 3.79566 0 0 0 129 117 89 255
0.112932 1.09066 3.57 0 0 0 130 141 146 255
1.93685 1.14754 3.78517 0 0 0 188 171 124 255
0.25213 1.11644 3.57744 0 0 0 185 195 202 255
0.358015 1.12859 3.5821 0 0 0 189 204 211 255
0.151148 1.13145 3.57481 0 0 0 191 206 211 255
0.823628 1.14823 3.6083 0 0 0 136 147 158 255
1.40251 1.18055 3.6911 0 0 0 172 191 199 255
0.414233 1.16805 3.58108 0 0 0 112 124 133 255
0.107264 1.17541 3.57077 0 0 0 116 126 134 255
1.88055 1.24888 3.76679 0 0 0 150 164 152 255
-0.0560482 1.21467 3.53236 0 0 0 135 140 145 255
0.385959 1.2759 3.58522 0 0 0 173 187 190 255
1.28646 1.32394 3.6846 0 0 0 163 185 192 255
0.481197 1.31695 3.59599 0 0 0 64 75 81 255
1.88003 1.35031 3.77681 0 0 0 181 194 196 255
1.39367 1.39297 3.69827 0 0 0 198 175 177 255
1.60808 1.40171 3.73034 0 0 0 203 187 183 255
2.07253 1.39193 3.74214 0 0 0 197 172 171 255
