ply
format ascii 1.0
comment VCGLIB generated
element vertex 1021
property float x
property float y
property float z
property float nx
property float ny
property float nz
property uchar red
property uchar green
property uchar blue
property uchar alpha
element face 0
property list uchar int vertex_indices
end_header
0.700553 1.08644 3.59804 0 0 0 158 164 167 255
1.00048 1.075 3.6557 0 0 0 195 204 204 255
-0.794566 1.20102 3.62479 0 0 0 79 55 46 255
1.11764 1.09291 3.67688 0 0 0 150 151 154 255
-0.0244895 1.14759 3.55276 0 0 0 187 192 195 255
0.0541969 1.13777 3.55394 0 0 0 129 138 138 255
0.142703 1.13338 3.56171 0 0 0 186 195 195 255
0.190945 1.12947 3.55813 0 0 0 196 204 206 255
-0.647965 1.21753 3.66284 0 0 0 97 80 70 255
-0.168967 1.16198 3.53733 0 0 0 148 165 150 255
0.350051 1.13016 3.56998 0 0 0 189 195 198 255
0.920704 1.11075 3.63911 0 0 0 112 113 118 255
0.08203 1.15538 3.55489 0 0 0 191 200 200 255
0.992539 1.12034 3.66092 0 0 0 197 201 203 255
-0.714223 1.23891 3.65308 0 0 0 97 77 70 255
-0.0231914 1.17271 3.5488 0 0 0 139 143 147 255
-0.764716 1.24865 3.58292 0 0 0 86 62 54 255
0.856649 1.15385 3.63216 0 0 0 88 94 97 255
0.965867 1.15235 3.65255 0 0 0 185 194 196 255
0.86956 1.16635 3.63571 0 0 0 161 172 173 255
0.120689 1.20795 3.55455 0 0 0 192 198 199 255
0.906015 1.17925 3.64293 0 0 0 191 196 199 255
-0.566566 1.27765 3.60605 0 0 0 111 89 81 255
0.412967 1.20324 3.57139 0 0 0 192 201 203 255
-0.627347 1.31181 3.6187 0 0 0 115 96 84 255
-0.594673 1.33374 3.6213 0 0 0 95 76 64 255
-0.698137 1.32889 3.54393 0 0 0 111 100 95 255
-0.601554 1.3481 3.60578 0 0 0 127 104 93 255
-0.557361 1.36213 3.62429 0 0 0 106 85 72 255
-0.602082 1.42904 3.5364 0 0 0 87 74 67 255
-0.519301 1.52307 3.56893 0 0 0 135 113 106 255
-0.472446 1.51488 3.56559 0 0 0 122 106 99 255
-0.414686 1.51315 3.55623 0 0 0 140 105 100 255
-0.563976 1.52803 3.50842 0 0 0 124 110 108 255
1.22475 -0.110668 4.04862 0 0 0 106 117 126 255
-1.41049 -0.100291 4.55365 0 0 0 136 108 96 255
-0.696315 -0.0214569 3.92549 0 0 0 139 123 108 255
-0.232086 -0.04125 3.88396 0 0 0 160 165 164 255
-0.850195 -0.0186876 3.94605 0 0 0 146 107 95 255
-0.898896 -0.00290685 3.91819 0 0 0 141 108 95 255
-2.02084 -0.163779 5.53536 0 0 0 196 177 166 255
-0.678059 0.0132222 3.89315 0 0 0 145 129 114 255
-0.987843 0.0334188 3.92896 0 0 0 197 178 162 255
-0.869906 0.0280059 3.93195 0 0 0 197 182 164 255
-0.765243 0.0145246 3.92931 0 0 0 197 181 166 255
-1.49145 -0.024854 4.58977 0 0 0 148 112 94 255
-0.695136 0.0451979 3.90971 0 0 0 194 180 166 255
-0.588793 0.0410063 3.88604 0 0 0 198 182 167 255
-1.0526 0.0592134 3.87562 0 0 0 149 120 105 255
-0.776476 0.0763414 3.91491 0 0 0 144 104 95 255
-0.679848 0.0777435 3.86828 0 0 0 136 103 93 255
-0.615848 0.0735344 3.89035 0 0 0 138 108 98 255
-0.0757485 0.166464 3.57761 0 0 0 157 165 153 255
-1.75995 0.155985 5.1863 0 0 0 138 113 94 255
-0.930722 0.215673 3.88793 0 0 0 152 125 109 255
-0.816635 0.213004 3.91259 0 0 0 135 100 85 255
-0.747608 0.21139 3.88677 0 0 0 147 115 98 255
0.895425 0.189684 3.63851 0 0 0 161 174 133 255
-1.39881 0.195474 4.47099 0 0 0 132 108 86 255
1.01272 0.195321 3.63088 0 0 0 131 139 125 255
-0.901076 0.233425 3.89479 0 0 0 203 180 167 255
0.0798548 0.240443 3.57019 0 0 0 107 123 90 255
-0.766349 0.243535 3.86627 0 0 0 198 178 158 255
0.950957 0.211795 3.63898 0 0 0 122 131 114 255
-1.03419 0.27859 3.85454 0 0 0 165 134 115 255
-0.859577 0.267444 3.88372 0 0 0 153 126 109 255
0.353563 0.249497 3.5791 0 0 0 75 85 59 255
-1.75831 0.260385 5.03257 0 0 0 137 111 94 255
-0.814599 0.279481 3.89428 0 0 0 140 113 99 255
0.0941959 0.260402 3.56927 0 0 0 133 147 115 255
-1.05052 0.301728 3.85256 0 0 0 160 130 113 255
-0.974741 0.296236 3.84967 0 0 0 136 106 91 255
-0.73595 0.300997 3.87646 0 0 0 142 112 95 255
-0.882899 0.295743 3.88716 0 0 0 180 153 140 255
0.724902 0.311233 3.60716 0 0 0 78 89 63 255
-1.62766 0.390362 4.83781 0 0 0 101 91 81 255
-1.04539 0.392303 3.83254 0 0 0 153 138 123 255
0.132683 0.356249 3.56556 0 0 0 92 103 74 255
-0.902526 0.39784 3.87667 0 0 0 166 151 142 255
-0.776463 0.387362 3.86688 0 0 0 177 158 144 255
-0.648106 0.39164 3.83848 0 0 0 128 112 99 255
0.309969 0.369546 3.57088 0 0 0 145 156 114 255
0.328379 0.365606 3.57174 0 0 0 124 133 116 255
0.737358 0.352966 3.60166 0 0 0 137 145 123 255
-0.962427 0.409773 3.83602 0 0 0 154 140 125 255
-0.577657 0.410994 3.8132 0 0 0 147 133 118 255
0.133562 0.390211 3.56317 0 0 0 156 167 138 255
0.618877 0.35783 3.5933 0 0 0 113 121 97 255
0.998061 0.346024 3.62978 0 0 0 147 155 135 255
-0.687786 0.42315 3.82047 0 0 0 126 115 107 255
-0.625176 0.432825 3.76776 0 0 0 127 119 106 255
-0.0657165 0.404741 3.56486 0 0 0 169 183 151 255
-0.743915 0.436104 3.80685 0 0 0 130 117 105 255
-0.02281 0.443093 3.5683 0 0 0 88 101 74 255
0.120765 0.428591 3.56315 0 0 0 134 149 114 255
0.639747 0.416656 3.59054 0 0 0 157 167 130 255
0.720849 0.422995 3.59796 0 0 0 53 61 51 255
-0.065111 0.478931 3.56292 0 0 0 167 178 149 255
0.113315 0.4733 3.55958 0 0 0 155 167 133 255
0.755934 0.437403 3.60059 0 0 0 87 98 87 255
-0.225115 0.494628 3.57236 0 0 0 180 170 160 255
-0.0186222 0.481552 3.55992 0 0 0 167 184 148 255
-1.43749 0.556745 4.50244 0 0 0 155 145 146 255
-0.949166 0.539228 3.83022 0 0 0 135 90 83 255
-0.754314 0.544701 3.82361 0 0 0 92 86 81 255
-0.626856 0.541575 3.77353 0 0 0 132 122 124 255
0.492063 0.489458 3.58047 0 0 0 160 174 126 255
-0.563037 0.53862 3.75937 0 0 0 158 152 154 255
-0.0344637 0.516959 3.56279 0 0 0 72 83 69 255
0.636062 0.49108 3.58807 0 0 0 46 53 51 255
0.7016 0.492641 3.5949 0 0 0 125 131 122 255
0.886764 0.478531 3.62439 0 0 0 141 152 113 255
0.0211528 0.539966 3.56344 0 0 0 171 187 143 255
0.0581613 0.532743 3.56173 0 0 0 71 83 62 255
-0.0232179 0.55298 3.55889 0 0 0 67 80 68 255
0.563253 0.523697 3.58203 0 0 0 57 63 54 255
0.844695 0.531046 3.6195 0 0 0 119 127 118 255
0.370889 0.553895 3.5632 0 0 0 124 131 125 255
-0.0592417 0.586834 3.55948 0 0 0 157 167 145 255
0.433858 0.56305 3.57279 0 0 0 134 144 119 255
0.0245855 0.588548 3.56339 0 0 0 86 89 74 255
0.883237 0.552806 3.62131 0 0 0 144 156 120 255
0.999295 0.546783 3.6459 0 0 0 114 122 102 255
0.447785 0.591094 3.57125 0 0 0 99 109 83 255
0.115061 0.62564 3.55852 0 0 0 74 82 72 255
-0.013418 0.647982 3.55587 0 0 0 102 116 92 255
0.110974 0.637783 3.55754 0 0 0 70 77 72 255
-0.0634054 0.665003 3.55283 0 0 0 150 159 139 255
0.131014 0.665384 3.56031 0 0 0 141 151 127 255
0.536496 0.638719 3.57643 0 0 0 160 172 123 255
-0.0446501 0.692404 3.55206 0 0 0 48 59 48 255
0.999218 0.651248 3.64558 0 0 0 93 96 95 255
-0.0291451 0.713066 3.55444 0 0 0 104 111 108 255
0.642048 0.686134 3.58762 0 0 0 68 76 65 255
0.762831 0.684935 3.6119 0 0 0 144 154 134 255
0.107274 0.728792 3.56356 0 0 0 161 174 140 255
0.458046 0.722723 3.57693 0 0 0 111 117 95 255
0.609464 0.703225 3.57887 0 0 0 152 162 140 255
0.718944 0.698586 3.60019 0 0 0 55 62 60 255
0.529519 0.72885 3.57159 0 0 0 155 163 122 255
0.690264 0.734146 3.59303 0 0 0 129 137 122 255
0.729477 0.730118 3.60096 0 0 0 144 154 132 255
-0.960086 0.841451 3.69668 0 0 0 54 38 29 255
-0.0974461 0.77952 3.54527 0 0 0 97 104 102 255
0.0443567 0.782381 3.56993 0 0 0 107 112 118 255
0.0283682 0.784234 3.54843 0 0 0 97 101 105 255
0.228284 0.781456 3.55931 0 0 0 173 177 181 255
0.27712 0.779214 3.55549 0 0 0 107 111 115 255
0.302466 0.7805 3.56422 0 0 0 130 134 138 255
0.317885 0.783998 3.55935 0 0 0 111 115 119 255
0.653775 0.770513 3.59689 0 0 0 114 120 123 255
0.549386 0.789577 3.57606 0 0 0 102 108 111 255
0.624499 0.785928 3.58671 0 0 0 159 165 168 255
0.475512 0.79728 3.56682 0 0 0 92 96 100 255
0.570722 0.79912 3.5795 0 0 0 65 70 72 255
0.780653 0.785607 3.61117 0 0 0 85 94 96 255
0.850163 0.788884 3.62066 0 0 0 117 122 127 255
-0.926436 0.899422 3.66698 0 0 0 129 99 86 255
1.09066 0.798494 3.69497 0 0 0 75 76 79 255
0.976048 0.812863 3.63986 0 0 0 106 110 112 255
-0.722488 0.942544 3.79049 0 0 0 127 105 99 255
0.560442 0.845756 3.57591 0 0 0 100 110 114 255
-0.659456 0.946916 3.73963 0 0 0 70 59 54 255
-0.77204 0.972471 3.73361 0 0 0 64 46 43 255
0.0993401 0.900854 3.56369 0 0 0 196 202 205 255
-0.915282 0.97924 3.67241 0 0 0 129 101 86 255
-0.716916 0.995402 3.7419 0 0 0 73 49 43 255
-0.914838 1.00166 3.62695 0 0 0 67 49 42 255
0.528768 0.915707 3.58041 0 0 0 173 179 182 255
0.701673 0.907264 3.60473 0 0 0 191 199 204 255
-0.65892 1.00631 3.74784 0 0 0 78 47 41 255
-0.607477 1.00534 3.6939 0 0 0 86 62 54 255
-0.711356 1.0365 3.72112 0 0 0 103 76 68 255
-0.217316 0.986548 3.54927 0 0 0 105 92 89 255
0.852547 0.949099 3.62446 0 0 0 144 153 155 255
0.963684 0.960737 3.64495 0 0 0 144 150 151 255
0.930638 0.970959 3.64162 0 0 0 168 172 174 255
0.966931 0.952141 3.64636 0 0 0 180 189 189 255
-0.72888 1.08317 3.6929 0 0 0 115 89 73 255
-0.0866658 1.02424 3.54771 0 0 0 70 79 79 255
0.405974 0.997714 3.57284 0 0 0 200 206 207 255
-0.673912 1.10468 3.7042 0 0 0 101 79 64 255
-0.106262 1.05484 3.54764 0 0 0 170 183 169 255
0.99598 1.0084 3.65104 0 0 0 168 174 175 255
-0.127368 1.0759 3.54485 0 0 0 98 113 99 255
0.00494562 1.06438 3.5567 0 0 0 168 177 179 255
0.477127 1.05144 3.5753 0 0 0 195 201 204 255
0.759433 1.03231 3.61322 0 0 0 197 201 203 255
0.859637 1.02918 3.6244 0 0 0 187 193 196 255
0.914177 1.02591 3.63768 0 0 0 129 130 133 255
-0.0831879 1.08188 3.54421 0 0 0 77 89 83 255
-0.0242915 1.07742 3.55128 0 0 0 94 100 102 255
0.0631158 1.08 3.55632 0 0 0 177 183 184 255
0.0963055 1.08366 3.55379 0 0 0 185 191 192 255
0.980651 1.03044 3.64947 0 0 0 91 95 97 255
-0.776777 1.16318 3.6708 0 0 0 72 51 40 255
0.731668 1.05485 3.60699 0 0 0 125 129 131 255
-0.909978 1.16132 3.583 0 0 0 131 109 101 255
0.283298 1.08907 3.56855 0 0 0 197 206 206 255
-0.700371 1.1862 3.6751 0 0 0 100 77 64 255
-0.0860902 1.11865 3.54307 0 0 0 170 190 165 255
0.138921 1.10061 3.56003 0 0 0 134 140 141 255
1.0041 1.07612 3.65658 0 0 0 195 204 204 255
-0.608018 1.1852 3.68026 0 0 0 113 91 80 255
0.75835 1.0797 3.61066 0 0 0 196 202 203 255
-0.0138836 1.13601 3.5529 0 0 0 199 208 210 255
0.0143769 1.13416 3.55374 0 0 0 197 206 208 255
0.0566891 1.13265 3.55511 0 0 0 109 118 118 255
0.144888 1.13614 3.56302 0 0 0 196 204 204 255
0.29296 1.11136 3.56762 0 0 0 197 206 206 255
1.06834 1.08516 3.6644 0 0 0 137 143 144 255
0.351344 1.13437 3.57059 0 0 0 189 195 198 255
-0.651132 1.22781 3.67615 0 0 0 106 91 82 255
-0.719184 1.24182 3.65116 0 0 0 95 75 68 255
0.0800672 1.15813 3.55352 0 0 0 191 200 200 255
-0.0907259 1.18529 3.54207 0 0 0 82 87 81 255
-0.764257 1.25399 3.5882 0 0 0 78 62 58 255
-0.559676 1.26861 3.69916 0 0 0 93 72 65 255
-0.0573147 1.20211 3.54466 0 0 0 159 163 167 255
0.114861 1.21142 3.55148 0 0 0 190 196 197 255
0.655252 1.1889 3.60169 0 0 0 190 196 199 255
0.828493 1.17645 3.62826 0 0 0 148 157 159 255
0.909678 1.17846 3.64418 0 0 0 192 197 200 255
-0.565566 1.27742 3.63195 0 0 0 102 79 68 255
-0.733654 1.30799 3.59014 0 0 0 130 103 90 255
-0.636693 1.31895 3.63474 0 0 0 84 70 62 255
-0.0883147 1.26644 3.53932 0 0 0 60 66 67 255
-0.603001 1.34429 3.63128 0 0 0 88 69 58 255
-0.554281 1.3579 3.6244 0 0 0 116 95 82 255
1.12341 1.31077 3.72138 0 0 0 131 135 137 255
-0.576508 1.43341 3.58594 0 0 0 94 76 69 255
-0.549066 1.45661 3.59113 0 0 0 150 122 113 255
-0.498432 1.45294 3.58923 0 0 0 145 110 104 255
-0.376234 1.45796 3.6063 0 0 0 157 126 116 255
-0.707514 1.45611 3.41331 0 0 0 157 136 125 255
-0.531054 1.51008 3.50832 0 0 0 66 66 63 255
-0.992131 -0.0272226 3.94404 0 0 0 139 113 99 255
-0.314699 -0.0753152 4.18555 0 0 0 161 162 162 255
-0.622223 -0.00164388 3.91897 0 0 0 138 101 95 255
-0.968421 0.0912161 3.82419 0 0 0 143 106 92 255
-0.985484 0.115859 3.85707 0 0 0 145 104 91 255
-1.74922 0.213637 5.04209 0 0 0 127 95 77 255
0.240429 0.250847 3.57303 0 0 0 77 87 63 255
0.272732 0.257602 3.5764 0 0 0 99 109 83 255
0.472503 0.333189 3.5786 0 0 0 108 119 104 255
0.324591 0.365819 3.57336 0 0 0 127 136 119 255
0.994262 0.339473 3.63824 0 0 0 145 152 134 255
-0.835867 0.406056 3.85705 0 0 0 97 84 81 255
-0.068401 0.404928 3.56562 0 0 0 169 183 151 255
0.0814684 0.448125 3.55706 0 0 0 169 187 133 255
0.713316 0.429833 3.5994 0 0 0 60 67 61 255
0.492052 0.47272 3.5813 0 0 0 171 185 137 255
0.884419 0.463568 3.62479 0 0 0 148 160 118 255
0.0615829 0.533506 3.56252 0 0 0 68 80 60 255
0.633551 0.481861 3.589 0 0 0 56 63 61 255
0.0263527 0.54783 3.56031 0 0 0 171 187 144 255
-0.236187 0.589266 3.56218 0 0 0 121 103 93 255
0.537423 0.563723 3.57501 0 0 0 161 174 122 255
0.0923015 0.606384 3.56079 0 0 0 72 80 67 255
-0.059913 0.644959 3.55694 0 0 0 160 174 142 255
0.52918 0.633237 3.57539 0 0 0 163 178 125 255
0.612351 0.647236 3.58645 0 0 0 156 166 137 255
0.13939 0.728917 3.55928 0 0 0 162 176 128 255
0.720113 0.686063 3.60176 0 0 0 55 62 59 255
0.760355 0.691197 3.61047 0 0 0 143 155 122 255
-0.108965 0.773017 3.54346 0 0 0 95 105 99 255
-0.964023 0.863821 3.70547 0 0 0 46 35 32 255
-0.930675 0.879617 3.6946 0 0 0 120 97 79 255
1.04248 0.811931 3.6579 0 0 0 77 78 81 255
0.399016 0.907152 3.56321 0 0 0 194 203 205 255
0.972146 0.920174 3.64518 0 0 0 197 203 204 255
-0.231619 0.998061 3.54686 0 0 0 136 112 106 255
-0.095948 1.00643 3.54895 0 0 0 78 87 87 255
0.406043 0.98436 3.57052 0 0 0 196 202 203 255
0.794001 0.96871 3.61441 0 0 0 184 190 191 255
0.842062 0.97547 3.61867 0 0 0 116 124 126 255
-0.155734 1.03346 3.55422 0 0 0 160 173 160 255
0.0676592 1.02726 3.55781 0 0 0 122 128 131 255
0.772525 1.00181 3.61213 0 0 0 136 140 142 255
0.87241 1.04515 3.62952 0 0 0 198 204 207 255
0.104711 1.09675 3.5545 0 0 0 144 150 151 255
0.788929 1.07134 3.61907 0 0 0 163 169 170 255
-0.06155 1.11101 3.54744 0 0 0 117 123 124 255
0.282261 1.10217 3.56844 0 0 0 200 209 209 255
0.874355 1.08112 3.62594 0 0 0 182 186 190 255
1.11464 1.06917 3.68633 0 0 0 188 192 194 255
0.978966 1.09641 3.6538 0 0 0 160 166 167 255
0.921299 1.13122 3.64168 0 0 0 97 98 103 255
0.974623 1.14398 3.6546 0 0 0 195 201 203 255
-0.560196 1.26537 3.68066 0 0 0 105 83 74 255
0.479403 1.17494 3.5764 0 0 0 97 108 109 255
-0.736578 1.28611 3.52675 0 0 0 150 121 101 255
0.0919893 1.21442 3.54507 0 0 0 197 202 204 255
0.912165 1.17932 3.64348 0 0 0 192 197 200 255
-0.248344 1.36925 3.54834 0 0 0 139 112 96 255
-0.378922 1.45695 3.60456 0 0 0 156 125 116 255
-0.715305 1.46704 3.44009 0 0 0 154 133 122 255
1.24574 -0.0858029 3.94665 0 0 0 80 99 110 255
-0.98969 -0.0268362 3.98568 0 0 0 168 136 120 255
-0.809456 -0.0228069 3.96163 0 0 0 148 107 96 255
-0.250968 -0.0358397 3.82378 0 0 0 72 69 71 255
-0.913533 0.0213567 3.94762 0 0 0 136 101 86 255
1.17807 -0.0168769 4.01851 0 0 0 168 166 167 255
-2.04742 -0.11191 5.51523 0 0 0 140 107 92 255
-0.857332 0.0641266 3.92991 0 0 0 131 103 92 255
-0.619802 0.070446 3.89321 0 0 0 142 111 101 255
-0.993382 0.118898 3.88984 0 0 0 139 106 90 255
0.871951 0.198576 3.62637 0 0 0 165 181 133 255
-0.764768 0.223181 3.88535 0 0 0 174 148 134 255
0.083864 0.244417 3.57041 0 0 0 104 117 94 255
0.369064 0.270603 3.5745 0 0 0 75 85 79 255
0.165166 0.315315 3.57508 0 0 0 91 101 77 255
0.263278 0.32914 3.57058 0 0 0 170 184 134 255
-2.18695 0.401996 5.9484 0 0 0 85 74 68 255
-0.947968 0.422571 3.85534 0 0 0 124 112 104 255
-0.0558027 0.373213 3.5677 0 0 0 170 187 147 255
-0.585167 0.417926 3.81735 0 0 0 129 115 102 255
0.260741 0.403845 3.56675 0 0 0 152 165 124 255
0.746809 0.396622 3.60097 0 0 0 124 132 111 255
0.529229 0.452017 3.58192 0 0 0 168 183 128 255
-0.880649 0.536706 3.84824 0 0 0 42 37 36 255
0.561318 0.527078 3.58224 0 0 0 59 65 55 255
-0.244555 0.608013 3.55054 0 0 0 114 92 79 255
-0.0455001 0.595659 3.55948 0 0 0 164 179 144 255
-0.0565649 0.625428 3.55847 0 0 0 159 175 144 255
0.0605905 0.622273 3.55602 0 0 0 98 105 100 255
0.733165 0.656315 3.60365 0 0 0 50 56 57 255
0.520365 0.727485 3.5694 0 0 0 147 154 120 255
0.765092 0.729733 3.61119 0 0 0 159 173 123 255
0.922028 0.705503 3.62596 0 0 0 154 169 116 255
-0.959786 0.854221 3.71135 0 0 0 59 42 35 255
0.754456 0.761458 3.60756 0 0 0 56 62 52 255
0.0609948 0.791821 3.55094 0 0 0 106 110 114 255
0.190942 0.770938 3.55627 0 0 0 160 164 169 255
-0.80788 0.885853 3.81285 0 0 0 47 38 33 255
-0.232245 0.906776 3.55111 0 0 0 132 101 85 255
0.101521 0.888745 3.56556 0 0 0 146 152 154 255
0.542507 0.941902 3.58207 0 0 0 146 152 155 255
0.717923 0.913351 3.61166 0 0 0 194 203 207 255
-0.108925 0.985665 3.54704 0 0 0 65 74 74 255
0.180361 1.00961 3.55546 0 0 0 142 146 148 255
0.83396 0.988233 3.61717 0 0 0 121 129 131 255
-0.146093 1.05122 3.55365 0 0 0 154 169 152 255
0.959019 1.03349 3.64272 0 0 0 98 104 105 255
-0.0840723 1.08533 3.54343 0 0 0 84 96 92 255
0.703518 1.04986 3.60294 0 0 0 190 196 199 255
0.745184 1.02777 3.60948 0 0 0 196 202 203 255
0.875153 1.04775 3.62964 0 0 0 198 204 207 255
0.286433 1.10667 3.56778 0 0 0 198 207 207 255
1.1061 1.05502 3.67526 0 0 0 183 188 189 255
0.169206 1.12054 3.55763 0 0 0 197 206 206 255
0.977304 1.10289 3.653 0 0 0 165 171 172 255
1.04409 1.12528 3.67492 0 0 0 94 100 101 255
0.441551 1.1621 3.57804 0 0 0 109 118 120 255
0.97593 1.16741 3.65564 0 0 0 160 165 169 255
-0.538882 1.26371 3.62848 0 0 0 89 68 60 255
0.644565 1.20784 3.59831 0 0 0 197 205 207 255
-0.230838 0.0342154 3.75242 0 0 0 45 44 47 255
1.2109 0.0708396 3.76343 0 0 0 53 53 53 255
-0.752565 0.251982 3.89786 0 0 0 149 122 99 255
0.845323 0.211446 3.61055 0 0 0 165 185 125 255
0.433244 0.317319 3.57196 0 0 0 77 84 77 255
-0.0632975 0.353778 3.57639 0 0 0 168 185 145 255
0.401498 0.366177 3.57157 0 0 0 65 75 72 255
0.848182 0.310148 3.63313 0 0 0 167 183 125 255
0.642338 0.352379 3.6 0 0 0 98 106 81 255
0.757803 0.320902 3.60911 0 0 0 130 140 117 255
-0.0595106 0.419148 3.56708 0 0 0 160 176 138 255
0.0647171 0.406597 3.56 0 0 0 171 189 135 255
0.474853 0.417263 3.57441 0 0 0 70 77 75 255
0.794998 0.414895 3.6106 0 0 0 61 68 64 255
0.176444 0.482857 3.55685 0 0 0 65 77 73 255
0.433169 0.457 3.57363 0 0 0 48 55 53 255
-0.838736 0.5377 3.73223 0 0 0 41 36 38 255
0.857525 0.493642 3.62126 0 0 0 79 86 83 255
0.605163 0.552724 3.5827 0 0 0 82 89 84 255
0.0485301 0.645592 3.55659 0 0 0 50 56 56 255
0.490531 0.655081 3.57459 0 0 0 165 176 145 255
1.09589 0.804567 3.67052 0 0 0 63 64 67 255
-0.778026 1.02058 3.74466 0 0 0 144 120 93 255
-0.18081 0.990332 3.5556 0 0 0 60 64 63 255
0.717675 0.951795 3.60831 0 0 0 198 203 206 255
0.891119 0.946286 3.6338 0 0 0 195 204 205 255
0.0778629 1.11068 3.55662 0 0 0 122 128 129 255
1.0922 1.05013 3.6702 0 0 0 166 172 173 255
-0.213763 -0.147865 3.75785 0 0 0 73 73 76 255
-0.201265 -0.127492 3.75455 0 0 0 66 56 60 255
1.2344 0.0118134 3.7939 0 0 0 157 137 117 255
-0.206023 -0.00983512 3.69732 0 0 0 174 183 185 255
0.0783226 0.224997 3.57284 0 0 0 138 160 123 255
0.978786 0.300216 3.66009 0 0 0 121 134 121 255
0.450562 0.293453 3.58686 0 0 0 121 135 105 255
1.68592 0.317078 3.77832 0 0 0 203 190 184 255
0.770388 0.312827 3.63086 0 0 0 106 121 86 255
1.65021 0.342447 3.77088 0 0 0 188 157 138 255
0.490174 0.325653 3.59344 0 0 0 134 149 110 255
1.71879 0.345759 3.78412 0 0 0 197 180 175 255
1.75248 0.347571 3.79226 0 0 0 195 183 183 255
0.627687 0.340481 3.60622 0 0 0 100 118 73 255
0.476725 0.378177 3.5859 0 0 0 80 93 80 255
1.72801 0.399574 3.78109 0 0 0 207 193 197 255
0.652808 0.386581 3.60103 0 0 0 79 91 82 255
0.734353 0.403206 3.6107 0 0 0 127 141 122 255
0.281507 0.409567 3.57349 0 0 0 140 158 115 255
1.78703 0.443413 3.79301 0 0 0 159 134 125 255
1.7935 0.441351 3.79489 0 0 0 162 134 121 255
1.72807 0.446522 3.78033 0 0 0 204 191 194 255
1.81552 0.44867 3.80005 0 0 0 196 185 185 255
1.96269 0.451702 3.82031 0 0 0 168 129 106 255
1.71075 0.450866 3.77913 0 0 0 210 186 178 255
1.7124 0.461104 3.77795 0 0 0 163 131 110 255
0.666728 0.451928 3.60453 0 0 0 117 131 112 255
1.779 0.471538 3.78936 0 0 0 160 130 115 255
0.597119 0.454155 3.5933 0 0 0 115 130 102 255
1.70986 0.480341 3.77604 0 0 0 184 126 89 255
0.589838 0.466422 3.5937 0 0 0 87 104 76 255
1.87054 0.489553 3.80798 0 0 0 181 123 88 255
0.993333 0.480971 3.65222 0 0 0 72 82 76 255
1.7275 0.493713 3.77546 0 0 0 204 195 199 255
1.80912 0.498113 3.79338 0 0 0 209 177 163 255
0.663715 0.47656 3.59416 0 0 0 101 112 101 255
1.93752 0.501867 3.81414 0 0 0 196 182 184 255
1.98638 0.502974 3.82374 0 0 0 196 187 182 255
2.03468 0.505371 3.82973 0 0 0 198 182 172 255
0.717668 0.487966 3.61118 0 0 0 83 93 87 255
0.684036 0.493119 3.59827 0 0 0 63 75 71 255
0.786482 0.510794 3.61271 0 0 0 66 78 82 255
0.612906 0.524749 3.59514 0 0 0 80 92 88 255
0.681961 0.533743 3.60109 0 0 0 80 93 92 255
0.381495 0.535995 3.57073 0 0 0 68 86 85 255
0.85729 0.544323 3.62871 0 0 0 95 109 90 255
0.869243 0.550925 3.62481 0 0 0 125 138 124 255
0.207748 0.549021 3.56418 0 0 0 115 129 112 255
0.864667 0.563883 3.61873 0 0 0 42 53 52 255
0.875186 0.562242 3.62406 0 0 0 78 89 76 255
0.888353 0.569611 3.62993 0 0 0 131 143 123 255
0.88932 0.586464 3.62886 0 0 0 71 77 78 255
0.766588 0.595838 3.62 0 0 0 58 69 70 255
2.12592 0.623667 3.83028 0 0 0 200 159 125 255
0.606622 0.615356 3.59312 0 0 0 58 72 65 255
0.693311 0.629433 3.60021 0 0 0 86 100 93 255
0.161306 0.628156 3.56387 0 0 0 97 118 86 255
0.68094 0.648585 3.59498 0 0 0 138 153 119 255
0.940295 0.669393 3.64323 0 0 0 107 119 100 255
0.949601 0.679536 3.6453 0 0 0 54 64 56 255
0.958288 0.692131 3.64964 0 0 0 115 126 111 255
0.659781 0.685919 3.59603 0 0 0 69 76 73 255
0.0197596 0.683986 3.55799 0 0 0 109 125 110 255
0.732454 0.70548 3.60995 0 0 0 59 73 52 255
0.169641 0.705624 3.56009 0 0 0 116 133 114 255
0.623416 0.715123 3.58622 0 0 0 82 96 74 255
0.723343 0.719896 3.60794 0 0 0 106 119 103 255
0.937335 0.729236 3.63916 0 0 0 154 170 128 255
0.499697 0.731986 3.58394 0 0 0 100 110 83 255
-0.0312618 0.726703 3.54905 0 0 0 119 131 123 255
0.676151 0.742813 3.59607 0 0 0 92 104 100 255
0.797512 0.747524 3.6192 0 0 0 150 166 124 255
0.830752 0.744618 3.62777 0 0 0 118 131 114 255
0.143628 0.767785 3.55205 0 0 0 65 77 83 255
0.642651 0.776952 3.59771 0 0 0 45 53 60 255
0.823906 0.782925 3.62271 0 0 0 103 110 107 255
0.0672815 0.772447 3.55972 0 0 0 82 93 99 255
0.913278 0.790651 3.63516 0 0 0 125 133 138 255
-0.0125302 0.776394 3.55073 0 0 0 51 58 56 255
0.808781 0.797303 3.61855 0 0 0 40 48 53 255
1.08212 0.806127 3.68588 0 0 0 89 105 107 255
0.121318 0.795416 3.5565 0 0 0 90 98 103 255
0.441114 0.797046 3.59104 0 0 0 122 132 138 255
0.912313 0.805256 3.63447 0 0 0 131 136 142 255
0.247367 0.796659 3.55811 0 0 0 113 113 121 255
0.749455 0.80818 3.60763 0 0 0 122 126 128 255
0.817841 0.80748 3.61767 0 0 0 67 72 78 255
1.10979 0.817943 3.66488 0 0 0 77 82 88 255
1.13128 0.821926 3.64277 0 0 0 93 98 104 255
0.899344 0.847448 3.63115 0 0 0 65 75 83 255
1.06137 0.863811 3.66408 0 0 0 83 92 102 255
0.805097 0.861768 3.62138 0 0 0 86 95 108 255
0.831947 0.866147 3.62759 0 0 0 101 112 125 255
0.921003 0.861928 3.63723 0 0 0 92 107 115 255
1.08473 0.866139 3.67103 0 0 0 64 71 83 255
0.498106 0.854378 3.57251 0 0 0 78 86 95 255
1.25486 0.878147 3.68309 0 0 0 133 157 167 255
2.05759 0.92347 3.81202 0 0 0 159 156 154 255
-0.0470252 0.893506 3.55068 0 0 0 120 130 138 255
0.652008 0.904599 3.59053 0 0 0 127 142 147 255
1.88955 0.95553 3.7882 0 0 0 158 159 140 255
2.03954 0.95879 3.81077 0 0 0 170 172 168 255
0.0906552 0.949988 3.55536 0 0 0 187 197 203 255
2.00085 0.988991 3.8022 0 0 0 165 170 170 255
1.86992 1.01994 3.78586 0 0 0 158 169 176 255
0.703133 1.01956 3.60173 0 0 0 144 152 157 255
0.16336 1.0563 3.55873 0 0 0 180 188 195 255
0.179442 1.06844 3.55724 0 0 0 156 168 172 255
0.185566 1.10066 3.55569 0 0 0 148 159 166 255
0.233058 1.1144 3.56073 0 0 0 159 169 176 255
0.217763 1.155 3.55847 0 0 0 103 118 125 255
0.409062 1.16159 3.57318 0 0 0 118 129 140 255
1.38991 1.38709 3.71272 0 0 0 193 156 155 255
1.46215 1.38364 3.71982 0 0 0 186 136 121 255
1.55552 1.3932 3.73536 0 0 0 194 167 162 255
1.84159 1.40022 3.76049 0 0 0 185 138 131 255
1.94806 1.39326 3.75781 0 0 0 197 156 144 255
1.5866 1.40005 3.73926 0 0 0 192 188 195 255
1.61013 1.39294 3.73774 0 0 0 199 173 164 255
1.77848 1.40495 3.76208 0 0 0 194 147 136 255
1.87959 1.40299 3.76698 0 0 0 203 156 147 255
2.06313 1.38916 3.73842 0 0 0 197 163 161 255
1.74267 1.40972 3.7569 0 0 0 182 156 152 255
1.38765 1.40892 3.70953 0 0 0 206 185 181 255
1.58571 1.41272 3.73673 0 0 0 192 188 193 255
1.55477 1.41804 3.7317 0 0 0 187 176 174 255
1.77103 1.42276 3.75713 0 0 0 193 159 158 255
1.98495 1.42128 3.75109 0 0 0 187 179 178 255
2.05862 1.41668 3.73572 0 0 0 206 171 171 255
1.7311 1.43034 3.74965 0 0 0 175 146 143 255
0.722765 1.53831 3.62313 0 0 0 134 145 147 255
0.741597 1.53752 3.62863 0 0 0 95 105 112 255
0.584949 1.54111 3.60246 0 0 0 114 127 135 255
0.538651 1.54131 3.59814 0 0 0 115 127 135 255
0.569246 1.54169 3.6012 0 0 0 114 128 138 255
0.681271 1.54755 3.61075 0 0 0 124 133 139 255
0.789772 1.55127 3.63329 0 0 0 122 133 142 255
0.864871 1.55518 3.64707 0 0 0 119 130 137 255
0.498821 1.55013 3.59246 0 0 0 65 70 78 255
0.508836 1.54581 3.59568 0 0 0 68 75 82 255
0.51702 1.55128 3.59679 0 0 0 128 136 141 255
0.63945 1.55124 3.60878 0 0 0 139 146 151 255
0.900055 1.56187 3.65021 0 0 0 142 152 159 255
0.903706 1.55679 3.65367 0 0 0 125 135 144 255
0.538239 1.55484 3.59528 0 0 0 146 152 162 255
0.765432 1.55849 3.63191 0 0 0 126 136 143 255
0.822316 1.55948 3.64231 0 0 0 116 127 138 255
0.838317 1.55788 3.6378 0 0 0 84 97 105 255
0.864818 1.56076 3.64623 0 0 0 127 137 143 255
0.936974 1.56286 3.65658 0 0 0 130 142 148 255
0.579542 1.55984 3.60157 0 0 0 76 79 88 255
0.593792 1.55747 3.60299 0 0 0 144 151 158 255
0.622076 1.56072 3.59939 0 0 0 113 120 124 255
0.687878 1.56394 3.61043 0 0 0 147 155 160 255
0.72247 1.5647 3.62054 0 0 0 148 157 159 255
0.797144 1.57381 3.63228 0 0 0 128 136 143 255
-0.211811 -0.125424 3.67004 0 0 0 65 63 65 255
-0.218733 -0.104728 3.7203 0 0 0 220 211 213 255
-0.178078 -0.0115964 3.74207 0 0 0 148 152 154 255
-0.180292 0.0263105 3.58151 0 0 0 85 87 86 255
1.65067 0.346544 3.77187 0 0 0 209 171 153 255
0.712921 0.349448 3.61452 0 0 0 137 146 123 255
0.294647 0.365791 3.57333 0 0 0 160 177 128 255
0.841511 0.366762 3.63227 0 0 0 66 76 73 255
1.72131 0.39771 3.77915 0 0 0 194 194 206 255
0.856908 0.416042 3.63005 0 0 0 54 68 64 255
1.00186 0.417982 3.65704 0 0 0 114 128 110 255
1.93775 0.438069 3.82079 0 0 0 197 165 149 255
1.71195 0.447557 3.77804 0 0 0 207 183 177 255
1.8727 0.441904 3.80587 0 0 0 171 148 138 255
1.80505 0.453557 3.79696 0 0 0 198 172 158 255
1.96112 0.459914 3.81872 0 0 0 172 132 98 255
1.69487 0.471019 3.77436 0 0 0 181 124 83 255
1.86668 0.480158 3.80744 0 0 0 173 125 97 255
-0.0323385 0.459233 3.56132 0 0 0 160 174 154 255
1.71835 0.496127 3.77408 0 0 0 209 191 188 255
1.93392 0.498667 3.81525 0 0 0 196 182 184 255
1.98328 0.499845 3.82709 0 0 0 185 154 135 255
2.03028 0.501728 3.82995 0 0 0 174 155 141 255
0.0401469 0.462005 3.56418 0 0 0 168 185 146 255
1.8629 0.50099 3.80534 0 0 0 201 183 181 255
0.886134 0.567909 3.62904 0 0 0 131 143 123 255
-0.0624558 0.575956 3.55333 0 0 0 131 145 127 255
0.89606 0.653764 3.63607 0 0 0 94 108 104 255
0.840375 0.671312 3.62018 0 0 0 98 110 92 255
1.25489 0.682622 3.68922 0 0 0 110 86 77 255
0.0979207 0.693259 3.55615 0 0 0 53 62 64 255
0.530289 0.694473 3.57663 0 0 0 109 120 102 255
1.48842 0.733539 3.72313 0 0 0 141 152 153 255
-0.0309212 0.723467 3.54798 0 0 0 108 120 113 255
-0.0289115 0.756935 3.54742 0 0 0 126 131 134 255
0.913297 0.795628 3.63405 0 0 0 130 135 141 255
0.286131 0.788032 3.54506 0 0 0 114 120 124 255
0.727581 0.798756 3.60062 0 0 0 133 139 140 255
1.08583 0.803109 3.65524 0 0 0 136 151 154 255
1.57016 0.817565 3.73663 0 0 0 151 117 95 255
0.908068 0.812956 3.63322 0 0 0 111 116 122 255
1.11144 0.813643 3.66785 0 0 0 103 108 113 255
1.87474 0.882693 3.79047 0 0 0 122 142 155 255
1.06254 0.875126 3.66633 0 0 0 82 91 100 255
1.86926 0.931858 3.78708 0 0 0 120 135 140 255
1.03477 0.917987 3.66234 0 0 0 158 170 176 255
2.03546 0.959168 3.81044 0 0 0 151 156 155 255
1.99281 0.991002 3.79993 0 0 0 154 159 156 255
2.10575 0.992384 3.80552 0 0 0 131 166 177 255
2.05881 1.02617 3.79605 0 0 0 119 133 129 255
0.35615 1.05537 3.56604 0 0 0 112 122 130 255
0.0222258 1.0931 3.55275 0 0 0 117 131 137 255
0.194595 1.10209 3.55505 0 0 0 143 154 162 255
1.93455 1.14741 3.78831 0 0 0 179 166 120 255
1.40387 1.17905 3.7079 0 0 0 168 181 187 255
0.0659961 1.16195 3.55018 0 0 0 170 182 190 255
0.692481 1.19222 3.60006 0 0 0 133 143 147 255
1.28345 1.33296 3.69769 0 0 0 174 196 203 255
1.88227 1.35144 3.77743 0 0 0 181 194 196 255
1.54559 1.3971 3.73281 0 0 0 184 135 129 255
1.38917 1.39902 3.71123 0 0 0 207 183 183 255
1.58739 1.40216 3.73937 0 0 0 192 188 195 255
1.73155 1.41135 3.7521 0 0 0 194 167 165 255
1.77065 1.42304 3.75619 0 0 0 193 159 158 255
1.87466 1.41442 3.76297 0 0 0 202 178 184 255
2.01583 1.40911 3.74062 0 0 0 192 180 180 255
1.54463 1.41787 3.7293 0 0 0 198 176 176 255
0.485296 1.53595 3.58836 0 0 0 107 116 127 255
0.721085 1.54333 3.62405 0 0 0 142 152 153 255
0.590754 1.55699 3.61215 0 0 0 144 151 158 255
0.724687 1.56118 3.62362 0 0 0 144 152 154 255
0.867285 1.55698 3.64616 0 0 0 121 132 138 255
0.899798 1.56529 3.64989 0 0 0 149 159 164 255
-0.208458 -0.125983 3.67613 0 0 0 69 61 67 255
-0.215216 -0.135334 3.74741 0 0 0 70 65 67 255
1.24517 0.0421618 3.74224 0 0 0 61 57 63 255
-0.166528 0.0510991 3.53444 0 0 0 102 103 103 255
1.65046 0.337724 3.77025 0 0 0 190 159 140 255
0.480276 0.327271 3.58941 0 0 0 125 139 108 255
1.67639 0.390869 3.76989 0 0 0 193 180 167 255
1.70799 0.396742 3.77802 0 0 0 182 181 194 255
0.864056 0.403979 3.62997 0 0 0 70 86 66 255
1.64304 0.425784 3.76189 0 0 0 183 130 97 255
1.79766 0.423623 3.79799 0 0 0 204 157 137 255
1.88429 0.425435 3.81066 0 0 0 189 149 126 255
1.71867 0.450653 3.77843 0 0 0 201 189 193 255
1.00335 0.446888 3.65874 0 0 0 115 127 109 255
1.64832 0.465874 3.76386 0 0 0 209 186 185 255
1.87454 0.464635 3.80819 0 0 0 178 124 85 255
1.96227 0.466799 3.81867 0 0 0 181 126 88 255
0.663304 0.455282 3.60077 0 0 0 118 131 108 255
1.98754 0.496936 3.82468 0 0 0 194 185 179 255
0.0378944 0.462103 3.56622 0 0 0 168 185 146 255
0.28514 0.459891 3.5727 0 0 0 90 104 97 255
1.7138 0.499823 3.77416 0 0 0 195 192 195 255
1.79228 0.49999 3.79066 0 0 0 215 185 177 255
1.86576 0.501502 3.80589 0 0 0 194 194 188 255
1.87215 0.503063 3.80756 0 0 0 195 190 184 255
0.0516761 0.56954 3.56028 0 0 0 161 179 137 255
-0.0371685 0.580879 3.55703 0 0 0 147 163 143 255
0.622918 0.612755 3.59445 0 0 0 51 64 63 255
1.25819 0.677537 3.69046 0 0 0 146 108 86 255
1.46806 0.716 3.72056 0 0 0 87 105 105 255
0.260455 0.691768 3.56371 0 0 0 158 173 133 255
0.830425 0.723297 3.6248 0 0 0 118 134 92 255
1.49529 0.732871 3.72464 0 0 0 149 158 158 255
-0.0305341 0.725649 3.54912 0 0 0 119 131 123 255
0.743748 0.731359 3.61465 0 0 0 153 171 128 255
1.25806 0.744985 3.69262 0 0 0 49 101 125 255
-0.157612 0.776276 3.56888 0 0 0 83 89 93 255
0.200311 0.792805 3.55282 0 0 0 112 119 122 255
0.736886 0.800039 3.59247 0 0 0 136 140 144 255
0.792843 0.802325 3.6153 0 0 0 47 55 60 255
0.911627 0.800134 3.63449 0 0 0 105 110 116 255
0.432203 0.791445 3.5716 0 0 0 71 83 89 255
1.08242 0.800386 3.63703 0 0 0 89 105 107 255
1.10938 0.815033 3.60933 0 0 0 102 108 112 255
1.45112 0.845138 3.71745 0 0 0 197 142 93 255
0.826811 0.86314 3.62559 0 0 0 81 92 105 255
1.06257 0.870472 3.66588 0 0 0 84 93 104 255
1.25442 0.884075 3.68219 0 0 0 143 166 175 255
2.00579 0.900828 3.80044 0 0 0 70 70 75 255
2.00676 0.914621 3.80229 0 0 0 65 65 72 255
2.05068 0.916196 3.81001 0 0 0 166 153 144 255
1.89354 0.949945 3.78856 0 0 0 182 167 141 255
1.99739 0.937555 3.80409 0 0 0 64 68 72 255
2.04004 0.950456 3.80981 0 0 0 168 169 165 255
1.97738 0.946881 3.80138 0 0 0 70 68 76 255
1.93084 0.983154 3.79267 0 0 0 158 138 120 255
1.99853 0.985817 3.8017 0 0 0 150 155 154 255
0.919968 0.959854 3.636 0 0 0 154 169 175 255
1.25266 0.991408 3.6873 0 0 0 156 171 178 255
0.369024 0.990492 3.57143 0 0 0 143 154 160 255
1.85509 1.01944 3.78257 0 0 0 185 201 208 255
2.06014 1.02887 3.79552 0 0 0 128 143 138 255
0.76079 1.01626 3.61115 0 0 0 151 162 168 255
2.11265 1.09612 3.79635 0 0 0 146 163 136 255
1.98796 1.12454 3.79793 0 0 0 129 117 89 255
0.119969 1.08804 3.54989 0 0 0 130 141 146 255
1.93744 1.14809 3.78891 0 0 0 188 171 124 255
0.257518 1.11453 3.56154 0 0 0 185 195 202 255
0.36296 1.12673 3.56758 0 0 0 189 204 211 255
0.155728 1.13031 3.56051 0 0 0 191 206 211 255
0.822516 1.15149 3.62157 0 0 0 136 147 158 255
1.40365 1.18398 3.70705 0 0 0 172 191 199 255
0.416643 1.16791 3.5743 0 0 0 112 124 133 255
0.113258 1.17332 3.55293 0 0 0 116 126 134 255
1.88127 1.24957 3.77129 0 0 0 150 164 152 255
-0.0505769 1.21166 3.51608 0 0 0 135 140 145 255
0.392377 1.273 3.56576 0 0 0 173 187 190 255
1.287 1.32757 3.69901 0 0 0 163 185 192 255
0.484648 1.31545 3.58569 0 0 0 64 75 81 255
1.88021 1.35026 3.7788 0 0 0 181 194 196 255
1.39449 1.39632 3.71125 0 0 0 198 175 177 255
1.60916 1.40388 3.73977 0 0 0 203 187 183 255
2.07161 1.39023 3.73915 0 0 0 197 172 171 255
1.53728 1.41336 3.73084 0 0 0 190 169 167 255
0.177201 1.39461 3.54565 0 0 0 81 96 101 255
0.522671 1.54376 3.59632 0 0 0 165 173 179 255
0.487616 1.54275 3.58754 0 0 0 165 171 181 255
0.538624 1.54579 3.59723 0 0 0 141 151 159 255
0.724038 1.54573 3.62409 0 0 0 142 152 153 255
0.518532 1.55572 3.59789 0 0 0 140 143 151 255
0.58792 1.55012 3.6019 0 0 0 129 138 145 255
0.677863 1.55766 3.61322 0 0 0 154 162 167 255
0.964562 1.56922 3.66643 0 0 0 149 158 163 255
1.20639 1.6361 3.68811 0 0 0 75 84 89 255
-0.199332 -0.132636 3.53207 0 0 0 195 191 193 255
-0.0521404 0.190798 3.55126 0 0 0 163 186 158 255
0.871605 0.211034 3.63529 0 0 0 165 186 135 255
0.148442 0.342672 3.57275 0 0 0 91 106 94 255
0.29149 0.369241 3.57247 0 0 0 160 178 127 255
0.2967 0.402459 3.57612 0 0 0 76 91 81 255
1.65214 0.475541 3.76361 0 0 0 197 160 154 255
0.166019 0.560804 3.56111 0 0 0 167 185 137 255
0.527165 0.572659 3.57562 0 0 0 154 173 125 255
-0.0589633 0.575492 3.55272 0 0 0 130 145 126 255
0.0999449 0.619903 3.55413 0 0 0 51 62 64 255
0.135932 0.636323 3.55836 0 0 0 139 157 114 255
1.25784 0.666094 3.69239 0 0 0 148 107 80 255
1.30583 0.705512 3.70047 0 0 0 74 55 58 255
1.45805 0.716697 3.71729 0 0 0 79 109 120 255
2.01196 0.734366 3.81368 0 0 0 176 190 197 255
0.744453 0.727784 3.61567 0 0 0 153 171 128 255
1.53653 0.808651 3.72946 0 0 0 181 135 105 255
1.44795 0.837081 3.71759 0 0 0 183 141 101 255
1.98053 0.90845 3.79455 0 0 0 67 66 70 255
1.26014 0.895091 3.68214 0 0 0 157 174 180 255
1.82536 0.914803 3.78245 0 0 0 116 126 134 255
2.03748 0.925507 3.80736 0 0 0 168 151 131 255
1.11659 0.920909 3.63786 0 0 0 178 188 194 255
1.88725 0.949308 3.78742 0 0 0 154 155 136 255
0.420469 0.992652 3.56574 0 0 0 190 205 210 255
1.85331 1.02256 3.78129 0 0 0 181 208 211 255
-0.20973 0.998322 3.48941 0 0 0 136 114 108 255
-0.161138 1.0124 3.50275 0 0 0 57 61 65 255
0.220789 1.07347 3.55691 0 0 0 112 127 130 255
0.418806 1.07324 3.57068 0 0 0 191 206 213 255
0.992356 1.0854 3.64736 0 0 0 178 190 197 255
-0.00477263 1.08556 3.54728 0 0 0 135 143 148 255
0.157672 1.08867 3.55803 0 0 0 192 204 211 255
1.04274 1.10081 3.66442 0 0 0 117 128 134 255
1.30347 1.11331 3.69689 0 0 0 82 123 147 255
1.99494 1.13067 3.79883 0 0 0 108 96 74 255
0.108184 1.10925 3.55063 0 0 0 112 124 132 255
-0.132102 1.14281 3.49444 0 0 0 162 190 172 255
0.428611 1.16326 3.5755 0 0 0 125 135 146 255
1.40104 1.23002 3.71529 0 0 0 183 200 206 255
-0.0483304 1.20789 3.51612 0 0 0 133 139 142 255
0.878221 1.29181 3.63482 0 0 0 138 153 158 255
1.87655 1.34234 3.77666 0 0 0 173 190 195 255
1.70013 1.41077 3.75078 0 0 0 188 167 169 255
0.945162 1.56865 3.65886 0 0 0 117 127 131 255
-0.201248 -0.129067 3.51821 0 0 0 195 191 191 255
-0.208418 -0.124751 3.75107 0 0 0 69 53 59 255
-0.159884 0.0474314 3.61116 0 0 0 45 53 58 255
-0.0439949 0.198507 3.5524 0 0 0 163 189 156 255
0.853598 0.193931 3.62258 0 0 0 162 184 139 255
0.733716 0.319731 3.61653 0 0 0 80 90 82 255
0.225663 0.357513 3.57259 0 0 0 160 178 129 255
0.884042 0.439617 3.63784 0 0 0 138 153 114 255
1.66583 0.474329 3.76612 0 0 0 192 174 167 255
0.498509 0.45187 3.59233 0 0 0 165 185 131 255
0.610782 0.49091 3.59773 0 0 0 51 65 61 255
-0.0547993 0.494183 3.55717 0 0 0 153 169 142 255
0.164438 0.507454 3.56625 0 0 0 72 85 83 255
0.528632 0.595873 3.57736 0 0 0 149 169 124 255
1.29636 0.718422 3.69804 0 0 0 56 56 63 255
2.0204 0.754037 3.81738 0 0 0 174 190 202 255
1.25973 0.780667 3.68923 0 0 0 49 129 162 255
1.92711 0.801728 3.79874 0 0 0 98 117 132 255
1.46139 0.834378 3.71871 0 0 0 199 145 89 255
1.55759 0.830528 3.73339 0 0 0 200 154 115 255
1.83946 0.878192 3.7844 0 0 0 100 117 126 255
1.25944 0.899086 3.68144 0 0 0 156 175 180 255
1.98197 0.910811 3.7962 0 0 0 66 65 69 255
0.537737 0.929668 3.58316 0 0 0 145 153 160 255
1.46375 0.974288 3.72487 0 0 0 61 64 68 255
1.83803 1.02492 3.77703 0 0 0 190 205 212 255
0.969802 1.02143 3.64321 0 0 0 103 113 119 255
0.748853 1.04199 3.60862 0 0 0 179 187 194 255
-0.00139037 1.04786 3.55118 0 0 0 93 106 112 255
0.963932 1.10051 3.64698 0 0 0 184 199 206 255
1.81148 1.12952 3.77789 0 0 0 115 127 131 255
-0.120662 1.11726 3.49897 0 0 0 157 189 167 255
0.0949261 1.11166 3.55086 0 0 0 106 118 126 255
1.41401 1.19727 3.70783 0 0 0 183 200 206 255
-0.147479 1.17842 3.46904 0 0 0 51 58 59 255
0.63629 1.19551 3.59551 0 0 0 169 181 191 255
1.78756 1.28833 3.76491 0 0 0 195 209 219 255
1.83814 1.32803 3.77216 0 0 0 169 184 193 255
1.28863 1.32719 3.69916 0 0 0 168 189 196 255
-0.180647 1.32453 3.42041 0 0 0 138 111 103 255
1.39852 1.40931 3.71061 0 0 0 191 181 180 255
1.6384 1.41223 3.74045 0 0 0 190 183 186 255
-0.136092 0.0676769 3.53288 0 0 0 43 49 52 255
0.418048 0.30271 3.57822 0 0 0 69 84 81 255
0.767144 0.332049 3.62353 0 0 0 54 65 55 255
0.821633 0.298706 3.64274 0 0 0 167 183 130 255
0.252081 0.360379 3.57204 0 0 0 148 166 127 255
0.38969 0.335771 3.57665 0 0 0 50 64 60 255
-0.0485948 0.407676 3.56403 0 0 0 165 189 147 255
0.508327 0.416818 3.59493 0 0 0 158 179 131 255
0.157717 0.697513 3.5575 0 0 0 86 101 88 255
0.889994 0.69857 3.63728 0 0 0 165 182 131 255
1.54491 0.852292 3.7318 0 0 0 202 157 106 255
-0.218215 0.851807 3.5011 0 0 0 120 97 84 255
1.47529 0.942738 3.72062 0 0 0 71 60 67 255
0.375848 0.93116 3.54649 0 0 0 190 206 214 255
0.713977 0.938593 3.6103 0 0 0 189 204 211 255
0.907133 0.935836 3.63029 0 0 0 189 206 212 255
0.960969 0.936453 3.64812 0 0 0 192 204 208 255
1.09352 0.94324 3.63041 0 0 0 158 168 176 255
1.47046 0.972518 3.72595 0 0 0 61 60 63 255
-0.170554 0.962071 3.54957 0 0 0 64 73 75 255
1.09272 0.970012 3.63543 0 0 0 154 166 170 255
1.72857 1.01924 3.75777 0 0 0 88 76 78 255
0.845996 1.1224 3.61729 0 0 0 94 104 112 255
0.935024 1.09356 3.63839 0 0 0 156 166 170 255
1.6977 1.18433 3.75609 0 0 0 191 206 215 255
1.78536 1.22896 3.76663 0 0 0 196 209 216 255
-0.0161694 1.20621 3.54005 0 0 0 188 200 203 255
-0.138964 1.22403 3.46293 0 0 0 48 54 55 255
1.76648 1.28902 3.76718 0 0 0 191 211 219 255
1.08175 1.28204 3.67889 0 0 0 139 153 161 255
2.29566 -0.770789 5.51439 0 0 0 132 142 145 255
2.29709 -0.683861 5.53927 0 0 0 81 81 89 255
1.25214 -0.0616908 3.77747 0 0 0 88 93 97 255
1.81902 0.274205 3.78618 0 0 0 183 157 148 255
1.89478 0.275861 3.80989 0 0 0 187 160 142 255
1.993 0.280174 3.84025 0 0 0 195 152 137 255
1.65283 0.278784 3.76197 0 0 0 200 174 162 255
2.18126 0.286404 3.85439 0 0 0 188 159 149 255
1.7181 0.281969 3.77867 0 0 0 192 161 142 255
2.10495 0.293005 3.84987 0 0 0 196 161 148 255
1.85406 0.295363 3.77628 0 0 0 207 177 160 255
1.68698 0.292633 3.77083 0 0 0 173 128 100 255
1.86536 0.307136 3.77367 0 0 0 195 183 176 255
1.95211 0.307645 3.80356 0 0 0 208 184 173 255
1.75024 0.305447 3.76553 0 0 0 195 157 136 255
1.78618 0.304378 3.77734 0 0 0 201 165 153 255
1.89872 0.315378 3.79349 0 0 0 219 182 162 255
1.92203 0.309153 3.78718 0 0 0 194 168 156 255
2.17868 0.323181 3.83351 0 0 0 203 175 165 255
1.66643 0.318228 3.75462 0 0 0 163 139 128 255
1.94069 0.322558 3.80239 0 0 0 151 134 129 255
2.03782 0.321965 3.80782 0 0 0 170 139 126 255
2.2973 0.32528 3.88824 0 0 0 205 169 149 255
2.3285 0.327551 3.88447 0 0 0 199 165 139 255
2.05341 0.327058 3.81645 0 0 0 191 167 161 255
1.93821 0.344072 3.78757 0 0 0 159 132 112 255
2.03082 0.345166 3.79885 0 0 0 156 148 137 255
2.22065 0.353795 3.84558 0 0 0 164 136 127 255
1.78545 0.349328 3.77745 0 0 0 203 182 176 255
1.81584 0.350925 3.75849 0 0 0 195 177 167 255
1.89469 0.352282 3.81808 0 0 0 192 169 153 255
1.98759 0.357875 3.79455 0 0 0 191 162 153 255
1.85919 0.35573 3.78827 0 0 0 203 193 185 255
2.04534 0.364709 3.80249 0 0 0 191 181 185 255
2.12793 0.360765 3.84167 0 0 0 201 192 188 255
2.17396 0.36428 3.82008 0 0 0 189 152 137 255
2.27456 0.368931 3.86376 0 0 0 196 175 168 255
2.23466 0.371441 3.84899 0 0 0 191 174 167 255
2.30718 0.369867 3.8699 0 0 0 193 182 185 255
1.91984 0.379953 3.80277 0 0 0 187 144 117 255
2.16186 0.423752 3.85268 0 0 0 209 168 146 255
2.11682 0.44175 3.84791 0 0 0 201 184 187 255
2.14825 0.442068 3.84644 0 0 0 201 172 152 255
2.17872 0.443574 3.83363 0 0 0 189 185 179 255
2.21136 0.448581 3.8446 0 0 0 210 177 165 255
2.23844 0.445867 3.83718 0 0 0 199 181 182 255
2.27225 0.449562 3.86589 0 0 0 205 187 166 255
2.32433 0.45057 3.88713 0 0 0 201 162 148 255
0.153861 0.408286 3.5626 0 0 0 53 67 58 255
2.00814 0.453184 3.80067 0 0 0 168 128 108 255
2.09358 0.453697 3.82512 0 0 0 157 140 132 255
2.09736 0.453924 3.82533 0 0 0 165 129 114 255
2.16952 0.457736 3.82751 0 0 0 156 151 144 255
2.12125 0.46643 3.8386 0 0 0 194 196 185 255
2.2961 0.482847 3.86916 0 0 0 173 133 108 255
2.08472 0.484415 3.82261 0 0 0 154 133 109 255
2.11241 0.508578 3.82412 0 0 0 188 155 146 255
2.21224 0.512296 3.86053 0 0 0 201 188 180 255
2.17673 0.515862 3.8518 0 0 0 199 189 193 255
0.469494 0.483097 3.57959 0 0 0 131 142 121 255
2.27896 0.530304 3.87201 0 0 0 177 126 89 255
2.26525 0.552784 3.86054 0 0 0 205 187 190 255
-0.049904 0.531394 3.55705 0 0 0 114 124 113 255
0.112727 0.534375 3.56194 0 0 0 107 122 109 255
1.33587 0.703209 3.70485 0 0 0 90 58 44 255
-0.0678688 0.677655 3.54982 0 0 0 128 136 125 255
2.41206 0.736473 3.84565 0 0 0 95 91 89 255
-0.0260777 0.690941 3.55066 0 0 0 50 57 54 255
0.276852 0.696626 3.56187 0 0 0 135 152 112 255
0.149956 0.708173 3.55789 0 0 0 163 175 149 255
0.288119 0.769195 3.55942 0 0 0 38 50 54 255
2.40603 0.824209 3.83235 0 0 0 73 80 84 255
0.586252 0.790906 3.58103 0 0 0 54 62 68 255
0.684794 0.792608 3.59813 0 0 0 39 49 53 255
0.763083 0.797663 3.62408 0 0 0 98 99 104 255
0.0924434 0.783513 3.54848 0 0 0 76 80 84 255
1.49485 0.817305 3.70936 0 0 0 133 91 68 255
1.93818 0.828225 3.76466 0 0 0 103 134 143 255
0.0221211 0.798488 3.54874 0 0 0 43 50 52 255
0.491373 0.804264 3.57452 0 0 0 101 106 108 255
0.683574 0.809621 3.59557 0 0 0 94 99 105 255
1.59057 0.859547 3.71178 0 0 0 161 110 87 255
0.574199 0.83617 3.5807 0 0 0 59 68 73 255
1.27787 0.858311 3.66426 0 0 0 37 93 118 255
2.03997 0.898184 3.78365 0 0 0 154 142 135 255
2.68129 1.24184 4.84627 0 0 0 61 67 70 255
2.71977 1.26314 4.91358 0 0 0 131 148 158 255
0.718932 1.07152 3.59898 0 0 0 172 181 187 255
0.240996 1.07777 3.55937 0 0 0 139 147 154 255
0.229495 1.20371 3.55732 0 0 0 189 197 200 255
1.98036 1.24514 3.75013 0 0 0 150 147 121 255
0.364568 1.2259 3.56952 0 0 0 175 181 184 255
0.0383849 1.30259 3.5438 0 0 0 108 122 118 255
2.02748 1.40072 3.72624 0 0 0 195 170 169 255
2.25522 1.37089 3.63608 0 0 0 198 170 161 255
1.84007 1.41281 3.71285 0 0 0 176 160 155 255
0.932765 1.5416 3.59912 0 0 0 74 89 95 255
0.563909 1.56057 3.6045 0 0 0 118 127 134 255
0.623041 1.5443 3.55525 0 0 0 66 71 79 255
0.529637 1.55301 3.55456 0 0 0 120 132 137 255
0.771212 1.54952 3.56256 0 0 0 114 126 131 255
2.29429 -0.755057 5.50567 0 0 0 82 90 94 255
2.29603 -0.678034 5.53514 0 0 0 90 90 98 255
1.81901 0.281468 3.77663 0 0 0 192 168 160 255
1.6556 0.284484 3.76494 0 0 0 204 191 186 255
1.68489 0.282187 3.77347 0 0 0 184 124 83 255
2.10347 0.295495 3.84522 0 0 0 196 161 148 255
0.204778 0.262159 3.61427 0 0 0 145 162 122 255
1.85144 0.302075 3.77252 0 0 0 210 186 174 255
1.93655 0.339069 3.79386 0 0 0 160 133 114 255
1.81374 0.347616 3.7645 0 0 0 195 177 167 255
1.78193 0.351774 3.78014 0 0 0 198 183 174 255
1.85429 0.35321 3.78307 0 0 0 201 177 171 255
2.12534 0.356754 3.84648 0 0 0 192 181 174 255
2.1746 0.360845 3.82879 0 0 0 189 152 137 255
2.03412 0.364535 3.80106 0 0 0 196 187 188 255
2.16325 0.436923 3.84294 0 0 0 188 192 205 255
2.22596 0.445078 3.841 0 0 0 175 143 125 255
2.26999 0.456519 3.85834 0 0 0 205 184 175 255
2.0046 0.459559 3.79588 0 0 0 172 127 104 255
2.11773 0.472299 3.83403 0 0 0 192 181 179 255
2.09814 0.511554 3.80323 0 0 0 199 187 169 255
0.869737 0.481415 3.63089 0 0 0 101 114 96 255
2.27095 0.522495 3.87714 0 0 0 179 124 79 255
-0.211986 0.50361 3.56721 0 0 0 74 70 67 255
0.884845 0.540489 3.63487 0 0 0 131 146 111 255
0.0234934 0.527045 3.56094 0 0 0 137 151 135 255
1.32849 0.702772 3.69468 0 0 0 86 55 36 255
2.40848 0.77332 3.86073 0 0 0 92 119 131 255
2.39794 0.816984 3.83991 0 0 0 89 94 94 255
1.93922 0.829551 3.76706 0 0 0 103 134 143 255
2.40113 1.07815 3.89687 0 0 0 79 113 139 255
-0.146448 1.00892 3.52987 0 0 0 90 100 94 255
0.105831 1.03231 3.55717 0 0 0 191 202 205 255
2.67466 1.24243 4.82894 0 0 0 61 67 70 255
2.7091 1.33055 4.90169 0 0 0 181 172 164 255
0.235358 1.2014 3.55582 0 0 0 186 197 198 255
2.25175 1.37623 3.63549 0 0 0 171 153 148 255
2.29495 -0.764162 5.51715 0 0 0 91 102 103 255
2.29535 -0.705849 5.54994 0 0 0 84 84 92 255
-0.233168 -0.128826 3.67998 0 0 0 72 66 67 255
1.23868 -0.0613602 3.78518 0 0 0 96 111 122 255
1.6819 0.282423 3.77192 0 0 0 177 128 96 255
1.81635 0.271616 3.78663 0 0 0 183 157 148 255
1.65496 0.286903 3.76147 0 0 0 204 191 186 255
1.71726 0.285997 3.78027 0 0 0 202 179 165 255
1.99427 0.284384 3.84159 0 0 0 205 178 174 255
2.15735 0.294747 3.84917 0 0 0 189 163 140 255
2.10734 0.300731 3.85123 0 0 0 210 185 170 255
2.05301 0.320332 3.8208 0 0 0 196 172 165 255
2.32689 0.337799 3.88294 0 0 0 200 166 142 255
1.89722 0.332091 3.8047 0 0 0 210 191 180 255
2.12652 0.356552 3.84359 0 0 0 198 190 186 255
1.77018 0.350659 3.77365 0 0 0 187 170 156 255
2.21958 0.372018 3.84755 0 0 0 189 182 185 255
2.30899 0.377049 3.86667 0 0 0 185 184 189 255
1.00213 0.353655 3.66684 0 0 0 120 135 109 255
1.78471 0.42971 3.77824 0 0 0 198 173 162 255
1.88947 0.442088 3.78206 0 0 0 178 169 165 255
2.02626 0.436762 3.82396 0 0 0 201 194 206 255
2.09073 0.425379 3.8444 0 0 0 176 127 82 255
2.16095 0.432978 3.84256 0 0 0 187 191 204 255
2.27195 0.454241 3.86329 0 0 0 205 184 175 255
2.32095 0.456088 3.8853 0 0 0 196 180 174 255
2.27807 0.465831 3.86486 0 0 0 198 199 199 255
2.03074 0.491305 3.80501 0 0 0 201 182 178 255
2.21275 0.506764 3.86568 0 0 0 197 185 178 255
2.09373 0.511553 3.8028 0 0 0 201 188 173 255
2.16293 0.512708 3.83689 0 0 0 198 197 197 255
2.27045 0.5535 3.85949 0 0 0 204 191 199 255
0.1844 0.556512 3.56022 0 0 0 138 155 113 255
0.072364 0.625143 3.55464 0 0 0 90 104 100 255
0.540924 0.650238 3.58277 0 0 0 148 167 128 255
1.31232 0.685265 3.67653 0 0 0 163 118 83 255
0.930905 0.693798 3.63863 0 0 0 151 167 127 255
2.01037 0.720775 3.79061 0 0 0 190 159 140 255
2.40643 0.735768 3.84779 0 0 0 124 94 82 255
0.45447 0.711661 3.57535 0 0 0 119 132 111 255
2.40481 0.761962 3.83726 0 0 0 94 114 126 255
0.736849 0.740088 3.61278 0 0 0 156 167 138 255
0.967845 0.794122 3.64711 0 0 0 128 129 136 255
2.16328 0.828205 3.82029 0 0 0 168 195 207 255
2.39942 0.833319 3.8256 0 0 0 66 74 79 255
2.31807 0.867873 3.82054 0 0 0 90 67 66 255
1.39839 0.898085 3.68065 0 0 0 186 143 89 255
1.93725 0.943279 3.76409 0 0 0 100 87 72 255
0.653394 0.915041 3.58761 0 0 0 128 145 149 255
0.857535 0.962216 3.62187 0 0 0 126 137 144 255
0.473837 1.00395 3.57904 0 0 0 97 115 118 255
2.41671 1.08276 3.94938 0 0 0 77 112 139 255
0.213406 1.03064 3.55666 0 0 0 187 198 202 255
2.68398 1.24526 4.85198 0 0 0 61 67 70 255
0.963845 1.0826 3.59052 0 0 0 188 203 206 255
-0.132363 1.06475 3.54353 0 0 0 101 133 113 255
0.005932 1.07521 3.55089 0 0 0 182 190 196 255
