ply
format ascii 1.0
comment VCGLIB generated
element vertex 1026
property float x
property float y
property float z
property float nx
property float ny
property float nz
property uchar red
property uchar green
property uchar blue
property uchar alpha
element face 0
property list uchar int vertex_indices
end_header
-0.727961 0.541446 3.76817 0 0 0 92 86 81 255
-0.621531 0.541013 3.76255 0 0 0 132 122 124 255
0.491507 0.488554 3.58537 0 0 0 160 174 126 255
-0.559217 0.538161 3.75129 0 0 0 158 152 154 255
-0.0389232 0.517069 3.57497 0 0 0 72 83 69 255
0.63555 0.491477 3.59209 0 0 0 46 53 51 255
0.701223 0.492539 3.59944 0 0 0 125 131 122 255
0.887306 0.477505 3.62787 0 0 0 141 152 113 255
0.0160636 0.540023 3.57713 0 0 0 171 187 143 255
0.0541208 0.532657 3.57331 0 0 0 71 83 62 255
-0.029961 0.553311 3.57578 0 0 0 67 80 68 255
0.562321 0.523913 3.58731 0 0 0 57 63 54 255
0.845034 0.531213 3.62196 0 0 0 119 127 118 255
0.367319 0.554159 3.57483 0 0 0 124 131 125 255
-0.0635824 0.587545 3.57159 0 0 0 157 167 145 255
0.432677 0.563507 3.57845 0 0 0 134 144 119 255
0.0220809 0.589104 3.57158 0 0 0 86 89 74 255
0.883603 0.552974 3.62404 0 0 0 144 156 120 255
1.00035 0.546933 3.64661 0 0 0 114 122 102 255
0.446176 0.591756 3.57806 0 0 0 99 109 83 255
0.109392 0.626528 3.57402 0 0 0 74 82 72 255
-0.0183015 0.648641 3.56942 0 0 0 102 116 92 255
0.105384 0.638979 3.57276 0 0 0 70 77 72 255
-0.0688787 0.665519 3.56774 0 0 0 150 159 139 255
0.127403 0.665528 3.57193 0 0 0 141 151 127 255
0.534754 0.638625 3.58468 0 0 0 160 172 123 255
-0.0498903 0.693449 3.56647 0 0 0 48 59 48 255
1.0004 0.650755 3.64713 0 0 0 93 96 95 255
-0.0346772 0.714459 3.56944 0 0 0 104 111 108 255
0.641661 0.686827 3.592 0 0 0 68 76 65 255
0.763384 0.685048 3.6141 0 0 0 144 154 134 255
0.104957 0.729584 3.57207 0 0 0 161 174 140 255
0.457228 0.723649 3.58202 0 0 0 111 117 95 255
0.608481 0.704488 3.58461 0 0 0 152 162 140 255
0.718845 0.698555 3.60431 0 0 0 55 62 60 255
0.527462 0.729802 3.58053 0 0 0 155 163 122 255
0.690034 0.734615 3.59733 0 0 0 129 137 122 255
0.730023 0.730109 3.60334 0 0 0 144 154 132 255
-0.951002 0.838806 3.67705 0 0 0 54 38 29 255
-0.104374 0.781264 3.56312 0 0 0 97 104 102 255
0.0358617 0.784748 3.59142 0 0 0 107 112 118 255
0.0240765 0.78554 3.56122 0 0 0 97 101 105 255
0.225632 0.782556 3.5689 0 0 0 173 177 181 255
0.272833 0.780816 3.56889 0 0 0 107 111 115 255
0.302711 0.780944 3.56735 0 0 0 130 134 138 255
0.318842 0.784091 3.55977 0 0 0 111 115 119 255
0.65403 0.770889 3.60018 0 0 0 114 120 123 255
0.548 0.790614 3.58332 0 0 0 102 108 111 255
0.623826 0.786888 3.59252 0 0 0 159 165 168 255
0.474941 0.798572 3.57199 0 0 0 92 96 100 255
0.569798 0.799995 3.58577 0 0 0 65 70 72 255
0.781653 0.786496 3.61118 0 0 0 85 94 96 255
0.850268 0.79007 3.62427 0 0 0 117 122 127 255
-0.886086 0.889004 3.59772 0 0 0 129 99 86 255
1.09087 0.799237 3.69662 0 0 0 75 76 79 255
0.97714 0.813418 3.64136 0 0 0 106 110 112 255
-0.700535 0.935549 3.74764 0 0 0 127 105 99 255
0.559051 0.846678 3.58376 0 0 0 100 110 114 255
-0.634002 0.937928 3.68641 0 0 0 70 59 54 255
-0.744141 0.963067 3.67786 0 0 0 64 46 43 255
0.0955155 0.902994 3.57614 0 0 0 196 202 205 255
-0.908472 0.977174 3.66125 0 0 0 129 101 86 255
-0.687256 0.985033 3.68236 0 0 0 73 49 43 255
-0.908993 0.999816 3.61757 0 0 0 67 49 42 255
0.527869 0.917487 3.5867 0 0 0 173 179 182 255
0.702292 0.908121 3.60708 0 0 0 191 199 204 255
-0.631265 0.996127 3.68987 0 0 0 78 47 41 255
-0.603584 1.00383 3.68624 0 0 0 86 62 54 255
-0.707326 1.03496 3.71398 0 0 0 103 76 68 255
-0.224249 0.98952 3.56825 0 0 0 105 92 89 255
0.852791 0.950731 3.62853 0 0 0 144 153 155 255
0.964379 0.96213 3.6482 0 0 0 144 150 151 255
0.931723 0.972176 3.64346 0 0 0 168 172 174 255
0.967439 0.953595 3.65014 0 0 0 180 189 189 255
-0.707888 1.07561 3.65286 0 0 0 115 89 73 255
-0.0921163 1.02667 3.56387 0 0 0 70 79 79 255
0.404678 0.999509 3.58057 0 0 0 200 206 207 255
-0.644449 1.09282 3.64597 0 0 0 101 79 64 255
-0.111561 1.05745 3.56366 0 0 0 170 183 169 255
0.997278 1.00891 3.65279 0 0 0 168 174 175 255
-0.133791 1.07993 3.56294 0 0 0 98 113 99 255
0.000230463 1.06719 3.57163 0 0 0 168 177 179 255
0.474246 1.05447 3.58753 0 0 0 195 201 204 255
0.759927 1.03358 3.61673 0 0 0 197 201 203 255
0.860298 1.03041 3.6276 0 0 0 187 193 196 255
0.91558 1.02657 3.6388 0 0 0 129 130 133 255
-0.0879951 1.08441 3.55938 0 0 0 77 89 83 255
-0.0300872 1.08033 3.56848 0 0 0 94 100 102 255
0.0599011 1.0825 3.56836 0 0 0 177 183 184 255
0.0903828 1.08745 3.57158 0 0 0 185 191 192 255
0.981926 1.03079 3.6514 0 0 0 91 95 97 255
-0.77305 1.16154 3.6647 0 0 0 72 51 40 255
0.731783 1.05634 3.61155 0 0 0 125 129 131 255
-0.903593 1.15858 3.57278 0 0 0 131 109 101 255
0.280947 1.09156 3.57908 0 0 0 197 206 206 255
-0.686467 1.17957 3.64847 0 0 0 100 77 64 255
-0.0922964 1.12215 3.56119 0 0 0 170 190 165 255
0.135039 1.10367 3.57374 0 0 0 134 140 141 255
1.00516 1.0775 3.65946 0 0 0 195 204 204 255
-0.590554 1.17671 3.64276 0 0 0 113 91 80 255
0.759262 1.08081 3.61323 0 0 0 196 202 203 255
-0.0180121 1.13873 3.56689 0 0 0 199 208 210 255
0.0104035 1.13704 3.56753 0 0 0 197 206 208 255
0.05233 1.13554 3.56984 0 0 0 109 118 118 255
0.142206 1.13856 3.57428 0 0 0 196 204 204 255
0.290636 1.11406 3.57816 0 0 0 197 206 206 255
1.06847 1.08698 3.67346 0 0 0 137 143 144 255
0.350354 1.1359 3.57832 0 0 0 189 195 198 255
-0.651132 1.22781 3.67615 0 0 0 106 91 82 255
-0.719184 1.24182 3.65116 0 0 0 95 75 68 255
0.0754916 1.16113 3.56888 0 0 0 191 200 200 255
-0.0982358 1.19068 3.56181 0 0 0 82 87 81 255
-0.751655 1.2472 3.56533 0 0 0 78 62 58 255
-0.542209 1.25879 3.65981 0 0 0 93 72 65 255
-0.0646858 1.2074 3.56531 0 0 0 159 163 167 255
0.109656 1.21569 3.56864 0 0 0 190 196 197 255
0.654856 1.19045 3.60849 0 0 0 190 196 199 255
0.829365 1.17751 3.63153 0 0 0 148 157 159 255
0.911157 1.17935 3.6459 0 0 0 192 197 200 255
-0.552402 1.26919 3.6014 0 0 0 102 79 68 255
-0.733654 1.30799 3.59014 0 0 0 130 103 90 255
-0.632575 1.31659 3.62697 0 0 0 84 70 62 255
-0.0974093 1.27164 3.56401 0 0 0 60 66 67 255
-0.59009 1.33531 3.60483 0 0 0 88 69 58 255
-0.554281 1.3579 3.6244 0 0 0 116 95 82 255
1.12531 1.31244 3.71948 0 0 0 131 135 137 255
-0.563289 1.4246 3.55783 0 0 0 94 76 69 255
-0.548245 1.45609 3.59009 0 0 0 150 122 113 255
-0.497987 1.45257 3.58895 0 0 0 145 110 104 255
-0.376875 1.45881 3.60793 0 0 0 157 126 116 255
-0.702713 1.45279 3.40443 0 0 0 157 136 125 255
-0.521462 1.50357 3.48607 0 0 0 66 66 63 255
-0.983769 -0.0259344 3.92994 0 0 0 139 113 99 255
-0.258529 -0.0526579 4.02382 0 0 0 161 162 162 255
-0.622223 -0.00164388 3.91897 0 0 0 138 101 95 255
-0.955048 0.0934401 3.80109 0 0 0 143 106 92 255
-0.975134 0.117079 3.83917 0 0 0 145 104 91 255
-1.74922 0.213637 5.04209 0 0 0 127 95 77 255
0.23729 0.249806 3.58236 0 0 0 77 87 63 255
0.270814 0.2569 3.58285 0 0 0 99 109 83 255
0.470218 0.33251 3.58672 0 0 0 108 119 104 255
0.323438 0.365208 3.57883 0 0 0 127 136 119 255
0.99562 0.339126 3.63818 0 0 0 145 152 134 255
-0.828253 0.405776 3.84314 0 0 0 97 84 81 255
-0.0732732 0.40415 3.57852 0 0 0 169 183 151 255
0.075123 0.447446 3.57371 0 0 0 169 187 133 255
0.713742 0.430366 3.60049 0 0 0 60 67 61 255
0.491312 0.471891 3.58651 0 0 0 171 185 137 255
0.884806 0.46203 3.62934 0 0 0 148 160 118 255
0.0573038 0.533362 3.57468 0 0 0 68 80 60 255
0.633061 0.482109 3.59313 0 0 0 56 63 61 255
0.0206778 0.548063 3.57512 0 0 0 171 187 144 255
-0.244844 0.589905 3.58241 0 0 0 121 103 93 255
0.535654 0.564408 3.58235 0 0 0 161 174 122 255
0.0864096 0.607497 3.57639 0 0 0 72 80 67 255
-0.0648808 0.644879 3.57098 0 0 0 160 174 142 255
0.52697 0.632981 3.58507 0 0 0 163 178 125 255
0.612335 0.647527 3.58971 0 0 0 156 166 137 255
0.134912 0.730189 3.57263 0 0 0 162 176 128 255
0.720073 0.68577 3.60588 0 0 0 55 62 59 255
0.760922 0.69147 3.61247 0 0 0 143 155 122 255
-0.117198 0.774856 3.56381 0 0 0 95 105 99 255
-0.956748 0.862096 3.69377 0 0 0 46 35 32 255
-0.923837 0.877911 3.68344 0 0 0 120 97 79 255
1.04398 0.812765 3.66151 0 0 0 77 78 81 255
0.395155 0.909817 3.57675 0 0 0 194 203 205 255
0.972385 0.921467 3.64952 0 0 0 197 203 204 255
-0.237834 1.0002 3.56477 0 0 0 136 112 106 255
-0.102506 1.00892 3.56727 0 0 0 78 87 87 255
0.40453 0.985898 3.57878 0 0 0 196 202 203 255
0.79501 0.969404 3.61634 0 0 0 184 190 191 255
0.841878 0.977283 3.62414 0 0 0 116 124 126 255
-0.160516 1.03643 3.56935 0 0 0 160 173 160 255
0.0625216 1.03022 3.57366 0 0 0 122 128 131 255
0.773202 1.00257 3.61511 0 0 0 136 140 142 255
0.873334 1.04637 3.63196 0 0 0 198 204 207 255
0.0987113 1.1006 3.57268 0 0 0 144 150 151 255
0.790329 1.07196 3.62039 0 0 0 163 169 170 255
-0.0680711 1.11457 3.56608 0 0 0 117 123 124 255
0.27989 1.10476 3.5791 0 0 0 200 209 209 255
0.874871 1.08231 3.62995 0 0 0 182 186 190 255
1.1156 1.06833 3.69166 0 0 0 188 192 194 255
0.980191 1.09786 3.6559 0 0 0 160 166 167 255
0.921968 1.13229 3.64553 0 0 0 97 98 103 255
0.976152 1.14415 3.65602 0 0 0 195 201 203 255
-0.529121 1.25141 3.61643 0 0 0 105 83 74 255
0.477493 1.17732 3.58664 0 0 0 97 108 109 255
-0.732946 1.28419 3.52043 0 0 0 150 121 101 255
0.0864648 1.2188 3.56288 0 0 0 197 202 204 255
0.913656 1.18018 3.64518 0 0 0 192 197 200 255
-0.250023 1.37175 3.55956 0 0 0 139 112 96 255
-0.371693 1.45247 3.58779 0 0 0 156 125 116 255
-0.719867 1.46838 3.44873 0 0 0 154 133 122 255
1.24712 -0.0912673 3.98465 0 0 0 80 99 110 255
-0.978087 -0.0247637 3.96579 0 0 0 168 136 120 255
-0.809456 -0.0228069 3.96163 0 0 0 148 107 96 255
-0.253446 -0.037541 3.83217 0 0 0 72 69 71 255
-0.913533 0.0213567 3.94762 0 0 0 136 101 86 255
1.17945 -0.0201066 4.03364 0 0 0 168 166 167 255
-2.04742 -0.11191 5.51523 0 0 0 140 107 92 255
-0.857332 0.0641266 3.92991 0 0 0 131 103 92 255
-0.619802 0.070446 3.89321 0 0 0 142 111 101 255
-0.990993 0.118361 3.88624 0 0 0 139 106 90 255
0.871514 0.197704 3.63111 0 0 0 165 181 133 255
-0.756786 0.223674 3.86982 0 0 0 174 148 134 255
0.0801208 0.243257 3.58085 0 0 0 104 117 94 255
0.367243 0.270157 3.58084 0 0 0 75 85 79 255
0.162824 0.314428 3.5828 0 0 0 91 101 77 255
0.260233 0.328522 3.57992 0 0 0 170 184 134 255
-2.18695 0.401996 5.9484 0 0 0 85 74 68 255
-0.939619 0.422366 3.84109 0 0 0 124 112 104 255
-0.0595258 0.372401 3.57819 0 0 0 170 187 147 255
-0.581792 0.417857 3.81044 0 0 0 129 115 102 255
0.257603 0.40349 3.5764 0 0 0 152 165 124 255
0.746847 0.396515 3.60389 0 0 0 124 132 111 255
0.527894 0.451421 3.58837 0 0 0 168 183 128 255
-0.872596 0.535941 3.83352 0 0 0 42 37 36 255
0.560393 0.527383 3.5875 0 0 0 59 65 55 255
-0.254323 0.609334 3.57249 0 0 0 114 92 79 255
-0.0488551 0.596176 3.56974 0 0 0 164 179 144 255
-0.0609326 0.625461 3.57115 0 0 0 159 175 144 255
0.0566222 0.623811 3.5671 0 0 0 98 105 100 255
0.733399 0.655933 3.60716 0 0 0 50 56 57 255
0.517976 0.728603 3.57904 0 0 0 147 154 120 255
0.766312 0.729459 3.61187 0 0 0 159 173 123 255
0.921958 0.705974 3.63102 0 0 0 154 169 116 255
-0.959786 0.854221 3.71135 0 0 0 59 42 35 255
0.755119 0.76226 3.60948 0 0 0 56 62 52 255
0.0577234 0.793214 3.56214 0 0 0 106 110 114 255
0.186697 0.772675 3.56941 0 0 0 160 164 169 255
-0.80788 0.885853 3.81285 0 0 0 47 38 33 255
-0.235519 0.907167 3.56246 0 0 0 132 101 85 255
0.0980985 0.890408 3.57715 0 0 0 146 152 154 255
0.542015 0.943784 3.58732 0 0 0 146 152 155 255
0.719262 0.914045 3.61194 0 0 0 194 203 207 255
-0.117358 0.988358 3.56889 0 0 0 65 74 74 255
0.175923 1.01252 3.57017 0 0 0 142 146 148 255
0.833743 0.989778 3.62287 0 0 0 121 129 131 255
-0.157706 1.05491 3.58111 0 0 0 154 169 152 255
0.95991 1.03409 3.64589 0 0 0 98 104 105 255
-0.0889889 1.08797 3.55879 0 0 0 84 96 92 255
0.703283 1.05129 3.6085 0 0 0 190 196 199 255
0.745276 1.02929 3.6142 0 0 0 196 202 203 255
0.8762 1.0489 3.63172 0 0 0 198 204 207 255
0.284219 1.10929 3.57803 0 0 0 198 207 207 255
1.10732 1.05526 3.67827 0 0 0 183 188 189 255
0.165026 1.12372 3.57223 0 0 0 197 206 206 255
0.978552 1.1043 3.65513 0 0 0 165 171 172 255
1.04521 1.12728 3.67945 0 0 0 94 100 101 255
0.44139 1.16351 3.58377 0 0 0 109 118 120 255
0.977766 1.1677 3.65635 0 0 0 160 165 169 255
-0.534483 1.26119 3.61925 0 0 0 89 68 60 255
0.6443 1.20986 3.60476 0 0 0 197 205 207 255
-0.225174 0.0398211 3.73798 0 0 0 45 44 47 255
1.21009 0.0719637 3.75497 0 0 0 53 53 53 255
-0.752565 0.251982 3.89786 0 0 0 149 122 99 255
0.843237 0.210032 3.61821 0 0 0 165 185 125 255
0.429318 0.31678 3.58365 0 0 0 77 84 77 255
-0.0681268 0.354761 3.58819 0 0 0 168 185 145 255
0.400157 0.365622 3.57762 0 0 0 65 75 72 255
0.848231 0.308736 3.63752 0 0 0 167 183 125 255
0.642364 0.352216 3.60247 0 0 0 98 106 81 255
0.757574 0.320213 3.61282 0 0 0 130 140 117 255
-0.063795 0.418344 3.579 0 0 0 160 176 138 255
0.0575049 0.405974 3.57806 0 0 0 171 189 135 255
0.471836 0.416879 3.58469 0 0 0 70 77 75 255
0.796621 0.415322 3.60753 0 0 0 61 68 64 255
0.173646 0.48274 3.56582 0 0 0 65 77 73 255
0.429028 0.45699 3.58641 0 0 0 48 55 53 255
-0.838736 0.5377 3.73223 0 0 0 41 36 38 255
0.857562 0.493007 3.62603 0 0 0 79 86 83 255
0.604643 0.553017 3.58723 0 0 0 82 89 84 255
0.0458807 0.6462 3.56531 0 0 0 50 56 56 255
0.489262 0.655098 3.58148 0 0 0 165 176 145 255
1.0961 0.805551 3.67873 0 0 0 63 64 67 255
-0.773989 1.01913 3.73797 0 0 0 144 120 93 255
-0.186243 0.992397 3.57184 0 0 0 60 64 63 255
0.718683 0.95162 3.60999 0 0 0 198 203 206 255
0.892182 0.947518 3.6355 0 0 0 195 204 205 255
0.0736655 1.11368 3.57096 0 0 0 122 128 129 255
1.09319 1.05048 3.67381 0 0 0 166 172 173 255
-0.218015 -0.150989 3.76898 0 0 0 73 73 76 255
-0.205352 -0.130488 3.7654 0 0 0 66 56 60 255
1.23478 0.00865108 3.81095 0 0 0 157 137 117 255
-0.209076 -0.0114948 3.70568 0 0 0 174 183 185 255
0.0732822 0.223023 3.58652 0 0 0 138 160 123 255
0.979773 0.29914 3.66136 0 0 0 121 134 121 255
0.448642 0.292417 3.59422 0 0 0 121 135 105 255
1.6901 0.315175 3.81446 0 0 0 203 190 184 255
0.77207 0.312174 3.62831 0 0 0 106 121 86 255
1.65369 0.341674 3.80029 0 0 0 188 157 138 255
0.489636 0.324673 3.59746 0 0 0 134 149 110 255
1.72346 0.343989 3.82129 0 0 0 197 180 175 255
1.75632 0.347126 3.80746 0 0 0 195 183 183 255
0.628147 0.34043 3.60707 0 0 0 100 118 73 255
0.474767 0.37754 3.59366 0 0 0 80 93 80 255
1.73305 0.398791 3.82672 0 0 0 207 193 197 255
0.65233 0.38615 3.60544 0 0 0 79 91 82 255
0.735351 0.403203 3.61025 0 0 0 127 141 122 255
0.279353 0.409238 3.58101 0 0 0 140 158 115 255
1.79147 0.443049 3.81681 0 0 0 159 134 125 255
1.79977 0.441462 3.84553 0 0 0 162 134 121 255
1.73274 0.446861 3.82115 0 0 0 204 191 194 255
1.82149 0.44945 3.84191 0 0 0 196 185 185 255
1.96938 0.451364 3.8488 0 0 0 168 129 106 255
1.71553 0.450613 3.82931 0 0 0 210 186 178 255
1.71601 0.460907 3.79972 0 0 0 163 131 110 255
0.667707 0.451765 3.60435 0 0 0 117 131 112 255
1.78357 0.47237 3.81523 0 0 0 160 130 115 255
0.597555 0.454299 3.59451 0 0 0 115 130 102 255
1.71493 0.479019 3.82152 0 0 0 184 126 89 255
0.590052 0.466531 3.59555 0 0 0 87 104 76 255
1.87798 0.488812 3.85263 0 0 0 181 123 88 255
0.995008 0.480511 3.65034 0 0 0 72 82 76 255
1.73197 0.495199 3.81341 0 0 0 204 195 199 255
1.81555 0.49938 3.84526 0 0 0 209 177 163 255
0.662411 0.476446 3.60138 0 0 0 101 112 101 255
1.94377 0.502005 3.84161 0 0 0 196 182 184 255
1.99727 0.503672 3.88516 0 0 0 196 187 182 255
2.04607 0.506028 3.88881 0 0 0 198 182 172 255
0.718905 0.487834 3.61053 0 0 0 83 93 87 255
0.683404 0.49318 3.60333 0 0 0 63 75 71 255
0.786324 0.510881 3.6167 0 0 0 66 78 82 255
0.613669 0.524976 3.59559 0 0 0 80 92 88 255
0.68261 0.534245 3.60188 0 0 0 80 93 92 255
0.377894 0.535592 3.58333 0 0 0 68 86 85 255
0.85799 0.544749 3.6297 0 0 0 95 109 90 255
0.869925 0.551199 3.6258 0 0 0 125 138 124 255
0.203774 0.549101 3.57638 0 0 0 115 129 112 255
0.865121 0.564442 3.62033 0 0 0 42 53 52 255
0.875966 0.562586 3.62464 0 0 0 78 89 76 255
0.889854 0.569709 3.62815 0 0 0 131 143 123 255
0.891007 0.586946 3.62597 0 0 0 71 77 78 255
0.768185 0.595642 3.61851 0 0 0 58 69 70 255
2.13541 0.62562 3.86936 0 0 0 200 159 125 255
0.606787 0.615206 3.59599 0 0 0 58 72 65 255
0.693644 0.629469 3.60264 0 0 0 86 100 93 255
0.159067 0.628658 3.57205 0 0 0 97 118 86 255
0.680319 0.649316 3.59994 0 0 0 138 153 119 255
0.941608 0.669095 3.64333 0 0 0 107 119 100 255
0.951215 0.679363 3.64415 0 0 0 54 64 56 255
0.960513 0.69222 3.64591 0 0 0 115 126 111 255
0.659456 0.686846 3.59995 0 0 0 69 76 73 255
0.0150416 0.684972 3.57146 0 0 0 109 125 110 255
0.733723 0.705366 3.60944 0 0 0 59 73 52 255
0.164727 0.706088 3.57526 0 0 0 116 133 114 255
0.623379 0.716362 3.58935 0 0 0 82 96 74 255
0.72456 0.719504 3.60786 0 0 0 106 119 103 255
0.938763 0.729221 3.63897 0 0 0 154 170 128 255
0.498384 0.733135 3.59062 0 0 0 100 110 83 255
-0.0388112 0.72843 3.56836 0 0 0 119 131 123 255
0.675766 0.743496 3.60089 0 0 0 92 104 100 255
0.798318 0.748208 3.62 0 0 0 150 166 124 255
0.832428 0.745206 3.62531 0 0 0 118 131 114 255
0.135769 0.770845 3.57304 0 0 0 65 77 83 255
0.643091 0.777367 3.60016 0 0 0 45 53 60 255
0.824424 0.784112 3.62451 0 0 0 103 110 107 255
0.0617638 0.774468 3.57555 0 0 0 82 93 99 255
0.914568 0.791456 3.63443 0 0 0 125 133 138 255
-0.0186825 0.778598 3.56722 0 0 0 51 58 56 255
0.809142 0.798441 3.6212 0 0 0 40 48 53 255
1.08395 0.80602 3.68333 0 0 0 89 105 107 255
0.122891 0.795672 3.55692 0 0 0 90 98 103 255
0.440207 0.797711 3.59729 0 0 0 122 132 138 255
0.913743 0.805748 3.63356 0 0 0 131 136 142 255
0.244587 0.798307 3.56825 0 0 0 113 113 121 255
0.751007 0.808584 3.6057 0 0 0 122 126 128 255
0.818141 0.808396 3.62039 0 0 0 67 72 78 255
1.11185 0.818647 3.66501 0 0 0 77 82 88 255
1.13118 0.82337 3.65375 0 0 0 93 98 104 255
0.900569 0.847945 3.6317 0 0 0 65 75 83 255
1.06342 0.863569 3.66158 0 0 0 83 92 102 255
0.806009 0.861234 3.62322 0 0 0 86 95 108 255
0.833755 0.865249 3.62646 0 0 0 101 112 125 255
0.922439 0.861215 3.63765 0 0 0 92 107 115 255
1.08689 0.865597 3.66811 0 0 0 64 71 83 255
0.494751 0.855517 3.58607 0 0 0 78 86 95 255
1.25578 0.879005 3.69152 0 0 0 133 157 167 255
2.06501 0.927903 3.84292 0 0 0 159 156 154 255
-0.0526297 0.896069 3.56675 0 0 0 120 130 138 255
0.649991 0.90657 3.60095 0 0 0 127 142 147 255
1.89666 0.962999 3.83464 0 0 0 158 159 140 255
2.05106 0.967145 3.87573 0 0 0 170 172 168 255
0.0843543 0.952371 3.57375 0 0 0 187 197 203 255
2.0108 0.996152 3.85727 0 0 0 165 170 170 255
1.8772 1.02898 3.83854 0 0 0 158 169 176 255
0.703426 1.02095 3.60523 0 0 0 144 152 157 255
0.158124 1.05958 3.57559 0 0 0 180 188 195 255
0.174363 1.07185 3.57392 0 0 0 156 168 172 255
0.180008 1.10468 3.57367 0 0 0 148 159 166 255
0.230238 1.11736 3.57247 0 0 0 159 169 176 255
0.213507 1.15853 3.57382 0 0 0 103 118 125 255
0.407579 1.16389 3.58228 0 0 0 118 129 140 255
1.39064 1.39207 3.73599 0 0 0 193 156 155 255
1.46353 1.38779 3.73952 0 0 0 186 136 121 255
1.55747 1.40039 3.76949 0 0 0 194 167 162 255
1.84691 1.40969 3.80282 0 0 0 185 138 131 255
1.95432 1.40333 3.79822 0 0 0 197 156 144 255
1.58902 1.4058 3.76425 0 0 0 192 188 195 255
1.61236 1.39782 3.75465 0 0 0 199 173 164 255
1.78243 1.4122 3.78929 0 0 0 194 147 136 255
1.88472 1.41144 3.80011 0 0 0 203 156 147 255
2.07004 1.3976 3.77261 0 0 0 197 163 161 255
1.74656 1.41901 3.79177 0 0 0 182 156 152 255
1.38829 1.41463 3.73384 0 0 0 206 185 181 255
1.58781 1.41769 3.75373 0 0 0 192 188 193 255
1.55666 1.43 3.77534 0 0 0 187 176 174 255
1.77479 1.42927 3.78115 0 0 0 193 159 158 255
1.98988 1.42753 3.77133 0 0 0 187 179 178 255
2.06519 1.42646 3.7693 0 0 0 206 171 171 255
1.73488 1.44065 3.78501 0 0 0 175 146 143 255
0.723041 1.53944 3.62886 0 0 0 134 145 147 255
0.742176 1.53874 3.6336 0 0 0 95 105 112 255
0.583683 1.54384 3.61302 0 0 0 114 127 135 255
0.537894 1.54371 3.60719 0 0 0 115 127 135 255
0.569153 1.54359 3.60843 0 0 0 114 128 138 255
0.68002 1.55094 3.62171 0 0 0 124 133 139 255
0.79086 1.55207 3.63688 0 0 0 122 133 142 255
0.866419 1.55522 3.64875 0 0 0 119 130 137 255
0.501158 1.5485 3.59269 0 0 0 65 70 78 255
0.508835 1.54681 3.60277 0 0 0 68 75 82 255
0.518311 1.55272 3.6006 0 0 0 128 136 141 255
0.639875 1.55254 3.61446 0 0 0 139 146 151 255
0.900757 1.56318 3.65497 0 0 0 142 152 159 255
0.90423 1.55807 3.65893 0 0 0 125 135 144 255
0.537462 1.5599 3.6054 0 0 0 146 152 162 255
0.766626 1.55888 3.635 0 0 0 126 136 143 255
0.824575 1.55905 3.642 0 0 0 116 127 138 255
0.839693 1.55842 3.64037 0 0 0 84 97 105 255
0.866391 1.56103 3.64798 0 0 0 127 137 143 255
0.93764 1.56402 3.66141 0 0 0 130 142 148 255
0.579949 1.56118 3.60741 0 0 0 76 79 88 255
0.592641 1.56193 3.61387 0 0 0 144 151 158 255
0.621523 1.56432 3.60837 0 0 0 113 120 124 255
0.687049 1.56737 3.6203 0 0 0 147 155 160 255
0.722701 1.56794 3.6274 0 0 0 148 157 159 255
0.798101 1.57459 3.63632 0 0 0 128 136 143 255
-0.215741 -0.128132 3.6796 0 0 0 65 63 65 255
-0.222645 -0.107359 3.73046 0 0 0 220 211 213 255
-0.181683 -0.0135845 3.75209 0 0 0 148 152 154 255
-0.182507 0.0253348 3.58748 0 0 0 85 87 86 255
1.65376 0.345506 3.79269 0 0 0 209 171 153 255
0.713982 0.349116 3.61384 0 0 0 137 146 123 255
0.291919 0.365038 3.58262 0 0 0 160 177 128 255
0.842586 0.367118 3.63043 0 0 0 66 76 73 255
1.72644 0.396635 3.82978 0 0 0 194 194 206 255
0.857707 0.416426 3.62992 0 0 0 54 68 64 255
1.00375 0.418375 3.65253 0 0 0 114 128 110 255
1.94406 0.437629 3.84807 0 0 0 197 165 149 255
1.71556 0.447257 3.79991 0 0 0 207 183 177 255
1.87818 0.441502 3.83194 0 0 0 171 148 138 255
1.80969 0.453267 3.82121 0 0 0 198 172 158 255
1.97057 0.46123 3.87764 0 0 0 172 132 98 255
1.69934 0.471431 3.80906 0 0 0 181 124 83 255
1.8729 0.478856 3.84063 0 0 0 173 125 97 255
-0.0374847 0.459172 3.57501 0 0 0 160 174 154 255
1.7233 0.496247 3.81943 0 0 0 209 191 188 255
1.94167 0.499551 3.85513 0 0 0 196 182 184 255
1.99184 0.500528 3.86985 0 0 0 185 154 135 255
2.03672 0.50315 3.85297 0 0 0 174 155 141 255
0.0367771 0.461474 3.57434 0 0 0 168 185 146 255
1.86918 0.500217 3.84534 0 0 0 201 183 181 255
0.887485 0.567959 3.62795 0 0 0 131 143 123 255
-0.0695296 0.576941 3.57098 0 0 0 131 145 127 255
0.896638 0.653618 3.63855 0 0 0 94 108 104 255
0.84084 0.671389 3.62276 0 0 0 98 110 92 255
1.25516 0.682465 3.70691 0 0 0 110 86 77 255
0.0908616 0.69458 3.57518 0 0 0 53 62 64 255
0.528506 0.69565 3.58465 0 0 0 109 120 102 255
1.49006 0.736106 3.74442 0 0 0 141 152 153 255
-0.0384072 0.725299 3.56712 0 0 0 108 120 113 255
-0.0372259 0.759321 3.56826 0 0 0 126 131 134 255
0.914591 0.796374 3.6334 0 0 0 130 135 141 255
0.287494 0.788617 3.54466 0 0 0 114 120 124 255
0.728374 0.799402 3.60127 0 0 0 133 139 140 255
1.08253 0.807249 3.68475 0 0 0 136 151 154 255
1.57249 0.820775 3.76251 0 0 0 151 117 95 255
0.909441 0.813667 3.63235 0 0 0 111 116 122 255
1.11426 0.813922 3.66148 0 0 0 103 108 113 255
1.88222 0.888928 3.84233 0 0 0 122 142 155 255
1.06452 0.874319 3.66453 0 0 0 82 91 100 255
1.87643 0.938418 3.83661 0 0 0 120 135 140 255
1.03667 0.918942 3.66337 0 0 0 158 170 176 255
2.04335 0.963702 3.84763 0 0 0 151 156 155 255
2.00303 0.998256 3.85846 0 0 0 154 159 156 255
2.11467 0.996907 3.84306 0 0 0 131 166 177 255
2.06904 1.03609 3.85085 0 0 0 119 133 129 255
0.353134 1.05853 3.57844 0 0 0 112 122 130 255
0.0178588 1.09679 3.56723 0 0 0 117 131 137 255
0.189074 1.10606 3.57297 0 0 0 143 154 162 255
1.94359 1.15892 3.8516 0 0 0 179 166 120 255
1.40442 1.18448 3.73904 0 0 0 168 181 187 255
0.0610864 1.1652 3.56642 0 0 0 170 182 190 255
0.692246 1.19368 3.6065 0 0 0 133 143 147 255
1.28316 1.33874 3.72281 0 0 0 174 196 203 255
1.88932 1.36429 3.83259 0 0 0 181 194 196 255
1.54752 1.40591 3.76696 0 0 0 184 135 129 255
1.39018 1.40327 3.72613 0 0 0 207 183 183 255
1.5898 1.40736 3.76488 0 0 0 192 188 195 255
1.73534 1.42059 3.78838 0 0 0 194 167 165 255
1.77386 1.42528 3.76488 0 0 0 193 159 158 255
1.8791 1.42103 3.78612 0 0 0 202 178 184 255
2.02118 1.41778 3.76794 0 0 0 192 180 180 255
1.54647 1.42273 3.74583 0 0 0 198 176 176 255
0.48183 1.54262 3.6054 0 0 0 107 116 127 255
0.720926 1.54563 3.63113 0 0 0 142 152 153 255
0.589973 1.55981 3.62115 0 0 0 144 151 158 255
0.724443 1.56444 3.6317 0 0 0 144 152 154 255
0.868335 1.5578 3.64968 0 0 0 121 132 138 255
0.900546 1.56671 3.65458 0 0 0 149 159 164 255
-0.212337 -0.128712 3.68568 0 0 0 69 61 67 255
-0.230033 -0.14395 3.77978 0 0 0 70 65 67 255
1.24633 0.0442993 3.74024 0 0 0 61 57 63 255
-0.16831 0.0504601 3.53919 0 0 0 102 103 103 255
1.65355 0.336621 3.79117 0 0 0 190 159 140 255
0.478936 0.326214 3.59562 0 0 0 125 139 108 255
1.67988 0.390463 3.77157 0 0 0 193 180 167 255
1.7116 0.39605 3.8 0 0 0 182 181 194 255
0.864735 0.403661 3.63081 0 0 0 70 86 66 255
1.64574 0.427864 3.78375 0 0 0 183 130 97 255
1.80225 0.42308 3.82218 0 0 0 204 157 137 255
1.88994 0.424872 3.83719 0 0 0 189 149 126 255
1.72277 0.451091 3.80185 0 0 0 201 189 193 255
1.0054 0.445931 3.65612 0 0 0 115 127 109 255
1.65104 0.465173 3.75884 0 0 0 209 186 185 255
1.88181 0.465627 3.85604 0 0 0 178 124 85 255
1.96892 0.466609 3.847 0 0 0 181 126 88 255
0.66365 0.455116 3.60252 0 0 0 118 131 108 255
1.99483 0.497331 3.8599 0 0 0 194 185 179 255
0.0351203 0.461581 3.57509 0 0 0 168 185 146 255
0.284784 0.459914 3.57578 0 0 0 90 104 97 255
1.71739 0.499928 3.79587 0 0 0 195 192 195 255
1.79874 0.501215 3.84244 0 0 0 215 185 177 255
1.87589 0.501941 3.89331 0 0 0 194 194 188 255
1.87699 0.503403 3.82284 0 0 0 195 190 184 255
0.0465428 0.570034 3.57424 0 0 0 161 179 137 255
-0.0419134 0.581534 3.57013 0 0 0 147 163 143 255
0.623789 0.612316 3.59541 0 0 0 51 64 63 255
1.25858 0.678999 3.70288 0 0 0 146 108 86 255
1.46902 0.718564 3.76188 0 0 0 87 105 105 255
0.25748 0.692951 3.574 0 0 0 158 173 133 255
0.832193 0.723297 3.62237 0 0 0 118 134 92 255
1.49706 0.734983 3.74595 0 0 0 149 158 158 255
-0.0381383 0.727449 3.56851 0 0 0 119 131 123 255
0.745863 0.730909 3.61156 0 0 0 153 171 128 255
1.2584 0.745354 3.70999 0 0 0 49 101 125 255
-0.162743 0.777663 3.58359 0 0 0 83 89 93 255
0.195625 0.794944 3.56722 0 0 0 112 119 122 255
0.740412 0.79973 3.58571 0 0 0 136 140 144 255
0.79397 0.802962 3.61509 0 0 0 47 55 60 255
0.913137 0.800636 3.63325 0 0 0 105 110 116 255
0.427612 0.793492 3.58836 0 0 0 71 83 89 255
1.08218 0.801685 3.64741 0 0 0 89 105 107 255
1.1092 0.816422 3.61905 0 0 0 102 108 112 255
1.45173 0.849613 3.75687 0 0 0 197 142 93 255
0.828405 0.862267 3.62517 0 0 0 81 92 105 255
1.06458 0.869627 3.66407 0 0 0 84 93 104 255
1.25614 0.88511 3.68051 0 0 0 143 166 175 255
2.01579 0.908817 3.85787 0 0 0 70 70 75 255
2.01987 0.926382 3.88855 0 0 0 65 65 72 255
2.05863 0.919757 3.84402 0 0 0 166 153 144 255
1.90143 0.958615 3.84474 0 0 0 182 167 141 255
2.0037 0.941394 3.82996 0 0 0 64 68 72 255
2.04789 0.955184 3.8467 0 0 0 168 169 165 255
1.9841 0.950265 3.83224 0 0 0 70 68 76 255
1.93963 0.991256 3.84927 0 0 0 158 138 120 255
2.00481 0.99005 3.82754 0 0 0 150 155 154 255
0.921403 0.960443 3.63611 0 0 0 154 169 175 255
1.25332 0.993533 3.69811 0 0 0 156 171 178 255
0.366633 0.992537 3.58192 0 0 0 143 154 160 255
1.86273 1.02934 3.84345 0 0 0 185 201 208 255
2.07054 1.03899 3.85144 0 0 0 128 143 138 255
0.761419 1.0173 3.61383 0 0 0 151 162 168 255
2.11994 1.1014 3.82256 0 0 0 146 163 136 255
1.9976 1.13858 3.8596 0 0 0 129 117 89 255
0.111513 1.09316 3.57383 0 0 0 130 141 146 255
1.94754 1.16121 3.86339 0 0 0 188 171 124 255
0.254429 1.11777 3.57384 0 0 0 185 195 202 255
0.360961 1.12905 3.57774 0 0 0 189 204 211 255
0.152189 1.13335 3.57384 0 0 0 191 206 211 255
0.822765 1.15225 3.6264 0 0 0 136 147 158 255
1.40452 1.18974 3.73064 0 0 0 172 191 199 255
0.415329 1.17019 3.58304 0 0 0 112 124 133 255
0.106928 1.17778 3.57254 0 0 0 116 126 134 255
1.88746 1.25804 3.81325 0 0 0 150 164 152 255
-0.0696869 1.22252 3.5616 0 0 0 135 140 145 255
0.389179 1.27651 3.5798 0 0 0 173 187 190 255
1.28798 1.33055 3.71118 0 0 0 163 185 192 255
0.482493 1.31946 3.59777 0 0 0 64 75 81 255
1.88453 1.35438 3.7957 0 0 0 181 194 196 255
1.39561 1.39994 3.72818 0 0 0 198 175 177 255
1.61166 1.41634 3.79058 0 0 0 203 187 183 255
2.07948 1.40134 3.78153 0 0 0 197 172 171 255
1.53908 1.41817 3.74734 0 0 0 190 169 167 255
0.172554 1.4007 3.56312 0 0 0 81 96 101 255
0.520615 1.54922 3.60953 0 0 0 165 173 179 255
0.483564 1.55011 3.60618 0 0 0 165 171 181 255
0.538695 1.5498 3.60489 0 0 0 141 151 159 255
0.725911 1.545 3.62479 0 0 0 142 152 153 255
0.517409 1.5587 3.60755 0 0 0 140 143 151 255
0.589938 1.54811 3.60227 0 0 0 129 138 145 255
0.677316 1.56097 3.6224 0 0 0 154 162 167 255
0.966276 1.56923 3.66744 0 0 0 149 158 163 255
1.20766 1.63675 3.68893 0 0 0 75 84 89 255
-0.200919 -0.133712 3.53574 0 0 0 195 191 193 255
-0.0543576 0.190252 3.55762 0 0 0 163 186 158 255
0.872062 0.21077 3.63629 0 0 0 165 186 135 255
0.145575 0.341844 3.58165 0 0 0 91 106 94 255
0.288294 0.368526 3.58283 0 0 0 160 178 127 255
0.295307 0.402383 3.58166 0 0 0 76 91 81 255
1.65562 0.47393 3.7975 0 0 0 197 160 154 255
0.160973 0.561403 3.57547 0 0 0 167 185 137 255
0.524704 0.573659 3.58511 0 0 0 154 173 125 255
-0.0656171 0.576432 3.56956 0 0 0 130 145 126 255
0.0908518 0.621279 3.5773 0 0 0 51 62 64 255
0.130986 0.637309 3.57263 0 0 0 139 157 114 255
1.25811 0.664928 3.71201 0 0 0 148 107 80 255
1.30646 0.706611 3.71413 0 0 0 74 55 58 255
1.45977 0.717683 3.73909 0 0 0 79 109 120 255
2.02598 0.743715 3.90702 0 0 0 176 190 197 255
0.74657 0.727233 3.61255 0 0 0 153 171 128 255
1.5385 0.812227 3.75459 0 0 0 181 135 105 255
1.44985 0.838118 3.72991 0 0 0 183 141 101 255
1.99185 0.917678 3.86801 0 0 0 67 66 70 255
1.25777 0.902533 3.72064 0 0 0 157 174 180 255
1.83142 0.920831 3.826 0 0 0 116 126 134 255
2.04425 0.929543 3.83393 0 0 0 168 151 131 255
1.11634 0.925737 3.64802 0 0 0 178 188 194 255
1.89417 0.954803 3.82957 0 0 0 154 155 136 255
0.417296 0.995286 3.5785 0 0 0 190 205 210 255
1.86017 1.02993 3.82927 0 0 0 181 208 211 255
-0.216838 1.00111 3.50729 0 0 0 136 114 108 255
-0.167419 1.01502 3.51942 0 0 0 57 61 65 255
0.216594 1.07671 3.57167 0 0 0 112 127 130 255
0.415936 1.07628 3.58314 0 0 0 191 206 213 255
0.993073 1.08731 3.65056 0 0 0 178 190 197 255
-0.011933 1.08993 3.56751 0 0 0 135 143 148 255
0.152113 1.09272 3.57573 0 0 0 192 204 211 255
1.04528 1.10111 3.66067 0 0 0 117 128 134 255
1.30546 1.11391 3.69564 0 0 0 82 123 147 255
2.00093 1.13585 3.82365 0 0 0 108 96 74 255
0.100811 1.11376 3.57218 0 0 0 112 124 132 255
-0.150571 1.15317 3.53603 0 0 0 162 190 172 255
0.427883 1.16506 3.58263 0 0 0 125 135 146 255
1.40212 1.23357 3.73009 0 0 0 183 200 206 255
-0.0544439 1.21004 3.53497 0 0 0 133 139 142 255
0.879336 1.29276 3.63758 0 0 0 138 153 158 255
1.88171 1.35323 3.81619 0 0 0 173 190 195 255
1.70336 1.41639 3.77901 0 0 0 188 167 169 255
0.946175 1.56944 3.66237 0 0 0 117 127 131 255
-0.201989 -0.12956 3.52017 0 0 0 195 191 191 255
-0.212595 -0.127734 3.76206 0 0 0 69 53 59 255
-0.162698 0.0462274 3.61875 0 0 0 45 53 58 255
-0.0521937 0.199015 3.57025 0 0 0 163 189 156 255
0.852998 0.193165 3.62977 0 0 0 162 184 139 255
0.734625 0.319155 3.6164 0 0 0 80 90 82 255
0.221987 0.356764 3.58367 0 0 0 160 178 129 255
0.885764 0.439247 3.63539 0 0 0 138 153 114 255
1.67033 0.472689 3.82625 0 0 0 192 174 167 255
0.498964 0.451131 3.59399 0 0 0 165 185 131 255
0.612064 0.491542 3.59592 0 0 0 51 65 61 255
-0.0610551 0.494132 3.57313 0 0 0 153 169 142 255
0.162095 0.506418 3.57499 0 0 0 72 85 83 255
0.526411 0.596903 3.58628 0 0 0 149 169 124 255
1.29653 0.72033 3.71663 0 0 0 56 56 63 255
2.02734 0.756482 3.84508 0 0 0 174 190 202 255
1.25952 0.782759 3.70994 0 0 0 49 129 162 255
1.93277 0.80438 3.824 0 0 0 98 117 132 255
1.4631 0.836236 3.73822 0 0 0 199 145 89 255
1.55928 0.837189 3.77534 0 0 0 200 154 115 255
1.84331 0.880422 3.79952 0 0 0 100 117 126 255
1.26056 0.898623 3.68977 0 0 0 156 175 180 255
1.98952 0.915167 3.83757 0 0 0 66 65 69 255
0.537608 0.931847 3.58719 0 0 0 145 153 160 255
1.46567 0.975661 3.737 0 0 0 61 64 68 255
1.84303 1.03212 3.81841 0 0 0 190 205 212 255
0.971008 1.02182 3.64445 0 0 0 103 113 119 255
0.74908 1.04352 3.61268 0 0 0 179 187 194 255
-0.00821609 1.05097 3.57066 0 0 0 93 106 112 255
0.965533 1.10116 3.64695 0 0 0 184 199 206 255
1.8153 1.13542 3.79928 0 0 0 115 127 131 255
-0.126802 1.12038 3.51586 0 0 0 157 189 167 255
0.087958 1.11604 3.57145 0 0 0 106 118 126 255
1.41519 1.20111 3.72897 0 0 0 183 200 206 255
-0.15425 1.18209 3.48694 0 0 0 51 58 59 255
0.635644 1.1973 3.60296 0 0 0 169 181 191 255
1.79169 1.29596 3.80046 0 0 0 195 209 219 255
1.84224 1.33366 3.79305 0 0 0 169 184 193 255
1.28793 1.3333 3.73052 0 0 0 168 189 196 255
-0.190457 1.33068 3.44465 0 0 0 138 111 103 255
1.39958 1.41364 3.72561 0 0 0 191 181 180 255
1.64082 1.41734 3.75782 0 0 0 190 183 186 255
-0.145867 0.0645918 3.55351 0 0 0 43 49 52 255
0.415803 0.302587 3.58553 0 0 0 69 84 81 255
0.768492 0.331947 3.62142 0 0 0 54 65 55 255
0.821924 0.29686 3.64648 0 0 0 167 183 130 255
0.24821 0.359364 3.58389 0 0 0 148 166 127 255
0.390702 0.335405 3.57641 0 0 0 50 64 60 255
-0.0532513 0.406419 3.57696 0 0 0 165 189 147 255
0.508733 0.415949 3.59672 0 0 0 158 179 131 255
0.152826 0.697914 3.57243 0 0 0 86 101 88 255
0.891563 0.698957 3.63537 0 0 0 165 182 131 255
1.54724 0.853032 3.75021 0 0 0 202 157 106 255
-0.247178 0.860059 3.5602 0 0 0 120 97 84 255
1.47753 0.942963 3.73175 0 0 0 71 60 67 255
0.366821 0.93635 3.57426 0 0 0 190 206 214 255
0.71586 0.940135 3.60786 0 0 0 189 204 211 255
0.908664 0.937175 3.62921 0 0 0 189 206 212 255
0.962072 0.937948 3.6488 0 0 0 192 204 208 255
1.0926 0.946071 3.64764 0 0 0 158 168 176 255
1.47321 0.971901 3.72039 0 0 0 61 60 63 255
-0.17603 0.964183 3.56551 0 0 0 64 73 75 255
1.09248 0.971975 3.6465 0 0 0 154 166 170 255
1.73403 1.03003 3.82874 0 0 0 88 76 78 255
0.845383 1.12415 3.62519 0 0 0 94 104 112 255
0.936378 1.09456 3.63905 0 0 0 156 166 170 255
1.70128 1.19108 3.78289 0 0 0 191 206 215 255
1.7891 1.23394 3.78736 0 0 0 196 209 216 255
-0.0197226 1.21136 3.55304 0 0 0 188 200 203 255
-0.159594 1.23587 3.51034 0 0 0 48 54 55 255
1.77001 1.29254 3.78384 0 0 0 191 211 219 255
1.08421 1.28094 3.67609 0 0 0 139 153 161 255
2.31617 -0.795344 5.56765 0 0 0 132 142 145 255
2.31766 -0.707314 5.59289 0 0 0 81 81 89 255
1.25282 -0.0653505 3.79084 0 0 0 88 93 97 255
1.8264 0.272278 3.8526 0 0 0 183 157 148 255
1.89991 0.274064 3.82776 0 0 0 187 160 142 255
1.99912 0.278262 3.85876 0 0 0 195 152 137 255
1.65582 0.277274 3.77796 0 0 0 200 174 162 255
2.18929 0.284447 3.87435 0 0 0 188 159 149 255
1.72296 0.27906 3.82141 0 0 0 192 161 142 255
2.11222 0.291125 3.86955 0 0 0 196 161 148 255
1.86414 0.292215 3.87187 0 0 0 207 177 160 255
1.69117 0.289898 3.81215 0 0 0 173 128 100 255
1.87571 0.302175 3.87072 0 0 0 195 183 176 255
1.96723 0.304058 3.92178 0 0 0 208 184 173 255
1.75587 0.30383 3.82543 0 0 0 195 157 136 255
1.7928 0.302859 3.84364 0 0 0 201 165 153 255
1.9121 0.310566 3.91075 0 0 0 219 182 162 255
1.9335 0.306428 3.87192 0 0 0 194 168 156 255
2.19386 0.320675 3.9014 0 0 0 203 175 165 255
1.67054 0.315623 3.81173 0 0 0 163 139 128 255
1.95158 0.321407 3.87707 0 0 0 151 134 129 255
2.04417 0.320542 3.82639 0 0 0 170 139 126 255
2.30957 0.323222 3.92515 0 0 0 205 169 149 255
2.33818 0.32581 3.90553 0 0 0 199 165 139 255
2.06995 0.323969 3.91296 0 0 0 191 167 161 255
1.94362 0.3429 3.80608 0 0 0 159 132 112 255
2.03708 0.343965 3.81764 0 0 0 156 148 137 255
2.23531 0.351908 3.90436 0 0 0 164 136 127 255
1.79215 0.347542 3.84145 0 0 0 203 182 176 255
1.82463 0.348011 3.84461 0 0 0 195 177 167 255
1.90153 0.349405 3.85491 0 0 0 192 169 153 255
2.00217 0.355946 3.89219 0 0 0 191 162 153 255
1.8695 0.353422 3.88205 0 0 0 203 193 185 255
2.05173 0.363652 3.82132 0 0 0 191 181 185 255
2.14622 0.358752 3.93606 0 0 0 201 192 188 255
2.18657 0.363676 3.87333 0 0 0 189 152 137 255
2.29165 0.366689 3.92936 0 0 0 196 175 168 255
2.2553 0.369499 3.94173 0 0 0 191 174 167 255
2.31662 0.368558 3.89129 0 0 0 193 182 185 255
1.92514 0.378987 3.82144 0 0 0 187 144 117 255
2.17424 0.424006 3.90558 0 0 0 209 168 146 255
2.1243 0.441117 3.86937 0 0 0 201 184 187 255
2.16085 0.441839 3.90144 0 0 0 201 172 152 255
2.19529 0.443832 3.91123 0 0 0 189 185 179 255
2.22701 0.448613 3.91116 0 0 0 210 177 165 255
2.25818 0.44557 3.92366 0 0 0 199 181 182 255
2.28541 0.448792 3.91014 0 0 0 205 187 166 255
2.33959 0.449659 3.93768 0 0 0 201 162 148 255
0.148409 0.407688 3.57712 0 0 0 53 67 58 255
2.02189 0.453802 3.88477 0 0 0 168 128 108 255
2.10642 0.451828 3.88685 0 0 0 157 140 132 255
2.10448 0.453496 3.84618 0 0 0 165 129 114 255
2.17741 0.45736 3.84902 0 0 0 156 151 144 255
2.13425 0.466389 3.89987 0 0 0 194 196 185 255
2.31053 0.483181 3.91901 0 0 0 173 133 108 255
2.09451 0.484968 3.86584 0 0 0 154 133 109 255
2.13155 0.511281 3.92858 0 0 0 188 155 146 255
2.22076 0.512264 3.88302 0 0 0 201 188 180 255
2.191 0.51649 3.91372 0 0 0 199 189 193 255
0.467282 0.482671 3.58825 0 0 0 131 142 121 255
2.28837 0.530433 3.89567 0 0 0 177 126 89 255
2.2824 0.554635 3.92881 0 0 0 205 187 190 255
-0.0557521 0.531861 3.57207 0 0 0 114 124 113 255
0.109593 0.534622 3.57163 0 0 0 107 122 109 255
1.33638 0.704546 3.72437 0 0 0 90 58 44 255
-0.075092 0.678888 3.56811 0 0 0 128 136 125 255
2.44087 0.746329 3.95336 0 0 0 95 91 89 255
-0.0332534 0.692591 3.5689 0 0 0 50 57 54 255
0.274128 0.697763 3.57157 0 0 0 135 152 112 255
0.147001 0.709009 3.56829 0 0 0 163 175 149 255
0.284422 0.770596 3.57179 0 0 0 38 50 54 255
2.41702 0.827609 3.8595 0 0 0 73 80 84 255
0.584718 0.791997 3.58936 0 0 0 54 62 68 255
0.684168 0.793988 3.60397 0 0 0 39 49 53 255
0.764747 0.798305 3.62319 0 0 0 98 99 104 255
0.0871511 0.78562 3.56352 0 0 0 76 80 84 255
1.49633 0.819709 3.72833 0 0 0 133 91 68 255
1.9436 0.831254 3.78806 0 0 0 103 134 143 255
0.017773 0.800462 3.56182 0 0 0 43 50 52 255
0.489076 0.806513 3.58408 0 0 0 101 106 108 255
0.683067 0.811167 3.60117 0 0 0 94 99 105 255
1.59272 0.862448 3.73206 0 0 0 161 110 87 255
0.572739 0.837424 3.58896 0 0 0 59 68 73 255
1.27789 0.860772 3.68109 0 0 0 37 93 118 255
2.04662 0.902046 3.80932 0 0 0 154 142 135 255
2.70288 1.24696 4.89781 0 0 0 61 67 70 255
2.74297 1.26879 4.96916 0 0 0 131 148 158 255
0.718995 1.07348 3.60407 0 0 0 172 181 187 255
0.237257 1.08123 3.57307 0 0 0 139 147 154 255
0.223477 1.20883 3.5769 0 0 0 189 197 200 255
1.99254 1.26466 3.83494 0 0 0 150 147 121 255
0.361437 1.23045 3.58316 0 0 0 175 181 184 255
0.038175 1.3034 3.5503 0 0 0 108 122 118 255
2.0468 1.43965 3.86315 0 0 0 195 170 169 255
2.26451 1.38194 3.66922 0 0 0 198 170 161 255
1.84461 1.42258 3.74446 0 0 0 176 160 155 255
0.930627 1.54758 3.61795 0 0 0 74 89 95 255
0.566624 1.56058 3.60519 0 0 0 118 127 134 255
0.620561 1.54864 3.56993 0 0 0 66 71 79 255
0.527247 1.55688 3.56827 0 0 0 120 132 137 255
0.768659 1.5548 3.57938 0 0 0 114 126 131 255
2.31472 -0.779327 5.55874 0 0 0 82 90 94 255
2.31656 -0.70138 5.58869 0 0 0 90 90 98 255
1.82334 0.279892 3.7936 0 0 0 192 168 160 255
1.65863 0.282997 3.78101 0 0 0 204 191 186 255
1.68817 0.280652 3.78951 0 0 0 184 124 83 255
2.11071 0.293657 3.86489 0 0 0 196 161 148 255
0.213989 0.261724 3.59446 0 0 0 145 162 122 255
1.86081 0.298846 3.85554 0 0 0 210 186 174 255
1.94198 0.337828 3.81239 0 0 0 160 133 114 255
1.81796 0.346579 3.78185 0 0 0 195 177 167 255
1.78596 0.35069 3.7974 0 0 0 198 183 174 255
1.85892 0.35213 3.80081 0 0 0 201 177 171 255
2.13283 0.355414 3.86686 0 0 0 192 181 174 255
2.18895 0.359938 3.89319 0 0 0 189 152 137 255
2.04042 0.363479 3.81992 0 0 0 196 187 188 255
2.17906 0.436989 3.91802 0 0 0 188 192 205 255
2.2345 0.444547 3.86279 0 0 0 175 143 125 255
2.27917 0.456026 3.88101 0 0 0 205 184 175 255
2.01069 0.459283 3.81607 0 0 0 172 127 104 255
2.12516 0.471998 3.85562 0 0 0 192 181 179 255
2.10514 0.511718 3.82408 0 0 0 199 187 169 255
0.870811 0.479902 3.63241 0 0 0 101 114 96 255
2.28033 0.522526 3.90095 0 0 0 179 124 79 255
-0.212089 0.503542 3.57118 0 0 0 74 70 67 255
0.88686 0.540577 3.63194 0 0 0 131 146 111 255
0.0175454 0.527279 3.5762 0 0 0 137 151 135 255
1.32674 0.7076 3.73785 0 0 0 86 55 36 255
2.42941 0.779656 3.93227 0 0 0 92 119 131 255
2.4089 0.820279 3.86721 0 0 0 89 94 94 255
1.95142 0.839624 3.85724 0 0 0 103 134 143 255
2.41343 1.08468 3.93102 0 0 0 79 113 139 255
-0.145917 1.00919 3.53413 0 0 0 90 100 94 255
0.100554 1.03562 3.57364 0 0 0 191 202 205 255
2.69599 1.24757 4.87989 0 0 0 61 67 70 255
2.73264 1.33762 4.95984 0 0 0 181 172 164 255
0.229402 1.20642 3.57524 0 0 0 186 197 198 255
2.26107 1.38744 3.66903 0 0 0 171 153 148 255
2.31547 -0.788642 5.57048 0 0 0 91 102 103 255
2.31601 -0.729725 5.60398 0 0 0 84 84 92 255
-0.233544 -0.1303 3.68303 0 0 0 72 66 67 255
1.23929 -0.0650718 3.79875 0 0 0 96 111 122 255
1.68515 0.280898 3.7879 0 0 0 177 128 96 255
1.82071 0.269917 3.80367 0 0 0 183 157 148 255
1.65797 0.285449 3.77755 0 0 0 204 191 186 255
1.72204 0.282908 3.8216 0 0 0 202 179 165 255
2.00041 0.282495 3.86021 0 0 0 205 178 174 255
2.17219 0.291824 3.91827 0 0 0 189 163 140 255
2.11413 0.298885 3.86691 0 0 0 210 185 170 255
2.06843 0.315738 3.91173 0 0 0 196 172 165 255
2.33656 0.336154 3.90409 0 0 0 200 166 142 255
1.90236 0.330741 3.82306 0 0 0 210 191 180 255
2.13399 0.355226 3.86389 0 0 0 198 190 186 255
1.77408 0.349598 3.79078 0 0 0 187 170 156 255
2.23707 0.369518 3.92275 0 0 0 189 182 185 255
2.31843 0.37582 3.88805 0 0 0 185 184 189 255
1.00484 0.353027 3.66115 0 0 0 120 135 109 255
1.78876 0.429203 3.79637 0 0 0 198 173 162 255
1.89444 0.441694 3.80127 0 0 0 178 169 165 255
2.04248 0.436469 3.92561 0 0 0 201 194 206 255
2.09792 0.424615 3.86546 0 0 0 176 127 82 255
2.16881 0.432311 3.86385 0 0 0 187 191 204 255
2.28117 0.453704 3.88595 0 0 0 205 184 175 255
2.3307 0.455478 3.90787 0 0 0 196 180 174 255
2.28737 0.465395 3.88774 0 0 0 198 199 199 255
2.03712 0.491259 3.82564 0 0 0 201 182 178 255
2.22129 0.506658 3.88814 0 0 0 197 185 178 255
2.1058 0.513507 3.86364 0 0 0 201 188 173 255
2.17775 0.513867 3.90498 0 0 0 198 197 197 255
2.27969 0.553895 3.88304 0 0 0 204 191 199 255
0.181673 0.558128 3.56879 0 0 0 138 155 113 255
0.0643808 0.627207 3.57423 0 0 0 90 104 100 255
0.539555 0.649974 3.59022 0 0 0 148 167 128 255
1.31261 0.68668 3.69308 0 0 0 163 118 83 255
0.932249 0.693952 3.63902 0 0 0 151 167 127 255
2.01664 0.722824 3.81394 0 0 0 190 159 140 255
2.41737 0.738149 3.87399 0 0 0 124 94 82 255
0.452088 0.713234 3.58462 0 0 0 119 132 111 255
2.4297 0.770658 3.92775 0 0 0 94 114 126 255
0.739169 0.739829 3.60986 0 0 0 156 167 138 255
0.969972 0.794485 3.64481 0 0 0 128 129 136 255
2.18083 0.837171 3.90696 0 0 0 168 195 207 255
2.43136 0.84566 3.9481 0 0 0 66 74 79 255
2.32798 0.871663 3.84755 0 0 0 90 67 66 255
1.39914 0.899513 3.70969 0 0 0 186 143 89 255
1.9427 0.947405 3.78879 0 0 0 100 87 72 255
0.650904 0.917622 3.59916 0 0 0 128 145 149 255
0.857888 0.964274 3.62581 0 0 0 126 137 144 255
0.47176 1.00568 3.58938 0 0 0 97 115 118 255
2.42978 1.08936 3.98561 0 0 0 77 112 139 255
0.208317 1.03404 3.57308 0 0 0 187 198 202 255
2.70573 1.25046 4.90398 0 0 0 61 67 70 255
0.96212 1.08605 3.60621 0 0 0 188 203 206 255
-0.136655 1.06696 3.55733 0 0 0 101 133 113 255
9.61907e-05 1.07876 3.56842 0 0 0 182 190 196 255
1.08505 1.08844 3.62272 0 0 0 178 186 191 255
2.73031 1.33208 4.9539 0 0 0 181 172 164 255
0.383168 1.10351 3.57458 0 0 0 135 146 152 255
1.02671 1.10951 3.60941 0 0 0 97 112 115 255
0.792291 1.17449 3.62174 0 0 0 104 116 122 255
2.38562 1.23461 3.80001 0 0 0 88 96 98 255
0.470244 1.20118 3.5838 0 0 0 107 119 127 255
0.226873 1.19898 3.57455 0 0 0 174 183 187 255
1.13571 1.29816 3.64206 0 0 0 118 130 134 255
2.27656 1.40896 3.74548 0 0 0 171 153 148 255
0.798417 1.55084 3.59718 0 0 0 139 145 153 255
2.25882 1.47809 3.24706 0 0 0 181 119 111 255
-0.221473 -0.150217 3.59327 0 0 0 184 182 183 255
1.2353 0.0560284 3.68996 0 0 0 45 51 54 255
2.15129 0.350484 3.95661 0 0 0 183 170 167 255
2.3115 0.34286 3.90644 0 0 0 191 189 194 255
0.240259 0.316096 3.61563 0 0 0 165 184 136 255
2.03853 0.365676 3.83103 0 0 0 189 178 177 255
1.92602 0.367547 3.81636 0 0 0 188 189 182 255
0.186805 0.365377 3.58189 0 0 0 148 161 119 255
1.66509 0.408761 3.76413 0 0 0 202 179 176 255
0.2719 0.441547 3.5779 0 0 0 93 108 87 255
2.21983 0.50966 3.8807 0 0 0 197 185 178 255
0.620696 0.480386 3.59714 0 0 0 55 71 69 255
0.571989 0.51222 3.59334 0 0 0 61 73 77 255
0.445293 0.602149 3.5828 0 0 0 74 84 73 255
0.997472 0.637668 3.65024 0 0 0 88 102 95 255
2.42806 0.753059 3.94714 0 0 0 90 94 93 255
0.467933 0.727686 3.58604 0 0 0 83 92 74 255
0.137523 0.718049 3.57279 0 0 0 166 181 142 255
0.132739 0.757431 3.57203 0 0 0 41 50 41 255
2.33462 0.852835 3.85204 0 0 0 93 80 74 255
2.38561 0.858173 3.83887 0 0 0 65 68 75 255
1.59452 0.849877 3.79719 0 0 0 193 151 111 255
2.33189 0.887012 3.84209 0 0 0 71 71 81 255
2.04385 0.893792 3.80744 0 0 0 145 128 120 255
2.28408 0.936428 3.84189 0 0 0 162 174 180 255
2.39893 0.941812 3.86194 0 0 0 65 70 80 255
1.83091 0.943386 3.75652 0 0 0 103 119 128 255
0.424972 0.982028 3.58157 0 0 0 193 205 211 255
0.959567 1.01217 3.64134 0 0 0 94 106 110 255
2.39484 1.05697 3.87124 0 0 0 77 117 143 255
0.0737208 1.07933 3.56757 0 0 0 183 192 196 255
1.70041 1.15949 3.71901 0 0 0 186 207 214 255
2.25967 1.17386 3.80736 0 0 0 167 196 212 255
2.36857 1.23227 3.77397 0 0 0 93 97 97 255
-0.0164246 1.18612 3.51324 0 0 0 188 203 208 255
0.635498 1.2289 3.6036 0 0 0 148 160 165 255
0.673889 1.21521 3.5981 0 0 0 196 211 215 255
2.49508 1.35511 4.12641 0 0 0 157 169 174 255
1.86569 1.36082 3.86841 0 0 0 173 190 196 255
2.24747 1.4072 3.72405 0 0 0 186 174 174 255
0.319869 1.40674 3.59307 0 0 0 81 94 97 255
1.24104 -0.0754569 3.86344 0 0 0 92 99 104 255
1.20238 -0.0134687 3.80517 0 0 0 161 171 168 255
-0.130012 -0.0192045 3.72476 0 0 0 144 153 155 255
0.369492 0.278757 3.65106 0 0 0 60 72 64 255
2.31045 0.34364 3.90536 0 0 0 199 187 187 255
0.759708 0.395424 3.61621 0 0 0 108 121 108 255
1.98368 0.446556 3.79434 0 0 0 184 170 155 255
0.718001 0.442019 3.60676 0 0 0 40 51 50 255
1.90207 0.481672 3.81789 0 0 0 192 175 173 255
2.07305 0.482441 3.83523 0 0 0 195 182 176 255
2.29785 0.510729 3.90205 0 0 0 185 180 173 255
0.972442 0.561338 3.65253 0 0 0 92 109 101 255
0.449245 0.636338 3.58148 0 0 0 43 54 53 255
0.643605 0.654565 3.59529 0 0 0 147 167 124 255
0.087034 0.653925 3.57442 0 0 0 47 60 59 255
0.726893 0.666964 3.61018 0 0 0 42 53 52 255
2.41383 0.725847 3.88347 0 0 0 167 115 91 255
1.51338 0.71888 3.72018 0 0 0 155 162 160 255
0.11138 0.694908 3.57343 0 0 0 91 97 90 255
2.04186 0.817731 3.83056 0 0 0 81 102 116 255
2.16932 0.841937 3.90828 0 0 0 175 199 210 255
2.39096 0.860872 3.83317 0 0 0 65 69 75 255
2.11384 0.880738 3.8414 0 0 0 81 104 119 255
2.34567 0.881625 3.84382 0 0 0 68 69 78 255
1.96647 0.91101 3.79434 0 0 0 67 70 79 255
2.10686 0.910342 3.83906 0 0 0 76 90 102 255
2.40423 0.938392 3.86426 0 0 0 68 74 84 255
2.28379 0.942303 3.8358 0 0 0 163 175 181 255
1.8478 0.948456 3.74618 0 0 0 85 99 110 255
1.25507 0.955021 3.67937 0 0 0 152 167 172 255
1.91884 0.964415 3.78127 0 0 0 137 127 115 255
2.13804 0.993895 3.87451 0 0 0 176 197 216 255
1.75723 1.03593 3.75677 0 0 0 96 88 94 255
2.35886 1.04612 3.81175 0 0 0 77 120 145 255
0.366644 1.06097 3.58047 0 0 0 120 133 140 255
0.456518 1.07556 3.5826 0 0 0 186 205 210 255
2.73673 1.28805 4.94961 0 0 0 67 75 80 255
0.417224 1.09061 3.58263 0 0 0 194 209 215 255
0.55288 1.10471 3.59096 0 0 0 169 179 185 255
0.989468 1.11373 3.6182 0 0 0 167 179 185 255
2.00287 1.15605 3.74992 0 0 0 73 74 77 255
0.482536 1.13877 3.58409 0 0 0 119 131 138 255
2.05525 1.18788 3.79959 0 0 0 69 73 77 255
2.26576 1.16946 3.81244 0 0 0 173 199 216 255
0.314899 1.19335 3.57873 0 0 0 190 202 206 255
2.49806 1.35859 4.11997 0 0 0 157 169 176 255
1.11476 1.28679 3.64546 0 0 0 125 142 146 255
1.83792 1.33296 3.84609 0 0 0 183 205 210 255
1.3843 1.30652 3.64363 0 0 0 105 90 91 255
2.24736 1.3181 3.72217 0 0 0 84 78 80 255
2.32351 1.32068 3.72846 0 0 0 81 80 82 255
1.2027 0.0515966 3.77054 0 0 0 50 53 62 255
0.848146 0.215411 3.65279 0 0 0 162 185 133 255
0.7919 0.365123 3.61759 0 0 0 47 62 57 255
0.146065 0.442583 3.57344 0 0 0 68 81 79 255
0.969723 0.550859 3.65898 0 0 0 92 109 99 255
