ply
format ascii 1.0
comment VCGLIB generated
element vertex 1022
property float x
property float y
property float z
property float nx
property float ny
property float nz
property uchar red
property uchar green
property uchar blue
property uchar alpha
element face 0
property list uchar int vertex_indices
end_header
-0.0251465 1.14782 3.55686 0 0 0 187 192 195 255
0.0532693 1.1382 3.55825 0 0 0 129 138 138 255
0.142106 1.13383 3.56532 0 0 0 186 195 195 255
0.190146 1.13002 3.56193 0 0 0 196 204 206 255
-0.646253 1.21662 3.65977 0 0 0 97 80 70 255
-0.16869 1.16184 3.54195 0 0 0 148 165 150 255
0.349852 1.13055 3.57266 0 0 0 189 195 198 255
0.920907 1.11154 3.64119 0 0 0 112 113 118 255
0.0809647 1.15586 3.55942 0 0 0 191 200 200 255
0.992742 1.12159 3.66315 0 0 0 197 201 203 255
-0.714223 1.23891 3.65308 0 0 0 97 77 70 255
-0.022868 1.17287 3.55152 0 0 0 139 143 147 255
-0.762872 1.24769 3.57991 0 0 0 86 62 54 255
0.856754 1.15441 3.63437 0 0 0 88 94 97 255
0.966396 1.15284 3.65477 0 0 0 185 194 196 255
0.869767 1.16698 3.63793 0 0 0 161 172 173 255
0.119541 1.20886 3.55935 0 0 0 192 198 199 255
0.906533 1.17999 3.64513 0 0 0 191 196 199 255
-0.56272 1.27479 3.59636 0 0 0 111 89 81 255
0.412461 1.20398 3.57463 0 0 0 192 201 203 255
-0.625458 1.31068 3.6152 0 0 0 115 96 84 255
-0.593273 1.33284 3.61877 0 0 0 95 76 64 255
-0.696586 1.32891 3.53934 0 0 0 111 100 95 255
-0.599228 1.34796 3.60073 0 0 0 127 104 93 255
-0.55801 1.3633 3.62453 0 0 0 106 85 72 255
-0.601053 1.42824 3.53466 0 0 0 87 74 67 255
-0.518282 1.52221 3.56708 0 0 0 135 113 106 255
-0.471683 1.5142 3.56424 0 0 0 122 106 99 255
-0.414055 1.51255 3.5551 0 0 0 140 105 100 255
-0.563129 1.5273 3.50702 0 0 0 124 110 108 255
1.22955 -0.115576 4.08889 0 0 0 106 117 126 255
-1.40455 -0.099211 4.54404 0 0 0 136 108 96 255
-0.693823 -0.0209072 3.92091 0 0 0 139 123 108 255
-0.229332 -0.0392749 3.8768 0 0 0 160 165 164 255
-0.847137 -0.0180775 3.94081 0 0 0 146 107 95 255
-0.893076 -0.00149926 3.90776 0 0 0 141 108 95 255
-2.02084 -0.163779 5.53536 0 0 0 196 177 166 255
-0.675298 0.0138013 3.88789 0 0 0 145 129 114 255
-0.987843 0.0334188 3.92896 0 0 0 197 178 162 255
-0.866486 0.0286544 3.92605 0 0 0 197 182 164 255
-0.762373 0.0150778 3.92412 0 0 0 197 181 166 255
-1.4847 -0.0237858 4.57925 0 0 0 148 112 94 255
-0.695136 0.0451979 3.90971 0 0 0 194 180 166 255
-0.588793 0.0410063 3.88604 0 0 0 198 182 167 255
-1.0526 0.0592134 3.87562 0 0 0 149 120 105 255
-0.773341 0.0770306 3.91049 0 0 0 144 104 95 255
-0.658841 0.0850036 3.82139 0 0 0 136 103 93 255
-0.615848 0.0735344 3.89035 0 0 0 138 108 98 255
-0.075742 0.166544 3.57708 0 0 0 157 165 153 255
-1.75995 0.155985 5.1863 0 0 0 138 113 94 255
-0.927032 0.215951 3.88173 0 0 0 152 125 109 255
-0.81337 0.213327 3.9067 0 0 0 135 100 85 255
-0.744529 0.21166 3.88107 0 0 0 147 115 98 255
0.895643 0.189264 3.63904 0 0 0 161 174 133 255
-1.38898 0.196535 4.45492 0 0 0 132 108 86 255
1.01289 0.194729 3.63175 0 0 0 131 139 125 255
-0.897415 0.233672 3.8885 0 0 0 203 180 167 255
0.0792603 0.24007 3.57104 0 0 0 107 123 90 255
-0.763055 0.243766 3.86019 0 0 0 198 178 158 255
0.95224 0.211706 3.63605 0 0 0 122 131 114 255
-1.02851 0.279016 3.84526 0 0 0 165 134 115 255
-0.856078 0.26762 3.87761 0 0 0 153 126 109 255
0.353401 0.249287 3.57895 0 0 0 75 85 59 255
-1.75831 0.260385 5.03257 0 0 0 137 111 94 255
-0.814599 0.279481 3.89428 0 0 0 140 113 99 255
0.0937352 0.260044 3.57 0 0 0 133 147 115 255
-1.05052 0.301728 3.85256 0 0 0 160 130 113 255
-0.971138 0.296341 3.84385 0 0 0 136 106 91 255
-0.729188 0.30126 3.85932 0 0 0 142 112 95 255
-0.879603 0.295842 3.88154 0 0 0 180 153 140 255
0.7247 0.310927 3.60766 0 0 0 78 89 63 255
-1.62766 0.390362 4.83781 0 0 0 101 91 81 255
-1.03933 0.392439 3.82274 0 0 0 153 138 123 255
0.13212 0.356078 3.56644 0 0 0 92 103 74 255
-0.902526 0.39784 3.87667 0 0 0 166 151 142 255
-0.773313 0.387375 3.8611 0 0 0 177 158 144 255
-0.64541 0.391646 3.8332 0 0 0 128 112 99 255
0.309674 0.369395 3.57122 0 0 0 145 156 114 255
0.328265 0.36538 3.57194 0 0 0 124 133 116 255
0.73726 0.352771 3.60203 0 0 0 137 145 123 255
-0.961565 0.4097 3.83446 0 0 0 154 140 125 255
-0.575267 0.41097 3.80836 0 0 0 147 133 118 255
0.132974 0.390238 3.56401 0 0 0 156 167 138 255
0.618818 0.357763 3.59315 0 0 0 113 121 97 255
0.997584 0.345166 3.63202 0 0 0 147 155 135 255
-0.684931 0.423104 3.81501 0 0 0 126 115 107 255
-0.623269 0.43277 3.76392 0 0 0 127 119 106 255
-0.0663514 0.404379 3.56652 0 0 0 169 183 151 255
-0.740839 0.436034 3.80115 0 0 0 130 117 105 255
-0.0241233 0.442865 3.57103 0 0 0 88 101 74 255
0.12031 0.428334 3.56428 0 0 0 134 149 114 255
0.63976 0.416442 3.5908 0 0 0 157 167 130 255
0.720928 0.423231 3.59749 0 0 0 53 61 51 255
-0.0656194 0.478801 3.5645 0 0 0 167 178 149 255
0.112442 0.473102 3.56148 0 0 0 155 167 133 255
0.756083 0.437659 3.60016 0 0 0 87 98 87 255
-0.225966 0.494409 3.57496 0 0 0 180 170 160 255
-0.0205599 0.481299 3.56373 0 0 0 167 184 148 255
-1.43094 0.556293 4.49216 0 0 0 155 145 146 255
-0.945709 0.538964 3.82454 0 0 0 135 90 83 255
-0.75009 0.543521 3.81272 0 0 0 92 86 81 255
-0.624218 0.541339 3.76834 0 0 0 132 122 124 255
0.49189 0.489008 3.58131 0 0 0 160 174 126 255
-0.56075 0.538408 3.75474 0 0 0 158 152 154 255
-0.0352943 0.516837 3.56494 0 0 0 72 83 69 255
0.635968 0.491316 3.58793 0 0 0 46 53 51 255
0.701504 0.492654 3.59524 0 0 0 125 131 122 255
0.886802 0.478143 3.62572 0 0 0 141 152 113 255
0.0198857 0.539812 3.56628 0 0 0 171 187 143 255
0.057148 0.532539 3.56413 0 0 0 71 83 62 255
-0.0249624 0.55288 3.56257 0 0 0 67 80 68 255
0.562974 0.52377 3.5825 0 0 0 57 63 54 255
0.844699 0.531205 3.61997 0 0 0 119 127 118 255
0.369903 0.553893 3.56497 0 0 0 124 131 125 255
-0.0598168 0.586902 3.56141 0 0 0 157 167 145 255
0.433611 0.563173 3.57333 0 0 0 134 144 119 255
0.0240861 0.588634 3.56505 0 0 0 86 89 74 255
0.883243 0.552976 3.62199 0 0 0 144 156 120 255
0.99951 0.546943 3.6469 0 0 0 114 122 102 255
0.447406 0.59131 3.57195 0 0 0 99 109 83 255
0.113635 0.625754 3.5616 0 0 0 74 82 72 255
-0.0145122 0.647955 3.55886 0 0 0 102 116 92 255
0.109613 0.638032 3.56046 0 0 0 70 77 72 255
-0.0643714 0.664826 3.5558 0 0 0 150 159 139 255
0.130193 0.665145 3.56284 0 0 0 141 151 127 255
0.535955 0.638574 3.57781 0 0 0 160 172 123 255
-0.0456066 0.692454 3.555 0 0 0 48 59 48 255
0.999474 0.651123 3.64722 0 0 0 93 96 95 255
-0.0303054 0.713273 3.55768 0 0 0 104 111 108 255
0.6419 0.68639 3.58832 0 0 0 68 76 65 255
0.76289 0.685039 3.61276 0 0 0 144 154 134 255
0.10678 0.728888 3.56559 0 0 0 161 174 140 255
0.457831 0.723079 3.57776 0 0 0 111 117 95 255
0.609182 0.703685 3.57954 0 0 0 152 162 140 255
0.718767 0.698567 3.60129 0 0 0 55 62 60 255
0.528937 0.729079 3.57301 0 0 0 155 163 122 255
0.690104 0.734319 3.59396 0 0 0 129 137 122 255
0.729545 0.73016 3.60188 0 0 0 144 154 132 255
-0.95587 0.839984 3.68602 0 0 0 54 38 29 255
-0.0989394 0.779672 3.54944 0 0 0 97 104 102 255
0.0416642 0.782904 3.57573 0 0 0 107 112 118 255
0.0273375 0.784386 3.55164 0 0 0 97 101 105 255
0.227511 0.781627 3.5618 0 0 0 173 177 181 255
0.275849 0.779488 3.55847 0 0 0 107 111 115 255
0.302918 0.780487 3.56471 0 0 0 130 134 138 255
0.317727 0.784051 3.56082 0 0 0 111 115 119 255
0.653845 0.770674 3.5978 0 0 0 114 120 123 255
0.548941 0.789873 3.57745 0 0 0 102 108 111 255
0.624364 0.786223 3.58771 0 0 0 159 165 168 255
0.475614 0.79772 3.5675 0 0 0 92 96 100 255
0.570443 0.799426 3.58077 0 0 0 65 70 72 255
0.780717 0.786195 3.61195 0 0 0 85 94 96 255
0.850068 0.789453 3.62166 0 0 0 117 122 127 255
-0.923544 0.898635 3.66241 0 0 0 129 99 86 255
1.09001 0.799171 3.69645 0 0 0 75 76 79 255
0.976345 0.813311 3.64116 0 0 0 106 110 112 255
-0.720341 0.941834 3.78666 0 0 0 127 105 99 255
0.560063 0.845955 3.57755 0 0 0 100 110 114 255
-0.657054 0.945132 3.73427 0 0 0 70 59 54 255
-0.769302 0.970728 3.72685 0 0 0 64 46 43 255
0.098366 0.901367 3.56708 0 0 0 196 202 205 255
-0.912534 0.978365 3.66806 0 0 0 129 101 86 255
-0.714535 0.994047 3.73725 0 0 0 73 49 43 255
-0.912201 1.00078 3.62284 0 0 0 67 49 42 255
0.528468 0.916339 3.5821 0 0 0 173 179 182 255
0.701768 0.907743 3.60597 0 0 0 191 199 204 255
-0.655995 1.00454 3.74133 0 0 0 78 47 41 255
-0.605426 1.00453 3.68997 0 0 0 86 62 54 255
-0.709225 1.03567 3.71733 0 0 0 103 76 68 255
-0.217809 0.986638 3.55325 0 0 0 105 92 89 255
0.852538 0.9499 3.62598 0 0 0 144 153 155 255
0.963868 0.961556 3.64659 0 0 0 144 150 151 255
0.930951 0.971729 3.64316 0 0 0 168 172 174 255
0.967014 0.95294 3.64806 0 0 0 180 189 189 255
-0.726773 1.08229 3.68922 0 0 0 115 89 73 255
-0.0876886 1.02449 3.55211 0 0 0 70 79 79 255
0.405677 0.998232 3.57504 0 0 0 200 206 207 255
-0.672137 1.10406 3.70096 0 0 0 101 79 64 255
-0.107074 1.05509 3.55184 0 0 0 170 183 169 255
0.996378 1.00894 3.65296 0 0 0 168 174 175 255
-0.128488 1.07673 3.54952 0 0 0 98 113 99 255
0.00386093 1.06488 3.56108 0 0 0 168 177 179 255
0.47626 1.05226 3.57839 0 0 0 195 201 204 255
0.759525 1.03296 3.61494 0 0 0 197 201 203 255
0.859784 1.02986 3.62612 0 0 0 187 193 196 255
0.914602 1.02649 3.63942 0 0 0 129 130 133 255
-0.0838974 1.08209 3.54829 0 0 0 77 89 83 255
-0.0255912 1.07778 3.55612 0 0 0 94 100 102 255
0.0625275 1.08046 3.55986 0 0 0 177 183 184 255
0.094733 1.08451 3.55876 0 0 0 185 191 192 255
0.981051 1.03088 3.65144 0 0 0 91 95 97 255
-0.774802 1.16227 3.66752 0 0 0 72 51 40 255
0.731632 1.05554 3.60883 0 0 0 125 129 131 255
-0.907619 1.1602 3.57944 0 0 0 131 109 101 255
0.282713 1.08969 3.57176 0 0 0 197 206 206 255
-0.698449 1.18525 3.67172 0 0 0 100 77 64 255
-0.0871446 1.11911 3.5478 0 0 0 170 190 165 255
0.137969 1.1013 3.56411 0 0 0 134 140 141 255
1.00444 1.07704 3.65875 0 0 0 195 204 204 255
-0.605211 1.18336 3.67377 0 0 0 113 91 80 255
0.758638 1.08033 3.61232 0 0 0 196 202 203 255
-0.0147936 1.13645 3.55733 0 0 0 199 208 210 255
0.013546 1.13469 3.558 0 0 0 197 206 208 255
0.0557475 1.13312 3.55944 0 0 0 109 118 118 255
0.144342 1.13658 3.56656 0 0 0 196 204 204 255
0.292343 1.11206 3.57094 0 0 0 197 206 206 255
1.06836 1.08573 3.66714 0 0 0 137 143 144 255
0.351261 1.13466 3.57313 0 0 0 189 195 198 255
-0.651132 1.22781 3.67615 0 0 0 106 91 82 255
-0.719184 1.24182 3.65116 0 0 0 95 75 68 255
0.079069 1.15859 3.55796 0 0 0 191 200 200 255
-0.0937195 1.18759 3.54995 0 0 0 82 87 81 255
-0.76248 1.25306 3.58531 0 0 0 78 62 58 255
-0.557141 1.26649 3.69221 0 0 0 93 72 65 255
-0.0592108 1.20336 3.55089 0 0 0 159 163 167 255
0.113723 1.21229 3.55627 0 0 0 190 196 197 255
0.655179 1.18935 3.60408 0 0 0 190 196 199 255
0.828739 1.1771 3.63046 0 0 0 148 157 159 255
0.910188 1.17921 3.64638 0 0 0 192 197 200 255
-0.560491 1.27378 3.619 0 0 0 102 79 68 255
-0.733654 1.30799 3.59014 0 0 0 130 103 90 255
-0.634991 1.31792 3.63167 0 0 0 84 70 62 255
-0.0900805 1.26702 3.54577 0 0 0 60 66 67 255
-0.601641 1.34341 3.62885 0 0 0 88 69 58 255
-0.554281 1.3579 3.6244 0 0 0 116 95 82 255
1.12406 1.31342 3.72586 0 0 0 131 135 137 255
-0.57587 1.4332 3.58471 0 0 0 94 76 69 255
-0.548027 1.45591 3.58925 0 0 0 150 122 113 255
-0.497595 1.45226 3.58776 0 0 0 145 110 104 255
-0.376234 1.45796 3.6063 0 0 0 157 126 116 255
-0.706646 1.45534 3.41222 0 0 0 157 136 125 255
-0.530492 1.51032 3.50539 0 0 0 66 66 63 255
-0.98921 -0.026696 3.93958 0 0 0 139 113 99 255
-0.299713 -0.0666626 4.13836 0 0 0 161 162 162 255
-0.622223 -0.00164388 3.91897 0 0 0 138 101 95 255
-0.96129 0.0925413 3.81209 0 0 0 143 106 92 255
-0.982156 0.116256 3.85185 0 0 0 145 104 91 255
-1.74922 0.213637 5.04209 0 0 0 127 95 77 255
0.23973 0.250566 3.57376 0 0 0 77 87 63 255
0.272363 0.257419 3.57658 0 0 0 99 109 83 255
0.471773 0.332974 3.57938 0 0 0 108 119 104 255
0.324517 0.365601 3.5735 0 0 0 127 136 119 255
0.994683 0.339429 3.63895 0 0 0 145 152 134 255
-0.832621 0.406034 3.85132 0 0 0 97 84 81 255
-0.0691538 0.404559 3.56746 0 0 0 169 183 151 255
0.0799754 0.447704 3.56 0 0 0 169 187 133 255
0.713584 0.430181 3.59845 0 0 0 60 67 61 255
0.491836 0.472358 3.582 0 0 0 171 185 137 255
0.884358 0.462938 3.62659 0 0 0 148 160 118 255
0.0604775 0.533259 3.56511 0 0 0 68 80 60 255
0.633472 0.482011 3.58894 0 0 0 56 63 61 255
0.0248409 0.547734 3.56348 0 0 0 171 187 144 255
-0.237291 0.589126 3.56549 0 0 0 121 103 93 255
0.53687 0.563926 3.57592 0 0 0 161 174 122 255
0.0907955 0.606621 3.56387 0 0 0 72 80 67 255
-0.0607944 0.644555 3.55986 0 0 0 160 174 142 255
0.528522 0.632971 3.577 0 0 0 163 178 125 255
0.61233 0.647361 3.58695 0 0 0 156 166 137 255
0.138257 0.729121 3.56222 0 0 0 162 176 128 255
0.719947 0.685932 3.60294 0 0 0 55 62 59 255
0.760422 0.691373 3.61124 0 0 0 143 155 122 255
-0.110778 0.773154 3.5481 0 0 0 95 105 99 255
-0.961002 0.863072 3.70075 0 0 0 46 35 32 255
-0.927687 0.878841 3.68984 0 0 0 120 97 79 255
1.04343 0.812496 3.65936 0 0 0 77 78 81 255
0.397901 0.907815 3.56615 0 0 0 194 203 205 255
0.972067 0.920843 3.64688 0 0 0 197 203 204 255
-0.23126 0.997516 3.54959 0 0 0 136 112 106 255
-0.0972208 1.00663 3.55368 0 0 0 78 87 87 255
0.40569 0.984714 3.57276 0 0 0 196 202 203 255
0.794304 0.969157 3.61579 0 0 0 184 190 191 255
0.841909 0.976269 3.62032 0 0 0 116 124 126 255
-0.156 1.03387 3.55773 0 0 0 160 173 160 255
0.0663941 1.02783 3.5622 0 0 0 122 128 131 255
0.772698 1.00225 3.61369 0 0 0 136 140 142 255
0.872633 1.04592 3.6313 0 0 0 198 204 207 255
0.103196 1.09756 3.55945 0 0 0 144 150 151 255
0.789409 1.07185 3.62065 0 0 0 163 169 170 255
-0.0630211 1.11157 3.55274 0 0 0 117 123 124 255
0.281681 1.10281 3.57171 0 0 0 200 209 209 255
0.874463 1.08173 3.62789 0 0 0 182 186 190 255
1.11486 1.06894 3.69007 0 0 0 188 192 194 255
0.979326 1.09744 3.65596 0 0 0 160 166 167 255
0.921451 1.13185 3.64387 0 0 0 97 98 103 255
0.975137 1.14446 3.65679 0 0 0 195 201 203 255
-0.560196 1.26537 3.68066 0 0 0 105 83 74 255
0.478851 1.17549 3.5795 0 0 0 97 108 109 255
-0.734843 1.28514 3.5239 0 0 0 150 121 101 255
0.090896 1.21526 3.54979 0 0 0 197 202 204 255
0.912681 1.18005 3.6457 0 0 0 192 197 200 255
-0.254414 1.37479 3.57029 0 0 0 139 112 96 255
-0.379207 1.45753 3.60567 0 0 0 156 125 116 255
-0.714557 1.46634 3.43923 0 0 0 154 133 122 255
1.24738 -0.0891343 3.96815 0 0 0 80 99 110 255
-0.983774 -0.0255736 3.97559 0 0 0 168 136 120 255
-0.809456 -0.0228069 3.96163 0 0 0 148 107 96 255
-0.250469 -0.0364993 3.8225 0 0 0 72 69 71 255
-0.913533 0.0213567 3.94762 0 0 0 136 101 86 255
1.17807 -0.0168769 4.01851 0 0 0 168 166 167 255
-2.04742 -0.11191 5.51523 0 0 0 140 107 92 255
-0.857332 0.0641266 3.92991 0 0 0 131 103 92 255
-0.619802 0.070446 3.89321 0 0 0 142 111 101 255
-0.991655 0.118769 3.88688 0 0 0 139 106 90 255
0.871681 0.198332 3.62693 0 0 0 165 181 133 255
-0.761394 0.223515 3.87904 0 0 0 174 148 134 255
0.0833394 0.244098 3.57112 0 0 0 104 117 94 255
0.368771 0.270572 3.57431 0 0 0 75 85 79 255
0.164763 0.315021 3.57575 0 0 0 91 101 77 255
0.262587 0.328924 3.57149 0 0 0 170 184 134 255
-2.18695 0.401996 5.9484 0 0 0 85 74 68 255
-0.944419 0.422516 3.84945 0 0 0 124 112 104 255
-0.0561123 0.372952 3.56862 0 0 0 170 187 147 255
-0.583166 0.417871 3.81333 0 0 0 129 115 102 255
0.25999 0.403725 3.56785 0 0 0 152 165 124 255
0.74681 0.396623 3.60103 0 0 0 124 132 111 255
0.528759 0.451807 3.58269 0 0 0 168 183 128 255
-0.877112 0.536429 3.84207 0 0 0 42 37 36 255
0.56107 0.527198 3.58264 0 0 0 59 65 55 255
-0.245901 0.608106 3.55412 0 0 0 114 92 79 255
-0.0458112 0.595634 3.56107 0 0 0 164 179 144 255
-0.0572465 0.625021 3.56099 0 0 0 159 175 144 255
0.0597304 0.622723 3.55799 0 0 0 98 105 100 255
0.733131 0.656155 3.60471 0 0 0 50 56 57 255
0.519668 0.727775 3.57091 0 0 0 147 154 120 255
0.765386 0.729741 3.61208 0 0 0 159 173 123 255
0.921928 0.705738 3.62709 0 0 0 154 169 116 255
-0.959786 0.854221 3.71135 0 0 0 59 42 35 255
0.754653 0.761912 3.60816 0 0 0 56 62 52 255
0.0609104 0.791968 3.55262 0 0 0 106 110 114 255
0.189935 0.771277 3.55901 0 0 0 160 164 169 255
-0.80788 0.885853 3.81285 0 0 0 47 38 33 255
-0.233413 0.907161 3.55564 0 0 0 132 101 85 255
0.100654 0.889081 3.56879 0 0 0 146 152 154 255
0.542305 0.942607 3.58368 0 0 0 146 152 155 255
0.718245 0.913876 3.61275 0 0 0 194 203 207 255
-0.110758 0.985839 3.55258 0 0 0 65 74 74 255
0.179373 1.01021 3.55907 0 0 0 142 146 148 255
0.8338 0.988869 3.61891 0 0 0 121 129 131 255
-0.14936 1.05166 3.56169 0 0 0 154 169 152 255
0.959281 1.03395 3.64468 0 0 0 98 104 105 255
-0.084853 1.08559 3.54762 0 0 0 84 96 92 255
0.703376 1.05043 3.60488 0 0 0 190 196 199 255
0.745171 1.02845 3.61123 0 0 0 196 202 203 255
0.875427 1.0485 3.6314 0 0 0 198 204 207 255
0.28586 1.10736 3.57104 0 0 0 198 207 207 255
1.10656 1.05543 3.67758 0 0 0 183 188 189 255
0.168238 1.12117 3.56169 0 0 0 197 206 206 255
0.977692 1.1039 3.65517 0 0 0 165 171 172 255
1.04462 1.1266 3.67727 0 0 0 94 100 101 255
0.44163 1.16252 3.58029 0 0 0 109 118 120 255
0.976596 1.16803 3.65792 0 0 0 160 165 169 255
-0.537183 1.26269 3.62514 0 0 0 89 68 60 255
0.644511 1.20857 3.60078 0 0 0 197 205 207 255
-0.217774 0.0413004 3.71943 0 0 0 45 44 47 255
1.21008 0.0720236 3.75486 0 0 0 53 53 53 255
-0.752565 0.251982 3.89786 0 0 0 149 122 99 255
0.844223 0.210825 3.61072 0 0 0 165 185 125 255
0.432099 0.31726 3.57294 0 0 0 77 84 77 255
-0.0644433 0.354262 3.57839 0 0 0 168 185 145 255
0.401392 0.366006 3.57158 0 0 0 65 75 72 255
0.847935 0.309565 3.63455 0 0 0 167 183 125 255
0.642392 0.3524 3.59965 0 0 0 98 106 81 255
0.757543 0.320641 3.60967 0 0 0 130 140 117 255
-0.0601493 0.418727 3.5689 0 0 0 160 176 138 255
0.0630677 0.406387 3.56283 0 0 0 171 189 135 255
0.473933 0.417114 3.57559 0 0 0 70 77 75 255
0.79561 0.415209 3.60902 0 0 0 61 68 64 255
0.175896 0.482688 3.55809 0 0 0 65 77 73 255
0.431979 0.457 3.57506 0 0 0 48 55 53 255
-0.838736 0.5377 3.73223 0 0 0 41 36 38 255
0.857483 0.493408 3.62229 0 0 0 79 86 83 255
0.605115 0.552864 3.58287 0 0 0 82 89 84 255
0.0478351 0.645596 3.55879 0 0 0 50 56 56 255
0.490229 0.654992 3.57567 0 0 0 165 176 145 255
1.09594 0.804884 3.67274 0 0 0 63 64 67 255
-0.775754 1.01975 3.74076 0 0 0 144 120 93 255
-0.181316 0.990268 3.55949 0 0 0 60 64 63 255
0.717866 0.951781 3.60982 0 0 0 198 203 206 255
0.891406 0.947019 3.63526 0 0 0 195 204 205 255
0.0769805 1.11125 3.56072 0 0 0 122 128 129 255
1.09255 1.05054 3.67243 0 0 0 166 172 173 255
-0.212548 -0.148675 3.7552 0 0 0 73 73 76 255
-0.200078 -0.128306 3.75194 0 0 0 66 56 60 255
1.23454 0.0102738 3.80053 0 0 0 157 137 117 255
-0.204208 -0.00985418 3.69322 0 0 0 174 183 185 255
0.077225 0.224285 3.57498 0 0 0 138 160 123 255
0.978931 0.29981 3.66129 0 0 0 121 134 121 255
0.449769 0.293106 3.58826 0 0 0 121 135 105 255
1.68756 0.316349 3.7868 0 0 0 203 190 184 255
0.770691 0.312483 3.63088 0 0 0 106 121 86 255
1.65159 0.342294 3.77468 0 0 0 188 157 138 255
0.489821 0.32525 3.59428 0 0 0 134 149 110 255
1.7207 0.344799 3.79424 0 0 0 197 180 175 255
1.75414 0.347663 3.79389 0 0 0 195 183 183 255
0.627934 0.34058 3.6053 0 0 0 100 118 73 255
0.475901 0.377914 3.58762 0 0 0 80 93 80 255
1.72975 0.399217 3.79158 0 0 0 207 193 197 255
0.652631 0.386443 3.60151 0 0 0 79 91 82 255
0.734729 0.403268 3.60995 0 0 0 127 141 122 255
0.280906 0.40948 3.57464 0 0 0 140 158 115 255
1.78905 0.443261 3.80384 0 0 0 159 134 125 255
1.79548 0.441397 3.80605 0 0 0 162 134 121 255
1.72962 0.446714 3.78882 0 0 0 204 191 194 255
1.81724 0.449392 3.80617 0 0 0 196 185 185 255
1.96588 0.451567 3.83388 0 0 0 168 129 106 255
1.71236 0.450693 3.79414 0 0 0 210 186 178 255
1.71399 0.461035 3.78761 0 0 0 163 131 110 255
0.667097 0.451927 3.60383 0 0 0 117 131 112 255
1.78059 0.472013 3.79159 0 0 0 160 130 115 255
0.597414 0.454294 3.59252 0 0 0 115 130 102 255
1.71161 0.479859 3.78737 0 0 0 184 126 89 255
0.589972 0.466538 3.5933 0 0 0 87 104 76 255
1.87323 0.489024 3.81945 0 0 0 181 123 88 255
0.99377 0.480911 3.65273 0 0 0 72 82 76 255
1.72884 0.494479 3.78045 0 0 0 204 195 199 255
1.81107 0.498658 3.80586 0 0 0 209 177 163 255
0.663319 0.476578 3.59504 0 0 0 101 112 101 255
1.94044 0.501967 3.82699 0 0 0 196 182 184 255
1.98963 0.503195 3.83744 0 0 0 196 187 182 255
2.03849 0.505565 3.84618 0 0 0 198 182 172 255
0.718184 0.48801 3.61036 0 0 0 83 93 87 255
0.68385 0.493228 3.59872 0 0 0 63 75 71 255
0.786353 0.51095 3.61329 0 0 0 66 78 82 255
0.613255 0.524884 3.5945 0 0 0 80 92 88 255
0.682331 0.534067 3.60024 0 0 0 80 93 92 255
0.380285 0.535728 3.57376 0 0 0 68 86 85 255
0.857457 0.544646 3.6288 0 0 0 95 109 90 255
0.869333 0.551187 3.62514 0 0 0 125 138 124 255
0.206464 0.548923 3.56726 0 0 0 115 129 112 255
0.864736 0.564269 3.61882 0 0 0 42 53 52 255
0.875315 0.562526 3.62429 0 0 0 78 89 76 255
0.888778 0.569821 3.62973 0 0 0 131 143 123 255
0.889843 0.586899 3.62819 0 0 0 71 77 78 255
0.767105 0.595823 3.61975 0 0 0 58 69 70 255
2.13058 0.624781 3.85052 0 0 0 200 159 125 255
0.60663 0.615293 3.59372 0 0 0 58 72 65 255
0.693314 0.629503 3.60087 0 0 0 86 100 93 255
0.160913 0.628212 3.56537 0 0 0 97 118 86 255
0.680565 0.648946 3.59616 0 0 0 138 153 119 255
0.940621 0.669425 3.64411 0 0 0 107 119 100 255
0.950069 0.67967 3.64586 0 0 0 54 64 56 255
0.959065 0.692479 3.64943 0 0 0 115 126 111 255
0.659516 0.686372 3.59698 0 0 0 69 76 73 255
0.0185271 0.68408 3.56145 0 0 0 109 125 110 255
0.732735 0.705556 3.61024 0 0 0 59 73 52 255
0.168364 0.70544 3.56378 0 0 0 116 133 114 255
0.623495 0.715651 3.58638 0 0 0 82 96 74 255
0.723603 0.719818 3.6084 0 0 0 106 119 103 255
0.937838 0.729431 3.63949 0 0 0 154 170 128 255
0.499148 0.732447 3.58566 0 0 0 100 110 83 255
-0.0331882 0.726979 3.55385 0 0 0 119 131 123 255
0.675941 0.743076 3.59723 0 0 0 92 104 100 255
0.797627 0.748011 3.61965 0 0 0 150 166 124 255
0.831183 0.745173 3.62754 0 0 0 118 131 114 255
0.14099 0.768741 3.55807 0 0 0 65 77 83 255
0.642807 0.777141 3.59828 0 0 0 45 53 60 255
0.823916 0.783601 3.62346 0 0 0 103 110 107 255
0.0662568 0.77284 3.56288 0 0 0 82 93 99 255
0.913588 0.791261 3.63558 0 0 0 125 133 138 255
-0.0141926 0.77692 3.55515 0 0 0 51 58 56 255
0.808794 0.797877 3.6194 0 0 0 40 48 53 255
1.08251 0.806562 3.68733 0 0 0 89 105 107 255
0.122897 0.795194 3.55488 0 0 0 90 98 103 255
0.44039 0.797324 3.59426 0 0 0 122 132 138 255
0.912692 0.805689 3.63496 0 0 0 131 136 142 255
0.246652 0.79705 3.56064 0 0 0 113 113 121 255
0.749691 0.808578 3.60808 0 0 0 122 126 128 255
0.817705 0.807977 3.61894 0 0 0 67 72 78 255
1.11102 0.818528 3.66454 0 0 0 77 82 88 255
1.13119 0.82248 3.64605 0 0 0 93 98 104 255
0.899725 0.8478 3.632 0 0 0 65 75 83 255
1.06203 0.864119 3.66502 0 0 0 83 92 102 255
0.805261 0.861576 3.62269 0 0 0 86 95 108 255
0.832517 0.865887 3.62814 0 0 0 101 112 125 255
0.921429 0.861708 3.63832 0 0 0 92 107 115 255
1.08542 0.866346 3.67209 0 0 0 64 71 83 255
0.496907 0.854531 3.57626 0 0 0 78 86 95 255
1.2554 0.878281 3.68342 0 0 0 133 157 167 255
2.06067 0.92549 3.82483 0 0 0 159 156 154 255
-0.0477611 0.893881 3.55392 0 0 0 120 130 138 255
0.651193 0.905255 3.59344 0 0 0 127 142 147 255
1.8914 0.957814 3.79782 0 0 0 158 159 140 255
2.04344 0.961877 3.83405 0 0 0 170 172 168 255
0.0888165 0.950375 3.56077 0 0 0 187 197 203 255
2.00394 0.990738 3.81788 0 0 0 165 170 170 255
1.87176 1.02267 3.79786 0 0 0 158 169 176 255
0.703121 1.02024 3.60326 0 0 0 144 152 157 255
0.161984 1.05698 3.5635 0 0 0 180 188 195 255
0.17819 1.06912 3.56179 0 0 0 156 168 172 255
0.184162 1.10153 3.56064 0 0 0 148 159 166 255
0.232568 1.11499 3.56389 0 0 0 159 169 176 255
0.216786 1.15565 3.56277 0 0 0 103 118 125 255
0.408866 1.16208 3.57569 0 0 0 118 129 140 255
1.39017 1.38783 3.71718 0 0 0 193 156 155 255
1.46263 1.38414 3.72235 0 0 0 186 136 121 255
1.55594 1.39465 3.74417 0 0 0 194 167 162 255
1.84316 1.40361 3.77719 0 0 0 185 138 131 255
1.95034 1.3979 3.77801 0 0 0 197 156 144 255
1.58729 1.4002 3.74076 0 0 0 192 188 195 255
1.61074 1.3943 3.74241 0 0 0 199 173 164 255
1.77949 1.4067 3.76824 0 0 0 194 147 136 255
1.88113 1.40591 3.77929 0 0 0 203 156 147 255
2.06585 1.39288 3.7557 0 0 0 197 163 161 255
1.74363 1.41264 3.76719 0 0 0 182 156 152 255
1.38784 1.41001 3.71465 0 0 0 206 185 181 255
1.58629 1.4141 3.74149 0 0 0 192 188 193 255
1.55503 1.42164 3.74354 0 0 0 187 176 174 255
1.77196 1.42388 3.76105 0 0 0 193 159 158 255
1.98632 1.42309 3.75644 0 0 0 187 179 178 255
2.06115 1.42183 3.7531 0 0 0 206 171 171 255
1.73199 1.43369 3.75987 0 0 0 175 146 143 255
0.723022 1.5384 3.62545 0 0 0 134 145 147 255
0.741957 1.53776 3.63087 0 0 0 95 105 112 255
0.584834 1.54136 3.60565 0 0 0 114 127 135 255
0.538805 1.54151 3.6009 0 0 0 115 127 135 255
0.569663 1.54175 3.60338 0 0 0 114 128 138 255
0.681009 1.54828 3.61433 0 0 0 124 133 139 255
0.790453 1.5513 3.63484 0 0 0 122 133 142 255
0.865655 1.55511 3.64839 0 0 0 119 130 137 255
0.500253 1.54882 3.59244 0 0 0 65 70 78 255
0.509643 1.54457 3.59679 0 0 0 68 75 82 255
0.518192 1.55126 3.59773 0 0 0 128 136 141 255
0.639996 1.5511 3.61059 0 0 0 139 146 151 255
0.900412 1.56228 3.65249 0 0 0 142 152 159 255
0.903957 1.55717 3.65612 0 0 0 125 135 144 255
0.538349 1.55658 3.5988 0 0 0 146 152 162 255
0.766114 1.55835 3.63348 0 0 0 126 136 143 255
0.823508 1.5592 3.64287 0 0 0 116 127 138 255
0.8391 1.5579 3.63914 0 0 0 84 97 105 255
0.865615 1.56081 3.64761 0 0 0 127 137 143 255
0.937304 1.56319 3.65887 0 0 0 130 142 148 255
0.580188 1.55962 3.60328 0 0 0 76 79 88 255
0.59361 1.5588 3.60681 0 0 0 144 151 158 255
0.622154 1.56167 3.60249 0 0 0 113 120 124 255
0.687774 1.56479 3.61383 0 0 0 147 155 160 255
0.722687 1.56597 3.62358 0 0 0 148 157 159 255
0.797784 1.57368 3.63388 0 0 0 128 136 143 255
-0.21109 -0.126335 3.66803 0 0 0 65 63 65 255
-0.217445 -0.105348 3.71749 0 0 0 220 211 213 255
-0.176776 -0.0118763 3.73909 0 0 0 148 152 154 255
-0.178477 0.0265229 3.5775 0 0 0 85 87 86 255
1.65203 0.346066 3.78112 0 0 0 209 171 153 255
0.713167 0.349275 3.61426 0 0 0 137 146 123 255
0.294036 0.365507 3.57456 0 0 0 160 177 128 255
0.841629 0.36702 3.63194 0 0 0 66 76 73 255
1.72306 0.397189 3.79246 0 0 0 194 194 206 255
0.857168 0.416537 3.62912 0 0 0 54 68 64 255
1.00236 0.418329 3.65663 0 0 0 114 128 110 255
1.94067 0.437809 3.83168 0 0 0 197 165 149 255
1.71354 0.447439 3.78777 0 0 0 207 183 177 255
1.87526 0.441735 3.81804 0 0 0 171 148 138 255
1.80717 0.45344 3.80803 0 0 0 198 172 158 255
1.96421 0.460588 3.83624 0 0 0 172 132 98 255
1.69635 0.47107 3.77342 0 0 0 181 124 83 255
1.86988 0.478837 3.82455 0 0 0 173 125 97 255
-0.0329586 0.459107 3.56301 0 0 0 160 174 154 255
1.71999 0.496047 3.78399 0 0 0 209 191 188 255
1.93621 0.499093 3.82003 0 0 0 196 182 184 255
1.9863 0.500097 3.83822 0 0 0 185 154 135 255
2.03275 0.503007 3.83591 0 0 0 174 155 141 255
0.0394195 0.461615 3.56618 0 0 0 168 185 146 255
1.86622 0.500101 3.82948 0 0 0 201 183 181 255
0.886514 0.568078 3.62898 0 0 0 131 143 123 255
-0.0637711 0.576085 3.55652 0 0 0 131 145 127 255
0.896029 0.653827 3.63745 0 0 0 94 108 104 255
0.840397 0.671431 3.62115 0 0 0 98 110 92 255
1.25498 0.68232 3.69522 0 0 0 110 86 77 255
0.0957384 0.693523 3.5613 0 0 0 53 62 64 255
0.529659 0.694942 3.57833 0 0 0 109 120 102 255
1.48911 0.734428 3.7236 0 0 0 141 152 153 255
-0.0327682 0.723788 3.55259 0 0 0 108 120 113 255
-0.0312629 0.757485 3.55301 0 0 0 126 131 134 255
0.913618 0.796187 3.6345 0 0 0 130 135 141 255
0.286796 0.788164 3.54465 0 0 0 114 120 124 255
0.727581 0.799197 3.60147 0 0 0 133 139 140 255
1.08293 0.806019 3.67455 0 0 0 136 151 154 255
1.57094 0.818518 3.73987 0 0 0 151 117 95 255
0.908408 0.813485 3.63373 0 0 0 111 116 122 255
1.11259 0.81432 3.66755 0 0 0 103 108 113 255
1.87682 0.884551 3.80285 0 0 0 122 142 155 255
1.06315 0.875151 3.66756 0 0 0 82 91 100 255
1.87122 0.933755 3.79844 0 0 0 120 135 140 255
1.03597 0.918612 3.66203 0 0 0 158 170 176 255
2.03909 0.961077 3.82934 0 0 0 151 156 155 255
1.99599 0.99284 3.81721 0 0 0 154 159 156 255
2.10988 0.993957 3.82419 0 0 0 131 166 177 255
2.06219 1.03019 3.81554 0 0 0 119 133 129 255
0.355406 1.05625 3.56936 0 0 0 112 122 130 255
0.0215952 1.09382 3.55637 0 0 0 117 131 137 255
0.193171 1.10296 3.56002 0 0 0 143 154 162 255
1.93735 1.15155 3.81089 0 0 0 179 166 120 255
1.40399 1.18036 3.71552 0 0 0 168 181 187 255
0.06523 1.16228 3.55426 0 0 0 170 182 190 255
0.692523 1.19257 3.60209 0 0 0 133 143 147 255
1.28324 1.33483 3.70491 0 0 0 174 196 203 255
1.88438 1.35627 3.79848 0 0 0 181 194 196 255
1.54603 1.39899 3.73902 0 0 0 184 135 129 255
1.38943 1.40013 3.71531 0 0 0 207 183 183 255
1.58807 1.40202 3.7414 0 0 0 192 188 195 255
1.73247 1.41429 3.76329 0 0 0 194 167 165 255
1.77141 1.42111 3.75026 0 0 0 193 159 158 255
1.87586 1.41595 3.76868 0 0 0 202 178 184 255
2.01853 1.41487 3.76221 0 0 0 192 180 180 255
1.54513 1.41921 3.73392 0 0 0 198 176 176 255
0.484395 1.53793 3.59371 0 0 0 107 116 127 255
0.720847 1.54409 3.62757 0 0 0 142 152 153 255
0.590324 1.55791 3.61635 0 0 0 144 151 158 255
0.724642 1.56237 3.62707 0 0 0 144 152 154 255
0.867835 1.55718 3.648 0 0 0 121 132 138 255
0.900174 1.56579 3.6522 0 0 0 149 159 164 255
-0.207614 -0.126872 3.67392 0 0 0 69 61 67 255
-0.224657 -0.141786 3.76612 0 0 0 70 65 67 255
1.24587 0.0435773 3.73773 0 0 0 61 57 63 255
-0.164663 0.0514535 3.53019 0 0 0 102 103 103 255
1.65183 0.337215 3.77958 0 0 0 190 159 140 255
0.479635 0.32683 3.59083 0 0 0 125 139 108 255
1.67807 0.390801 3.75966 0 0 0 193 180 167 255
1.70961 0.396434 3.78789 0 0 0 182 181 194 255
0.864131 0.404016 3.62998 0 0 0 70 86 66 255
1.64391 0.427241 3.76022 0 0 0 183 130 97 255
1.79976 0.42338 3.80909 0 0 0 204 157 137 255
1.88694 0.425183 3.82314 0 0 0 189 149 126 255
1.72024 0.450654 3.77771 0 0 0 201 189 193 255
1.00393 0.446569 3.65944 0 0 0 115 127 109 255
1.65019 0.464446 3.76683 0 0 0 209 186 185 255
1.87679 0.465073 3.8182 0 0 0 178 124 85 255
1.96542 0.466738 3.8321 0 0 0 181 126 88 255
0.663423 0.455313 3.60052 0 0 0 118 131 108 255
1.99109 0.497219 3.84295 0 0 0 194 185 179 255
0.0373682 0.461719 3.56786 0 0 0 168 185 146 255
0.285199 0.45989 3.57264 0 0 0 90 104 97 255
1.71537 0.499901 3.78372 0 0 0 195 192 195 255
1.79394 0.500655 3.79686 0 0 0 215 185 177 255
1.86905 0.501379 3.83567 0 0 0 194 194 188 255
1.87405 0.503277 3.80744 0 0 0 195 190 184 255
0.0501073 0.569569 3.56394 0 0 0 161 179 137 255
-0.0377466 0.580894 3.55896 0 0 0 147 163 143 255
0.623217 0.612557 3.59457 0 0 0 51 64 63 255
1.25838 0.678228 3.69292 0 0 0 146 108 86 255
1.46821 0.716931 3.7334 0 0 0 87 105 105 255
0.259688 0.692069 3.56595 0 0 0 158 173 133 255
0.830861 0.723533 3.62485 0 0 0 118 134 92 255
1.49603 0.733521 3.72555 0 0 0 149 158 158 255
-0.0324878 0.725967 3.55393 0 0 0 119 131 123 255
0.744364 0.731337 3.6144 0 0 0 153 171 128 255
1.25827 0.744747 3.69758 0 0 0 49 101 125 255
-0.157651 0.776137 3.57087 0 0 0 83 89 93 255
0.19895 0.793344 3.55658 0 0 0 112 119 122 255
0.738498 0.799995 3.59011 0 0 0 136 140 144 255
0.793043 0.802766 3.61585 0 0 0 47 55 60 255
0.912051 0.800582 3.63484 0 0 0 105 110 116 255
0.431207 0.791869 3.57469 0 0 0 71 83 89 255
1.0823 0.800878 3.63999 0 0 0 89 105 107 255
1.10925 0.815603 3.61206 0 0 0 102 108 112 255
1.45104 0.846985 3.73047 0 0 0 197 142 93 255
0.827273 0.862862 3.62636 0 0 0 81 92 105 255
1.06321 0.870447 3.66709 0 0 0 84 93 104 255
1.25562 0.884217 3.6753 0 0 0 143 166 175 255
2.00882 0.903719 3.81752 0 0 0 70 70 75 255
2.01061 0.918746 3.83008 0 0 0 65 65 72 255
2.05424 0.91733 3.82548 0 0 0 166 153 144 255
1.89566 0.952891 3.80345 0 0 0 182 167 141 255
1.99997 0.939225 3.81464 0 0 0 64 68 72 255
2.04363 0.95262 3.82853 0 0 0 168 169 165 255
1.98029 0.947807 3.81472 0 0 0 70 68 76 255
1.93331 0.985455 3.8074 0 0 0 158 138 120 255
2.00106 0.987624 3.81208 0 0 0 150 155 154 255
0.920475 0.960314 3.63668 0 0 0 154 169 175 255
1.2531 0.992122 3.68772 0 0 0 156 171 178 255
0.36832 0.991014 3.57449 0 0 0 143 154 160 255
1.85707 1.02253 3.79862 0 0 0 185 201 208 255
2.06357 1.03294 3.81541 0 0 0 128 143 138 255
0.760942 1.01682 3.61242 0 0 0 151 162 168 255
2.11545 1.09827 3.80628 0 0 0 146 163 136 255
1.99074 1.12982 3.81786 0 0 0 129 117 89 255
0.117493 1.0893 3.55686 0 0 0 130 141 146 255
1.94051 1.15261 3.81506 0 0 0 188 171 124 255
0.256717 1.11531 3.56526 0 0 0 185 195 202 255
0.362601 1.12723 3.57039 0 0 0 189 204 211 255
0.155165 1.13081 3.56397 0 0 0 191 206 211 255
0.822531 1.15178 3.62364 0 0 0 136 147 158 255
1.40406 1.1853 3.70923 0 0 0 172 191 199 255
0.416538 1.1684 3.57665 0 0 0 112 124 133 255
0.11173 1.1742 3.55842 0 0 0 116 126 134 255
1.88313 1.25237 3.78518 0 0 0 150 164 152 255
-0.0580639 1.2153 3.53395 0 0 0 135 140 145 255
0.391694 1.27364 3.56954 0 0 0 173 187 190 255
1.28789 1.32706 3.69584 0 0 0 163 185 192 255
0.484202 1.31651 3.58921 0 0 0 64 75 81 255
1.88139 1.35018 3.77965 0 0 0 181 194 196 255
1.39504 1.39621 3.71186 0 0 0 198 175 177 255
1.6095 1.40831 3.75767 0 0 0 203 187 183 255
2.07534 1.39681 3.76549 0 0 0 197 172 171 255
1.53777 1.41468 3.73546 0 0 0 190 169 167 255
0.176742 1.39588 3.54976 0 0 0 81 96 101 255
0.522138 1.54556 3.60098 0 0 0 165 173 179 255
0.486364 1.54505 3.59367 0 0 0 165 171 181 255
0.539168 1.54709 3.59975 0 0 0 141 151 159 255
0.725071 1.5451 3.62477 0 0 0 142 152 153 255
0.518004 1.55668 3.60229 0 0 0 140 143 151 255
0.589012 1.54882 3.60231 0 0 0 129 138 145 255
0.677947 1.55849 3.6163 0 0 0 154 162 167 255
0.965359 1.56934 3.66793 0 0 0 149 158 163 255
1.20656 1.63657 3.69007 0 0 0 75 84 89 255
-0.197111 -0.132287 3.52666 0 0 0 195 191 193 255
-0.0512152 0.190859 3.54904 0 0 0 163 186 158 255
0.871649 0.210964 3.63537 0 0 0 165 186 135 255
0.147838 0.342432 3.57391 0 0 0 91 106 94 255
0.290688 0.368971 3.57405 0 0 0 160 178 127 255
0.296497 0.402504 3.57632 0 0 0 76 91 81 255
1.65385 0.473976 3.78424 0 0 0 197 160 154 255
0.164518 0.560898 3.56453 0 0 0 167 185 137 255
0.526332 0.573059 3.57739 0 0 0 154 173 125 255
-0.0600549 0.575597 3.55551 0 0 0 130 145 126 255
0.0970274 0.620196 3.56039 0 0 0 51 62 64 255
0.134668 0.636526 3.56151 0 0 0 139 157 114 255
1.25781 0.665354 3.70084 0 0 0 148 107 80 255
1.30601 0.705954 3.7051 0 0 0 74 55 58 255
1.45894 0.716644 3.71786 0 0 0 79 109 120 255
2.01568 0.737301 3.8388 0 0 0 176 190 197 255
0.745027 0.72772 3.61555 0 0 0 153 171 128 255
1.53721 0.809775 3.73121 0 0 0 181 135 105 255
1.44901 0.836829 3.71383 0 0 0 183 141 101 255
1.98393 0.91156 3.81771 0 0 0 67 66 70 255
1.25857 0.898674 3.69861 0 0 0 157 174 180 255
1.82698 0.916549 3.79096 0 0 0 116 126 134 255
2.04009 0.927165 3.81621 0 0 0 168 151 131 255
1.1169 0.922603 3.63662 0 0 0 178 188 194 255
1.88905 0.950888 3.79452 0 0 0 154 155 136 255
0.419471 0.993402 3.56933 0 0 0 190 205 210 255
1.85507 1.02424 3.79045 0 0 0 181 208 211 255
-0.212864 0.999472 3.49743 0 0 0 136 114 108 255
-0.163757 1.01341 3.50991 0 0 0 57 61 65 255
0.219776 1.07413 3.56096 0 0 0 112 127 130 255
0.41805 1.07405 3.57408 0 0 0 191 206 213 255
0.992518 1.08651 3.64914 0 0 0 178 190 197 255
-0.00640162 1.08641 3.55273 0 0 0 135 143 148 255
0.156199 1.08961 3.5631 0 0 0 192 204 211 255
1.04375 1.10157 3.66495 0 0 0 117 128 134 255
1.30491 1.11233 3.68789 0 0 0 82 123 147 255
1.99718 1.1327 3.80805 0 0 0 108 96 74 255
0.106178 1.11023 3.5568 0 0 0 112 124 132 255
-0.135012 1.14486 3.50219 0 0 0 162 190 172 255
0.428677 1.16361 3.57748 0 0 0 125 135 146 255
1.40134 1.23108 3.71961 0 0 0 183 200 206 255
-0.0457025 1.20535 3.51367 0 0 0 133 139 142 255
0.878726 1.29228 3.63641 0 0 0 138 153 158 255
1.87873 1.34945 3.80172 0 0 0 173 190 195 255
1.70095 1.41173 3.75778 0 0 0 188 167 169 255
0.945626 1.56893 3.66092 0 0 0 117 127 131 255
-0.198203 -0.128093 3.51124 0 0 0 195 191 191 255
-0.207281 -0.125561 3.74859 0 0 0 69 53 59 255
-0.158525 0.0474311 3.60818 0 0 0 45 53 58 255
-0.0483166 0.19851 3.56044 0 0 0 163 189 156 255
0.853514 0.193723 3.62352 0 0 0 162 184 139 255
0.733832 0.31947 3.61661 0 0 0 80 90 82 255
0.224624 0.357245 3.57463 0 0 0 160 178 129 255
0.88452 0.439616 3.63753 0 0 0 138 153 114 255
1.66741 0.473281 3.78991 0 0 0 192 174 167 255
0.498607 0.451555 3.59251 0 0 0 165 185 131 255
0.611318 0.4913 3.59626 0 0 0 51 65 61 255
-0.0559864 0.49396 3.56005 0 0 0 153 169 142 255
0.163908 0.506841 3.56812 0 0 0 72 85 83 255
0.527886 0.596236 3.57904 0 0 0 149 169 124 255
1.29637 0.719241 3.70337 0 0 0 56 56 63 255
2.02346 0.755193 3.82956 0 0 0 174 190 202 255
1.25955 0.781452 3.6958 0 0 0 49 129 162 255
1.92951 0.802941 3.80947 0 0 0 98 117 132 255
1.46223 0.834558 3.71835 0 0 0 199 145 89 255
1.5578 0.833392 3.74519 0 0 0 200 154 115 255
1.8413 0.879275 3.79282 0 0 0 100 117 126 255
1.26006 0.89844 3.68236 0 0 0 156 175 180 255
1.98581 0.912977 3.82149 0 0 0 66 65 69 255
0.537729 0.930586 3.58426 0 0 0 145 153 160 255
1.46471 0.97402 3.72198 0 0 0 61 64 68 255
1.8403 1.02987 3.80476 0 0 0 190 205 212 255
0.970164 1.02186 3.64452 0 0 0 103 113 119 255
0.748849 1.04271 3.61027 0 0 0 179 187 194 255
-0.00295801 1.04824 3.55645 0 0 0 93 106 112 255
0.964491 1.10114 3.64809 0 0 0 184 199 206 255
1.8127 1.13257 3.78479 0 0 0 115 127 131 255
-0.123387 1.11855 3.50666 0 0 0 157 189 167 255
0.0931539 1.11257 3.55659 0 0 0 106 118 126 255
1.41462 1.19738 3.70858 0 0 0 183 200 206 255
-0.150767 1.18009 3.47782 0 0 0 51 58 59 255
0.636141 1.19597 3.59793 0 0 0 169 181 191 255
1.78917 1.29247 3.78659 0 0 0 195 209 219 255
1.83946 1.32992 3.77893 0 0 0 169 184 193 255
1.28819 1.32899 3.70919 0 0 0 168 189 196 255
-0.186359 1.32799 3.43442 0 0 0 138 111 103 255
1.3988 1.41043 3.71469 0 0 0 191 181 180 255
1.63907 1.41365 3.74525 0 0 0 190 183 186 255
-0.142595 0.0655454 3.54502 0 0 0 43 49 52 255
0.417362 0.302814 3.57885 0 0 0 69 84 81 255
0.767406 0.332032 3.62309 0 0 0 54 65 55 255
0.821317 0.297844 3.64495 0 0 0 167 183 130 255
0.250892 0.359982 3.57447 0 0 0 148 166 127 255
0.390519 0.335669 3.57478 0 0 0 50 64 60 255
-0.0492788 0.407027 3.56605 0 0 0 165 189 147 255
0.508316 0.416395 3.59543 0 0 0 158 179 131 255
0.156366 0.6973 3.56132 0 0 0 86 101 88 255
0.890387 0.699002 3.6374 0 0 0 165 182 131 255
1.54594 0.851642 3.73802 0 0 0 202 157 106 255
-0.227512 0.854485 3.51985 0 0 0 120 97 84 255
1.47651 0.941573 3.71558 0 0 0 71 60 67 255
0.373177 0.932537 3.55308 0 0 0 190 206 214 255
0.714557 0.939603 3.61016 0 0 0 189 204 211 255
0.907619 0.936698 3.6307 0 0 0 189 206 212 255
0.961216 0.937422 3.64922 0 0 0 192 204 208 255
1.09353 0.943896 3.63262 0 0 0 158 168 176 255
1.47223 0.970223 3.70931 0 0 0 61 60 63 255
-0.17066 0.961837 3.55228 0 0 0 64 73 75 255
1.09258 0.970707 3.63875 0 0 0 154 166 170 255
1.72991 1.02306 3.78136 0 0 0 88 76 78 255
0.845699 1.12299 3.61985 0 0 0 94 104 112 255
0.935443 1.09431 3.63965 0 0 0 156 166 170 255
1.69859 1.18551 3.75616 0 0 0 191 206 215 255
1.78661 1.23071 3.77362 0 0 0 196 209 216 255
-0.0160886 1.20759 3.54272 0 0 0 188 200 203 255
-0.142266 1.22567 3.47215 0 0 0 48 54 55 255
1.76757 1.28894 3.76909 0 0 0 191 211 219 255
1.08279 1.2821 3.67987 0 0 0 139 153 161 255
2.30127 -0.776563 5.49764 0 0 0 132 142 145 255
2.30259 -0.689581 5.5217 0 0 0 81 81 89 255
1.25264 -0.0632671 3.78011 0 0 0 88 93 97 255
1.8213 0.27391 3.80138 0 0 0 183 157 148 255
1.89721 0.274998 3.81768 0 0 0 187 160 142 255
1.9959 0.279246 3.84798 0 0 0 195 152 137 255
1.65416 0.278075 3.76894 0 0 0 200 174 162 255
2.18516 0.285469 3.86315 0 0 0 188 159 149 255
1.71967 0.280908 3.77906 0 0 0 192 161 142 255
2.10845 0.2921 3.85838 0 0 0 196 161 148 255
1.85856 0.293629 3.82193 0 0 0 207 177 160 255
1.68847 0.291814 3.777 0 0 0 173 128 100 255
1.87242 0.303127 3.85094 0 0 0 195 183 176 255
1.95981 0.305531 3.86868 0 0 0 208 184 173 255
1.75217 0.304831 3.78119 0 0 0 195 157 136 255
1.78847 0.303961 3.79705 0 0 0 201 165 153 255
1.90573 0.3123 3.86091 0 0 0 219 182 162 255
1.92567 0.308364 3.81011 0 0 0 194 168 156 255
2.18747 0.321718 3.87521 0 0 0 203 175 165 255
1.66797 0.316976 3.77165 0 0 0 163 139 128 255
1.94378 0.322269 3.81742 0 0 0 151 134 129 255
2.04089 0.321325 3.81632 0 0 0 170 139 126 255
2.30148 0.324352 3.89515 0 0 0 205 169 149 255
2.33314 0.326731 3.89331 0 0 0 199 165 139 255
2.05928 0.325623 3.84759 0 0 0 191 167 161 255
1.94081 0.343562 3.79626 0 0 0 159 132 112 255
2.03386 0.344649 3.80764 0 0 0 156 148 137 255
2.22833 0.352745 3.87679 0 0 0 164 136 127 255
1.78775 0.34862 3.79529 0 0 0 203 182 176 255
1.81918 0.349364 3.79024 0 0 0 195 177 167 255
1.89802 0.350097 3.83457 0 0 0 192 169 153 255
1.99294 0.357035 3.82874 0 0 0 191 162 153 255
1.86366 0.354436 3.83111 0 0 0 203 193 185 255
2.04843 0.364269 3.81117 0 0 0 191 181 185 255
2.13529 0.359578 3.87783 0 0 0 201 192 188 255
2.18047 0.364377 3.84845 0 0 0 189 152 137 255
2.28367 0.36745 3.89917 0 0 0 196 175 168 255
2.24785 0.370219 3.91253 0 0 0 191 174 167 255
2.31171 0.369276 3.8791 0 0 0 193 182 185 255
1.92233 0.37953 3.8111 0 0 0 187 144 117 255
2.16802 0.424273 3.87954 0 0 0 209 168 146 255
2.12032 0.441476 3.85712 0 0 0 201 184 187 255
2.15468 0.44197 3.87514 0 0 0 201 172 152 255
2.18871 0.443946 3.8841 0 0 0 189 185 179 255
2.21998 0.448685 3.88306 0 0 0 210 177 165 255
2.25062 0.44566 3.89417 0 0 0 199 181 182 255
2.2775 0.448853 3.88012 0 0 0 205 187 166 255
2.3307 0.449701 3.90528 0 0 0 201 162 148 255
0.152152 0.408059 3.56589 0 0 0 53 67 58 255
2.01224 0.453177 3.8211 0 0 0 168 128 108 255
2.10071 0.451881 3.86084 0 0 0 157 140 132 255
2.10072 0.453784 3.83458 0 0 0 165 129 114 255
2.17329 0.45764 3.83723 0 0 0 156 151 144 255
2.12834 0.466337 3.87386 0 0 0 194 196 185 255
2.30225 0.48294 3.88828 0 0 0 173 133 108 255
2.08924 0.484807 3.84203 0 0 0 154 133 109 255
2.1203 0.509745 3.86722 0 0 0 188 155 146 255
2.21614 0.512309 3.86979 0 0 0 201 188 180 255
2.18425 0.516017 3.88553 0 0 0 199 189 193 255
0.468561 0.482916 3.58166 0 0 0 131 142 121 255
2.28326 0.530389 3.88171 0 0 0 177 126 89 255
2.27433 0.55377 3.89789 0 0 0 205 187 190 255
-0.0507418 0.531395 3.55928 0 0 0 114 124 113 255
0.111891 0.534339 3.56405 0 0 0 107 122 109 255
1.33626 0.703603 3.70797 0 0 0 90 58 44 255
-0.0690904 0.677689 3.55327 0 0 0 128 136 125 255
2.42998 0.743335 3.91675 0 0 0 95 91 89 255
-0.0277076 0.691202 3.55478 0 0 0 50 57 54 255
0.276008 0.696916 3.56428 0 0 0 135 152 112 255
0.149871 0.708209 3.55913 0 0 0 163 175 149 255
0.286855 0.769444 3.56293 0 0 0 38 50 54 255
2.41057 0.825745 3.84239 0 0 0 73 80 84 255
0.585678 0.791277 3.5831 0 0 0 54 62 68 255
0.684423 0.793232 3.59978 0 0 0 39 49 53 255
0.763555 0.798085 3.62424 0 0 0 98 99 104 255
0.0909435 0.784 3.55251 0 0 0 76 80 84 255
1.49528 0.818573 3.71831 0 0 0 133 91 68 255
1.94046 0.82974 3.77478 0 0 0 103 134 143 255
0.0213319 0.79888 3.55169 0 0 0 43 50 52 255
0.490422 0.80521 3.57726 0 0 0 101 106 108 255
0.683329 0.810334 3.59697 0 0 0 94 99 105 255
1.59131 0.861071 3.72132 0 0 0 161 110 87 255
0.573607 0.836601 3.58305 0 0 0 59 68 73 255
1.27752 0.859661 3.67267 0 0 0 37 93 118 255
2.04269 0.899961 3.79397 0 0 0 154 142 135 255
2.68152 1.23524 4.82735 0 0 0 61 67 70 255
2.71983 1.25607 4.8935 0 0 0 131 148 158 255
0.7189 1.07241 3.60081 0 0 0 172 181 187 255
0.240003 1.0786 3.56339 0 0 0 139 147 154 255
0.227839 1.20484 3.56305 0 0 0 189 197 200 255
1.98662 1.25672 3.8004 0 0 0 150 147 121 255
0.363799 1.2272 3.57356 0 0 0 175 181 184 255
0.0390925 1.30222 3.54536 0 0 0 108 122 118 255
2.0416 1.43265 3.8383 0 0 0 195 170 169 255
2.2582 1.37524 3.64712 0 0 0 198 170 161 255
1.84145 1.41634 3.72371 0 0 0 176 160 155 255
0.931395 1.5443 3.60844 0 0 0 74 89 95 255
0.565959 1.55955 3.6036 0 0 0 118 127 134 255
0.621499 1.54628 3.56301 0 0 0 66 71 79 255
0.528259 1.55463 3.56158 0 0 0 120 132 137 255
0.769572 1.55203 3.57142 0 0 0 114 126 131 255
2.29989 -0.760837 5.48911 0 0 0 82 90 94 255
2.30152 -0.683759 5.51767 0 0 0 90 90 98 255
1.82105 0.280735 3.78436 0 0 0 192 168 160 255
1.65696 0.283785 3.77191 0 0 0 204 191 186 255
1.68637 0.281461 3.78032 0 0 0 184 124 83 255
2.10696 0.294615 3.85382 0 0 0 196 161 148 255
0.211454 0.261938 3.59856 0 0 0 145 162 122 255
1.85508 0.300477 3.80364 0 0 0 210 186 174 255
1.93914 0.338516 3.80243 0 0 0 160 133 114 255
1.81571 0.347177 3.77266 0 0 0 195 177 167 255
1.78378 0.351288 3.78783 0 0 0 198 183 174 255
1.85646 0.352738 3.79115 0 0 0 201 177 171 255
2.12892 0.356133 3.85536 0 0 0 192 181 174 255
2.18272 0.360676 3.86766 0 0 0 189 152 137 255
2.03716 0.364094 3.80978 0 0 0 196 187 188 255
2.17264 0.437156 3.89106 0 0 0 188 192 205 255
2.23004 0.444898 3.85071 0 0 0 175 143 125 255
2.27434 0.45634 3.86821 0 0 0 205 184 175 255
2.00748 0.459521 3.80525 0 0 0 172 127 104 255
2.12122 0.472212 3.84352 0 0 0 192 181 179 255
2.10144 0.511748 3.81272 0 0 0 199 187 169 255
0.8699 0.480808 3.63189 0 0 0 101 114 96 255
2.27524 0.522522 3.88688 0 0 0 179 124 79 255
-0.208445 0.503283 3.56181 0 0 0 74 70 67 255
0.885452 0.540724 3.6343 0 0 0 131 146 111 255
0.0216409 0.526934 3.56495 0 0 0 137 151 135 255
1.32669 0.70611 3.72166 0 0 0 86 55 36 255
2.4186 0.7763 3.89562 0 0 0 92 119 131 255
2.40247 0.818454 3.84996 0 0 0 89 94 94 255
1.94368 0.833906 3.80146 0 0 0 103 134 143 255
2.4052 1.0801 3.90589 0 0 0 79 113 139 255
-0.144338 1.00823 3.52835 0 0 0 90 100 94 255
0.104589 1.03292 3.56167 0 0 0 191 202 205 255
2.67492 1.23595 4.81039 0 0 0 61 67 70 255
2.7091 1.32327 4.88182 0 0 0 181 172 164 255
0.233691 1.2025 3.56155 0 0 0 186 197 198 255
2.25475 1.38065 3.64672 0 0 0 171 153 148 255
2.30056 -0.769934 5.50034 0 0 0 91 102 103 255
2.30089 -0.711592 5.5323 0 0 0 84 84 92 255
-0.227068 -0.127924 3.66814 0 0 0 72 66 67 255
1.23917 -0.0629534 3.78773 0 0 0 96 111 122 255
1.68336 0.281704 3.77876 0 0 0 177 128 96 255
1.8184 0.270811 3.79419 0 0 0 183 157 148 255
1.6563 0.286223 3.76852 0 0 0 204 191 186 255
1.71866 0.285741 3.78023 0 0 0 202 179 165 255
1.99718 0.283467 3.84937 0 0 0 205 178 174 255
2.16604 0.293068 3.89238 0 0 0 189 163 140 255
2.10874 0.300015 3.84307 0 0 0 210 185 170 255
2.06323 0.316764 3.88702 0 0 0 196 172 165 255
2.33152 0.337029 3.89183 0 0 0 200 166 142 255
1.89964 0.331463 3.81285 0 0 0 210 191 180 255
2.1301 0.355942 3.85249 0 0 0 198 190 186 255
1.77197 0.350189 3.78137 0 0 0 187 170 156 255
2.22984 0.370233 3.89395 0 0 0 189 182 185 255
2.31352 0.376503 3.87591 0 0 0 185 184 189 255
1.00288 0.353447 3.66657 0 0 0 120 135 109 255
1.78654 0.429521 3.78643 0 0 0 198 173 162 255
1.89178 0.44198 3.791 0 0 0 178 169 165 255
2.03299 0.436417 3.86612 0 0 0 201 194 206 255
2.0941 0.425039 3.85347 0 0 0 176 127 82 255
2.16468 0.432709 3.85187 0 0 0 187 191 204 255
2.2763 0.454032 3.87305 0 0 0 205 184 175 255
2.32546 0.455816 3.89443 0 0 0 196 180 174 255
2.28245 0.46567 3.87466 0 0 0 198 199 199 255
2.03373 0.491373 3.81436 0 0 0 201 182 178 255
2.21665 0.506732 3.87483 0 0 0 197 185 178 255
2.10048 0.513152 3.83997 0 0 0 201 188 173 255
2.17127 0.513434 3.8777 0 0 0 198 197 197 255
2.27468 0.553732 3.86926 0 0 0 204 191 199 255
0.184013 0.557291 3.56103 0 0 0 138 155 113 255
0.0694963 0.625801 3.56052 0 0 0 90 104 100 255
0.540277 0.650078 3.58483 0 0 0 148 167 128 255
1.31214 0.68609 3.68467 0 0 0 163 118 83 255
0.931323 0.694101 3.63901 0 0 0 151 167 127 255
2.01312 0.721836 3.80075 0 0 0 190 159 140 255
2.41113 0.736896 3.85786 0 0 0 124 94 82 255
0.453498 0.712364 3.5778 0 0 0 119 132 111 255
2.41907 0.767463 3.89191 0 0 0 94 114 126 255
0.737601 0.740154 3.61218 0 0 0 156 167 138 255
0.968589 0.794629 3.64702 0 0 0 128 129 136 255
2.17389 0.833996 3.87753 0 0 0 168 195 207 255
2.4201 0.841449 3.90964 0 0 0 66 74 79 255
2.32209 0.869541 3.83043 0 0 0 90 67 66 255
1.39932 0.896538 3.6777 0 0 0 186 143 89 255
1.93942 0.945174 3.77413 0 0 0 100 87 72 255
0.652247 0.916046 3.59122 0 0 0 128 145 149 255
0.857526 0.963298 3.62339 0 0 0 126 137 144 255
0.473135 1.0043 3.58219 0 0 0 97 115 118 255
2.42089 1.08443 3.95811 0 0 0 77 112 139 255
0.211884 1.03145 3.56155 0 0 0 187 198 202 255
2.6842 1.23862 4.833 0 0 0 61 67 70 255
0.962506 1.08452 3.59902 0 0 0 188 203 206 255
-0.133082 1.06504 3.54752 0 0 0 101 133 113 255
0.00502386 1.07557 3.55506 0 0 0 182 190 196 255
1.08523 1.08676 3.61483 0 0 0 178 186 191 255
2.70694 1.31791 4.87647 0 0 0 181 172 164 255
0.385023 1.10174 3.56646 0 0 0 135 146 152 255
1.02704 1.10779 3.6016 0 0 0 97 112 115 255
0.791899 1.17387 3.6193 0 0 0 104 116 122 255
