ply
format ascii 1.0
comment VCGLIB generated
element vertex 1018
property float x
property float y
property float z
property float nx
property float ny
property float nz
property uchar red
property uchar green
property uchar blue
property uchar alpha
element face 0
property list uchar int vertex_indices
end_header
0.872225 1.16174 3.64052 0 0 0 123 134 135 255
0.967791 1.16136 3.65527 0 0 0 188 194 197 255
0.705147 1.17868 3.61417 0 0 0 175 181 184 255
0.128647 1.21146 3.57559 0 0 0 185 191 192 255
0.817944 1.18161 3.63316 0 0 0 169 178 180 255
0.943721 1.17949 3.65252 0 0 0 196 200 204 255
0.907606 1.18448 3.64514 0 0 0 194 198 202 255
0.414466 1.20635 3.58629 0 0 0 185 194 196 255
0.913928 1.18422 3.64614 0 0 0 195 196 201 255
0.884596 1.19442 3.64276 0 0 0 98 99 104 255
0.798374 1.20083 3.62748 0 0 0 127 131 133 255
-0.594385 1.29513 3.58008 0 0 0 116 94 84 255
-0.681536 1.29265 3.51058 0 0 0 103 79 69 255
0.902343 1.21156 3.64302 0 0 0 156 159 163 255
1.05853 1.21473 3.67271 0 0 0 141 147 150 255
1.08891 1.21254 3.68889 0 0 0 143 148 154 255
-0.717839 1.31164 3.52156 0 0 0 73 65 61 255
-0.559486 1.30683 3.55681 0 0 0 114 95 83 255
-0.701307 1.32761 3.54644 0 0 0 111 100 95 255
0.953562 1.24948 3.66023 0 0 0 139 145 148 255
-0.636712 1.3208 3.47843 0 0 0 94 78 68 255
-0.598295 1.35292 3.60331 0 0 0 92 72 65 255
-0.598532 1.40771 3.49498 0 0 0 127 111 101 255
-0.578373 1.41119 3.49049 0 0 0 87 74 67 255
-0.505903 1.43774 3.52348 0 0 0 147 119 110 255
-0.470341 1.43683 3.52149 0 0 0 135 99 93 255
-0.515602 1.5138 3.56459 0 0 0 102 88 87 255
-0.414102 1.5098 3.55047 0 0 0 140 105 100 255
-0.543893 1.50681 3.46198 0 0 0 112 99 98 255
-0.242662 1.53362 3.62205 0 0 0 122 107 107 255
1.21469 -0.0987734 4.00637 0 0 0 128 127 130 255
-0.220726 -0.0355375 3.80354 0 0 0 150 145 147 255
-1.60835 -0.116479 4.77162 0 0 0 147 120 104 255
-0.869476 0.0141492 3.64056 0 0 0 148 125 112 255
-0.905653 -0.0120022 3.80595 0 0 0 168 144 128 255
-0.777325 0.0114581 3.67098 0 0 0 148 119 108 255
-0.836866 -0.0183036 3.91292 0 0 0 150 116 104 255
-0.731434 -0.00946407 3.81967 0 0 0 143 110 101 255
-0.718388 -0.0224245 3.95353 0 0 0 130 114 99 255
-0.7173 -0.0296005 3.96126 0 0 0 183 167 152 255
-0.605182 -0.00795552 3.86873 0 0 0 151 103 101 255
-0.59161 -0.00862298 3.91459 0 0 0 141 105 99 255
-1.8571 -0.147586 5.25808 0 0 0 195 178 164 255
-1.40055 -0.0621406 4.50888 0 0 0 197 178 165 255
-0.838886 0.0370531 3.64338 0 0 0 196 177 164 255
-0.601949 0.0300951 3.75546 0 0 0 136 106 96 255
-0.599427 0.0179626 3.90002 0 0 0 200 177 164 255
-0.981745 0.0521617 3.89336 0 0 0 200 175 160 255
-0.826632 0.0533549 3.82107 0 0 0 193 179 161 255
-0.681433 0.0398359 3.86789 0 0 0 199 177 165 255
-2.04206 -0.0941164 5.48121 0 0 0 139 113 101 255
-1.38004 0.0150208 4.39388 0 0 0 145 119 102 255
-0.982365 0.082733 3.77404 0 0 0 136 105 90 255
-0.779068 0.074639 3.91687 0 0 0 144 104 95 255
-0.67811 0.0792891 3.85581 0 0 0 153 125 112 255
-1.91291 0.127792 5.3297 0 0 0 142 110 94 255
-0.977803 0.212799 3.85681 0 0 0 139 114 97 255
-1.7403 0.149636 5.14849 0 0 0 132 107 90 255
-0.710953 0.225746 3.68018 0 0 0 139 113 99 255
-0.748398 0.207144 3.87483 0 0 0 153 123 106 255
-1.37243 0.185716 4.47319 0 0 0 196 175 160 255
-0.877825 0.236455 3.84013 0 0 0 201 180 167 255
-0.755695 0.235301 3.85519 0 0 0 199 180 161 255
0.0734451 0.235244 3.58261 0 0 0 107 123 90 255
-1.36948 0.248202 4.46271 0 0 0 200 178 160 255
-1.04711 0.276503 3.88532 0 0 0 144 110 91 255
0.278177 0.24565 3.58609 0 0 0 83 93 67 255
-0.886904 0.278851 3.86083 0 0 0 200 177 163 255
0.380256 0.256388 3.59081 0 0 0 161 173 135 255
0.984079 0.232491 3.6483 0 0 0 139 150 123 255
-0.854906 0.294045 3.8535 0 0 0 139 108 94 255
-0.69747 0.30475 3.65261 0 0 0 134 107 93 255
0.254545 0.300642 3.58287 0 0 0 159 168 140 255
0.174497 0.354831 3.57769 0 0 0 138 148 122 255
-0.684096 0.391259 3.68091 0 0 0 142 126 112 255
0.125268 0.359672 3.57551 0 0 0 113 128 90 255
-1.43204 0.418479 4.42052 0 0 0 151 138 131 255
-0.60296 0.395428 3.73527 0 0 0 128 112 99 255
0.326582 0.361596 3.57718 0 0 0 124 133 116 255
0.730172 0.348915 3.61063 0 0 0 136 143 125 255
1.00284 0.338579 3.62179 0 0 0 145 152 134 255
0.174221 0.375986 3.57768 0 0 0 101 111 85 255
-0.951407 0.42136 3.80755 0 0 0 114 102 90 255
-0.903767 0.421674 3.86571 0 0 0 190 177 170 255
-0.839271 0.422345 3.8615 0 0 0 111 98 95 255
-0.910268 0.429263 3.82242 0 0 0 156 142 134 255
0.133539 0.389429 3.57674 0 0 0 148 159 130 255
-0.64472 0.429954 3.79771 0 0 0 127 119 106 255
-0.0703377 0.41168 3.57607 0 0 0 164 178 146 255
0.700729 0.395473 3.60632 0 0 0 133 140 121 255
0.182928 0.423399 3.57526 0 0 0 138 147 130 255
-0.0306504 0.437361 3.57977 0 0 0 95 109 82 255
0.235165 0.42816 3.57667 0 0 0 84 92 69 255
0.253164 0.438665 3.57654 0 0 0 148 153 131 255
0.627797 0.413989 3.59707 0 0 0 161 171 138 255
0.110733 0.46857 3.57141 0 0 0 155 166 135 255
0.473047 0.448986 3.58982 0 0 0 67 74 67 255
-0.226845 0.488422 3.58949 0 0 0 191 181 170 255
-1.41321 0.558449 4.46653 0 0 0 143 133 133 255
-0.0168484 0.491867 3.57609 0 0 0 161 176 141 255
-0.82723 0.531757 3.59781 0 0 0 127 86 80 255
-0.804341 0.538156 3.79836 0 0 0 155 150 149 255
-0.727599 0.547968 3.77081 0 0 0 126 119 116 255
-0.647334 0.53862 3.71745 0 0 0 154 150 144 255
-0.0410884 0.513863 3.57058 0 0 0 74 85 71 255
-0.618743 0.545971 3.76986 0 0 0 132 120 121 255
0.659984 0.49124 3.60475 0 0 0 49 56 51 255
0.875238 0.491939 3.63042 0 0 0 141 150 126 255
0.885782 0.49213 3.63139 0 0 0 145 155 117 255
0.000110218 0.53612 3.57688 0 0 0 159 175 135 255
0.0512368 0.532342 3.57292 0 0 0 71 83 62 255
0.0777711 0.531941 3.57002 0 0 0 156 169 144 255
-0.0211146 0.552256 3.57501 0 0 0 65 78 66 255
0.454168 0.534939 3.58841 0 0 0 128 136 122 255
0.0138703 0.56521 3.57273 0 0 0 164 176 140 255
0.538599 0.543986 3.58788 0 0 0 160 170 135 255
-0.229652 0.586667 3.58371 0 0 0 112 99 92 255
0.0148538 0.59181 3.5674 0 0 0 115 119 100 255
0.0579984 0.582079 3.57487 0 0 0 79 82 58 255
-0.00810636 0.621857 3.56657 0 0 0 158 173 138 255
0.750706 0.597486 3.60934 0 0 0 86 91 92 255
0.10867 0.631489 3.57551 0 0 0 74 81 75 255
0.120622 0.669618 3.57203 0 0 0 126 136 112 255
-0.0418877 0.690986 3.56483 0 0 0 50 61 50 255
0.996944 0.65697 3.65099 0 0 0 89 94 93 255
0.457763 0.703555 3.58434 0 0 0 71 80 64 255
-0.0200343 0.734501 3.5665 0 0 0 147 154 138 255
0.534022 0.706189 3.58743 0 0 0 145 155 122 255
0.0894967 0.7304 3.56885 0 0 0 143 150 133 255
0.162307 0.727237 3.57315 0 0 0 159 172 132 255
0.71305 0.701149 3.60884 0 0 0 54 61 55 255
0.484605 0.728977 3.58471 0 0 0 85 95 71 255
0.693806 0.725862 3.60522 0 0 0 146 155 137 255
-0.0976146 0.778049 3.56206 0 0 0 94 101 99 255
0.0874126 0.775055 3.56407 0 0 0 115 121 128 255
0.787654 0.74472 3.61686 0 0 0 157 169 123 255
-0.0330561 0.7939 3.56407 0 0 0 158 160 163 255
0.0468867 0.790046 3.56628 0 0 0 111 115 120 255
0.225315 0.786751 3.569 0 0 0 174 178 182 255
0.397397 0.785165 3.5589 0 0 0 105 109 113 255
0.296434 0.79506 3.56485 0 0 0 69 73 77 255
0.315816 0.795015 3.57292 0 0 0 48 52 56 255
0.49366 0.779811 3.58363 0 0 0 94 98 103 255
0.619702 0.777612 3.59598 0 0 0 72 78 81 255
0.774827 0.777799 3.61343 0 0 0 90 99 101 255
0.968777 0.783914 3.64869 0 0 0 153 158 159 255
0.624189 0.797346 3.59556 0 0 0 153 158 160 255
1.03137 0.79713 3.65727 0 0 0 76 77 80 255
-0.877903 0.893965 3.57139 0 0 0 123 95 86 255
0.92495 0.809674 3.6348 0 0 0 128 129 132 255
0.979895 0.805897 3.64805 0 0 0 155 159 161 255
1.06338 0.809105 3.67243 0 0 0 46 47 50 255
1.04529 0.812055 3.66194 0 0 0 69 70 73 255
1.15 0.819054 3.68121 0 0 0 110 111 114 255
-0.709938 0.933333 3.75696 0 0 0 127 105 99 255
0.640785 0.857308 3.60177 0 0 0 73 78 86 255
-0.587786 0.944726 3.67848 0 0 0 127 110 101 255
0.889992 0.863786 3.6358 0 0 0 100 106 110 255
-0.831227 0.977413 3.71468 0 0 0 64 45 31 255
-0.749808 0.98151 3.70534 0 0 0 63 51 41 255
-0.224306 0.935405 3.5658 0 0 0 137 111 97 255
0.425677 0.904885 3.58241 0 0 0 162 171 173 255
0.694229 0.905638 3.60838 0 0 0 142 150 155 255
-0.865561 0.991732 3.53569 0 0 0 64 47 39 255
-0.646366 1.00059 3.72047 0 0 0 78 47 41 255
-0.81581 1.03734 3.69751 0 0 0 78 57 54 255
0.990702 0.914231 3.65578 0 0 0 179 183 187 255
-0.890149 1.03855 3.66906 0 0 0 80 53 45 255
-0.706759 1.03556 3.68961 0 0 0 120 92 83 255
-0.220713 0.988386 3.56185 0 0 0 105 92 89 255
-0.577679 1.06723 3.64138 0 0 0 92 71 60 255
-0.170321 1.02466 3.5633 0 0 0 129 138 133 255
-0.0910221 1.02635 3.56098 0 0 0 70 79 79 255
0.956239 0.980953 3.65084 0 0 0 168 174 175 255
0.793266 0.986539 3.61632 0 0 0 168 172 174 255
0.0852237 1.02235 3.56962 0 0 0 159 165 168 255
-0.828483 1.09756 3.56024 0 0 0 80 59 48 255
0.325332 1.0236 3.5811 0 0 0 140 144 146 255
0.933116 1.01451 3.64081 0 0 0 136 140 142 255
-0.790309 1.13013 3.65232 0 0 0 77 55 47 255
0.758926 1.03037 3.61934 0 0 0 193 197 199 255
0.474232 1.05303 3.59301 0 0 0 195 201 204 255
0.693619 1.04771 3.60943 0 0 0 155 162 165 255
-0.755969 1.13125 3.53418 0 0 0 88 67 56 255
0.0869955 1.0807 3.57111 0 0 0 194 200 201 255
0.1158 1.08051 3.57513 0 0 0 135 139 141 255
-0.869915 1.14138 3.50124 0 0 0 118 99 93 255
0.85295 1.05357 3.63244 0 0 0 110 116 119 255
0.794551 1.06829 3.62248 0 0 0 177 183 184 255
0.94697 1.06365 3.64868 0 0 0 126 130 132 255
-0.0920609 1.12003 3.56744 0 0 0 168 186 163 255
0.74656 1.08246 3.61612 0 0 0 185 191 192 255
0.868595 1.08609 3.63505 0 0 0 169 173 177 255
-0.606071 1.18383 3.66873 0 0 0 109 89 77 255
-0.588173 1.18473 3.68047 0 0 0 107 83 71 255
0.699757 1.08904 3.60898 0 0 0 158 164 167 255
1.00142 1.07709 3.66211 0 0 0 195 204 204 255
-0.794566 1.20102 3.62479 0 0 0 79 55 46 255
1.1194 1.09216 3.6818 0 0 0 150 151 154 255
-0.0267674 1.14937 3.56243 0 0 0 187 192 195 255
0.0503583 1.1406 3.56742 0 0 0 129 138 138 255
0.140527 1.13575 3.57162 0 0 0 186 195 195 255
0.187134 1.13285 3.57259 0 0 0 196 204 206 255
-0.628357 1.20858 3.62423 0 0 0 97 80 70 255
-0.166867 1.16141 3.53932 0 0 0 148 165 150 255
0.348746 1.13224 3.57909 0 0 0 189 195 198 255
0.921351 1.11289 3.64652 0 0 0 112 113 118 255
0.0774625 1.15862 3.57033 0 0 0 191 200 200 255
0.993571 1.1229 3.66649 0 0 0 197 201 203 255
-0.714223 1.23891 3.65308 0 0 0 97 77 70 255
-0.0222709 1.17375 3.55196 0 0 0 139 143 147 255
-0.759538 1.24607 3.57423 0 0 0 86 62 54 255
0.857134 1.15538 3.63889 0 0 0 88 94 97 255
0.967521 1.15282 3.65601 0 0 0 185 194 196 255
0.870477 1.16768 3.64079 0 0 0 161 172 173 255
0.114923 1.2132 3.57376 0 0 0 192 198 199 255
0.907797 1.18026 3.64505 0 0 0 191 196 199 255
-0.53856 1.26157 3.54366 0 0 0 111 89 81 255
0.40993 1.20736 3.58647 0 0 0 192 201 203 255
-0.618208 1.30669 3.60086 0 0 0 115 96 84 255
-0.591165 1.33158 3.61492 0 0 0 95 76 64 255
-0.669722 1.31418 3.4879 0 0 0 111 100 95 255
-0.567378 1.331 3.53336 0 0 0 127 104 93 255
-0.520708 1.34251 3.54458 0 0 0 106 85 72 255
-0.598931 1.42683 3.53068 0 0 0 87 74 67 255
-0.51578 1.5203 3.56198 0 0 0 135 113 106 255
-0.470991 1.51363 3.56312 0 0 0 122 106 99 255
-0.397152 1.49904 3.51529 0 0 0 140 105 100 255
-0.561819 1.52627 3.50462 0 0 0 124 110 108 255
1.22695 -0.10617 4.02677 0 0 0 106 117 126 255
-1.3873 -0.095599 4.51559 0 0 0 136 108 96 255
-0.687542 -0.0198525 3.90758 0 0 0 139 123 108 255
-0.222844 -0.0365321 3.86156 0 0 0 160 165 164 255
-0.838132 -0.016452 3.92329 0 0 0 146 107 95 255
-0.881585 0.000836349 3.88618 0 0 0 141 108 95 255
-2.02084 -0.163779 5.53536 0 0 0 196 177 166 255
-0.614493 0.0304415 3.75691 0 0 0 145 129 114 255
-0.854656 0.0487558 3.68789 0 0 0 197 178 162 255
-0.80503 0.0427726 3.80646 0 0 0 197 182 164 255
-0.756662 0.0158253 3.91293 0 0 0 197 181 166 255
-1.46092 -0.020419 4.54114 0 0 0 148 112 94 255
-0.695136 0.0451979 3.90971 0 0 0 194 180 166 255
-0.588793 0.0410063 3.88604 0 0 0 198 182 167 255
-1.0526 0.0592134 3.87562 0 0 0 149 120 105 255
-0.773367 0.0773189 3.90959 0 0 0 144 104 95 255
-0.588649 0.0967819 3.669 0 0 0 136 103 93 255
-0.615848 0.0735344 3.89035 0 0 0 138 108 98 255
-0.0782992 0.165607 3.58388 0 0 0 157 165 153 255
-1.75995 0.155985 5.1863 0 0 0 138 113 94 255
-0.917508 0.216588 3.86447 0 0 0 152 125 109 255
-0.807285 0.213739 3.89525 0 0 0 135 100 85 255
-0.736928 0.212133 3.8656 0 0 0 147 115 98 255
0.896293 0.188304 3.64268 0 0 0 161 174 133 255
-1.36809 0.197901 4.42132 0 0 0 132 108 86 255
1.01256 0.193178 3.64491 0 0 0 131 139 125 255
-0.888836 0.234117 3.87284 0 0 0 203 180 167 255
0.0759511 0.238847 3.58103 0 0 0 107 123 90 255
-0.755473 0.244152 3.84509 0 0 0 198 178 158 255
0.954344 0.21129 3.63111 0 0 0 122 131 114 255
-1.01667 0.279861 3.82538 0 0 0 165 134 115 255
-0.848308 0.26812 3.86253 0 0 0 153 126 109 255
0.352236 0.248494 3.585 0 0 0 75 85 59 255
-1.75831 0.260385 5.03257 0 0 0 137 111 94 255
-0.814599 0.279481 3.89428 0 0 0 140 113 99 255
0.0907247 0.259085 3.5794 0 0 0 133 147 115 255
-1.05052 0.301728 3.85256 0 0 0 160 130 113 255
-0.962854 0.296552 3.82959 0 0 0 136 106 91 255
-0.69281 0.302659 3.78359 0 0 0 142 112 95 255
-0.873031 0.295871 3.8698 0 0 0 180 153 140 255
0.724466 0.31012 3.61379 0 0 0 78 89 63 255
-1.62766 0.390362 4.83781 0 0 0 101 91 81 255
-1.02672 0.39272 3.80186 0 0 0 153 138 123 255
0.129442 0.355331 3.57522 0 0 0 92 103 74 255
-0.902526 0.39784 3.87667 0 0 0 166 151 142 255
-0.767358 0.387276 3.8497 0 0 0 177 158 144 255
-0.640976 0.391513 3.82405 0 0 0 128 112 99 255
0.30798 0.368969 3.57862 0 0 0 145 156 114 255
0.327556 0.364847 3.5765 0 0 0 124 133 116 255
0.736847 0.352317 3.6093 0 0 0 137 145 123 255
-0.956407 0.409595 3.82498 0 0 0 154 140 125 255
-0.572099 0.410785 3.80161 0 0 0 147 133 118 255
0.129524 0.389877 3.5748 0 0 0 156 167 138 255
0.618228 0.35713 3.59958 0 0 0 113 121 97 255
0.996711 0.343631 3.64948 0 0 0 147 155 135 255
-0.654579 0.422711 3.75296 0 0 0 126 115 107 255
-0.615553 0.432699 3.74765 0 0 0 127 119 106 255
-0.069375 0.403633 3.57478 0 0 0 169 183 151 255
-0.735716 0.436019 3.79096 0 0 0 130 117 105 255
-0.0266885 0.442619 3.57819 0 0 0 88 101 74 255
0.118199 0.427844 3.57152 0 0 0 134 149 114 255
0.639167 0.415873 3.59792 0 0 0 157 167 130 255
0.720151 0.423418 3.60618 0 0 0 53 61 51 255
-0.068142 0.478695 3.57149 0 0 0 167 178 149 255
0.109249 0.473053 3.57143 0 0 0 155 167 133 255
0.75554 0.438031 3.60839 0 0 0 87 98 87 255
-0.232534 0.494364 3.58958 0 0 0 180 170 160 255
-0.0264019 0.481185 3.57887 0 0 0 167 184 148 255
-1.40565 0.554175 4.4516 0 0 0 155 145 146 255
-0.938089 0.538368 3.81147 0 0 0 135 90 83 255
-0.721607 0.541092 3.75554 0 0 0 92 86 81 255
-0.619709 0.540865 3.75889 0 0 0 132 122 124 255
0.491279 0.488203 3.58725 0 0 0 160 174 126 255
-0.557647 0.538032 3.74803 0 0 0 158 152 154 255
-0.0381339 0.516914 3.57289 0 0 0 72 83 69 255
0.634785 0.491675 3.5972 0 0 0 46 53 51 255
0.700402 0.492569 3.60552 0 0 0 125 131 122 255
0.887069 0.477227 3.63236 0 0 0 141 152 113 255
0.0162484 0.539816 3.57664 0 0 0 171 187 143 255
0.0544959 0.532484 3.57234 0 0 0 71 83 62 255
-0.0303134 0.553206 3.57659 0 0 0 67 80 68 255
0.561794 0.524115 3.59078 0 0 0 57 63 54 255
0.84448 0.531425 3.62815 0 0 0 119 127 118 255
0.365835 0.55439 3.58075 0 0 0 124 131 125 255
-0.061953 0.587301 3.56744 0 0 0 157 167 145 255
0.432162 0.563677 3.58119 0 0 0 134 144 119 255
0.0234384 0.588927 3.56801 0 0 0 86 89 74 255
0.883198 0.553324 3.62972 0 0 0 144 156 120 255
1.00021 0.547113 3.6517 0 0 0 114 122 102 255
0.445203 0.592146 3.58264 0 0 0 99 109 83 255
0.108743 0.626758 3.576 0 0 0 74 82 72 255
-0.0174591 0.648502 3.56723 0 0 0 102 116 92 255
0.104498 0.639347 3.5754 0 0 0 70 77 72 255
-0.0683228 0.665302 3.56627 0 0 0 150 159 139 255
0.127549 0.665352 3.5717 0 0 0 141 151 127 255
0.533837 0.63881 3.58971 0 0 0 160 172 123 255
-0.0496077 0.693493 3.5657 0 0 0 48 59 48 255
1.00035 0.650677 3.65133 0 0 0 93 96 95 255
-0.0343238 0.714527 3.5685 0 0 0 104 111 108 255
0.640956 0.68733 3.59692 0 0 0 68 76 65 255
0.763478 0.685123 3.61543 0 0 0 144 154 134 255
0.10619 0.729372 3.56875 0 0 0 161 174 140 255
0.456975 0.723983 3.58387 0 0 0 111 117 95 255
0.607257 0.70531 3.59172 0 0 0 152 162 140 255
0.718371 0.698774 3.60866 0 0 0 55 62 60 255
0.526207 0.730495 3.58696 0 0 0 155 163 122 255
0.689194 0.7352 3.60342 0 0 0 129 137 122 255
0.72966 0.730384 3.60717 0 0 0 144 154 132 255
-0.949046 0.838365 3.67377 0 0 0 54 38 29 255
-0.103611 0.781183 3.56117 0 0 0 97 104 102 255
0.0390458 0.784074 3.58329 0 0 0 107 112 118 255
0.0246253 0.785496 3.55983 0 0 0 97 101 105 255
0.225584 0.782777 3.56943 0 0 0 173 177 181 255
0.271601 0.781454 3.57337 0 0 0 107 111 115 255
0.303517 0.780811 3.56518 0 0 0 130 134 138 255
0.321223 0.783281 3.55226 0 0 0 111 115 119 255
0.654155 0.771014 3.601 0 0 0 114 120 123 255
0.5473 0.791171 3.58752 0 0 0 102 108 111 255
0.623285 0.787393 3.59651 0 0 0 159 165 168 255
0.473818 0.799468 3.57744 0 0 0 92 96 100 255
0.569234 0.800511 3.58952 0 0 0 65 70 72 255
0.781918 0.786838 3.61158 0 0 0 85 94 96 255
0.850098 0.790677 3.62792 0 0 0 117 122 127 255
-0.861418 0.88363 3.55448 0 0 0 129 99 86 255
1.09108 0.799473 3.69867 0 0 0 75 76 79 255
0.977023 0.813945 3.6459 0 0 0 106 110 112 255
-0.69551 0.934058 3.73776 0 0 0 127 105 99 255
0.558402 0.847187 3.58781 0 0 0 100 110 114 255
-0.629238 0.936448 3.67654 0 0 0 70 59 54 255
-0.704842 0.950025 3.59956 0 0 0 64 46 43 255
0.0968317 0.902735 3.57263 0 0 0 196 202 205 255
-0.906134 0.976455 3.65742 0 0 0 129 101 86 255
-0.681974 0.983289 3.67174 0 0 0 73 49 43 255
-0.906821 0.999121 3.61407 0 0 0 67 49 42 255
0.527698 0.918024 3.58854 0 0 0 173 179 182 255
0.702355 0.908383 3.60838 0 0 0 191 199 204 255
-0.626397 0.994435 3.67973 0 0 0 78 47 41 255
-0.602077 1.00324 3.68329 0 0 0 86 62 54 255
-0.705642 1.03431 3.71089 0 0 0 103 76 68 255
-0.222818 0.989265 3.56484 0 0 0 105 92 89 255
0.852733 0.951398 3.63142 0 0 0 144 153 155 255
0.964224 0.963033 3.65297 0 0 0 144 150 151 255
0.931817 0.972717 3.64569 0 0 0 168 172 174 255
0.967282 0.954358 3.65488 0 0 0 180 189 189 255
-0.703214 1.07378 3.64391 0 0 0 115 89 73 255
-0.0909296 1.02629 3.56093 0 0 0 70 79 79 255
0.404645 0.999904 3.58148 0 0 0 200 206 207 255
-0.640444 1.09121 3.63802 0 0 0 101 79 64 255
-0.11039 1.0571 3.56078 0 0 0 170 183 169 255
0.997259 1.00932 3.65642 0 0 0 168 174 175 255
-0.133295 1.08017 3.56171 0 0 0 98 113 99 255
0.00186894 1.06662 3.56744 0 0 0 168 177 179 255
0.472908 1.05606 3.59394 0 0 0 195 201 204 255
0.759736 1.03422 3.61978 0 0 0 197 201 203 255
0.860028 1.03131 3.63204 0 0 0 187 193 196 255
0.915705 1.02688 3.64058 0 0 0 129 130 133 255
-0.0869266 1.08415 3.55676 0 0 0 77 89 83 255
-0.0291632 1.07998 3.56615 0 0 0 94 100 102 255
0.0611079 1.08227 3.56527 0 0 0 177 183 184 255
0.0897682 1.08826 3.57354 0 0 0 185 191 192 255
0.981967 1.03102 3.65423 0 0 0 91 95 97 255
-0.771373 1.16079 3.66181 0 0 0 72 51 40 255
0.731375 1.05718 3.61566 0 0 0 125 129 131 255
-0.901405 1.1576 3.56931 0 0 0 131 109 101 255
0.281111 1.09191 3.57911 0 0 0 197 206 206 255
-0.654694 1.16518 3.58323 0 0 0 100 77 64 255
-0.0917601 1.12221 3.55987 0 0 0 170 190 165 255
0.135454 1.10389 3.57286 0 0 0 134 140 141 255
1.00527 1.07801 3.66199 0 0 0 195 204 204 255
-0.566063 1.16552 3.58881 0 0 0 113 91 80 255
0.758975 1.08154 3.61683 0 0 0 196 202 203 255
-0.0167712 1.13833 3.56378 0 0 0 199 208 210 255
0.0114125 1.13686 3.56501 0 0 0 197 206 208 255
0.0529966 1.13546 3.56821 0 0 0 109 118 118 255
0.143044 1.13836 3.57215 0 0 0 196 204 204 255
0.290355 1.11478 3.5797 0 0 0 197 206 206 255
1.06855 1.08771 3.67713 0 0 0 137 143 144 255
0.350422 1.13613 3.57875 0 0 0 189 195 198 255
-0.651132 1.22781 3.67615 0 0 0 106 91 82 255
-0.719184 1.24182 3.65116 0 0 0 95 75 68 255
0.0756355 1.16131 3.56869 0 0 0 191 200 200 255
-0.0971285 1.19051 3.55905 0 0 0 82 87 81 255
-0.737163 1.24 3.53756 0 0 0 78 62 58 255
-0.503258 1.23784 3.57025 0 0 0 93 72 65 255
-0.065051 1.20829 3.56631 0 0 0 159 163 167 255
0.108536 1.21697 3.57213 0 0 0 190 196 197 255
0.65429 1.19141 3.61281 0 0 0 190 196 199 255
0.829342 1.17807 3.63393 0 0 0 148 157 159 255
0.911389 1.17958 3.64677 0 0 0 192 197 200 255
-0.529371 1.25655 3.55022 0 0 0 102 79 68 255
-0.733654 1.30799 3.59014 0 0 0 130 103 90 255
-0.631158 1.31575 3.62432 0 0 0 84 70 62 255
-0.0985069 1.27255 3.56663 0 0 0 60 66 67 255
-0.564615 1.32013 3.54972 0 0 0 88 69 58 255
-0.554281 1.3579 3.6244 0 0 0 116 95 82 255
1.12548 1.31308 3.72176 0 0 0 131 135 137 255
-0.545559 1.41305 3.51956 0 0 0 94 76 69 255
-0.54745 1.45549 3.58865 0 0 0 150 122 113 255
-0.497288 1.45201 3.58765 0 0 0 145 110 104 255
-0.360069 1.44692 3.56706 0 0 0 157 126 116 255
-0.701454 1.45185 3.40236 0 0 0 157 136 125 255
-0.514847 1.49834 3.47187 0 0 0 66 66 63 255
-0.981337 -0.0254495 3.92594 0 0 0 139 113 99 255
-0.25062 -0.0495596 4.00164 0 0 0 161 162 162 255
-0.622223 -0.00164388 3.91897 0 0 0 138 101 95 255
-0.94981 0.094509 3.79204 0 0 0 143 106 92 255
-0.972406 0.11746 3.83463 0 0 0 145 104 91 255
-1.74922 0.213637 5.04209 0 0 0 127 95 77 255
0.236973 0.249507 3.58369 0 0 0 77 87 63 255
0.270949 0.256754 3.58279 0 0 0 99 109 83 255
0.469148 0.332343 3.59181 0 0 0 108 119 104 255
0.323944 0.365097 3.57762 0 0 0 127 136 119 255
0.995496 0.339027 3.643 0 0 0 145 152 134 255
-0.825729 0.405736 3.83855 0 0 0 97 84 81 255
-0.0723529 0.403814 3.57612 0 0 0 169 183 151 255
0.0741168 0.447109 3.57656 0 0 0 169 187 133 255
0.713128 0.430512 3.60549 0 0 0 60 67 61 255
0.49099 0.471611 3.58877 0 0 0 171 185 137 255
0.884581 0.461518 3.6337 0 0 0 148 160 118 255
0.0576567 0.533157 3.57378 0 0 0 68 80 60 255
0.632482 0.482252 3.59731 0 0 0 56 63 61 255
0.0204047 0.54792 3.57583 0 0 0 171 187 144 255
-0.243899 0.589794 3.57996 0 0 0 121 103 93 255
0.534669 0.564881 3.58764 0 0 0 161 174 122 255
0.0860045 0.607704 3.57762 0 0 0 72 80 67 255
-0.0635022 0.644354 3.56748 0 0 0 160 174 142 255
0.525946 0.633103 3.5905 0 0 0 163 178 125 255
0.611932 0.647692 3.59293 0 0 0 156 166 137 255
0.135136 0.730309 3.5722 0 0 0 162 176 128 255
0.719732 0.685831 3.60949 0 0 0 55 62 59 255
0.760908 0.69166 3.61444 0 0 0 143 155 122 255
-0.116853 0.77481 3.56285 0 0 0 95 105 99 255
-0.954233 0.861498 3.68971 0 0 0 46 35 32 255
-0.921474 0.877319 3.67958 0 0 0 120 97 79 255
1.04409 0.813161 3.66481 0 0 0 77 78 81 255
0.393887 0.910887 3.58219 0 0 0 194 203 205 255
0.972125 0.92244 3.65538 0 0 0 197 203 204 255
-0.235631 0.999445 3.5597 0 0 0 136 112 106 255
-0.10168 1.00858 3.56518 0 0 0 78 87 87 255
0.404347 0.986266 3.58023 0 0 0 196 202 203 255
0.795079 0.969716 3.61798 0 0 0 184 190 191 255
0.841436 0.978383 3.62965 0 0 0 116 124 126 255
-0.158514 1.03593 3.56458 0 0 0 160 173 160 255
0.0632159 1.03023 3.57194 0 0 0 122 128 131 255
0.773048 1.00303 3.61799 0 0 0 136 140 142 255
0.873195 1.04714 3.63555 0 0 0 198 204 207 255
0.0981062 1.10139 3.57463 0 0 0 144 150 151 255
0.790401 1.07223 3.62193 0 0 0 163 169 170 255
-0.0676488 1.11467 3.56505 0 0 0 117 123 124 255
0.279926 1.10523 3.57956 0 0 0 200 209 209 255
0.874477 1.08335 3.63542 0 0 0 182 186 190 255
1.11573 1.06753 3.69469 0 0 0 188 192 194 255
0.980331 1.09833 3.65795 0 0 0 160 166 167 255
0.921909 1.13293 3.64885 0 0 0 97 98 103 255
0.976322 1.14418 3.65749 0 0 0 195 201 203 255
-0.525296 1.2494 3.60834 0 0 0 105 83 74 255
0.476362 1.17869 3.59219 0 0 0 97 108 109 255
-0.731473 1.2834 3.51792 0 0 0 150 121 101 255
0.0848921 1.22035 3.56753 0 0 0 197 202 204 255
0.913903 1.18035 3.64593 0 0 0 192 197 200 255
-0.240573 1.36525 3.535 0 0 0 139 112 96 255
-0.354326 1.43988 3.54479 0 0 0 156 125 116 255
-0.717239 1.46532 3.44378 0 0 0 154 133 122 255
1.24691 -0.0899918 3.98035 0 0 0 80 99 110 255
-0.974241 -0.0239127 3.95914 0 0 0 168 136 120 255
-0.809456 -0.0228069 3.96163 0 0 0 148 107 96 255
-0.251707 -0.0372547 3.82668 0 0 0 72 69 71 255
-0.913533 0.0213567 3.94762 0 0 0 136 101 86 255
1.17928 -0.0191793 4.02741 0 0 0 168 166 167 255
-2.04742 -0.11191 5.51523 0 0 0 140 107 92 255
-0.857332 0.0641266 3.92991 0 0 0 131 103 92 255
-0.619802 0.070446 3.89321 0 0 0 142 111 101 255
-0.989006 0.118608 3.88314 0 0 0 139 106 90 255
0.870682 0.197073 3.63951 0 0 0 165 181 133 255
-0.754441 0.223892 3.86536 0 0 0 174 148 134 255
0.0801177 0.24298 3.58093 0 0 0 104 117 94 255
0.3666 0.270041 3.58369 0 0 0 75 85 79 255
0.163674 0.314226 3.5805 0 0 0 91 101 77 255
0.259926 0.328359 3.58128 0 0 0 170 184 134 255
-2.18695 0.401996 5.9484 0 0 0 85 74 68 255
-0.936897 0.422343 3.83645 0 0 0 124 112 104 255
-0.057914 0.372167 3.57407 0 0 0 170 187 147 255
-0.580365 0.41784 3.80748 0 0 0 129 115 102 255
0.257248 0.40334 3.57791 0 0 0 152 165 124 255
0.74618 0.396473 3.60957 0 0 0 124 132 111 255
0.527293 0.451264 3.59197 0 0 0 168 183 128 255
-0.871653 0.535789 3.83176 0 0 0 42 37 36 255
0.559926 0.527593 3.59069 0 0 0 59 65 55 255
-0.254699 0.609561 3.5729 0 0 0 114 92 79 255
-0.0470035 0.595843 3.56502 0 0 0 164 179 144 255
-0.0591829 0.624812 3.56671 0 0 0 159 175 144 255
0.0565841 0.624158 3.56727 0 0 0 98 105 100 255
0.733332 0.65587 3.60931 0 0 0 50 56 57 255
0.516541 0.729396 3.58614 0 0 0 147 154 120 255
0.766366 0.729503 3.61346 0 0 0 159 173 123 255
0.921358 0.706638 3.63892 0 0 0 154 169 116 255
-0.959786 0.854221 3.71135 0 0 0 59 42 35 255
0.754852 0.762806 3.61295 0 0 0 56 62 52 255
0.0581359 0.793262 3.56113 0 0 0 106 110 114 255
0.18624 0.773162 3.57111 0 0 0 160 164 169 255
-0.80788 0.885853 3.81285 0 0 0 47 38 33 255
-0.230797 0.904819 3.55223 0 0 0 132 101 85 255
0.0997235 0.889925 3.57276 0 0 0 146 152 154 255
0.541831 0.944402 3.58928 0 0 0 146 152 155 255
0.71974 0.914029 3.61096 0 0 0 194 203 207 255
-0.117471 0.988291 3.56902 0 0 0 65 74 74 255
0.175811 1.01292 3.57086 0 0 0 142 146 148 255
0.833169 0.990924 3.62915 0 0 0 121 129 131 255
-0.160049 1.05526 3.58581 0 0 0 154 169 152 255
0.959717 1.03472 3.65071 0 0 0 98 104 105 255
-0.088019 1.08779 3.55641 0 0 0 84 96 92 255
0.702806 1.05208 3.61274 0 0 0 190 196 199 255
0.744847 1.03023 3.61859 0 0 0 196 202 203 255
0.876177 1.04955 3.6345 0 0 0 198 204 207 255
0.284072 1.10992 3.57911 0 0 0 198 207 207 255
1.10745 1.05542 3.68135 0 0 0 183 188 189 255
0.164756 1.12427 3.57338 0 0 0 197 206 206 255
0.978677 1.10477 3.65729 0 0 0 165 171 172 255
1.04531 1.12794 3.68251 0 0 0 94 100 101 255
0.441905 1.16349 3.58268 0 0 0 109 118 120 255
0.978011 1.16773 3.6572 0 0 0 160 165 169 255
-0.533136 1.26039 3.61652 0 0 0 89 68 60 255
0.643547 1.21125 3.61003 0 0 0 197 205 207 255
-0.206754 0.0444362 3.68717 0 0 0 45 44 47 255
1.21009 0.071981 3.75491 0 0 0 53 53 53 255
-0.752565 0.251982 3.89786 0 0 0 149 122 99 255
0.841173 0.208568 3.63542 0 0 0 165 185 125 255
0.427507 0.316607 3.59124 0 0 0 77 84 77 255
-0.0667187 0.355513 3.5845 0 0 0 168 185 145 255
0.399507 0.365493 3.58069 0 0 0 65 75 72 255
0.848102 0.308252 3.64084 0 0 0 167 183 125 255
0.642491 0.352045 3.60322 0 0 0 98 106 81 255
0.757083 0.319948 3.61758 0 0 0 130 140 117 255
-0.0623855 0.417967 3.57539 0 0 0 160 176 138 255
0.0565394 0.405652 3.58072 0 0 0 171 189 135 255
0.470136 0.41688 3.59232 0 0 0 70 77 75 255
0.796188 0.415455 3.61219 0 0 0 61 68 64 255
0.173256 0.482629 3.56722 0 0 0 65 77 73 255
0.427133 0.456953 3.59438 0 0 0 48 55 53 255
-0.838736 0.5377 3.73223 0 0 0 41 36 38 255
0.856983 0.492866 3.63262 0 0 0 79 86 83 255
0.60406 0.55312 3.59125 0 0 0 82 89 84 255
0.0471851 0.646093 3.56187 0 0 0 50 56 56 255
0.488368 0.65528 3.58606 0 0 0 165 176 145 255
1.09621 0.805974 3.68249 0 0 0 63 64 67 255
-0.772203 1.01849 3.73482 0 0 0 144 120 93 255
-0.183743 0.991465 3.56594 0 0 0 60 64 63 255
0.718923 0.951358 3.61024 0 0 0 198 203 206 255
0.892448 0.947592 3.63604 0 0 0 195 204 205 255
0.0744196 1.11363 3.5691 0 0 0 122 128 129 255
1.09321 1.05085 3.67819 0 0 0 166 172 173 255
-0.215443 -0.150541 3.76243 0 0 0 73 73 76 255
-0.202855 -0.130089 3.75902 0 0 0 66 56 60 255
1.23492 0.0080061 3.81548 0 0 0 157 137 117 255
-0.20653 -0.0107973 3.69928 0 0 0 174 183 185 255
0.0743708 0.222755 3.58369 0 0 0 138 160 123 255
0.979799 0.298769 3.66451 0 0 0 121 134 121 255
0.448632 0.292251 3.59506 0 0 0 121 135 105 255
1.69083 0.315052 3.81902 0 0 0 203 190 184 255
0.772634 0.312036 3.62699 0 0 0 106 121 86 255
1.65599 0.341181 3.83029 0 0 0 188 157 138 255
0.49013 0.324614 3.59643 0 0 0 134 149 110 255
1.72421 0.343907 3.82563 0 0 0 197 180 175 255
1.75718 0.347005 3.81285 0 0 0 195 183 183 255
0.628662 0.340286 3.60602 0 0 0 100 118 73 255
0.474343 0.377407 3.59617 0 0 0 80 93 80 255
1.73379 0.398775 3.83087 0 0 0 207 193 197 255
0.652217 0.385919 3.60743 0 0 0 79 91 82 255
0.73515 0.403185 3.61309 0 0 0 127 141 122 255
0.279983 0.409127 3.57945 0 0 0 140 158 115 255
1.79235 0.443052 3.82172 0 0 0 159 134 125 255
1.80051 0.441493 3.84908 0 0 0 162 134 121 255
1.73347 0.446895 3.82514 0 0 0 204 191 194 255
1.82224 0.449487 3.84535 0 0 0 196 185 185 255
1.97037 0.451384 3.85323 0 0 0 168 129 106 255
1.71623 0.450654 3.83328 0 0 0 210 186 178 255
1.71683 0.460933 3.80484 0 0 0 163 131 110 255
0.667706 0.451641 3.60585 0 0 0 117 131 112 255
1.78432 0.472425 3.81897 0 0 0 160 130 115 255
0.597608 0.454393 3.59551 0 0 0 115 130 102 255
1.71572 0.479057 3.82653 0 0 0 184 126 89 255
0.590287 0.466593 3.59572 0 0 0 87 104 76 255
1.87874 0.488883 3.85584 0 0 0 181 123 88 255
0.995092 0.480346 3.65314 0 0 0 72 82 76 255
1.73269 0.495281 3.81731 0 0 0 204 195 199 255
1.81627 0.49946 3.84856 0 0 0 209 177 163 255
0.661218 0.476372 3.60867 0 0 0 101 112 101 255
1.94474 0.502082 3.84605 0 0 0 196 182 184 255
1.99831 0.503771 3.89019 0 0 0 196 187 182 255
2.04672 0.50609 3.89072 0 0 0 198 182 172 255
0.719148 0.487729 3.61095 0 0 0 83 93 87 255
0.682472 0.493224 3.60956 0 0 0 63 75 71 255
0.785472 0.511201 3.62371 0 0 0 66 78 82 255
0.613833 0.525152 3.59614 0 0 0 80 92 88 255
0.681942 0.534481 3.60676 0 0 0 80 93 92 255
0.377573 0.535433 3.58513 0 0 0 68 86 85 255
0.857553 0.545072 3.635 0 0 0 95 109 90 255
0.869502 0.551562 3.63118 0 0 0 125 138 124 255
0.204655 0.548938 3.57408 0 0 0 115 129 112 255
0.86443 0.565027 3.62747 0 0 0 42 53 52 255
0.875514 0.563077 3.6303 0 0 0 78 89 76 255
0.88975 0.570086 3.63152 0 0 0 131 143 123 255
0.890777 0.587482 3.63023 0 0 0 71 77 78 255
0.768447 0.595685 3.61894 0 0 0 58 69 70 255
2.1364 0.625814 3.87332 0 0 0 200 159 125 255
0.606798 0.615061 3.59725 0 0 0 58 72 65 255
0.693449 0.629606 3.60526 0 0 0 86 100 93 255
0.160014 0.628571 3.56958 0 0 0 97 118 86 255
0.679734 0.649734 3.60443 0 0 0 138 153 119 255
0.941833 0.669175 3.64461 0 0 0 107 119 100 255
0.951487 0.679494 3.64508 0 0 0 54 64 56 255
0.960858 0.692391 3.64624 0 0 0 115 126 111 255
0.658669 0.687474 3.60526 0 0 0 69 76 73 255
0.0168865 0.684727 3.56677 0 0 0 109 125 110 255
0.733814 0.70542 3.61074 0 0 0 59 73 52 255
0.165558 0.705842 3.57315 0 0 0 116 133 114 255
0.622538 0.717123 3.59461 0 0 0 82 96 74 255
0.724463 0.719562 3.61013 0 0 0 106 119 103 255
0.938661 0.72946 3.64281 0 0 0 154 170 128 255
0.498211 0.733508 3.59229 0 0 0 100 110 83 255
-0.03797 0.728347 3.56624 0 0 0 119 131 123 255
0.675225 0.744017 3.60515 0 0 0 92 104 100 255
0.798315 0.748601 3.62213 0 0 0 150 166 124 255
0.832916 0.745336 3.62447 0 0 0 118 131 114 255
0.135139 0.771556 3.57503 0 0 0 65 77 83 255
0.643245 0.777498 3.60088 0 0 0 45 53 60 255
0.824354 0.78469 3.62722 0 0 0 103 110 107 255
0.0629262 0.774421 3.57258 0 0 0 82 93 99 255
0.914714 0.791832 3.63619 0 0 0 125 133 138 255
-0.0173638 0.778584 3.56393 0 0 0 51 58 56 255
0.80899 0.79899 3.62432 0 0 0 40 48 53 255
1.08406 0.806402 3.68673 0 0 0 89 105 107 255
0.127827 0.794409 3.54355 0 0 0 90 98 103 255
0.441892 0.79718 3.59217 0 0 0 122 132 138 255
0.91389 0.806031 3.6353 0 0 0 131 136 142 255
0.244558 0.798679 3.56878 0 0 0 113 113 121 255
0.751047 0.808884 3.60736 0 0 0 122 126 128 255
0.817757 0.809057 3.62502 0 0 0 67 72 78 255
1.11204 0.819061 3.66841 0 0 0 77 82 88 255
1.13116 0.824007 3.65929 0 0 0 93 98 104 255
0.900443 0.848386 3.63534 0 0 0 65 75 83 255
1.06366 0.863712 3.66338 0 0 0 83 92 102 255
0.806122 0.861145 3.62465 0 0 0 86 95 108 255
0.834148 0.86492 3.62619 0 0 0 101 112 125 255
0.922442 0.861417 3.64052 0 0 0 92 107 115 255
1.08717 0.865576 3.66948 0 0 0 64 71 83 255
0.494044 0.855717 3.58983 0 0 0 78 86 95 255
1.25551 0.88075 3.7074 0 0 0 133 157 167 255
2.06587 0.928316 3.84636 0 0 0 159 156 154 255
-0.0505484 0.8956 3.56166 0 0 0 120 130 138 255
0.648929 0.907566 3.60753 0 0 0 127 142 147 255
1.8972 0.963199 3.83589 0 0 0 158 159 140 255
2.05141 0.96718 3.8758 0 0 0 170 172 168 255
0.0852231 0.952081 3.57157 0 0 0 187 197 203 255
2.01125 0.996256 3.8578 0 0 0 165 170 170 255
1.87772 1.02919 3.83967 0 0 0 158 169 176 255
0.703058 1.02174 3.60885 0 0 0 144 152 157 255
0.159047 1.05945 3.57328 0 0 0 180 188 195 255
0.174909 1.07199 3.57271 0 0 0 156 168 172 255
0.179981 1.10524 3.57415 0 0 0 148 159 166 255
0.230393 1.11784 3.5725 0 0 0 159 169 176 255
0.213102 1.15925 3.57549 0 0 0 103 118 125 255
0.407717 1.16424 3.58264 0 0 0 118 129 140 255
1.39109 1.39186 3.73509 0 0 0 193 156 155 255
1.46394 1.38659 3.73285 0 0 0 186 136 121 255
1.55737 1.39655 3.7507 0 0 0 194 167 162 255
1.84741 1.40992 3.80348 0 0 0 185 138 131 255
1.95467 1.40327 3.79772 0 0 0 197 156 144 255
1.58894 1.40335 3.75143 0 0 0 192 188 195 255
1.61294 1.39885 3.75871 0 0 0 199 173 164 255
1.78292 1.41244 3.79 0 0 0 194 147 136 255
1.88513 1.41149 3.80012 0 0 0 203 156 147 255
2.07085 1.39823 3.7755 0 0 0 197 163 161 255
1.74706 1.41931 3.79267 0 0 0 182 156 152 255
1.38874 1.41493 3.73451 0 0 0 206 185 181 255
1.58837 1.41875 3.75782 0 0 0 192 188 193 255
1.55717 1.43062 3.77731 0 0 0 187 176 174 255
1.77529 1.42955 3.78196 0 0 0 193 159 158 255
1.99063 1.4282 3.7742 0 0 0 187 179 178 255
2.06592 1.42703 3.77176 0 0 0 206 171 171 255
1.73538 1.44095 3.78586 0 0 0 175 146 143 255
0.722706 1.54034 3.63225 0 0 0 134 145 147 255
0.741991 1.53945 3.6363 0 0 0 95 105 112 255
0.58273 1.54548 3.6184 0 0 0 114 127 135 255
0.537301 1.54492 3.61079 0 0 0 115 127 135 255
0.568733 1.54457 3.61145 0 0 0 114 128 138 255
0.67894 1.55326 3.62873 0 0 0 124 133 139 255
0.790529 1.55315 3.64073 0 0 0 122 133 142 255
0.866254 1.5561 3.65211 0 0 0 119 130 137 255
0.501547 1.54806 3.59235 0 0 0 65 70 78 255
0.508381 1.54785 3.6057 0 0 0 68 75 82 255
0.518231 1.55357 3.60215 0 0 0 128 136 141 255
0.639567 1.55344 3.61731 0 0 0 139 146 151 255
0.900412 1.56468 3.66002 0 0 0 142 152 159 255
0.903915 1.55943 3.66373 0 0 0 125 135 144 255
0.537122 1.5608 3.60789 0 0 0 146 152 162 255
0.766437 1.55961 3.63783 0 0 0 126 136 143 255
0.824519 1.5597 3.64441 0 0 0 116 127 138 255
0.839249 1.55993 3.64541 0 0 0 84 97 105 255
0.866199 1.56206 3.65158 0 0 0 127 137 143 255
0.937349 1.56549 3.66646 0 0 0 130 142 148 255
0.579479 1.56222 3.61068 0 0 0 76 79 88 255
0.591754 1.56408 3.61928 0 0 0 144 151 158 255
0.620354 1.56694 3.61532 0 0 0 113 120 124 255
0.686023 1.5698 3.62719 0 0 0 147 155 160 255
0.722043 1.57011 3.63288 0 0 0 148 157 159 255
0.797475 1.57619 3.64193 0 0 0 128 136 143 255
-0.214123 -0.128187 3.67524 0 0 0 65 63 65 255
-0.220246 -0.107013 3.72441 0 0 0 220 211 213 255
-0.179196 -0.0130405 3.74565 0 0 0 148 152 154 255
-0.180743 0.0255745 3.58324 0 0 0 85 87 86 255
1.65451 0.345359 3.79797 0 0 0 209 171 153 255
0.714212 0.349 3.61429 0 0 0 137 146 123 255
0.292425 0.364877 3.58146 0 0 0 160 177 128 255
0.842413 0.367354 3.63372 0 0 0 66 76 73 255
1.72717 0.396618 3.83394 0 0 0 194 194 206 255
0.857334 0.416726 3.63471 0 0 0 54 68 64 255
1.00398 0.418496 3.65393 0 0 0 114 128 110 255
1.94505 0.437642 3.85294 0 0 0 197 165 149 255
1.71638 0.447264 3.80503 0 0 0 207 183 177 255
1.87913 0.441507 3.83666 0 0 0 171 148 138 255
1.81058 0.453284 3.82606 0 0 0 198 172 158 255
1.97141 0.461325 3.88145 0 0 0 172 132 98 255
1.70007 0.471492 3.8133 0 0 0 181 124 83 255
1.87385 0.478922 3.84579 0 0 0 173 125 97 255
-0.0356981 0.459068 3.57053 0 0 0 160 174 154 255
1.72403 0.496335 3.8235 0 0 0 209 191 188 255
1.94242 0.499619 3.85787 0 0 0 196 182 184 255
1.99252 0.500589 3.87208 0 0 0 185 154 135 255
2.03771 0.503236 3.85732 0 0 0 174 155 141 255
0.038149 0.461121 3.57082 0 0 0 168 185 146 255
1.8701 0.500309 3.85036 0 0 0 201 183 181 255
0.887322 0.56833 3.63172 0 0 0 131 143 123 255
-0.0682141 0.576815 3.56769 0 0 0 131 145 127 255
0.896988 0.653547 3.63874 0 0 0 94 108 104 255
0.840191 0.671826 3.62932 0 0 0 98 110 92 255
1.25502 0.682606 3.71959 0 0 0 110 86 77 255
0.0906269 0.694728 3.57594 0 0 0 53 62 64 255
0.527784 0.696265 3.5887 0 0 0 109 120 102 255
1.49096 0.738037 3.76744 0 0 0 141 152 153 255
-0.0377566 0.725334 3.56547 0 0 0 108 120 113 255
-0.0362702 0.759324 3.56587 0 0 0 126 131 134 255
0.914705 0.796753 3.63541 0 0 0 130 135 141 255
0.286101 0.789428 3.5496 0 0 0 114 120 124 255
0.728079 0.799878 3.60465 0 0 0 133 139 140 255
1.08219 0.808146 3.69276 0 0 0 136 151 154 255
1.57309 0.821205 3.76641 0 0 0 151 117 95 255
0.909528 0.814092 3.63453 0 0 0 111 116 122 255
1.11439 0.814322 3.66498 0 0 0 103 108 113 255
1.88281 0.889162 3.84406 0 0 0 122 142 155 255
1.0647 0.874263 3.66681 0 0 0 82 91 100 255
1.87702 0.938664 3.83825 0 0 0 120 135 140 255
1.03677 0.919447 3.66667 0 0 0 158 170 176 255
2.04421 0.964164 3.85119 0 0 0 151 156 155 255
2.0038 0.998615 3.8614 0 0 0 154 159 156 255
2.11555 0.997372 3.8465 0 0 0 131 166 177 255
2.06932 1.03605 3.85046 0 0 0 119 133 129 255
0.352712 1.05931 3.5806 0 0 0 112 122 130 255
0.0193577 1.09666 3.56355 0 0 0 117 131 137 255
0.188825 1.10672 3.57412 0 0 0 143 154 162 255
1.944 1.15901 3.85188 0 0 0 179 166 120 255
1.40479 1.18641 3.75066 0 0 0 168 181 187 255
0.0616675 1.16521 3.56508 0 0 0 170 182 190 255
0.69153 1.19484 3.61179 0 0 0 133 143 147 255
1.28313 1.34129 3.73454 0 0 0 174 196 203 255
1.88973 1.36437 3.83266 0 0 0 181 194 196 255
1.54804 1.40659 3.76923 0 0 0 184 135 129 255
1.39053 1.40447 3.7306 0 0 0 207 183 183 255
1.59036 1.40807 3.76728 0 0 0 192 188 195 255
1.73587 1.42096 3.78952 0 0 0 194 167 165 255
1.77456 1.42619 3.7684 0 0 0 193 159 158 255
1.87951 1.42108 3.7861 0 0 0 202 178 184 255
2.02141 1.41749 3.7667 0 0 0 192 180 180 255
1.547 1.42384 3.75004 0 0 0 198 176 176 255
0.480369 1.54539 3.61232 0 0 0 107 116 127 255
0.720653 1.54673 3.63432 0 0 0 142 152 153 255
0.589607 1.56083 3.62404 0 0 0 144 151 158 255
0.723752 1.5665 3.63728 0 0 0 144 152 154 255
0.867954 1.5592 3.65456 0 0 0 121 132 138 255
0.900213 1.56827 3.6596 0 0 0 149 159 164 255
-0.210616 -0.128726 3.68112 0 0 0 69 61 67 255
-0.227233 -0.14324 3.7727 0 0 0 70 65 67 255
1.24579 0.0434948 3.75882 0 0 0 61 57 63 255
-0.166821 0.0506188 3.53565 0 0 0 102 103 103 255
1.65431 0.336461 3.79649 0 0 0 190 159 140 255
0.479039 0.326113 3.59611 0 0 0 125 139 108 255
1.6807 0.390395 3.77737 0 0 0 193 180 167 255
1.71242 0.395984 3.80517 0 0 0 182 181 194 255
0.864485 0.40392 3.63487 0 0 0 70 86 66 255
1.64642 0.42787 3.78818 0 0 0 183 130 97 255
1.80313 0.423057 3.82707 0 0 0 204 157 137 255
1.8909 0.424855 3.84187 0 0 0 189 149 126 255
1.72352 0.451126 3.80605 0 0 0 201 189 193 255
1.00539 0.445942 3.65983 0 0 0 115 127 109 255
1.65177 0.465209 3.76346 0 0 0 209 186 185 255
1.88254 0.465675 3.85903 0 0 0 178 124 85 255
1.96991 0.466647 3.85142 0 0 0 181 126 88 255
0.663291 0.455 3.60575 0 0 0 118 131 108 255
1.9958 0.497413 3.86444 0 0 0 194 185 179 255
0.0368205 0.461224 3.57072 0 0 0 168 185 146 255
0.285284 0.459966 3.57463 0 0 0 90 104 97 255
1.71821 0.50001 3.80099 0 0 0 195 192 195 255
1.79962 0.50133 3.84782 0 0 0 215 185 177 255
1.8765 0.502005 3.89529 0 0 0 194 194 188 255
1.87794 0.503499 3.82785 0 0 0 195 190 184 255
0.0470663 0.56989 3.57291 0 0 0 161 179 137 255
-0.040013 0.581328 3.5654 0 0 0 147 163 143 255
0.62407 0.612073 3.59549 0 0 0 51 64 63 255
1.25834 0.679874 3.718 0 0 0 146 108 86 255
1.46952 0.718935 3.76641 0 0 0 87 105 105 255
0.257302 0.693236 3.57498 0 0 0 158 173 133 255
0.832584 0.723309 3.62216 0 0 0 118 134 92 255
1.49799 0.736728 3.76848 0 0 0 149 158 158 255
-0.0373156 0.727398 3.56643 0 0 0 119 131 123 255
0.746221 0.730842 3.61143 0 0 0 153 171 128 255
1.25818 0.746135 3.72457 0 0 0 49 101 125 255
-0.160031 0.777075 3.57722 0 0 0 83 89 93 255
0.195 0.795508 3.5694 0 0 0 112 119 122 255
0.740578 0.799963 3.58683 0 0 0 136 140 144 255
0.793886 0.803352 3.61768 0 0 0 47 55 60 255
0.913288 0.800932 3.63496 0 0 0 105 110 116 255
0.423444 0.79533 3.60446 0 0 0 71 83 89 255
1.08209 0.802282 3.65288 0 0 0 89 105 107 255
1.10914 0.817098 3.6249 0 0 0 102 108 112 255
1.4522 0.850108 3.761 0 0 0 197 142 93 255
0.828696 0.862041 3.62555 0 0 0 81 92 105 255
1.06479 0.869589 3.66611 0 0 0 84 93 104 255
1.25578 0.887664 3.69884 0 0 0 143 166 175 255
2.01624 0.908911 3.85846 0 0 0 70 70 75 255
2.02002 0.926172 3.88693 0 0 0 65 65 72 255
2.05953 0.920205 3.84776 0 0 0 166 153 144 255
1.90195 0.958801 3.84588 0 0 0 182 167 141 255
2.00456 0.941845 3.83355 0 0 0 64 68 72 255
2.04875 0.955633 3.85022 0 0 0 168 169 165 255
1.985 0.950778 3.83621 0 0 0 70 68 76 255
1.94014 0.991428 3.85026 0 0 0 158 138 120 255
2.00566 0.990527 3.83104 0 0 0 150 155 154 255
0.921406 0.960885 3.63896 0 0 0 154 169 175 255
1.25292 0.995862 3.71616 0 0 0 156 171 178 255
0.366937 0.992625 3.58158 0 0 0 143 154 160 255
1.86327 1.02958 3.84471 0 0 0 185 201 208 255
2.07082 1.03894 3.85103 0 0 0 128 143 138 255
0.761059 1.01804 3.61782 0 0 0 151 162 168 255
2.12074 1.10185 3.82544 0 0 0 146 163 136 255
1.99766 1.13813 3.85742 0 0 0 129 117 89 255
0.110893 1.09405 3.57582 0 0 0 130 141 146 255
1.9479 1.16113 3.86296 0 0 0 188 171 124 255
0.254101 1.11857 3.57541 0 0 0 185 195 202 255
0.360701 1.1296 3.57936 0 0 0 189 204 211 255
0.153053 1.13325 3.57172 0 0 0 191 206 211 255
0.822429 1.1529 3.63065 0 0 0 136 147 158 255
1.40493 1.19268 3.74433 0 0 0 172 191 199 255
0.415482 1.17059 3.58338 0 0 0 112 124 133 255
0.106747 1.1784 3.57333 0 0 0 116 126 134 255
1.88795 1.25823 3.81393 0 0 0 150 164 152 255
-0.0702241 1.2236 3.56286 0 0 0 135 140 145 255
0.388093 1.27786 3.58444 0 0 0 173 187 190 255
1.28793 1.33372 3.7246 0 0 0 163 185 192 255
0.481673 1.32104 3.60209 0 0 0 64 75 81 255
1.88527 1.35514 3.79898 0 0 0 181 194 196 255
1.39607 1.40041 3.72928 0 0 0 198 175 177 255
1.61219 1.41693 3.79251 0 0 0 203 187 183 255
2.0803 1.40204 3.78482 0 0 0 197 172 171 255
1.5396 1.41928 3.75155 0 0 0 190 169 167 255
0.170609 1.40332 3.5693 0 0 0 81 96 101 255
0.519593 1.55156 3.61502 0 0 0 165 173 179 255
0.481718 1.55342 3.61463 0 0 0 165 171 181 255
0.538216 1.55162 3.60835 0 0 0 141 151 159 255
0.72603 1.54504 3.6257 0 0 0 142 152 153 255
0.516996 1.55969 3.61029 0 0 0 140 143 151 255
0.590239 1.54742 3.60239 0 0 0 129 138 145 255
0.676483 1.5631 3.62825 0 0 0 154 162 167 255
0.96639 1.56983 3.66953 0 0 0 149 158 163 255
1.20788 1.6379 3.69232 0 0 0 75 84 89 255
-0.199586 -0.13378 3.53235 0 0 0 195 191 193 255
-0.0535399 0.190231 3.55553 0 0 0 163 186 158 255
0.871601 0.210523 3.64178 0 0 0 165 186 135 255
0.146895 0.341595 3.57813 0 0 0 91 106 94 255
0.28862 0.368365 3.58225 0 0 0 160 178 127 255
0.296186 0.402367 3.5793 0 0 0 76 91 81 255
1.65636 0.473979 3.80315 0 0 0 197 160 154 255
0.161311 0.561394 3.57473 0 0 0 167 185 137 255
0.523775 0.574197 3.58993 0 0 0 154 173 125 255
-0.064266 0.576299 3.56619 0 0 0 130 145 126 255
0.0901434 0.621445 3.57932 0 0 0 51 62 64 255
0.131008 0.637476 3.57276 0 0 0 139 157 114 255
1.25804 0.664632 3.7233 0 0 0 148 107 80 255
1.30672 0.70702 3.7195 0 0 0 74 55 58 255
1.46044 0.718732 3.75907 0 0 0 79 109 120 255
2.02617 0.743623 3.90594 0 0 0 176 190 197 255
0.746968 0.727106 3.61219 0 0 0 153 171 128 255
1.53907 0.812662 3.75863 0 0 0 181 135 105 255
1.45049 0.840223 3.75162 0 0 0 183 141 101 255
1.99218 0.917598 3.86742 0 0 0 67 66 70 255
1.25738 0.905323 3.73833 0 0 0 157 174 180 255
1.83203 0.921109 3.82795 0 0 0 116 126 134 255
2.04512 0.929976 3.83749 0 0 0 168 151 131 255
1.1154 0.929075 3.66476 0 0 0 178 188 194 255
1.89497 0.955228 3.83305 0 0 0 154 155 136 255
0.416413 0.996228 3.58255 0 0 0 190 205 210 255
1.86075 1.03021 3.83083 0 0 0 181 208 211 255
-0.21611 1.00098 3.50553 0 0 0 136 114 108 255
-0.166855 1.01494 3.51801 0 0 0 57 61 65 255
0.21673 1.07708 3.57171 0 0 0 112 127 130 255
0.415374 1.07715 3.58605 0 0 0 191 206 213 255
0.992794 1.08856 3.65663 0 0 0 178 190 197 255
-0.0109376 1.08987 3.56509 0 0 0 135 143 148 255
0.152609 1.09301 3.57467 0 0 0 192 204 211 255
1.04535 1.10179 3.66399 0 0 0 117 128 134 255
1.30542 1.1172 3.71199 0 0 0 82 123 147 255
2.00171 1.13638 3.82681 0 0 0 108 96 74 255
0.100656 1.11428 3.57286 0 0 0 112 124 132 255
-0.161875 1.15812 3.56303 0 0 0 162 190 172 255
0.42822 1.16526 3.58231 0 0 0 125 135 146 255
1.4025 1.23461 3.73476 0 0 0 183 200 206 255
-0.0558699 1.21092 3.53825 0 0 0 133 139 142 255
0.878844 1.2941 3.64348 0 0 0 138 153 158 255
1.88236 1.35386 3.81903 0 0 0 173 190 195 255
1.70394 1.41692 3.78074 0 0 0 188 167 169 255
0.946048 1.57058 3.66626 0 0 0 117 127 131 255
-0.200173 -0.129239 3.51596 0 0 0 195 191 191 255
-0.210105 -0.127339 3.75571 0 0 0 69 53 59 255
-0.160984 0.0464416 3.61453 0 0 0 45 53 58 255
-0.0532641 0.199369 3.57243 0 0 0 163 189 156 255
0.852586 0.192673 3.6348 0 0 0 162 184 139 255
0.734973 0.319012 3.61628 0 0 0 80 90 82 255
0.222758 0.356605 3.58168 0 0 0 160 178 129 255
0.885983 0.43941 3.63638 0 0 0 138 153 114 255
1.67102 0.472758 3.83051 0 0 0 192 174 167 255
0.499527 0.450898 3.59273 0 0 0 165 185 131 255
0.612653 0.49172 3.59452 0 0 0 51 65 61 255
-0.0602625 0.493927 3.57109 0 0 0 153 169 142 255
0.163518 0.505905 3.57118 0 0 0 72 85 83 255
0.525503 0.59742 3.59103 0 0 0 149 169 124 255
1.29636 0.721575 3.73442 0 0 0 56 56 63 255
2.02826 0.756787 3.84884 0 0 0 174 190 202 255
1.25916 0.784136 3.72779 0 0 0 49 129 162 255
1.93366 0.804766 3.82808 0 0 0 98 117 132 255
1.46381 0.838345 3.75989 0 0 0 199 145 89 255
1.55983 0.837588 3.77879 0 0 0 200 154 115 255
1.84394 0.880679 3.80155 0 0 0 100 117 126 255
1.26028 0.900112 3.70605 0 0 0 156 175 180 255
1.99042 0.915654 3.84159 0 0 0 66 65 69 255
0.537524 0.932525 3.58871 0 0 0 145 153 160 255
1.46644 0.978943 3.76221 0 0 0 61 64 68 255
1.84379 1.0327 3.82223 0 0 0 190 205 212 255
0.970658 1.02265 3.65063 0 0 0 103 113 119 255
0.748477 1.04458 3.61793 0 0 0 179 187 194 255
-0.00642572 1.05026 3.56621 0 0 0 93 106 112 255
0.96548 1.10177 3.65056 0 0 0 184 199 206 255
1.81601 1.13603 3.80272 0 0 0 115 127 131 255
-0.126498 1.12041 3.51507 0 0 0 157 189 167 255
0.0881063 1.1164 3.57128 0 0 0 106 118 126 255
1.41562 1.20381 3.74307 0 0 0 183 200 206 255
-0.154013 1.18218 3.48631 0 0 0 51 58 59 255
0.634514 1.19885 3.60972 0 0 0 169 181 191 255
1.79242 1.29682 3.80441 0 0 0 195 209 219 255
1.84296 1.33445 3.7966 0 0 0 169 184 193 255
1.2879 1.33554 3.74218 0 0 0 168 189 196 255
-0.190418 1.33081 3.44457 0 0 0 138 111 103 255
1.39994 1.41484 3.73005 0 0 0 191 181 180 255
1.64142 1.41835 3.76177 0 0 0 190 183 186 255
-0.144423 0.064757 3.55002 0 0 0 43 49 52 255
0.415021 0.30265 3.589 0 0 0 69 84 81 255
0.768414 0.331871 3.62371 0 0 0 54 65 55 255
0.822214 0.296333 3.64695 0 0 0 167 183 130 255
0.24887 0.359116 3.58224 0 0 0 148 166 127 255
0.391139 0.335429 3.57554 0 0 0 50 64 60 255
-0.0513077 0.405983 3.57215 0 0 0 165 189 147 255
0.509277 0.415938 3.5955 0 0 0 158 179 131 255
0.153483 0.697706 3.57082 0 0 0 86 101 88 255
0.892038 0.699054 3.63463 0 0 0 165 182 131 255
1.54784 0.853657 3.75567 0 0 0 202 157 106 255
-0.245805 0.859677 3.557 0 0 0 120 97 84 255
1.47836 0.945683 3.75565 0 0 0 71 60 67 255
0.362972 0.938222 3.58729 0 0 0 190 206 214 255
0.716117 0.940601 3.60829 0 0 0 189 204 211 255
0.908651 0.938005 3.63222 0 0 0 189 206 212 255
0.962146 0.93869 3.65149 0 0 0 192 204 208 255
1.0917 0.948188 3.66248 0 0 0 158 168 176 255
1.47372 0.972669 3.72554 0 0 0 61 60 63 255
-0.174071 0.963659 3.56094 0 0 0 64 73 75 255
1.09241 0.972851 3.65195 0 0 0 154 166 170 255
1.73474 1.03068 3.83302 0 0 0 88 76 78 255
0.844619 1.12557 3.63258 0 0 0 94 104 112 255
0.936165 1.09549 3.64372 0 0 0 156 166 170 255
1.70184 1.1915 3.78472 0 0 0 191 206 215 255
1.78983 1.23472 3.79118 0 0 0 196 209 216 255
-0.01955 1.21135 3.55262 0 0 0 188 200 203 255
