ply
format ascii 1.0
comment VCGLIB generated
element vertex 389
property float x
property float y
property float z
property float nx
property float ny
property float nz
property uchar red
property uchar green
property uchar blue
property uchar alpha
element face 0
property list uchar int vertex_indices
end_header
-0.9204 0.589649 3.61807 0 0 0 128 128 128 255
-0.914908 0.476829 3.60851 0 0 0 128 128 128 255
-0.907713 0.862709 3.61659 0 0 0 128 128 128 255
-0.908179 0.646839 3.60886 0 0 0 128 128 128 255
-0.899522 0.67996 3.60269 0 0 0 128 128 128 255
-0.888673 0.753072 3.59678 0 0 0 128 128 128 255
-0.888347 0.701108 3.59463 0 0 0 128 128 128 255
-0.888737 0.658128 3.59336 0 0 0 128 128 128 255
-0.887004 0.761089 3.59581 0 0 0 128 128 128 255
-0.883164 0.830098 3.59548 0 0 0 128 128 128 255
-0.882437 0.821112 3.59462 0 0 0 128 128 128 255
-0.883425 0.712164 3.59139 0 0 0 128 128 128 255
-0.879874 0.745188 3.59004 0 0 0 128 128 128 255
-0.877797 0.703237 3.58707 0 0 0 128 128 128 255
-0.877018 0.516355 3.57983 0 0 0 128 128 128 255
-0.876517 0.480381 3.5782 0 0 0 128 128 128 255
-0.873366 0.736267 3.58524 0 0 0 128 128 128 255
-0.87112 0.892201 3.58931 0 0 0 128 128 128 255
-0.872553 0.734277 3.58462 0 0 0 128 128 128 255
-0.87132 0.778265 3.58537 0 0 0 128 128 128 255
-0.871919 0.712297 3.58342 0 0 0 128 128 128 255
-0.869461 0.891219 3.58818 0 0 0 128 128 128 255
-0.870875 0.735294 3.58355 0 0 0 128 128 128 255
-0.870192 0.718311 3.5825 0 0 0 128 128 128 255
-0.859088 0.726411 3.57586 0 0 0 128 128 128 255
-0.843002 0.962404 3.57502 0 0 0 128 128 128 255
-0.84636 0.494635 3.56067 0 0 0 128 128 128 255
-0.839528 0.95443 3.57294 0 0 0 128 128 128 255
-0.841348 0.65558 3.56361 0 0 0 128 128 128 255
-0.84269 0.507651 3.55922 0 0 0 128 128 128 255
-0.84298 0.475666 3.55827 0 0 0 128 128 128 255
-0.840583 0.641592 3.56274 0 0 0 128 128 128 255
-0.832015 1.0924 3.5739 0 0 0 128 128 128 255
-0.830323 1.08042 3.57268 0 0 0 128 128 128 255
-0.828644 0.966484 3.56801 0 0 0 128 128 128 255
-0.833095 0.47572 3.55345 0 0 0 128 128 128 255
-0.831345 0.568679 3.55578 0 0 0 128 128 128 255
-0.825938 0.964497 3.5667 0 0 0 128 128 128 255
-0.828131 0.521718 3.55273 0 0 0 128 128 128 255
-0.825985 0.657657 3.55636 0 0 0 128 128 128 255
-0.827462 0.494735 3.55152 0 0 0 128 128 128 255
-0.818941 1.13144 3.56922 0 0 0 128 128 128 255
-0.822023 0.791603 3.55913 0 0 0 128 128 128 255
-0.82115 0.786609 3.55859 0 0 0 128 128 128 255
-0.815669 0.78063 3.55609 0 0 0 128 128 128 255
-0.809853 1.21743 3.56831 0 0 0 128 128 128 255
-0.814022 0.757647 3.55466 0 0 0 128 128 128 255
-0.81599 0.540751 3.54822 0 0 0 128 128 128 255
-0.811317 0.953555 3.56011 0 0 0 128 128 128 255
-0.811715 0.909576 3.5588 0 0 0 128 128 128 255
-0.808148 1.20044 3.56707 0 0 0 128 128 128 255
-0.811112 0.873596 3.55737 0 0 0 128 128 128 255
-0.806853 1.24042 3.56789 0 0 0 128 128 128 255
-0.807353 1.0825 3.56284 0 0 0 128 128 128 255
-0.808757 0.721678 3.55142 0 0 0 128 128 128 255
-0.81086 0.489789 3.54454 0 0 0 128 128 128 255
-0.809852 0.497788 3.54442 0 0 0 128 128 128 255
-0.802352 1.22144 3.56555 0 0 0 128 128 128 255
-0.805416 0.883604 3.55552 0 0 0 128 128 128 255
-0.803566 0.880609 3.55474 0 0 0 128 128 128 255
-0.807255 0.473804 3.54267 0 0 0 128 128 128 255
-0.802945 0.63773 3.54652 0 0 0 128 128 128 255
-0.79794 1.08552 3.55948 0 0 0 128 128 128 255
-0.798265 0.945584 3.555 0 0 0 128 128 128 255
-0.801145 0.523788 3.54215 0 0 0 128 128 128 255
-0.799165 0.637735 3.54521 0 0 0 128 128 128 255
-0.794293 1.07053 3.55774 0 0 0 128 128 128 255
-0.799064 0.439831 3.5387 0 0 0 128 128 128 255
-0.787753 1.16249 3.55861 0 0 0 128 128 128 255
-0.794253 0.445831 3.53734 0 0 0 128 128 128 255
-0.791458 0.648734 3.54306 0 0 0 128 128 128 255
-0.785808 1.16648 3.55813 0 0 0 128 128 128 255
-0.788749 0.736692 3.54508 0 0 0 128 128 128 255
-0.791224 0.463823 3.53699 0 0 0 128 128 128 255
-0.791523 0.430839 3.53601 0 0 0 128 128 128 255
-0.790258 0.464822 3.53673 0 0 0 128 128 128 255
-0.789572 0.434837 3.53555 0 0 0 128 128 128 255
-0.782007 0.951587 3.55004 0 0 0 128 128 128 255
-0.782587 0.887618 3.54814 0 0 0 128 128 128 255
-0.777798 1.20346 3.55697 0 0 0 128 128 128 255
-0.776455 1.24544 3.55795 0 0 0 128 128 128 255
-0.770995 1.1015 3.55188 0 0 0 128 128 128 255
-0.775174 0.640727 3.5382 0 0 0 128 128 128 255
-0.777023 0.436825 3.53215 0 0 0 128 128 128 255
-0.770695 0.813638 3.54261 0 0 0 128 128 128 255
-0.767004 1.11349 3.55127 0 0 0 128 128 128 255
-0.767093 0.781646 3.54073 0 0 0 128 128 128 255
-0.758116 0.909564 3.54283 0 0 0 128 128 128 255
-0.753954 0.827588 3.53943 0 0 0 128 128 128 255
-0.755504 0.65667 3.53436 0 0 0 128 128 128 255
-0.756579 0.429776 3.52744 0 0 0 128 128 128 255
-0.750009 0.828573 3.53875 0 0 0 128 128 128 255
-0.7461 0.93351 3.54136 0 0 0 128 128 128 255
-0.750606 0.43675 3.52661 0 0 0 128 128 128 255
-0.741577 0.778559 3.53583 0 0 0 128 128 128 255
-0.73785 1.08041 3.54465 0 0 0 128 128 128 255
-0.741694 0.656613 3.53207 0 0 0 128 128 128 255
-0.731214 1.15634 3.54611 0 0 0 128 128 128 255
-0.737487 0.464675 3.52558 0 0 0 128 128 128 255
-0.737614 0.450681 3.52516 0 0 0 128 128 128 255
-0.73421 0.716548 3.53293 0 0 0 128 128 128 255
-0.724098 1.06434 3.54249 0 0 0 128 128 128 255
-0.723712 0.887413 3.53705 0 0 0 128 128 128 255
-0.72479 0.76847 3.53352 0 0 0 128 128 128 255
-0.725745 0.443614 3.5237 0 0 0 128 128 128 255
-0.725844 0.432619 3.52337 0 0 0 128 128 128 255
-0.718502 1.13228 3.54405 0 0 0 128 128 128 255
-0.723697 0.449598 3.52371 0 0 0 128 128 128 255
-0.719691 0.781431 3.53348 0 0 0 128 128 128 255
-0.710393 0.926304 3.53727 0 0 0 128 128 128 255
-0.710299 0.71639 3.53094 0 0 0 128 128 128 255
-0.707424 0.923283 3.53704 0 0 0 128 128 128 255
-0.70901 0.748367 3.53185 0 0 0 128 128 128 255
-0.705616 0.902277 3.53634 0 0 0 128 128 128 255
-0.707039 0.745353 3.53168 0 0 0 128 128 128 255
-0.705647 0.678369 3.52963 0 0 0 128 128 128 255
-0.70173 0.669339 3.52927 0 0 0 128 128 128 255
-0.696905 1.09113 3.54177 0 0 0 128 128 128 255
-0.702761 0.445439 3.52261 0 0 0 128 128 128 255
-0.699096 0.739289 3.53132 0 0 0 128 128 128 255
-0.700455 0.589361 3.52687 0 0 0 128 128 128 255
-0.697108 0.848227 3.53454 0 0 0 128 128 128 255
-0.698749 0.667314 3.52917 0 0 0 128 128 128 255
-0.700915 0.428429 3.52208 0 0 0 128 128 128 255
-0.697522 0.692294 3.52991 0 0 0 128 128 128 255
-0.699906 0.42942 3.52211 0 0 0 128 128 128 255
-0.695008 0.859204 3.53486 0 0 0 128 128 128 255
-0.696477 0.697282 3.53005 0 0 0 128 128 128 255
-0.698589 0.464394 3.52314 0 0 0 128 128 128 255
-0.692637 0.900166 3.53608 0 0 0 128 128 128 255
-0.693728 0.559312 3.52598 0 0 0 128 128 128 255
-0.687096 1.07005 3.54116 0 0 0 128 128 128 255
-0.685253 1.16299 3.54394 0 0 0 128 128 128 255
-0.687982 0.862137 3.53501 0 0 0 128 128 128 255
-0.691852 0.435343 3.52235 0 0 0 128 128 128 255
-0.6901 0.518293 3.52483 0 0 0 128 128 128 255
-0.681785 0.884067 3.53584 0 0 0 128 128 128 255
-0.682656 0.788113 3.533 0 0 0 128 128 128 255
-0.680524 0.913043 3.53675 0 0 0 128 128 128 255
-0.680533 0.912043 3.53672 0 0 0 128 128 128 255
-0.682264 0.721135 3.53105 0 0 0 128 128 128 255
-0.679656 0.568167 3.52671 0 0 0 128 128 128 255
-0.674576 0.798024 3.53371 0 0 0 128 128 128 255
-0.672944 0.428146 3.52309 0 0 0 128 128 128 255
-0.667724 0.783951 3.53382 0 0 0 128 128 128 255
-0.667751 0.780953 3.53373 0 0 0 128 128 128 255
-0.667244 0.726967 3.53221 0 0 0 128 128 128 255
-0.664517 0.917864 3.53797 0 0 0 128 128 128 255
-0.665728 0.455051 3.52453 0 0 0 128 128 128 255
-0.66073 0.786867 3.53459 0 0 0 128 128 128 255
-0.663767 0.452028 3.52465 0 0 0 128 128 128 255
-0.655302 1.0567 3.54293 0 0 0 128 128 128 255
-0.658823 0.558927 3.52828 0 0 0 128 128 128 255
-0.653253 1.06367 3.54338 0 0 0 128 128 128 255
-0.653134 0.748784 3.53442 0 0 0 128 128 128 255
-0.649693 0.909681 3.53947 0 0 0 128 128 128 255
-0.652028 0.433884 3.52563 0 0 0 128 128 128 255
-0.645092 1.08955 3.54524 0 0 0 128 128 128 255
-0.64879 0.463829 3.52697 0 0 0 128 128 128 255
-0.645891 0.565753 3.53031 0 0 0 128 128 128 255
-0.646172 0.534767 3.52939 0 0 0 128 128 128 255
-0.646191 0.423807 3.52626 0 0 0 128 128 128 255
-0.640033 0.559672 3.53115 0 0 0 128 128 128 255
-0.636381 0.745553 3.53704 0 0 0 128 128 128 255
-0.636444 0.738557 3.53683 0 0 0 128 128 128 255
-0.632498 1.06539 3.54672 0 0 0 128 128 128 255
-0.636314 0.644588 3.53423 0 0 0 128 128 128 255
-0.637511 0.512651 3.53031 0 0 0 128 128 128 255
-0.638045 0.453679 3.52856 0 0 0 128 128 128 255
-0.63158 1.05837 3.5467 0 0 0 128 128 128 255
-0.63536 0.641574 3.53433 0 0 0 128 128 128 255
-0.629846 1.14132 3.54935 0 0 0 128 128 128 255
-0.629727 1.04635 3.54673 0 0 0 128 128 128 255
-0.631331 0.869435 3.54148 0 0 0 128 128 128 255
-0.632655 0.723506 3.53715 0 0 0 128 128 128 255
-0.632364 0.647527 3.53509 0 0 0 128 128 128 255
-0.63278 0.493587 3.53073 0 0 0 128 128 128 255
-0.626454 1.08329 3.54844 0 0 0 128 128 128 255
-0.62778 0.721432 3.53812 0 0 0 128 128 128 255
-0.627429 0.65245 3.53628 0 0 0 128 128 128 255
-0.628208 0.566491 3.53373 0 0 0 128 128 128 255
-0.623574 0.862318 3.54295 0 0 0 128 128 128 255
-0.624009 0.814341 3.54153 0 0 0 128 128 128 255
-0.627445 0.435524 3.53029 0 0 0 128 128 128 255
-0.627526 0.426528 3.53002 0 0 0 128 128 128 255
-0.626244 0.460496 3.53125 0 0 0 128 128 128 255
-0.619483 0.991209 3.54746 0 0 0 128 128 128 255
-0.620254 0.90625 3.54494 0 0 0 128 128 128 255
-0.616006 1.05313 3.55 0 0 0 128 128 128 255
-0.620829 0.521388 3.53422 0 0 0 128 128 128 255
-0.615507 1.00114 3.5487 0 0 0 128 128 128 255
-0.616631 0.877201 3.54503 0 0 0 128 128 128 255
-0.618536 0.560337 3.53587 0 0 0 128 128 128 255
-0.613497 1.0091 3.54943 0 0 0 128 128 128 255
-0.61783 0.531335 3.53526 0 0 0 128 128 128 255
-0.616617 0.558306 3.53631 0 0 0 128 128 128 255
-0.612242 0.934108 3.54771 0 0 0 128 128 128 255
-0.612604 0.894128 3.54653 0 0 0 128 128 128 255
-0.616765 0.435349 3.53291 0 0 0 128 128 128 255
-0.611992 0.85513 3.54563 0 0 0 128 128 128 255
-0.612019 0.852132 3.54554 0 0 0 128 128 128 255
-0.612409 0.809152 3.54426 0 0 0 128 128 128 255
-0.613523 0.686211 3.54062 0 0 0 128 128 128 255
-0.615264 0.494304 3.53492 0 0 0 128 128 128 255
-0.612495 0.693192 3.54108 0 0 0 128 128 128 255
-0.60733 1.04999 3.5522 0 0 0 128 128 128 255
-0.612787 0.448276 3.53434 0 0 0 128 128 128 255
-0.610028 0.540199 3.53761 0 0 0 128 128 128 255
-0.604356 0.5311 3.53904 0 0 0 128 128 128 255
-0.6033 0.542078 3.53966 0 0 0 128 128 128 255
-0.594944 1.04277 3.55573 0 0 0 128 128 128 255
-0.59896 0.495012 3.53978 0 0 0 128 128 128 255
-0.5937 0.447927 3.5403 0 0 0 128 128 128 255
-0.590716 0.6728 3.5473 0 0 0 128 128 128 255
-0.591795 0.553857 3.54377 0 0 0 128 128 128 255
-0.587861 0.88368 3.55389 0 0 0 128 128 128 255
-0.589438 0.709764 3.54873 0 0 0 128 128 128 255
-0.590716 0.568832 3.54455 0 0 0 128 128 128 255
-0.586501 0.929639 3.55559 0 0 0 128 128 128 255
-0.590154 0.526833 3.54364 0 0 0 128 128 128 255
-0.586838 0.788689 3.55175 0 0 0 128 128 128 255
-0.587863 0.675743 3.54839 0 0 0 128 128 128 255
-0.581783 1.03551 3.5601 0 0 0 128 128 128 255
-0.583052 0.895581 3.55595 0 0 0 128 128 128 255
-0.579668 1.16543 3.56431 0 0 0 128 128 128 255
-0.583185 0.777619 3.5528 0 0 0 128 128 128 255
-0.585141 0.458754 3.54369 0 0 0 128 128 128 255
-0.583536 0.429729 3.54354 0 0 0 128 128 128 255
-0.580548 0.553631 3.54795 0 0 0 128 128 128 255
-0.580911 0.513651 3.54676 0 0 0 128 128 128 255
-0.573046 0.767411 3.55654 0 0 0 128 128 128 255
-0.573993 0.45952 3.54818 0 0 0 128 128 128 255
-0.56913 0.894291 3.56147 0 0 0 128 128 128 255
-0.569211 0.885295 3.5612 0 0 0 128 128 128 255
-0.573218 0.443508 3.54809 0 0 0 128 128 128 255
-0.571428 0.539441 3.55133 0 0 0 128 128 128 255
-0.563085 0.553251 3.55541 0 0 0 128 128 128 255
-0.561581 0.519226 3.55525 0 0 0 128 128 128 255
-0.558874 0.519163 3.55654 0 0 0 128 128 128 255
-0.553615 0.70299 3.56376 0 0 0 128 128 128 255
-0.555483 0.497089 3.55765 0 0 0 128 128 128 255
-0.55297 0.577008 3.56092 0 0 0 128 128 128 255
-0.547727 0.762832 3.56827 0 0 0 128 128 128 255
-0.543996 0.881709 3.5732 0 0 0 128 128 128 255
-0.547159 0.532877 3.56284 0 0 0 128 128 128 255
-0.539851 1.24151 3.58435 0 0 0 128 128 128 255
-0.547031 0.449895 3.56085 0 0 0 128 128 128 255
-0.547266 0.423907 3.56008 0 0 0 128 128 128 255
-0.540534 0.875623 3.57492 0 0 0 128 128 128 255
-0.544532 0.434836 3.56184 0 0 0 128 128 128 255
-0.542605 0.550757 3.56577 0 0 0 128 128 128 255
-0.542057 0.514752 3.56518 0 0 0 128 128 128 255
-0.53891 0.669633 3.57076 0 0 0 128 128 128 255
-0.536119 0.881508 3.57754 0 0 0 128 128 128 255
-0.531961 1.24431 3.58881 0 0 0 128 128 128 255
-0.534118 1.00643 3.58175 0 0 0 128 128 128 255
-0.536325 0.667566 3.57219 0 0 0 128 128 128 255
-0.531806 0.975372 3.58234 0 0 0 128 128 128 255
-0.53283 0.862427 3.57898 0 0 0 128 128 128 255
-0.53428 0.702504 3.57424 0 0 0 128 128 128 255
-0.531903 0.49149 3.57054 0 0 0 128 128 128 255
-0.53085 0.513456 3.57172 0 0 0 128 128 128 255
-0.522647 0.950129 3.58733 0 0 0 128 128 128 255
-0.527225 0.445372 3.57234 0 0 0 128 128 128 255
-0.521441 0.990086 3.58905 0 0 0 128 128 128 255
-0.526527 0.429356 3.57241 0 0 0 128 128 128 255
-0.524489 0.561269 3.57686 0 0 0 128 128 128 255
-0.524742 0.533283 3.57603 0 0 0 128 128 128 255
-0.522436 0.418243 3.57481 0 0 0 128 128 128 255
-0.515364 0.922928 3.59145 0 0 0 128 128 128 255
-0.508406 1.23566 3.60356 0 0 0 128 128 128 255
-0.511062 0.942797 3.59487 0 0 0 128 128 128 255
-0.507668 1.22664 3.60387 0 0 0 128 128 128 255
-0.507759 1.21664 3.60357 0 0 0 128 128 128 255
-0.512754 0.665905 3.58723 0 0 0 128 128 128 255
-0.508408 0.785749 3.59311 0 0 0 128 128 128 255
-0.51062 0.541867 3.58587 0 0 0 128 128 128 255
-0.507164 0.833701 3.59512 0 0 0 128 128 128 255
-0.509693 0.554836 3.58684 0 0 0 128 128 128 255
-0.507696 0.419801 3.58521 0 0 0 128 128 128 255
-0.502807 0.870559 3.59919 0 0 0 128 128 128 255
-0.503206 0.82658 3.59788 0 0 0 128 128 128 255
-0.504093 0.640645 3.59296 0 0 0 128 128 128 255
-0.501447 0.844521 3.59962 0 0 0 128 128 128 255
-0.504801 0.474699 3.58864 0 0 0 128 128 128 255
-0.501196 0.784525 3.59845 0 0 0 128 128 128 255
-0.502492 0.641594 3.5942 0 0 0 128 128 128 255
-0.501688 0.555585 3.59287 0 0 0 128 128 128 255
-0.50128 0.51358 3.59224 0 0 0 128 128 128 255
-0.499387 0.635495 3.59648 0 0 0 128 128 128 255
-0.494725 0.890296 3.6059 0 0 0 128 128 128 255
-0.496393 0.706385 3.60045 0 0 0 128 128 128 255
-0.49274 1.02321 3.61047 0 0 0 128 128 128 255
-0.493504 0.597308 3.60037 0 0 0 128 128 128 255
-0.494039 0.538337 3.59862 0 0 0 128 128 128 255
-0.491565 0.72622 3.60483 0 0 0 128 128 128 255
-0.491444 0.486258 3.59964 0 0 0 128 128 128 255
-0.490946 0.457246 3.59943 0 0 0 128 128 128 255
-0.488396 0.571138 3.60411 0 0 0 128 128 128 255
-0.486571 0.689055 3.60827 0 0 0 128 128 128 255
-0.481966 0.865864 3.61616 0 0 0 128 128 128 255
-0.476908 0.772695 3.6188 0 0 0 128 128 128 255
-0.477625 0.693733 3.61646 0 0 0 128 128 128 255
-0.479274 0.511821 3.61106 0 0 0 128 128 128 255
-0.476534 0.733687 3.61833 0 0 0 128 128 128 255
-0.475229 0.717641 3.61923 0 0 0 128 128 128 255
-0.476489 0.578708 3.61511 0 0 0 128 128 128 255
-0.474698 0.696624 3.6193 0 0 0 128 128 128 255
-0.47067 0.746464 3.62428 0 0 0 128 128 128 255
-0.472438 0.551558 3.61849 0 0 0 128 128 128 255
-0.468231 0.859355 3.62904 0 0 0 128 128 128 255
-0.470637 0.516492 3.61958 0 0 0 128 128 128 255
-0.467841 0.747354 3.62714 0 0 0 128 128 128 255
-0.467994 0.653371 3.62507 0 0 0 128 128 128 255
-0.469208 0.519436 3.62109 0 0 0 128 128 128 255
-0.462673 1.01012 3.63781 0 0 0 128 128 128 255
-0.464141 0.848195 3.63301 0 0 0 128 128 128 255
-0.46696 0.537344 3.62378 0 0 0 128 128 128 255
-0.46446 0.585238 3.62738 0 0 0 128 128 128 255
-0.465385 0.483287 3.62435 0 0 0 128 128 128 255
-0.458446 1.02294 3.64257 0 0 0 128 128 128 255
-0.459373 0.550031 3.63223 0 0 0 128 128 128 255
-0.455598 0.819845 3.64174 0 0 0 128 128 128 255
-0.455734 0.804852 3.64129 0 0 0 128 128 128 255
-0.452566 1.0087 3.64885 0 0 0 128 128 128 255
-0.454542 0.790802 3.64238 0 0 0 128 128 128 255
-0.451566 1.04665 3.65073 0 0 0 128 128 128 255
-0.453361 0.848746 3.64486 0 0 0 128 128 128 255
-0.449039 0.967546 3.65219 0 0 0 128 128 128 255
-0.452015 0.568709 3.64112 0 0 0 128 128 128 255
-0.452749 0.487749 3.63872 0 0 0 128 128 128 255
-0.451856 0.515706 3.64032 0 0 0 128 128 128 255
-0.450758 0.496658 3.6413 0 0 0 128 128 128 255
-0.448231 0.705529 3.64827 0 0 0 128 128 128 255
-0.444692 1.02635 3.65857 0 0 0 128 128 128 255
-0.444156 1.01632 3.65905 0 0 0 128 128 128 255
-0.445788 0.836408 3.65371 0 0 0 128 128 128 255
-0.445851 0.829412 3.6535 0 0 0 128 128 128 255
-0.448435 0.544549 3.64505 0 0 0 128 128 128 255
-0.444121 0.951324 3.6579 0 0 0 128 128 128 255
-0.443471 0.954294 3.65877 0 0 0 128 128 128 255
-0.439311 1.07409 3.66628 0 0 0 128 128 128 255
-0.440842 0.705182 3.65772 0 0 0 128 128 128 255
-0.434579 1.13286 3.67362 0 0 0 128 128 128 255
-0.439673 0.571129 3.65695 0 0 0 128 128 128 255
-0.436844 0.817981 3.66509 0 0 0 128 128 128 255
-0.437137 0.720998 3.66302 0 0 0 128 128 128 255
-0.432917 1.12178 3.67572 0 0 0 128 128 128 255
-0.435845 0.798931 3.66614 0 0 0 128 128 128 255
-0.432472 1.04276 3.67501 0 0 0 128 128 128 255
-0.435046 0.758892 3.66658 0 0 0 128 128 128 255
-0.432031 1.02773 3.67538 0 0 0 128 128 128 255
-0.435154 0.556901 3.66305 0 0 0 128 128 128 255
-0.43183 0.860725 3.67289 0 0 0 128 128 128 255
-0.434526 0.500868 3.66303 0 0 0 128 128 128 255
-0.433745 0.524827 3.66457 0 0 0 128 128 128 255
-0.432567 0.592765 3.66741 0 0 0 128 128 128 255
-0.426793 1.10646 3.68432 0 0 0 128 128 128 255
-0.42552 1.06439 3.68557 0 0 0 128 128 128 255
-0.425192 1.04037 3.6857 0 0 0 128 128 128 255
-0.430069 0.50263 3.66974 0 0 0 128 128 128 255
-0.424595 1.04634 3.68672 0 0 0 128 128 128 255
-0.428659 0.538553 3.67249 0 0 0 128 128 128 255
-0.426662 0.699445 3.67811 0 0 0 128 128 128 255
-0.420396 0.81309 3.69 0 0 0 128 128 128 255
-0.417998 0.799946 3.69394 0 0 0 128 128 128 255
-0.420781 0.493093 3.68483 0 0 0 128 128 128 255
-0.41715 0.838897 3.69596 0 0 0 128 128 128 255
-0.415573 0.586775 3.69549 0 0 0 128 128 128 255
-0.415475 0.545764 3.69516 0 0 0 128 128 128 255
-0.412485 0.721588 3.70303 0 0 0 128 128 128 255
-0.414063 0.547672 3.69787 0 0 0 128 128 128 255
-0.406664 0.823203 3.7159 0 0 0 128 128 128 255
-0.405955 0.532097 3.71453 0 0 0 128 128 128 255
-0.40198 0.749838 3.72558 0 0 0 128 128 128 255
-0.400507 0.783729 3.72935 0 0 0 128 128 128 255
-0.400732 0.71673 3.72828 0 0 0 128 128 128 255
-0.400963 0.525699 3.72632 0 0 0 128 128 128 255
-0.393094 0.747065 3.74886 0 0 0 128 128 128 255
-0.392267 0.699964 3.75126 0 0 0 128 128 128 255
-0.390024 0.717738 3.75848 0 0 0 128 128 128 255
-0.388514 0.556475 3.76428 0 0 0 128 128 128 255
-0.383777 0.696942 3.78305 0 0 0 128 128 128 255
-0.382413 0.559577 3.79274 0 0 0 128 128 128 255
-0.382444 0.520534 3.79355 0 0 0 128 128 128 255
-0.380573 0.583228 3.80432 0 0 0 128 128 128 255
-0.378473 0.676847 3.81804 0 0 0 128 128 128 255
-0.379978 0.510927 3.81311 0 0 0 128 128 128 255
-0.37804 0.675696 3.82298 0 0 0 128 128 128 255
