ply
format ascii 1.0
comment VCGLIB generated
element vertex 91
property float x
property float y
property float z
property float nx
property float ny
property float nz
property uchar red
property uchar green
property uchar blue
property uchar alpha
element face 0
property list uchar int vertex_indices
end_header
-2.60369 1.39727 4.8002 0 0 0 255 255 0 255
-2.6064 1.39245 4.80571 0 0 0 255 255 0 255
-2.61974 1.3934 4.83697 0 0 0 255 255 0 255
-2.69428 0.579643 4.87558 0 0 0 255 255 0 255
-2.68556 0.768501 4.88662 0 0 0 255 255 0 255
-2.69593 0.739164 4.90592 0 0 0 255 255 0 255
-2.69776 0.752327 4.91236 0 0 0 255 255 0 255
-2.69683 0.765294 4.91236 0 0 0 255 255 0 255
-2.70432 0.748784 4.92707 0 0 0 255 255 0 255
-2.67512 1.19183 4.93258 0 0 0 255 255 0 255
-2.68062 1.56316 5.00705 0 0 0 255 255 0 255
-2.6854 1.57353 5.01992 0 0 0 255 255 0 255
-2.71344 1.20759 5.02452 0 0 0 255 255 0 255
-2.75994 0.632442 5.03739 0 0 0 255 255 0 255
-2.76314 0.620641 5.04291 0 0 0 255 255 0 255
-2.75126 0.953637 5.07049 0 0 0 255 255 0 255
-2.76331 0.834192 5.07876 0 0 0 255 255 0 255
-2.75996 0.953255 5.09071 0 0 0 255 255 0 255
-2.76863 0.842592 5.09255 0 0 0 255 255 0 255
-2.82929 0.0188192 5.09715 0 0 0 255 255 0 255
-2.76182 0.982461 5.09991 0 0 0 255 255 0 255
-2.76453 0.977642 5.10542 0 0 0 255 255 0 255
-2.73497 1.39259 5.10542 0 0 0 255 255 0 255
-2.83435 0.0141673 5.10818 0 0 0 255 255 0 255
-2.76408 1.00067 5.10818 0 0 0 255 255 0 255
-2.76177 1.0386 5.1091 0 0 0 255 255 0 255
-2.82427 0.177865 5.11186 0 0 0 255 255 0 255
-2.76402 1.03475 5.1137 0 0 0 255 255 0 255
-2.76569 1.01682 5.11462 0 0 0 255 255 0 255
-2.76993 1.01813 5.12473 0 0 0 255 255 0 255
-2.74037 1.43308 5.12473 0 0 0 255 255 0 255
-2.74544 1.42842 5.13576 0 0 0 255 255 0 255
-2.77914 1.03282 5.14863 0 0 0 255 255 0 255
-2.78172 1.05205 5.15783 0 0 0 255 255 0 255
-2.7613 1.38845 5.1661 0 0 0 255 255 0 255
-2.78216 1.12326 5.1707 0 0 0 255 255 0 255
-2.77536 1.39045 5.1992 0 0 0 255 255 0 255
-2.80125 1.12663 5.21575 0 0 0 255 255 0 255
-2.78613 1.39423 5.22494 0 0 0 255 255 0 255
-2.78863 1.3924 5.23045 0 0 0 255 255 0 255
-2.787 1.41534 5.23045 0 0 0 255 255 0 255
-2.80771 1.1301 5.23137 0 0 0 255 255 0 255
-2.79533 1.37584 5.24333 0 0 0 255 255 0 255
-2.79987 1.39521 5.25712 0 0 0 255 255 0 255
-2.81697 1.18289 5.26171 0 0 0 255 255 0 255
-2.81666 1.237 5.26999 0 0 0 255 255 0 255
-2.80586 1.39965 5.27183 0 0 0 255 255 0 255
-2.89563 0.206006 5.28286 0 0 0 255 255 0 255
-2.9027 0.112272 5.28378 0 0 0 255 255 0 255
-2.83591 1.19927 5.3086 0 0 0 255 255 0 255
-2.87656 0.639748 5.31044 0 0 0 255 255 0 255
-2.85176 0.987866 5.31044 0 0 0 255 255 0 255
-2.85209 0.999919 5.3132 0 0 0 255 255 0 255
-2.84805 1.20615 5.33802 0 0 0 255 255 0 255
-2.85283 1.22755 5.35273 0 0 0 255 255 0 255
-2.86673 1.06011 5.35733 0 0 0 255 255 0 255
-2.86421 1.10104 5.35825 0 0 0 255 255 0 255
-2.8869 0.849011 5.36928 0 0 0 255 255 0 255
-2.86616 1.16233 5.37295 0 0 0 255 255 0 255
-2.89488 0.825519 5.38399 0 0 0 255 255 0 255
-2.87889 1.04995 5.38399 0 0 0 255 255 0 255
-2.88085 1.03906 5.38675 0 0 0 255 255 0 255
-2.86018 1.32933 5.38675 0 0 0 255 255 0 255
-2.87869 1.075 5.38766 0 0 0 255 255 0 255
-2.88164 1.06117 5.39226 0 0 0 255 255 0 255
-2.88305 1.10238 5.40237 0 0 0 255 255 0 255
-2.88512 1.10654 5.40789 0 0 0 255 255 0 255
-2.89219 1.0128 5.40881 0 0 0 255 255 0 255
-2.9193 0.63778 5.40973 0 0 0 255 255 0 255
-2.91814 0.681808 5.41433 0 0 0 255 255 0 255
-2.88898 1.26822 5.44375 0 0 0 255 255 0 255
-2.89223 1.26143 5.45018 0 0 0 255 255 0 255
-2.90359 1.18505 5.46397 0 0 0 255 255 0 255
-2.9084 1.17837 5.47408 0 0 0 255 255 0 255
-2.89875 1.34711 5.4796 0 0 0 255 255 0 255
-2.90663 1.35269 5.49891 0 0 0 255 255 0 255
-2.91449 1.3753 5.52097 0 0 0 255 255 0 255
-2.93019 1.38745 5.55958 0 0 0 255 255 0 255
-2.92789 1.45846 5.56602 0 0 0 255 255 0 255
-2.97118 1.38235 5.65428 0 0 0 255 255 0 255
-2.97794 1.45902 5.68278 0 0 0 255 255 0 255
-2.98726 1.48876 5.70944 0 0 0 255 255 0 255
-3.00251 1.41867 5.73334 0 0 0 255 255 0 255
-3.00469 1.41581 5.73794 0 0 0 255 255 0 255
-3.04039 1.15269 5.77747 0 0 0 255 255 0 255
-3.06043 1.3476 5.85654 0 0 0 255 255 0 255
-3.06715 1.39721 5.88044 0 0 0 255 255 0 255
-3.07641 1.34473 5.89331 0 0 0 255 255 0 255
-3.09517 1.34707 5.93744 0 0 0 255 255 0 255
-3.11423 1.26221 5.96778 0 0 0 255 255 0 255
-3.1298 1.19314 5.9926 0 0 0 255 255 0 255
