ply
format ascii 1.0
comment VCGLIB generated
element vertex 395
property float x
property float y
property float z
property float nx
property float ny
property float nz
property uchar red
property uchar green
property uchar blue
property uchar alpha
element face 0
property list uchar int vertex_indices
end_header
1.72727 1.86471 4.22306 0 0 0 128 0 0 255
1.73232 1.86 4.21135 0 0 0 128 0 0 255
1.72828 1.98794 4.11291 0 0 0 128 0 0 255
1.76274 1.80281 4.04756 0 0 0 128 0 0 255
1.76143 1.7829 4.00989 0 0 0 128 0 0 255
1.74343 1.83909 3.99513 0 0 0 128 0 0 255
1.73787 1.84315 3.98165 0 0 0 128 0 0 255
1.73254 1.85036 3.9729 0 0 0 128 0 0 255
1.68042 2.09606 4.01829 0 0 0 128 0 0 255
1.84181 1.21791 3.79955 0 0 0 128 0 0 255
1.84125 1.22078 3.8002 0 0 0 128 0 0 255
1.83938 1.23036 3.80237 0 0 0 128 0 0 255
1.68426 2.00728 3.97118 0 0 0 128 0 0 255
1.84128 1.13639 3.75348 0 0 0 128 0 0 255
1.81441 1.27437 3.78471 0 0 0 128 0 0 255
1.80886 1.28254 3.78076 0 0 0 128 0 0 255
1.67875 1.94478 3.92904 0 0 0 128 0 0 255
1.66537 1.97054 3.92362 0 0 0 128 0 0 255
1.64139 1.99665 3.90751 0 0 0 128 0 0 255
1.67858 1.67515 3.81068 0 0 0 128 0 0 255
1.66197 1.76043 3.82999 0 0 0 128 0 0 255
1.66995 1.71155 3.81764 0 0 0 128 0 0 255
1.6224 1.9319 3.86372 0 0 0 128 0 0 255
1.55549 2.2634 3.93691 0 0 0 128 0 0 255
1.64035 1.82357 3.83672 0 0 0 128 0 0 255
1.72428 1.38854 3.73763 0 0 0 128 0 0 255
1.69 1.55234 3.77289 0 0 0 128 0 0 255
1.71901 1.39517 3.7361 0 0 0 128 0 0 255
1.71845 1.39804 3.73675 0 0 0 128 0 0 255
1.6457 1.75922 3.81673 0 0 0 128 0 0 255
1.6821 1.55985 3.76983 0 0 0 128 0 0 255
1.63638 1.7946 3.82298 0 0 0 128 0 0 255
1.67868 1.57324 3.77228 0 0 0 128 0 0 255
1.68999 1.51093 3.7576 0 0 0 128 0 0 255
1.67899 1.56746 3.7704 0 0 0 128 0 0 255
1.65672 1.67763 3.79476 0 0 0 128 0 0 255
1.67885 1.55974 3.7675 0 0 0 128 0 0 255
1.65086 1.70347 3.80003 0 0 0 128 0 0 255
1.67255 1.58364 3.77177 0 0 0 128 0 0 255
1.68536 1.51366 3.75536 0 0 0 128 0 0 255
1.68409 1.51169 3.75379 0 0 0 128 0 0 255
1.68236 1.50775 3.75123 0 0 0 128 0 0 255
1.62275 1.80955 3.819 0 0 0 128 0 0 255
1.65588 1.63512 3.77897 0 0 0 128 0 0 255
1.6543 1.63892 3.77928 0 0 0 128 0 0 255
1.67929 1.46698 3.73506 0 0 0 128 0 0 255
1.67742 1.47657 3.73723 0 0 0 128 0 0 255
1.65389 1.58858 3.76156 0 0 0 128 0 0 255
1.66693 1.51278 3.74339 0 0 0 128 0 0 255
1.63472 1.67371 3.77931 0 0 0 128 0 0 255
1.64681 1.6027 3.76224 0 0 0 128 0 0 255
1.60371 1.82404 3.81235 0 0 0 128 0 0 255
1.68047 1.42538 3.7216 0 0 0 128 0 0 255
1.64528 1.60164 3.76101 0 0 0 128 0 0 255
1.53284 2.17458 3.89022 0 0 0 128 0 0 255
1.67515 1.43475 3.72177 0 0 0 128 0 0 255
1.53073 2.17639 3.88966 0 0 0 128 0 0 255
1.67118 1.44613 3.72339 0 0 0 128 0 0 255
1.63796 1.60309 3.7575 0 0 0 128 0 0 255
1.66332 1.45918 3.72353 0 0 0 128 0 0 255
1.65764 1.47917 3.72714 0 0 0 128 0 0 255
1.6715 1.40341 3.70954 0 0 0 128 0 0 255
1.58684 1.83357 3.80647 0 0 0 128 0 0 255
1.62099 1.63974 3.76082 0 0 0 128 0 0 255
1.66189 1.42503 3.71178 0 0 0 128 0 0 255
1.61226 1.67991 3.76948 0 0 0 128 0 0 255
1.58328 1.8148 3.79872 0 0 0 128 0 0 255
1.62362 1.60296 3.75035 0 0 0 128 0 0 255
1.57667 1.8347 3.80197 0 0 0 128 0 0 255
1.6579 1.40815 3.70458 0 0 0 128 0 0 255
1.64372 1.48097 3.72106 0 0 0 128 0 0 255
1.61387 1.63428 3.75577 0 0 0 128 0 0 255
1.64767 1.45598 3.715 0 0 0 128 0 0 255
1.57755 1.81139 3.79505 0 0 0 128 0 0 255
1.71285 1.11182 3.63628 0 0 0 128 0 0 255
1.64941 1.43761 3.71003 0 0 0 128 0 0 255
1.57142 1.83814 3.8007 0 0 0 128 0 0 255
1.50641 2.15305 3.8704 0 0 0 128 0 0 255
1.61255 1.56977 3.73534 0 0 0 128 0 0 255
1.58983 1.67202 3.7574 0 0 0 128 0 0 255
1.60313 1.57466 3.73327 0 0 0 128 0 0 255
1.62497 1.45277 3.705 0 0 0 128 0 0 255
1.62889 1.41308 3.69471 0 0 0 128 0 0 255
1.59493 1.58747 3.73419 0 0 0 128 0 0 255
1.68487 1.12073 3.62821 0 0 0 128 0 0 255
1.65949 1.23635 3.65344 0 0 0 128 0 0 255
1.6537 1.26605 3.66016 0 0 0 128 0 0 255
1.61806 1.44907 3.70159 0 0 0 128 0 0 255
1.68579 1.09635 3.62144 0 0 0 128 0 0 255
1.54939 1.79189 3.77859 0 0 0 128 0 0 255
1.65033 1.2686 3.65983 0 0 0 128 0 0 255
1.53632 1.84916 3.79095 0 0 0 128 0 0 255
1.57902 1.61503 3.73707 0 0 0 128 0 0 255
1.53107 1.86128 3.79282 0 0 0 128 0 0 255
1.56388 1.68283 3.75185 0 0 0 128 0 0 255
1.52824 1.86585 3.79329 0 0 0 128 0 0 255
1.52597 1.86262 3.79173 0 0 0 128 0 0 255
1.64573 1.23765 3.64971 0 0 0 128 0 0 255
1.60729 1.43503 3.69439 0 0 0 128 0 0 255
1.64961 1.2077 3.6424 0 0 0 128 0 0 255
1.59903 1.46246 3.69982 0 0 0 128 0 0 255
1.66133 1.13751 3.626 0 0 0 128 0 0 255
1.50329 1.9491 3.80972 0 0 0 128 0 0 255
1.6542 1.1641 3.63152 0 0 0 128 0 0 255
1.63535 1.26088 3.65342 0 0 0 128 0 0 255
1.59484 1.46389 3.69914 0 0 0 128 0 0 255
1.55342 1.67661 3.74729 0 0 0 128 0 0 255
1.60079 1.42831 3.69084 0 0 0 128 0 0 255
1.65262 1.1521 3.62783 0 0 0 128 0 0 255
1.64086 1.21247 3.6415 0 0 0 128 0 0 255
1.52555 1.80463 3.77555 0 0 0 128 0 0 255
1.59601 1.42768 3.68953 0 0 0 128 0 0 255
1.56373 1.59345 3.72705 0 0 0 128 0 0 255
1.50682 1.88569 3.79321 0 0 0 128 0 0 255
1.49245 1.95948 3.80991 0 0 0 128 0 0 255
1.59804 1.41222 3.6858 0 0 0 128 0 0 255
1.51295 1.84915 3.78472 0 0 0 128 0 0 255
1.5439 1.68517 3.74737 0 0 0 128 0 0 255
1.51199 1.84902 3.78446 0 0 0 128 0 0 255
1.54653 1.64126 3.73617 0 0 0 128 0 0 255
1.61535 1.28276 3.65481 0 0 0 128 0 0 255
1.49966 1.87684 3.7893 0 0 0 128 0 0 255
1.51648 1.765 3.76303 0 0 0 128 0 0 255
1.56123 1.5301 3.70968 0 0 0 128 0 0 255
1.62322 1.16565 3.62569 0 0 0 128 0 0 255
1.56351 1.47227 3.6951 0 0 0 128 0 0 255
1.55182 1.51686 3.70476 0 0 0 128 0 0 255
1.52043 1.67289 3.73994 0 0 0 128 0 0 255
1.48405 1.85974 3.78224 0 0 0 128 0 0 255
1.48019 1.86408 3.78283 0 0 0 128 0 0 255
1.59789 1.25451 3.64471 0 0 0 128 0 0 255
1.43234 2.09948 3.83587 0 0 0 128 0 0 255
1.59422 1.25788 3.64511 0 0 0 128 0 0 255
1.53209 1.55621 3.71221 0 0 0 128 0 0 255
1.51885 1.62424 3.72761 0 0 0 128 0 0 255
1.5516 1.44569 3.68699 0 0 0 128 0 0 255
1.47901 1.81843 3.77137 0 0 0 128 0 0 255
1.55179 1.42397 3.68171 0 0 0 128 0 0 255
1.51405 1.61257 3.72432 0 0 0 128 0 0 255
1.58705 1.22209 3.6357 0 0 0 128 0 0 255
1.459 1.87445 3.78331 0 0 0 128 0 0 255
1.53709 1.46305 3.69005 0 0 0 128 0 0 255
1.58649 1.20417 3.63139 0 0 0 128 0 0 255
1.60137 1.12255 3.61285 0 0 0 128 0 0 255
1.59665 1.14155 3.6171 0 0 0 128 0 0 255
1.45536 1.86194 3.78013 0 0 0 128 0 0 255
1.5653 1.28171 3.64865 0 0 0 128 0 0 255
1.4638 1.80297 3.76665 0 0 0 128 0 0 255
1.53222 1.44635 3.68588 0 0 0 128 0 0 255
1.4658 1.78746 3.7631 0 0 0 128 0 0 255
1.4693 1.76429 3.75782 0 0 0 128 0 0 255
1.45992 1.80724 3.76751 0 0 0 128 0 0 255
1.5679 1.24748 3.64077 0 0 0 128 0 0 255
1.56175 1.2791 3.64792 0 0 0 128 0 0 255
1.45907 1.80114 3.76608 0 0 0 128 0 0 255
1.57172 1.21742 3.63391 0 0 0 128 0 0 255
1.4885 1.64477 3.73066 0 0 0 128 0 0 255
1.44391 1.87378 3.7825 0 0 0 128 0 0 255
1.57223 1.20958 3.63212 0 0 0 128 0 0 255
1.49927 1.56339 3.71217 0 0 0 128 0 0 255
1.4932 1.5841 3.71686 0 0 0 128 0 0 255
1.49277 1.58105 3.71617 0 0 0 128 0 0 255
1.57743 1.14105 3.61658 0 0 0 128 0 0 255
1.51968 1.42718 3.68137 0 0 0 128 0 0 255
1.52 1.42029 3.67983 0 0 0 128 0 0 255
1.47989 1.6263 3.72647 0 0 0 128 0 0 255
1.51393 1.441 3.68456 0 0 0 128 0 0 255
1.4309 1.86739 3.78109 0 0 0 128 0 0 255
1.50493 1.48201 3.69387 0 0 0 128 0 0 255
1.50819 1.45481 3.68778 0 0 0 128 0 0 255
1.50012 1.49103 3.69601 0 0 0 128 0 0 255
1.54951 1.23212 3.63744 0 0 0 128 0 0 255
1.55003 1.22427 3.6357 0 0 0 128 0 0 255
1.49144 1.52514 3.70382 0 0 0 128 0 0 255
1.428 1.85093 3.77757 0 0 0 128 0 0 255
1.54904 1.22408 3.63571 0 0 0 128 0 0 255
1.49936 1.47397 3.69233 0 0 0 128 0 0 255
1.46773 1.58412 3.71792 0 0 0 128 0 0 255
1.43148 1.76502 3.75896 0 0 0 128 0 0 255
1.49465 1.43021 3.68334 0 0 0 128 0 0 255
1.51947 1.28184 3.65015 0 0 0 128 0 0 255
1.53207 1.20669 3.63335 0 0 0 128 0 0 255
1.4649 1.55164 3.71144 0 0 0 128 0 0 255
1.51617 1.28314 3.65077 0 0 0 128 0 0 255
1.52918 1.21107 3.63457 0 0 0 128 0 0 255
1.4538 1.59818 3.7222 0 0 0 128 0 0 255
1.44429 1.64705 3.73327 0 0 0 128 0 0 255
1.40263 1.85573 3.78063 0 0 0 128 0 0 255
1.40077 1.86531 3.78279 0 0 0 128 0 0 255
1.5332 1.18 3.62778 0 0 0 128 0 0 255
1.41621 1.78079 3.76378 0 0 0 128 0 0 255
1.5326 1.17787 3.62742 0 0 0 128 0 0 255
1.51152 1.28615 3.65193 0 0 0 128 0 0 255
1.4494 1.58427 3.71995 0 0 0 128 0 0 255
1.44936 1.57927 3.71896 0 0 0 128 0 0 255
1.52415 1.19003 3.63099 0 0 0 128 0 0 255
1.45865 1.52636 3.70713 0 0 0 128 0 0 255
1.45455 1.54744 3.7119 0 0 0 128 0 0 255
1.411 1.76069 3.76047 0 0 0 128 0 0 255
1.39196 1.85843 3.7826 0 0 0 128 0 0 255
1.47328 1.43565 3.68704 0 0 0 128 0 0 255
1.45163 1.5468 3.71221 0 0 0 128 0 0 255
1.44488 1.57629 3.71904 0 0 0 128 0 0 255
1.38831 1.86162 3.78379 0 0 0 128 0 0 255
1.46381 1.43754 3.689 0 0 0 128 0 0 255
1.43321 1.59468 3.72457 0 0 0 128 0 0 255
1.41862 1.66441 3.74054 0 0 0 128 0 0 255
1.48872 1.29411 3.65709 0 0 0 128 0 0 255
1.48582 1.29345 3.65753 0 0 0 128 0 0 255
1.48169 1.30951 3.66138 0 0 0 128 0 0 255
1.41993 1.62668 3.73317 0 0 0 128 0 0 255
1.41414 1.65638 3.7399 0 0 0 128 0 0 255
1.39063 1.77711 3.76723 0 0 0 128 0 0 255
1.48275 1.29374 3.65822 0 0 0 128 0 0 255
1.42342 1.59844 3.7272 0 0 0 128 0 0 255
1.38815 1.77954 3.7682 0 0 0 128 0 0 255
1.41736 1.61406 3.73138 0 0 0 128 0 0 255
1.39049 1.75204 3.76262 0 0 0 128 0 0 255
1.37685 1.81697 3.77754 0 0 0 128 0 0 255
1.38858 1.75159 3.76297 0 0 0 128 0 0 255
1.36672 1.85868 3.78744 0 0 0 128 0 0 255
1.48182 1.26245 3.6527 0 0 0 128 0 0 255
1.34555 1.94688 3.80835 0 0 0 128 0 0 255
1.43751 1.46947 3.70052 0 0 0 128 0 0 255
1.47817 1.25556 3.65234 0 0 0 128 0 0 255
1.47572 1.26299 3.65428 0 0 0 128 0 0 255
1.37795 1.76509 3.76794 0 0 0 128 0 0 255
1.42361 1.51526 3.71216 0 0 0 128 0 0 255
1.46387 1.29322 3.66269 0 0 0 128 0 0 255
1.43512 1.43576 3.69523 0 0 0 128 0 0 255
1.42709 1.47696 3.70456 0 0 0 128 0 0 255
1.34773 1.85906 3.79246 0 0 0 128 0 0 255
1.47255 1.213 3.6465 0 0 0 128 0 0 255
1.44698 1.33924 3.67537 0 0 0 128 0 0 255
1.34565 1.84948 3.79148 0 0 0 128 0 0 255
1.4436 1.33637 3.67593 0 0 0 128 0 0 255
1.36131 1.7539 3.77076 0 0 0 128 0 0 255
1.38314 1.63173 3.74373 0 0 0 128 0 0 255
1.4184 1.4456 3.70191 0 0 0 128 0 0 255
1.44564 1.29564 3.66861 0 0 0 128 0 0 255
1.38556 1.60418 3.73845 0 0 0 128 0 0 255
1.46188 1.20221 3.64811 0 0 0 128 0 0 255
1.40764 1.44075 3.70486 0 0 0 128 0 0 255
1.38825 1.53536 3.72664 0 0 0 128 0 0 255
1.37482 1.60435 3.74226 0 0 0 128 0 0 255
1.33958 1.77537 3.7817 0 0 0 128 0 0 255
1.38198 1.54274 3.73014 0 0 0 128 0 0 255
1.42682 1.29765 3.67579 0 0 0 128 0 0 255
1.33558 1.76621 3.78187 0 0 0 128 0 0 255
1.33316 1.77867 3.78468 0 0 0 128 0 0 255
1.33299 1.77458 3.78414 0 0 0 128 0 0 255
1.42209 1.29735 3.67768 0 0 0 128 0 0 255
1.38717 1.45226 3.71477 0 0 0 128 0 0 255
1.36795 1.55096 3.73711 0 0 0 128 0 0 255
1.38888 1.43859 3.71209 0 0 0 128 0 0 255
1.30719 1.85323 3.80637 0 0 0 128 0 0 255
1.40506 1.29752 3.68534 0 0 0 128 0 0 255
1.33663 1.64412 3.76426 0 0 0 128 0 0 255
1.29745 1.84534 3.80981 0 0 0 128 0 0 255
1.3534 1.54368 3.74289 0 0 0 128 0 0 255
1.30774 1.77339 3.79535 0 0 0 128 0 0 255
1.3667 1.44219 3.72321 0 0 0 128 0 0 255
1.4302 1.11135 3.6488 0 0 0 128 0 0 255
1.32984 1.61265 3.76375 0 0 0 128 0 0 255
1.34182 1.53711 3.74814 0 0 0 128 0 0 255
1.29909 1.75654 3.79781 0 0 0 128 0 0 255
1.35642 1.44815 3.72952 0 0 0 128 0 0 255
1.38343 1.2909 3.69598 0 0 0 128 0 0 255
1.36765 1.35812 3.71277 0 0 0 128 0 0 255
1.27184 1.84557 3.82364 0 0 0 128 0 0 255
1.36887 1.32898 3.70885 0 0 0 128 0 0 255
1.34518 1.45067 3.73639 0 0 0 128 0 0 255
1.26793 1.84736 3.8262 0 0 0 128 0 0 255
1.30174 1.6556 3.78497 0 0 0 128 0 0 255
1.30043 1.6623 3.78649 0 0 0 128 0 0 255
1.2855 1.73896 3.80384 0 0 0 128 0 0 255
1.28748 1.72431 3.80108 0 0 0 128 0 0 255
1.33983 1.45095 3.73976 0 0 0 128 0 0 255
1.35248 1.37252 3.72369 0 0 0 128 0 0 255
1.33599 1.45274 3.74242 0 0 0 128 0 0 255
1.30109 1.63192 3.78298 0 0 0 128 0 0 255
1.29774 1.64917 3.78688 0 0 0 128 0 0 255
1.39978 1.11175 3.66694 0 0 0 128 0 0 255
1.35338 1.34117 3.72004 0 0 0 128 0 0 255
1.38125 1.18923 3.68681 0 0 0 128 0 0 255
1.29125 1.64697 3.79102 0 0 0 128 0 0 255
1.31489 1.52117 3.76313 0 0 0 128 0 0 255
1.27832 1.70897 3.80565 0 0 0 128 0 0 255
1.34936 1.33979 3.72267 0 0 0 128 0 0 255
1.29613 1.60877 3.78416 0 0 0 128 0 0 255
1.37631 1.19264 3.69055 0 0 0 128 0 0 255
1.26692 1.75003 3.81733 0 0 0 128 0 0 255
1.31585 1.48569 3.75932 0 0 0 128 0 0 255
1.29589 1.58822 3.78253 0 0 0 128 0 0 255
1.26417 1.75111 3.8194 0 0 0 128 0 0 255
1.29085 1.59258 3.7866 0 0 0 128 0 0 255
1.25842 1.73778 3.82262 0 0 0 128 0 0 255
1.32968 1.36764 3.73946 0 0 0 128 0 0 255
1.31094 1.44701 3.76 0 0 0 128 0 0 255
1.37004 1.10212 3.68854 0 0 0 128 0 0 255
1.20715 1.93862 3.8779 0 0 0 128 0 0 255
1.26799 1.62214 3.80693 0 0 0 128 0 0 255
1.279 1.56149 3.79388 0 0 0 128 0 0 255
1.36354 1.12331 3.69536 0 0 0 128 0 0 255
1.24507 1.72765 3.83285 0 0 0 128 0 0 255
1.28654 1.50258 3.78396 0 0 0 128 0 0 255
1.27796 1.54666 3.79394 0 0 0 128 0 0 255
1.27254 1.57445 3.80023 0 0 0 128 0 0 255
1.35791 1.12009 3.70015 0 0 0 128 0 0 255
1.26464 1.59507 3.80838 0 0 0 128 0 0 255
1.23296 1.75384 3.84502 0 0 0 128 0 0 255
1.30785 1.36137 3.75759 0 0 0 128 0 0 255
1.32555 1.25484 3.73632 0 0 0 128 0 0 255
1.24046 1.69177 3.83524 0 0 0 128 0 0 255
1.28059 1.47025 3.78798 0 0 0 128 0 0 255
1.27049 1.5106 3.7993 0 0 0 128 0 0 255
1.21458 1.79394 3.86418 0 0 0 128 0 0 255
1.27859 1.45388 3.78941 0 0 0 128 0 0 255
1.2781 1.45264 3.78987 0 0 0 128 0 0 255
1.26851 1.48695 3.80064 0 0 0 128 0 0 255
1.26608 1.4994 3.80346 0 0 0 128 0 0 255
1.2222 1.71002 3.85416 0 0 0 128 0 0 255
1.18189 1.90971 3.9009 0 0 0 128 0 0 255
1.24498 1.57128 3.82737 0 0 0 128 0 0 255
1.20092 1.7797 3.87844 0 0 0 128 0 0 255
1.28295 1.35493 3.78307 0 0 0 128 0 0 255
1.24419 1.53652 3.82814 0 0 0 128 0 0 255
1.23545 1.57111 3.83837 0 0 0 128 0 0 255
1.25499 1.46734 3.81568 0 0 0 128 0 0 255
1.33387 1.05886 3.72402 0 0 0 128 0 0 255
1.30961 1.18343 3.75222 0 0 0 128 0 0 255
1.28848 1.28854 3.77682 0 0 0 128 0 0 255
1.16768 1.90217 3.91736 0 0 0 128 0 0 255
1.28948 1.27331 3.77581 0 0 0 128 0 0 255
1.196 1.75337 3.88448 0 0 0 128 0 0 255
1.24567 1.48173 3.82709 0 0 0 128 0 0 255
1.24525 1.47732 3.82774 0 0 0 128 0 0 255
1.28815 1.25378 3.77797 0 0 0 128 0 0 255
1.27863 1.30265 3.78903 0 0 0 128 0 0 255
1.19817 1.70615 3.88287 0 0 0 128 0 0 255
1.29332 1.21431 3.77237 0 0 0 128 0 0 255
1.26551 1.3476 3.80506 0 0 0 128 0 0 255
1.26551 1.34444 3.80519 0 0 0 128 0 0 255
1.24798 1.43451 3.82558 0 0 0 128 0 0 255
1.29484 1.18137 3.77167 0 0 0 128 0 0 255
1.24017 1.46212 3.83523 0 0 0 128 0 0 255
1.29021 1.199 3.77737 0 0 0 128 0 0 255
1.19395 1.69027 3.88944 0 0 0 128 0 0 255
1.29475 1.16653 3.77259 0 0 0 128 0 0 255
1.27471 1.24571 3.79746 0 0 0 128 0 0 255
1.27275 1.24993 3.80017 0 0 0 128 0 0 255
1.23525 1.44253 3.84377 0 0 0 128 0 0 255
1.21304 1.55655 3.86958 0 0 0 128 0 0 255
1.29792 1.11206 3.7716 0 0 0 128 0 0 255
1.29232 1.14081 3.7781 0 0 0 128 0 0 255
1.20687 1.57966 3.87745 0 0 0 128 0 0 255
1.2946 1.11228 3.77697 0 0 0 128 0 0 255
1.29345 1.11268 3.77885 0 0 0 128 0 0 255
1.16031 1.79367 3.93391 0 0 0 128 0 0 255
1.19342 1.62092 3.8957 0 0 0 128 0 0 255
1.27691 1.18945 3.79892 0 0 0 128 0 0 255
1.20267 1.55475 3.88704 0 0 0 128 0 0 255
1.19214 1.60622 3.8996 0 0 0 128 0 0 255
1.29249 1.08316 3.78394 0 0 0 128 0 0 255
1.21972 1.45686 3.86853 0 0 0 128 0 0 255
1.27227 1.18445 3.80778 0 0 0 128 0 0 255
1.26406 1.22661 3.81732 0 0 0 128 0 0 255
1.29211 1.07754 3.78541 0 0 0 128 0 0 255
1.27037 1.17676 3.81249 0 0 0 128 0 0 255
1.25505 1.2434 3.83222 0 0 0 128 0 0 255
1.2543 1.24724 3.83309 0 0 0 128 0 0 255
1.25118 1.25161 3.83876 0 0 0 128 0 0 255
1.21417 1.42161 3.88575 0 0 0 128 0 0 255
1.133 1.83843 3.98011 0 0 0 128 0 0 255
1.30132 0.969759 3.78536 0 0 0 128 0 0 255
1.11995 1.90112 3.9962 0 0 0 128 0 0 255
1.11489 1.89489 4.01018 0 0 0 128 0 0 255
1.20526 1.42894 3.90567 0 0 0 128 0 0 255
1.27211 1.01795 3.85624 0 0 0 128 0 0 255
1.11986 1.78367 4.04475 0 0 0 128 0 0 255
1.10808 1.84138 4.06086 0 0 0 128 0 0 255
1.10833 1.83658 4.06385 0 0 0 128 0 0 255
1.18914 1.41761 3.97409 0 0 0 128 0 0 255
1.18698 1.42648 3.97916 0 0 0 128 0 0 255
1.10218 1.84836 4.10333 0 0 0 128 0 0 255
1.10335 1.84031 4.11688 0 0 0 128 0 0 255
1.10437 1.83509 4.11775 0 0 0 128 0 0 255
1.12645 1.78461 4.19379 0 0 0 128 0 0 255
1.14567 1.70248 4.18585 0 0 0 128 0 0 255
1.10863 1.89752 4.23289 0 0 0 128 0 0 255
1.10947 1.91764 4.25076 0 0 0 128 0 0 255
1.13474 1.83891 4.25609 0 0 0 128 0 0 255
1.15305 1.81034 4.27358 0 0 0 128 0 0 255
1.14425 1.85816 4.28527 0 0 0 128 0 0 255
1.15642 1.88082 4.3155 0 0 0 128 0 0 255
