ply
format ascii 1.0
comment VCGLIB generated
element vertex 334
property float x
property float y
property float z
property float nx
property float ny
property float nz
property uchar red
property uchar green
property uchar blue
property uchar alpha
element face 0
property list uchar int vertex_indices
end_header
0.941162 0.308687 4.30875 0 0 0 255 255 0 255
0.941778 0.332007 4.31189 0 0 0 255 255 0 255
-0.123235 0.615811 4.31461 0 0 0 255 255 0 255
0.947249 0.354126 4.31502 0 0 0 255 255 0 255
0.950321 0.370715 4.31733 0 0 0 255 255 0 255
1.17324 0.339056 4.32047 0 0 0 255 255 0 255
1.16668 0.341698 4.3206 0 0 0 255 255 0 255
1.19408 0.340025 4.32128 0 0 0 255 255 0 255
1.11763 0.359953 4.32142 0 0 0 255 255 0 255
0.100025 0.614684 4.32183 0 0 0 255 255 0 255
1.15206 0.35756 4.32224 0 0 0 255 255 0 255
0.983866 0.40222 4.32265 0 0 0 255 255 0 255
1.21245 0.351811 4.32346 0 0 0 255 255 0 255
1.28452 0.335006 4.3236 0 0 0 255 255 0 255
1.19448 0.358296 4.32374 0 0 0 255 255 0 255
0.0288444 0.647596 4.32387 0 0 0 255 255 0 255
1.20779 0.362147 4.32469 0 0 0 255 255 0 255
1.22963 0.358788 4.32496 0 0 0 255 255 0 255
0.0280727 0.656971 4.3251 0 0 0 255 255 0 255
1.26553 0.353992 4.32551 0 0 0 255 255 0 255
1.22255 0.367681 4.32591 0 0 0 255 255 0 255
1.34705 0.337912 4.32605 0 0 0 255 255 0 255
0.166852 0.630813 4.32619 0 0 0 255 255 0 255
1.11551 0.397215 4.32632 0 0 0 255 255 0 255
1.27569 0.357602 4.32632 0 0 0 255 255 0 255
1.34727 0.342961 4.32673 0 0 0 255 255 0 255
1.18438 0.39243 4.32796 0 0 0 255 255 0 255
1.37924 0.347299 4.32837 0 0 0 255 255 0 255
1.17951 0.397717 4.3285 0 0 0 255 255 0 255
1.40181 0.342739 4.3285 0 0 0 255 255 0 255
1.23163 0.396052 4.33 0 0 0 255 255 0 255
1.37822 0.3598 4.33 0 0 0 255 255 0 255
0.130779 0.672392 4.33055 0 0 0 255 255 0 255
1.2287 0.400859 4.33055 0 0 0 255 255 0 255
1.45653 0.355739 4.33204 0 0 0 255 255 0 255
1.29125 0.399678 4.33245 0 0 0 255 255 0 255
1.37667 0.378551 4.33245 0 0 0 255 255 0 255
1.45554 0.360066 4.33259 0 0 0 255 255 0 255
0.0925459 0.709401 4.33422 0 0 0 255 255 0 255
1.29337 0.41242 4.33422 0 0 0 255 255 0 255
1.37806 0.392495 4.33436 0 0 0 255 255 0 255
1.50935 0.361046 4.3345 0 0 0 255 255 0 255
1.56565 0.347121 4.3345 0 0 0 255 255 0 255
1.45546 0.376414 4.33477 0 0 0 255 255 0 255
1.55545 0.351685 4.33477 0 0 0 255 255 0 255
1.37513 0.397302 4.3349 0 0 0 255 255 0 255
1.37362 0.407879 4.33627 0 0 0 255 255 0 255
1.08042 0.488558 4.33736 0 0 0 255 255 0 255
1.47163 0.391805 4.33736 0 0 0 255 255 0 255
1.08597 0.49433 4.33831 0 0 0 255 255 0 255
1.44732 0.405981 4.33845 0 0 0 255 255 0 255
1.33981 0.433592 4.33858 0 0 0 255 255 0 255
1.40338 0.41991 4.33885 0 0 0 255 255 0 255
1.47132 0.407191 4.3394 0 0 0 255 255 0 255
0.0188128 0.769478 4.33981 0 0 0 255 255 0 255
0.0217251 0.768758 4.33981 0 0 0 255 255 0 255
1.49168 0.406236 4.33994 0 0 0 255 255 0 255
1.57929 0.38559 4.34008 0 0 0 255 255 0 255
1.17375 0.486906 4.34022 0 0 0 255 255 0 255
1.35843 0.442253 4.34035 0 0 0 255 255 0 255
1.32955 0.450417 4.34049 0 0 0 255 255 0 255
1.45258 0.423052 4.3409 0 0 0 255 255 0 255
1.45402 0.424735 4.34117 0 0 0 255 255 0 255
1.65885 0.374078 4.34117 0 0 0 255 255 0 255
1.21448 0.484997 4.34131 0 0 0 255 255 0 255
1.08755 0.517409 4.34144 0 0 0 255 255 0 255
1.70349 0.367121 4.34171 0 0 0 255 255 0 255
0.0699473 0.77214 4.34185 0 0 0 255 255 0 255
1.71367 0.366643 4.34199 0 0 0 255 255 0 255
-0.0450965 0.802633 4.34212 0 0 0 255 255 0 255
1.73477 0.364487 4.3424 0 0 0 255 255 0 255
1.3598 0.460284 4.3428 0 0 0 255 255 0 255
1.49886 0.426913 4.34294 0 0 0 255 255 0 255
1.46924 0.436279 4.34321 0 0 0 255 255 0 255
1.50807 0.426676 4.34321 0 0 0 255 255 0 255
-0.0448974 0.811769 4.34335 0 0 0 255 255 0 255
-0.0339813 0.81009 4.34349 0 0 0 255 255 0 255
1.09112 0.531835 4.34349 0 0 0 255 255 0 255
1.54882 0.42068 4.34376 0 0 0 255 255 0 255
1.62745 0.401233 4.34376 0 0 0 255 255 0 255
1.63036 0.400513 4.34376 0 0 0 255 255 0 255
1.57236 0.415879 4.34389 0 0 0 255 255 0 255
1.72063 0.382272 4.3443 0 0 0 255 255 0 255
0.0215507 0.80554 4.34471 0 0 0 255 255 0 255
1.60362 0.417332 4.34512 0 0 0 255 255 0 255
1.56212 0.428618 4.34526 0 0 0 255 255 0 255
1.63128 0.412533 4.34539 0 0 0 255 255 0 255
1.71764 0.39934 4.34648 0 0 0 255 255 0 255
1.34219 0.493213 4.34662 0 0 0 255 255 0 255
1.11306 0.558046 4.34771 0 0 0 255 255 0 255
1.09582 0.56333 4.34784 0 0 0 255 255 0 255
1.61711 0.434406 4.34784 0 0 0 255 255 0 255
1.10236 0.564774 4.34825 0 0 0 255 255 0 255
1.12274 0.559733 4.34825 0 0 0 255 255 0 255
1.20161 0.541248 4.34839 0 0 0 255 255 0 255
1.26467 0.533816 4.34948 0 0 0 255 255 0 255
1.68937 0.430824 4.34975 0 0 0 255 255 0 255
1.69058 0.431545 4.34989 0 0 0 255 255 0 255
1.09963 0.578717 4.35002 0 0 0 255 255 0 255
1.20785 0.553991 4.3503 0 0 0 255 255 0 255
1.28551 0.534785 4.3503 0 0 0 255 255 0 255
1.65246 0.444034 4.3503 0 0 0 255 255 0 255
1.70654 0.437801 4.35125 0 0 0 255 255 0 255
1.10246 0.594344 4.3522 0 0 0 255 255 0 255
1.29855 0.545848 4.3522 0 0 0 255 255 0 255
1.25291 0.561219 4.35275 0 0 0 255 255 0 255
1.27959 0.55666 4.35302 0 0 0 255 255 0 255
1.34049 0.54466 4.35343 0 0 0 255 255 0 255
1.19918 0.593896 4.35533 0 0 0 255 255 0 255
1.34406 0.559085 4.35547 0 0 0 255 255 0 255
1.42511 0.541082 4.35574 0 0 0 255 255 0 255
1.34113 0.563892 4.35602 0 0 0 255 255 0 255
-0.146796 0.9329 4.35615 0 0 0 255 255 0 255
-0.107728 0.924258 4.35629 0 0 0 255 255 0 255
1.19793 0.601348 4.35629 0 0 0 255 255 0 255
1.28043 0.585028 4.35683 0 0 0 255 255 0 255
1.2122 0.609046 4.35779 0 0 0 255 255 0 255
1.26557 0.599928 4.35833 0 0 0 255 255 0 255
0.526096 0.783832 4.35847 0 0 0 255 255 0 255
1.42695 0.561036 4.35847 0 0 0 255 255 0 255
1.29418 0.598976 4.35915 0 0 0 255 255 0 255
-0.00444984 0.921167 4.35928 0 0 0 255 255 0 255
-9.11951e-05 0.92213 4.35956 0 0 0 255 255 0 255
0.74933 0.736787 4.35956 0 0 0 255 255 0 255
1.2876 0.605705 4.35983 0 0 0 255 255 0 255
1.38662 0.581217 4.35983 0 0 0 255 255 0 255
1.51379 0.549766 4.35983 0 0 0 255 255 0 255
0.0117763 0.924298 4.36024 0 0 0 255 255 0 255
0.945878 0.694301 4.36037 0 0 0 255 255 0 255
0.0217024 0.926946 4.36092 0 0 0 255 255 0 255
0.678902 0.76441 4.36092 0 0 0 255 255 0 255
0.722091 0.75577 4.36119 0 0 0 255 255 0 255
1.42224 0.583633 4.36133 0 0 0 255 255 0 255
1.2771 0.621569 4.3616 0 0 0 255 255 0 255
1.51106 0.563709 4.3616 0 0 0 255 255 0 255
0.051519 0.926715 4.36187 0 0 0 255 255 0 255
1.5358 0.55963 4.36187 0 0 0 255 255 0 255
1.56443 0.554591 4.36214 0 0 0 255 255 0 255
0.678368 0.774748 4.36228 0 0 0 255 255 0 255
0.945563 0.709687 4.36242 0 0 0 255 255 0 255
1.33046 0.616538 4.36269 0 0 0 255 255 0 255
0.685144 0.777154 4.36283 0 0 0 255 255 0 255
1.33069 0.6175 4.36283 0 0 0 255 255 0 255
1.41321 0.597093 4.36283 0 0 0 255 255 0 255
0.525683 0.819653 4.36323 0 0 0 255 255 0 255
0.109944 0.925533 4.36364 0 0 0 255 255 0 255
0.547021 0.818458 4.36378 0 0 0 255 255 0 255
1.00327 0.705619 4.36378 0 0 0 255 255 0 255
1.41584 0.603585 4.36378 0 0 0 255 255 0 255
1.02487 0.701299 4.36392 0 0 0 255 255 0 255
0.747471 0.770924 4.36405 0 0 0 255 255 0 255
1.46704 0.593985 4.36419 0 0 0 255 255 0 255
-0.105345 0.98388 4.36432 0 0 0 255 255 0 255
1.54299 0.576221 4.36432 0 0 0 255 255 0 255
1.56677 0.572382 4.3646 0 0 0 255 255 0 255
1.04474 0.702508 4.36473 0 0 0 255 255 0 255
0.732614 0.785825 4.36555 0 0 0 255 255 0 255
1.13451 0.686431 4.36555 0 0 0 255 255 0 255
1.40291 0.622092 4.36582 0 0 0 255 255 0 255
1.53614 0.590162 4.36596 0 0 0 255 255 0 255
0.712189 0.79904 4.36664 0 0 0 255 255 0 255
1.07913 0.708289 4.36664 0 0 0 255 255 0 255
0.712427 0.800002 4.36678 0 0 0 255 255 0 255
-0.0923461 1.00312 4.36732 0 0 0 255 255 0 255
0.725999 0.800728 4.36732 0 0 0 255 255 0 255
0.536207 0.849707 4.36759 0 0 0 255 255 0 255
1.45551 0.62235 4.36759 0 0 0 255 255 0 255
-0.089691 1.00552 4.36773 0 0 0 255 255 0 255
1.49917 0.615633 4.36814 0 0 0 255 255 0 255
0.0927911 0.964473 4.36827 0 0 0 255 255 0 255
1.43946 0.632441 4.36841 0 0 0 255 255 0 255
1.08829 0.720313 4.36855 0 0 0 255 255 0 255
1.13683 0.708309 4.36855 0 0 0 255 255 0 255
1.18146 0.701352 4.36909 0 0 0 255 255 0 255
1.55106 0.613006 4.3695 0 0 0 255 255 0 255
0.118468 0.968328 4.36964 0 0 0 255 255 0 255
1.21855 0.701364 4.37032 0 0 0 255 255 0 255
1.12728 0.728019 4.37086 0 0 0 255 255 0 255
0.740662 0.826696 4.37127 0 0 0 255 255 0 255
1.55536 0.62623 4.37141 0 0 0 255 255 0 255
1.25974 0.705465 4.37222 0 0 0 255 255 0 255
1.21459 0.718672 4.3725 0 0 0 255 255 0 255
0.108644 0.99525 4.3729 0 0 0 255 255 0 255
1.2454 0.714115 4.3729 0 0 0 255 255 0 255
1.17427 0.734766 4.37331 0 0 0 255 255 0 255
0.878631 0.818088 4.37468 0 0 0 255 255 0 255
0.875223 0.820972 4.37495 0 0 0 255 255 0 255
0.873262 0.825539 4.37549 0 0 0 255 255 0 255
0.677408 0.874997 4.37563 0 0 0 255 255 0 255
1.27636 0.726867 4.37563 0 0 0 255 255 0 255
1.3414 0.710781 4.37563 0 0 0 255 255 0 255
0.882713 0.826263 4.3759 0 0 0 255 255 0 255
-0.0295571 1.0529 4.37604 0 0 0 255 255 0 255
0.67933 0.878604 4.37617 0 0 0 255 255 0 255
1.38554 0.705988 4.37645 0 0 0 255 255 0 255
1.32946 0.724961 4.37713 0 0 0 255 255 0 255
0.99647 0.811396 4.37767 0 0 0 255 255 0 255
0.92196 0.830844 4.37781 0 0 0 255 255 0 255
1.34545 0.72713 4.37794 0 0 0 255 255 0 255
0.994272 0.815001 4.37808 0 0 0 255 255 0 255
1.04229 0.809248 4.3789 0 0 0 255 255 0 255
1.46844 0.707939 4.37944 0 0 0 255 255 0 255
1.04372 0.815018 4.37971 0 0 0 255 255 0 255
0.973808 0.836391 4.38026 0 0 0 255 255 0 255
0.16638 1.0371 4.3804 0 0 0 255 255 0 255
1.39535 0.733157 4.3804 0 0 0 255 255 0 255
0.00547278 1.07792 4.38053 0 0 0 255 255 0 255
1.02282 0.82631 4.38053 0 0 0 255 255 0 255
1.025 0.826792 4.38067 0 0 0 255 255 0 255
0.0049777 1.08008 4.3808 0 0 0 255 255 0 255
1.09196 0.814313 4.38121 0 0 0 255 255 0 255
1.41449 0.735567 4.38135 0 0 0 255 255 0 255
1.51809 0.717091 4.3823 0 0 0 255 255 0 255
1.07031 0.830894 4.38271 0 0 0 255 255 0 255
1.52098 0.720457 4.38285 0 0 0 255 255 0 255
1.14019 0.817695 4.38326 0 0 0 255 255 0 255
1.51198 0.725743 4.38326 0 0 0 255 255 0 255
1.54887 0.71662 4.38326 0 0 0 255 255 0 255
1.13945 0.818896 4.38339 0 0 0 255 255 0 255
0.159231 1.06234 4.38353 0 0 0 255 255 0 255
0.520331 0.977117 4.38407 0 0 0 255 255 0 255
1.11443 0.830187 4.38407 0 0 0 255 255 0 255
1.10205 0.83427 4.38421 0 0 0 255 255 0 255
0.881927 0.88973 4.38435 0 0 0 255 255 0 255
1.09549 0.836912 4.38435 0 0 0 255 255 0 255
1.56922 0.719752 4.38435 0 0 0 255 255 0 255
0.873428 0.892853 4.38448 0 0 0 255 255 0 255
1.11927 0.833074 4.38462 0 0 0 255 255 0 255
1.18867 0.817951 4.38489 0 0 0 255 255 0 255
1.6158 0.712315 4.38489 0 0 0 255 255 0 255
1.5022 0.744492 4.38544 0 0 0 255 255 0 255
0.408617 1.02107 4.38625 0 0 0 255 255 0 255
1.16872 0.83309 4.38625 0 0 0 255 255 0 255
0.884247 0.911608 4.38734 0 0 0 255 255 0 255
1.24293 0.824941 4.38761 0 0 0 255 255 0 255
1.25579 0.822782 4.38775 0 0 0 255 255 0 255
1.25603 0.823744 4.38789 0 0 0 255 255 0 255
1.57855 0.744998 4.38802 0 0 0 255 255 0 255
1.62392 0.73684 4.38843 0 0 0 255 255 0 255
1.22056 0.838637 4.3887 0 0 0 255 255 0 255
1.64962 0.736608 4.38925 0 0 0 255 255 0 255
1.66343 0.738295 4.38993 0 0 0 255 255 0 255
1.66852 0.738056 4.39007 0 0 0 255 255 0 255
0.520099 1.02616 4.39061 0 0 0 255 255 0 255
1.61846 0.764725 4.39197 0 0 0 255 255 0 255
1.33524 0.83579 4.39211 0 0 0 255 255 0 255
0.517585 1.04515 4.39306 0 0 0 255 255 0 255
1.38078 0.840854 4.39429 0 0 0 255 255 0 255
1.415 0.833413 4.39442 0 0 0 255 255 0 255
-0.209349 1.24228 4.39538 0 0 0 255 255 0 255
0.506314 1.07039 4.39606 0 0 0 255 255 0 255
1.40814 0.847354 4.39606 0 0 0 255 255 0 255
1.47754 0.832232 4.39633 0 0 0 255 255 0 255
-0.218125 1.25262 4.39647 0 0 0 255 255 0 255
1.44987 0.841118 4.3966 0 0 0 255 255 0 255
1.47899 0.833915 4.3966 0 0 0 255 255 0 255
0.0609574 1.18564 4.39674 0 0 0 255 255 0 255
0.933664 0.969803 4.39674 0 0 0 255 255 0 255
0.492171 1.08818 4.39797 0 0 0 255 255 0 255
-0.070628 1.22838 4.3981 0 0 0 255 255 0 255
1.52868 0.834894 4.39837 0 0 0 255 255 0 255
-0.0774428 1.23415 4.39865 0 0 0 255 255 0 255
1.00713 0.966943 4.39878 0 0 0 255 255 0 255
1.51554 0.844265 4.39919 0 0 0 255 255 0 255
-0.0731034 1.2392 4.39946 0 0 0 255 255 0 255
0.070568 1.20367 4.39946 0 0 0 255 255 0 255
1.49855 0.85051 4.39946 0 0 0 255 255 0 255
0.936717 0.990479 4.3996 0 0 0 255 255 0 255
0.81367 1.02193 4.39974 0 0 0 255 255 0 255
0.879681 1.00561 4.39974 0 0 0 255 255 0 255
1.65408 0.817145 4.40015 0 0 0 255 255 0 255
0.0756209 1.21161 4.40069 0 0 0 255 255 0 255
0.806836 1.03179 4.40083 0 0 0 255 255 0 255
1.58344 0.83972 4.40083 0 0 0 255 255 0 255
0.0809503 1.21233 4.40096 0 0 0 255 255 0 255
1.55961 0.855819 4.40219 0 0 0 255 255 0 255
1.56226 0.858224 4.4026 0 0 0 255 255 0 255
1.60666 0.850306 4.40301 0 0 0 255 255 0 255
0.893869 1.02965 4.40341 0 0 0 255 255 0 255
0.330099 1.1701 4.40355 0 0 0 255 255 0 255
0.900902 1.02893 4.40355 0 0 0 255 255 0 255
0.798696 1.06135 4.4045 0 0 0 255 255 0 255
1.65343 0.852004 4.40478 0 0 0 255 255 0 255
1.65391 0.853928 4.40505 0 0 0 255 255 0 255
1.67939 0.848647 4.40518 0 0 0 255 255 0 255
0.826333 1.06064 4.40532 0 0 0 255 255 0 255
1.6995 0.850818 4.40614 0 0 0 255 255 0 255
0.830872 1.07483 4.40736 0 0 0 255 255 0 255
0.833411 1.10175 4.41104 0 0 0 255 255 0 255
0.835551 1.11041 4.41227 0 0 0 255 255 0 255
0.330959 1.24439 4.41349 0 0 0 255 255 0 255
1.89698 0.86627 4.41472 0 0 0 255 255 0 255
0.745019 1.18587 4.41935 0 0 0 255 255 0 255
0.499123 1.25791 4.42085 0 0 0 255 255 0 255
1.0186 1.15494 4.42425 0 0 0 255 255 0 255
1.05572 1.14678 4.42439 0 0 0 255 255 0 255
1.07417 1.14222 4.42439 0 0 0 255 255 0 255
1.09164 1.1379 4.42439 0 0 0 255 255 0 255
0.916552 1.20467 4.42752 0 0 0 255 255 0 255
1.24457 1.14396 4.43025 0 0 0 255 255 0 255
1.15136 1.1711 4.43079 0 0 0 255 255 0 255
0.506701 1.34686 4.43297 0 0 0 255 255 0 255
1.00078 1.28284 4.44073 0 0 0 255 255 0 255
1.01267 1.28092 4.44087 0 0 0 255 255 0 255
1.03082 1.28765 4.44237 0 0 0 255 255 0 255
1.20288 1.24612 4.4425 0 0 0 255 255 0 255
1.03539 1.29366 4.44332 0 0 0 255 255 0 255
1.16642 1.26534 4.44387 0 0 0 255 255 0 255
1.15811 1.28169 4.44577 0 0 0 255 255 0 255
1.04718 1.31218 4.44618 0 0 0 255 255 0 255
1.09762 1.30787 4.44727 0 0 0 255 255 0 255
1.19 1.30237 4.44959 0 0 0 255 255 0 255
1.13509 1.33024 4.45149 0 0 0 255 255 0 255
0.98306 1.39029 4.45449 0 0 0 255 255 0 255
1.11047 1.3598 4.45463 0 0 0 255 255 0 255
1.04394 1.38238 4.45544 0 0 0 255 255 0 255
1.08049 1.39273 4.45803 0 0 0 255 255 0 255
1.01569 1.40977 4.45817 0 0 0 255 255 0 255
1.11762 1.38457 4.45817 0 0 0 255 255 0 255
0.968363 1.4225 4.4583 0 0 0 255 255 0 255
1.11518 1.38721 4.45844 0 0 0 255 255 0 255
0.996714 1.42467 4.45953 0 0 0 255 255 0 255
1.02679 1.42132 4.46007 0 0 0 255 255 0 255
0.956341 1.45303 4.46198 0 0 0 255 255 0 255
1.15727 1.40742 4.46253 0 0 0 255 255 0 255
0.980076 1.45736 4.46334 0 0 0 255 255 0 255
0.981483 1.46722 4.46471 0 0 0 255 255 0 255
1.04284 1.46123 4.46593 0 0 0 255 255 0 255
0.985546 1.47948 4.46648 0 0 0 255 255 0 255
0.77731 1.53302 4.46675 0 0 0 255 255 0 255
0.758633 1.58663 4.47329 0 0 0 255 255 0 255
0.76953 1.58904 4.47397 0 0 0 255 255 0 255
0.699453 1.7472 4.49276 0 0 0 255 255 0 255
0.646266 1.81954 4.50066 0 0 0 255 255 0 255
