ply
format ascii 1.0
comment VCGLIB generated
element vertex 65
property float x
property float y
property float z
property float nx
property float ny
property float nz
property uchar red
property uchar green
property uchar blue
property uchar alpha
element face 0
property list uchar int vertex_indices
end_header
3.85552 1.44548 3.27869 0 0 0 128 0 128 255
3.87435 1.44332 3.30118 0 0 0 128 0 128 255
3.84949 1.52051 3.30197 0 0 0 128 0 128 255
3.86769 1.5353 3.33016 0 0 0 128 0 128 255
3.8813 1.53212 3.34532 0 0 0 128 0 128 255
3.81762 1.73899 3.3507 0 0 0 128 0 128 255
3.81978 1.73663 3.35235 0 0 0 128 0 128 255
3.81638 1.76108 3.3579 0 0 0 128 0 128 255
3.81172 1.80222 3.36841 0 0 0 128 0 128 255
3.86196 1.72114 3.39601 0 0 0 128 0 128 255
3.85445 1.82776 3.42769 0 0 0 128 0 128 255
3.85999 1.84285 3.4396 0 0 0 128 0 128 255
3.99149 1.47698 3.45258 0 0 0 128 0 128 255
3.97731 1.54764 3.46271 0 0 0 128 0 128 255
3.93139 1.76794 3.49186 0 0 0 128 0 128 255
3.88685 1.91468 3.49567 0 0 0 128 0 128 255
3.91777 1.83559 3.50118 0 0 0 128 0 128 255
3.84679 2.04493 3.49845 0 0 0 128 0 128 255
3.92875 1.81845 3.50705 0 0 0 128 0 128 255
3.86627 1.99999 3.50365 0 0 0 128 0 128 255
3.88436 1.96094 3.50943 0 0 0 128 0 128 255
3.90359 1.95027 3.52643 0 0 0 128 0 128 255
4.16228 1.23292 3.55261 0 0 0 128 0 128 255
4.18738 1.17623 3.55967 0 0 0 128 0 128 255
3.90137 2.00414 3.54284 0 0 0 128 0 128 255
3.90931 1.99975 3.54974 0 0 0 128 0 128 255
4.19787 1.22651 3.58814 0 0 0 128 0 128 255
4.01785 1.73863 3.57439 0 0 0 128 0 128 255
4.01264 1.77737 3.58214 0 0 0 128 0 128 255
4.00419 1.80517 3.58276 0 0 0 128 0 128 255
4.21824 1.40295 3.66769 0 0 0 128 0 128 255
4.16758 1.55156 3.66524 0 0 0 128 0 128 255
4.22202 1.41087 3.67401 0 0 0 128 0 128 255
4.19845 1.48747 3.67527 0 0 0 128 0 128 255
4.21786 1.46394 3.68692 0 0 0 128 0 128 255
4.17818 1.62542 3.69927 0 0 0 128 0 128 255
4.16964 1.6682 3.70443 0 0 0 128 0 128 255
4.16763 1.67385 3.70425 0 0 0 128 0 128 255
4.16278 1.70842 3.71038 0 0 0 128 0 128 255
4.14801 1.75413 3.71039 0 0 0 128 0 128 255
4.12224 1.87277 3.72249 0 0 0 128 0 128 255
4.12324 1.87208 3.72322 0 0 0 128 0 128 255
4.18142 1.72747 3.73418 0 0 0 128 0 128 255
4.17158 1.78261 3.74174 0 0 0 128 0 128 255
4.14869 1.87877 3.74941 0 0 0 128 0 128 255
4.13015 1.98411 3.76383 0 0 0 128 0 128 255
4.13784 1.96888 3.76642 0 0 0 128 0 128 255
4.102 2.06965 3.76327 0 0 0 128 0 128 255
4.14387 1.95836 3.76887 0 0 0 128 0 128 255
4.12945 2.01386 3.77207 0 0 0 128 0 128 255
4.13046 2.01317 3.7728 0 0 0 128 0 128 255
4.12979 2.01506 3.77274 0 0 0 128 0 128 255
4.13113 2.04344 3.7824 0 0 0 128 0 128 255
4.22196 1.82468 3.80114 0 0 0 128 0 128 255
4.23714 1.82521 3.81508 0 0 0 128 0 128 255
4.22512 1.87199 3.81779 0 0 0 128 0 128 255
4.27911 1.73539 3.82692 0 0 0 128 0 128 255
4.22752 1.88042 3.82239 0 0 0 128 0 128 255
4.24701 1.83867 3.82786 0 0 0 128 0 128 255
4.24064 1.85657 3.8273 0 0 0 128 0 128 255
4.29634 1.71956 3.83781 0 0 0 128 0 128 255
4.23463 1.93888 3.84544 0 0 0 128 0 128 255
4.23923 1.96101 3.85574 0 0 0 128 0 128 255
4.32205 1.73914 3.8661 0 0 0 128 0 128 255
4.3347 1.80508 3.89538 0 0 0 128 0 128 255
