ply
format ascii 1.0
comment VCGLIB generated
element vertex 889
property float x
property float y
property float z
property float nx
property float ny
property float nz
property uchar red
property uchar green
property uchar blue
property uchar alpha
element face 0
property list uchar int vertex_indices
end_header
1.77297 1.8768 4.17492 0 0 0 255 255 0 255
1.76999 1.88487 4.17775 0 0 0 255 255 0 255
1.77668 1.86517 4.17949 0 0 0 255 255 0 255
1.76568 1.89487 4.18922 0 0 0 255 255 0 255
1.82844 1.67205 4.22759 0 0 0 255 255 0 255
1.79032 1.66941 4.31354 0 0 0 255 255 0 255
1.82994 1.55992 4.28899 0 0 0 255 255 0 255
1.73982 1.68072 4.38034 0 0 0 255 255 0 255
1.39178 2.13363 4.6101 0 0 0 255 255 0 255
1.40996 1.94089 4.58293 0 0 0 255 255 0 255
1.41129 1.93721 4.5821 0 0 0 255 255 0 255
1.34925 1.78377 4.56041 0 0 0 255 255 0 255
1.34576 1.78465 4.5605 0 0 0 255 255 0 255
1.43501 1.50303 4.4967 0 0 0 255 255 0 255
1.27095 1.90425 4.58498 0 0 0 255 255 0 255
1.48872 1.27075 4.44148 0 0 0 255 255 0 255
1.48206 1.27482 4.44164 0 0 0 255 255 0 255
1.45758 1.27155 4.43612 0 0 0 255 255 0 255
1.27569 1.75457 4.54281 0 0 0 255 255 0 255
1.41994 1.34198 4.44905 0 0 0 255 255 0 255
1.41938 1.29926 4.43509 0 0 0 255 255 0 255
1.23646 1.7993 4.54662 0 0 0 255 255 0 255
1.39523 1.35231 4.44548 0 0 0 255 255 0 255
1.21022 1.86089 4.55921 0 0 0 255 255 0 255
1.40599 1.31987 4.4379 0 0 0 255 255 0 255
1.2335 1.78839 4.54202 0 0 0 255 255 0 255
1.38471 1.34345 4.43895 0 0 0 255 255 0 255
1.21408 1.78029 4.53225 0 0 0 255 255 0 255
1.20128 1.78412 4.52845 0 0 0 255 255 0 255
1.31861 1.45727 4.45475 0 0 0 255 255 0 255
1.28958 1.5323 4.47076 0 0 0 255 255 0 255
1.30223 1.49734 4.46292 0 0 0 255 255 0 255
1.3007 1.49897 4.46288 0 0 0 255 255 0 255
1.18059 1.82314 4.53432 0 0 0 255 255 0 255
1.19923 1.77161 4.52276 0 0 0 255 255 0 255
1.18402 1.78799 4.52212 0 0 0 255 255 0 255
1.2024 1.71946 4.50359 0 0 0 255 255 0 255
1.31393 1.41123 4.43447 0 0 0 255 255 0 255
1.31389 1.39629 4.42832 0 0 0 255 255 0 255
1.14609 1.84511 4.52607 0 0 0 255 255 0 255
1.16258 1.79709 4.51481 0 0 0 255 255 0 255
1.18306 1.73802 4.50108 0 0 0 255 255 0 255
1.13233 1.86595 4.52727 0 0 0 255 255 0 255
1.29837 1.39491 4.4191 0 0 0 255 255 0 255
1.12276 1.87779 4.52686 0 0 0 255 255 0 255
1.12247 1.87378 4.52492 0 0 0 255 255 0 255
1.29445 1.39608 4.41728 0 0 0 255 255 0 255
1.11363 1.88383 4.524 0 0 0 255 255 0 255
1.09674 1.86781 4.50513 0 0 0 255 255 0 255
1.24323 1.46297 4.41435 0 0 0 255 255 0 255
1.08921 1.8841 4.50759 0 0 0 255 255 0 255
1.24583 1.44679 4.40832 0 0 0 255 255 0 255
1.22448 1.49686 4.41712 0 0 0 255 255 0 255
1.2184 1.51146 4.41978 0 0 0 255 255 0 255
1.2203 1.49518 4.41303 0 0 0 255 255 0 255
1.18581 1.5753 4.42658 0 0 0 255 255 0 255
1.23694 1.4297 4.39264 0 0 0 255 255 0 255
1.1553 1.65317 4.44211 0 0 0 255 255 0 255
1.27479 1.31022 4.3613 0 0 0 255 255 0 255
1.18378 1.55751 4.41543 0 0 0 255 255 0 255
1.21159 1.47438 4.3948 0 0 0 255 255 0 255
1.19456 1.51936 4.40422 0 0 0 255 255 0 255
1.19888 1.43815 4.36139 0 0 0 255 255 0 255
1.17294 1.50419 4.37398 0 0 0 255 255 0 255
1.27827 1.20202 4.30174 0 0 0 255 255 0 255
1.2803 1.1946 4.29932 0 0 0 255 255 0 255
1.21728 1.35615 4.33022 0 0 0 255 255 0 255
1.27634 1.18762 4.29013 0 0 0 255 255 0 255
1.01274 1.90218 4.44413 0 0 0 255 255 0 255
1.27895 1.14636 4.2651 0 0 0 255 255 0 255
1.23555 1.22876 4.26379 0 0 0 255 255 0 255
1.00096 1.87559 4.40799 0 0 0 255 255 0 255
1.00437 1.85168 4.39411 0 0 0 255 255 0 255
1.18746 1.31745 4.25597 0 0 0 255 255 0 255
1.20794 1.24965 4.23273 0 0 0 255 255 0 255
1.15029 1.38935 4.24858 0 0 0 255 255 0 255
1.13989 1.39198 4.22488 0 0 0 255 255 0 255
1.1361 1.3896 4.21002 0 0 0 255 255 0 255
1.30395 0.922569 4.10144 0 0 0 255 255 0 255
1.30016 0.91839 4.08004 0 0 0 255 255 0 255
1.1164 1.42094 4.18385 0 0 0 255 255 0 255
1.10874 1.43841 4.18083 0 0 0 255 255 0 255
1.23447 1.08996 4.10071 0 0 0 255 255 0 255
1.3052 0.891269 4.04917 0 0 0 255 255 0 255
1.2945 0.914208 4.03624 0 0 0 255 255 0 255
1.24316 1.05007 4.02605 0 0 0 255 255 0 255
1.21384 1.13427 4.01524 0 0 0 255 255 0 255
1.20519 1.15841 4.01963 0 0 0 255 255 0 255
1.19395 1.19704 4.00371 0 0 0 255 255 0 255
1.23117 1.09587 3.97693 0 0 0 255 255 0 255
1.27412 0.97718 3.95032 0 0 0 255 255 0 255
1.28851 0.937858 3.94048 0 0 0 255 255 0 255
1.25186 1.04097 3.95952 0 0 0 255 255 0 255
1.29268 0.931127 3.92876 0 0 0 255 255 0 255
1.28276 0.96066 3.93131 0 0 0 255 255 0 255
1.14903 1.33079 4.01329 0 0 0 255 255 0 255
1.11596 1.42332 4.032 0 0 0 255 255 0 255
1.25548 1.03949 3.94288 0 0 0 255 255 0 255
1.1863 1.24035 3.97272 0 0 0 255 255 0 255
1.1258 1.42915 3.98795 0 0 0 255 255 0 255
1.12922 1.43599 3.97263 0 0 0 255 255 0 255
1.26899 1.05596 3.88152 0 0 0 255 255 0 255
1.14083 1.41663 3.95653 0 0 0 255 255 0 255
1.2852 1.021 3.86488 0 0 0 255 255 0 255
1.27384 1.05351 3.8712 0 0 0 255 255 0 255
1.1482 1.40531 3.94621 0 0 0 255 255 0 255
1.30685 0.978779 3.84091 0 0 0 255 255 0 255
1.28556 1.04511 3.85004 0 0 0 255 255 0 255
1.26516 1.11585 3.85546 0 0 0 255 255 0 255
1.2978 1.0366 3.83017 0 0 0 255 255 0 255
1.30384 1.04761 3.81506 0 0 0 255 255 0 255
1.17643 1.42486 3.88518 0 0 0 255 255 0 255
1.27112 1.17302 3.82337 0 0 0 255 255 0 255
1.24377 1.25193 3.83929 0 0 0 255 255 0 255
1.30747 1.08094 3.7983 0 0 0 255 255 0 255
1.31177 1.07245 3.79464 0 0 0 255 255 0 255
1.249 1.24762 3.83305 0 0 0 255 255 0 255
1.30726 1.0866 3.79694 0 0 0 255 255 0 255
1.25115 1.24338 3.83122 0 0 0 255 255 0 255
1.27562 1.17748 3.81557 0 0 0 255 255 0 255
1.26097 1.2284 3.82177 0 0 0 255 255 0 255
1.27746 1.18459 3.81109 0 0 0 255 255 0 255
1.19407 1.41682 3.8623 0 0 0 255 255 0 255
1.30822 1.11387 3.78837 0 0 0 255 255 0 255
1.26979 1.22188 3.81174 0 0 0 255 255 0 255
1.28012 1.19336 3.80534 0 0 0 255 255 0 255
1.30775 1.11699 3.78822 0 0 0 255 255 0 255
1.18675 1.45319 3.86275 0 0 0 255 255 0 255
1.28131 1.19188 3.80416 0 0 0 255 255 0 255
1.30994 1.11276 3.78642 0 0 0 255 255 0 255
1.26672 1.23586 3.81232 0 0 0 255 255 0 255
1.26626 1.23898 3.81218 0 0 0 255 255 0 255
1.27752 1.21339 3.80392 0 0 0 255 255 0 255
1.18717 1.46495 3.85948 0 0 0 255 255 0 255
1.26429 1.25369 3.81127 0 0 0 255 255 0 255
1.30458 1.14236 3.78631 0 0 0 255 255 0 255
1.2656 1.25571 3.80922 0 0 0 255 255 0 255
1.26693 1.25203 3.8084 0 0 0 255 255 0 255
1.29523 1.17382 3.79086 0 0 0 255 255 0 255
1.30577 1.14658 3.78392 0 0 0 255 255 0 255
1.2697 1.24816 3.80587 0 0 0 255 255 0 255
1.30532 1.14971 3.78379 0 0 0 255 255 0 255
1.29256 1.18688 3.7913 0 0 0 255 255 0 255
1.20212 1.44065 3.84655 0 0 0 255 255 0 255
1.32231 1.10849 3.77207 0 0 0 255 255 0 255
1.27882 1.23252 3.79824 0 0 0 255 255 0 255
1.32766 1.09948 3.76758 0 0 0 255 255 0 255
1.32223 1.11641 3.77056 0 0 0 255 255 0 255
1.19928 1.45814 3.84637 0 0 0 255 255 0 255
1.29217 1.20143 3.78881 0 0 0 255 255 0 255
1.16623 1.55144 3.86647 0 0 0 255 255 0 255
1.29973 1.18248 3.78374 0 0 0 255 255 0 255
1.17346 1.53341 3.86162 0 0 0 255 255 0 255
1.27367 1.25646 3.79951 0 0 0 255 255 0 255
1.30563 1.16813 3.77971 0 0 0 255 255 0 255
1.32927 1.1028 3.76506 0 0 0 255 255 0 255
1.18992 1.49183 3.85067 0 0 0 255 255 0 255
1.19616 1.47656 3.84644 0 0 0 255 255 0 255
1.29229 1.21286 3.7865 0 0 0 255 255 0 255
1.18684 1.51025 3.85077 0 0 0 255 255 0 255
1.27207 1.27471 3.79795 0 0 0 255 255 0 255
1.27684 1.26755 3.79395 0 0 0 255 255 0 255
1.33344 1.11113 3.75887 0 0 0 255 255 0 255
1.21384 1.44366 3.83264 0 0 0 255 255 0 255
1.31372 1.16763 3.77074 0 0 0 255 255 0 255
1.32005 1.15015 3.76682 0 0 0 255 255 0 255
1.27836 1.26738 3.79232 0 0 0 255 255 0 255
1.29734 1.21493 3.78056 0 0 0 255 255 0 255
1.17242 1.56218 3.85763 0 0 0 255 255 0 255
1.17774 1.54746 3.85433 0 0 0 255 255 0 255
1.19672 1.49502 3.84257 0 0 0 255 255 0 255
1.33216 1.12275 3.7583 0 0 0 255 255 0 255
1.21124 1.45896 3.8329 0 0 0 255 255 0 255
1.27676 1.27992 3.79197 0 0 0 255 255 0 255
1.18142 1.5475 3.8504 0 0 0 255 255 0 255
1.28763 1.25399 3.78458 0 0 0 255 255 0 255
1.30955 1.19548 3.77068 0 0 0 255 255 0 255
1.33851 1.11543 3.75273 0 0 0 255 255 0 255
1.13231 1.68941 3.87987 0 0 0 255 255 0 255
1.29079 1.25144 3.78166 0 0 0 255 255 0 255
1.31776 1.17691 3.76495 0 0 0 255 255 0 255
1.31671 1.18189 3.76529 0 0 0 255 255 0 255
1.1665 1.59907 3.85806 0 0 0 255 255 0 255
1.25773 1.34697 3.80153 0 0 0 255 255 0 255
1.25873 1.34421 3.80091 0 0 0 255 255 0 255
1.33892 1.12468 3.75091 0 0 0 255 255 0 255
1.26125 1.3435 3.79843 0 0 0 255 255 0 255
1.32118 1.17788 3.7613 0 0 0 255 255 0 255
1.13827 1.68968 3.87376 0 0 0 255 255 0 255
1.2851 1.28391 3.78277 0 0 0 255 255 0 255
1.28073 1.29809 3.78518 0 0 0 255 255 0 255
1.19014 1.55058 3.84104 0 0 0 255 255 0 255
1.28702 1.28283 3.781 0 0 0 255 255 0 255
1.29202 1.26903 3.7779 0 0 0 255 255 0 255
1.30966 1.22026 3.76697 0 0 0 255 255 0 255
1.31729 1.20132 3.76196 0 0 0 255 255 0 255
1.19237 1.5508 3.83881 0 0 0 255 255 0 255
1.29422 1.27147 3.77542 0 0 0 255 255 0 255
1.18599 1.57273 3.84222 0 0 0 255 255 0 255
1.28052 1.31364 3.78337 0 0 0 255 255 0 255
1.26751 1.35174 3.79117 0 0 0 255 255 0 255
1.29179 1.2868 3.77585 0 0 0 255 255 0 255
1.13827 1.71541 3.87047 0 0 0 255 255 0 255
1.23414 1.45264 3.81081 0 0 0 255 255 0 255
1.29773 1.2769 3.7714 0 0 0 255 255 0 255
1.23113 1.46315 3.81242 0 0 0 255 255 0 255
1.35363 1.129 3.73602 0 0 0 255 255 0 255
1.27138 1.35848 3.78674 0 0 0 255 255 0 255
1.22842 1.48163 3.81289 0 0 0 255 255 0 255
1.23075 1.47741 3.81121 0 0 0 255 255 0 255
1.27636 1.36025 3.78204 0 0 0 255 255 0 255
1.25806 1.41531 3.79295 0 0 0 255 255 0 255
1.24042 1.4663 3.80366 0 0 0 255 255 0 255
1.41956 0.975737 3.69223 0 0 0 255 255 0 255
1.36298 1.13438 3.72709 0 0 0 255 255 0 255
1.24648 1.46087 3.79889 0 0 0 255 255 0 255
1.3407 1.20048 3.7405 0 0 0 255 255 0 255
1.22952 1.51002 3.8092 0 0 0 255 255 0 255
1.16197 1.70125 3.85068 0 0 0 255 255 0 255
1.20392 1.58532 3.82468 0 0 0 255 255 0 255
1.15833 1.7136 3.85275 0 0 0 255 255 0 255
1.19795 1.60411 3.8282 0 0 0 255 255 0 255
1.21626 1.5535 3.81685 0 0 0 255 255 0 255
1.3511 1.18086 3.73329 0 0 0 255 255 0 255
1.22664 1.52943 3.81006 0 0 0 255 255 0 255
1.23938 1.50115 3.80164 0 0 0 255 255 0 255
1.16017 1.72237 3.85056 0 0 0 255 255 0 255
1.22376 1.54663 3.81115 0 0 0 255 255 0 255
1.3293 1.25495 3.74574 0 0 0 255 255 0 255
1.37491 1.1289 3.71748 0 0 0 255 255 0 255
1.32205 1.27965 3.74991 0 0 0 255 255 0 255
1.38667 1.10338 3.7097 0 0 0 255 255 0 255
1.29349 1.36324 3.76729 0 0 0 255 255 0 255
1.37739 1.13137 3.7153 0 0 0 255 255 0 255
1.21995 1.56881 3.81271 0 0 0 255 255 0 255
1.24829 1.49283 3.795 0 0 0 255 255 0 255
1.26494 1.44682 3.78468 0 0 0 255 255 0 255
1.25134 1.48678 3.79296 0 0 0 255 255 0 255
1.16215 1.73559 3.84809 0 0 0 255 255 0 255
1.23022 1.55458 3.80549 0 0 0 255 255 0 255
1.24059 1.52829 3.79893 0 0 0 255 255 0 255
1.19137 1.66669 3.8293 0 0 0 255 255 0 255
1.25374 1.49909 3.7904 0 0 0 255 255 0 255
1.17323 1.72398 3.84017 0 0 0 255 255 0 255
1.26678 1.46544 3.7822 0 0 0 255 255 0 255
1.27211 1.45071 3.7789 0 0 0 255 255 0 255
1.30241 1.36699 3.76012 0 0 0 255 255 0 255
1.2725 1.45202 3.77853 0 0 0 255 255 0 255
1.25758 1.49566 3.78767 0 0 0 255 255 0 255
1.18174 1.70767 3.83456 0 0 0 255 255 0 255
1.23268 1.5669 3.80299 0 0 0 255 255 0 255
1.27529 1.44912 3.77658 0 0 0 255 255 0 255
1.35686 1.2237 3.72603 0 0 0 255 255 0 255
1.39421 1.12288 3.70278 0 0 0 255 255 0 255
1.18719 1.69741 3.83096 0 0 0 255 255 0 255
1.19086 1.68729 3.82869 0 0 0 255 255 0 255
1.26157 1.49669 3.78467 0 0 0 255 255 0 255
1.20837 1.64614 3.81754 0 0 0 255 255 0 255
1.22669 1.59553 3.80619 0 0 0 255 255 0 255
1.40222 1.11287 3.69732 0 0 0 255 255 0 255
1.25946 1.50982 3.7857 0 0 0 255 255 0 255
1.18396 1.72092 3.8324 0 0 0 255 255 0 255
1.24022 1.56542 3.79753 0 0 0 255 255 0 255
1.31729 1.35734 3.74961 0 0 0 255 255 0 255
1.18486 1.72577 3.83159 0 0 0 255 255 0 255
1.25344 1.53623 3.78909 0 0 0 255 255 0 255
1.19526 1.69948 3.82507 0 0 0 255 255 0 255
1.28165 1.46563 3.77139 0 0 0 255 255 0 255
1.38154 1.1896 3.70949 0 0 0 255 255 0 255
1.26279 1.53016 3.78278 0 0 0 255 255 0 255
1.41403 1.11466 3.689 0 0 0 255 255 0 255
1.20047 1.70983 3.82125 0 0 0 255 255 0 255
1.2917 1.45772 3.76472 0 0 0 255 255 0 255
1.32799 1.35743 3.74223 0 0 0 255 255 0 255
1.38892 1.18905 3.70447 0 0 0 255 255 0 255
1.27582 1.50412 3.77452 0 0 0 255 255 0 255
1.40699 1.1416 3.69323 0 0 0 255 255 0 255
1.27668 1.50674 3.77391 0 0 0 255 255 0 255
1.32595 1.37057 3.74337 0 0 0 255 255 0 255
1.38788 1.19943 3.705 0 0 0 255 255 0 255
1.25135 1.58428 3.78951 0 0 0 255 255 0 255
1.25811 1.56811 3.7853 0 0 0 255 255 0 255
1.26577 1.54695 3.78055 0 0 0 255 255 0 255
1.33524 1.36003 3.73747 0 0 0 255 255 0 255
1.28541 1.50028 3.76833 0 0 0 255 255 0 255
1.20794 1.7169 3.81632 0 0 0 255 255 0 255
1.25289 1.59268 3.78847 0 0 0 255 255 0 255
1.30483 1.44915 3.75628 0 0 0 255 255 0 255
1.27687 1.53405 3.77359 0 0 0 255 255 0 255
1.34925 1.34424 3.72875 0 0 0 255 255 0 255
1.20122 1.75591 3.8205 0 0 0 255 255 0 255
1.30443 1.47068 3.75654 0 0 0 255 255 0 255
1.30976 1.45596 3.75324 0 0 0 255 255 0 255
1.31342 1.44584 3.75097 0 0 0 255 255 0 255
1.33839 1.37683 3.7355 0 0 0 255 255 0 255
1.2636 1.58609 3.78186 0 0 0 255 255 0 255
1.27093 1.56584 3.77732 0 0 0 255 255 0 255
1.27604 1.55427 3.77416 0 0 0 255 255 0 255
1.3443 1.36565 3.73187 0 0 0 255 255 0 255
1.35241 1.3458 3.72686 0 0 0 255 255 0 255
1.40647 1.19898 3.69338 0 0 0 255 255 0 255
1.19952 1.77351 3.82166 0 0 0 255 255 0 255
1.43723 1.11656 3.67435 0 0 0 255 255 0 255
1.29886 1.50156 3.76013 0 0 0 255 255 0 255
1.2362 1.67992 3.79903 0 0 0 255 255 0 255
1.19538 1.79532 3.82436 0 0 0 255 255 0 255
1.30558 1.49077 3.75607 0 0 0 255 255 0 255
1.30924 1.48065 3.7538 0 0 0 255 255 0 255
1.41645 1.18437 3.68736 0 0 0 255 255 0 255
1.21449 1.74511 3.81256 0 0 0 255 255 0 255
1.3478 1.3793 3.72999 0 0 0 255 255 0 255
1.20919 1.77283 3.8161 0 0 0 255 255 0 255
1.38132 1.29713 3.70943 0 0 0 255 255 0 255
1.38265 1.29345 3.70861 0 0 0 255 255 0 255
1.23663 1.69961 3.79915 0 0 0 255 255 0 255
1.22213 1.74233 3.80821 0 0 0 255 255 0 255
1.3047 1.51414 3.75704 0 0 0 255 255 0 255
1.21861 1.75468 3.81045 0 0 0 255 255 0 255
1.28653 1.56698 3.76836 0 0 0 255 255 0 255
1.37209 1.33051 3.71534 0 0 0 255 255 0 255
1.21443 1.76887 3.81311 0 0 0 255 255 0 255
1.30166 1.5278 3.75906 0 0 0 255 255 0 255
1.42151 1.19657 3.68478 0 0 0 255 255 0 255
1.27317 1.60916 3.77678 0 0 0 255 255 0 255
1.23185 1.72864 3.80254 0 0 0 255 255 0 255
1.43161 1.17658 3.67875 0 0 0 255 255 0 255
1.28194 1.59285 3.77158 0 0 0 255 255 0 255
1.36518 1.36283 3.72 0 0 0 255 255 0 255
1.2195 1.76806 3.81036 0 0 0 255 255 0 255
1.2383 1.71877 3.7988 0 0 0 255 255 0 255
1.24929 1.68841 3.79199 0 0 0 255 255 0 255
1.42641 1.19891 3.68222 0 0 0 255 255 0 255
1.2213 1.77108 3.80952 0 0 0 255 255 0 255
1.33949 1.44444 3.73627 0 0 0 255 255 0 255
1.3901 1.30459 3.70491 0 0 0 255 255 0 255
1.33648 1.4581 3.73834 0 0 0 255 255 0 255
1.23525 1.74319 3.80127 0 0 0 255 255 0 255
1.43317 1.19888 3.67873 0 0 0 255 255 0 255
1.23324 1.7541 3.80274 0 0 0 255 255 0 255
1.28035 1.62659 3.77366 0 0 0 255 255 0 255
1.295 1.58611 3.76458 0 0 0 255 255 0 255
1.34261 1.45453 3.73508 0 0 0 255 255 0 255
1.33562 1.47923 3.73965 0 0 0 255 255 0 255
1.34877 1.44558 3.73162 0 0 0 255 255 0 255
1.26171 1.68888 3.7857 0 0 0 255 255 0 255
1.29034 1.60975 3.76796 0 0 0 255 255 0 255
1.34627 1.45517 3.73329 0 0 0 255 255 0 255
1.24689 1.73251 3.79501 0 0 0 255 255 0 255
1.30116 1.58253 3.76138 0 0 0 255 255 0 255
1.33113 1.49972 3.74281 0 0 0 255 255 0 255
1.35062 1.45397 3.73113 0 0 0 255 255 0 255
1.29353 1.61445 3.76666 0 0 0 255 255 0 255
1.40424 1.31121 3.69819 0 0 0 255 255 0 255
1.26343 1.70579 3.78575 0 0 0 255 255 0 255
1.24847 1.75257 3.79533 0 0 0 255 255 0 255
1.28243 1.65872 3.77429 0 0 0 255 255 0 255
1.2886 1.64439 3.77062 0 0 0 255 255 0 255
1.26048 1.72482 3.78821 0 0 0 255 255 0 255
1.29378 1.63281 3.76757 0 0 0 255 255 0 255
1.41666 1.29867 3.69175 0 0 0 255 255 0 255
1.26022 1.73649 3.78905 0 0 0 255 255 0 255
1.3338 1.53315 3.74345 0 0 0 255 255 0 255
1.25508 1.75344 3.79241 0 0 0 255 255 0 255
1.29489 1.64618 3.76792 0 0 0 255 255 0 255
1.25745 1.75238 3.7913 0 0 0 255 255 0 255
1.36918 1.44637 3.72225 0 0 0 255 255 0 255
1.42264 1.30138 3.68931 0 0 0 255 255 0 255
1.27833 1.70293 3.77893 0 0 0 255 255 0 255
1.42416 1.29993 3.68856 0 0 0 255 255 0 255
1.46017 1.20593 3.66664 0 0 0 255 255 0 255
1.19554 1.94278 3.83103 0 0 0 255 255 0 255
1.26732 1.74719 3.78676 0 0 0 255 255 0 255
1.31393 1.61837 3.75787 0 0 0 255 255 0 255
1.3449 1.5328 3.73868 0 0 0 255 255 0 255
1.34077 1.54699 3.74145 0 0 0 255 255 0 255
1.46428 1.20563 3.66491 0 0 0 255 255 0 255
1.46222 1.21967 3.66684 0 0 0 255 255 0 255
1.27498 1.73991 3.78309 0 0 0 255 255 0 255
1.31926 1.61754 3.75565 0 0 0 255 255 0 255
1.32459 1.60282 3.75235 0 0 0 255 255 0 255
1.2845 1.71637 3.77741 0 0 0 255 255 0 255
1.30947 1.64736 3.76194 0 0 0 255 255 0 255
1.30801 1.65419 3.76307 0 0 0 255 255 0 255
1.32699 1.60174 3.75131 0 0 0 255 255 0 255
1.25748 1.79941 3.79485 0 0 0 255 255 0 255
1.31808 1.63195 3.7573 0 0 0 255 255 0 255
1.28166 1.73539 3.7801 0 0 0 255 255 0 255
1.43947 1.29926 3.68231 0 0 0 255 255 0 255
1.48641 1.16953 3.65322 0 0 0 255 255 0 255
1.35212 1.54347 3.73668 0 0 0 255 255 0 255
1.38774 1.44502 3.7146 0 0 0 255 255 0 255
1.32735 1.6147 3.75227 0 0 0 255 255 0 255
1.35074 1.55566 3.73827 0 0 0 255 255 0 255
1.39457 1.43735 3.71136 0 0 0 255 255 0 255
1.47481 1.21561 3.66164 0 0 0 255 255 0 255
1.38933 1.45744 3.71512 0 0 0 255 255 0 255
1.44726 1.29734 3.67922 0 0 0 255 255 0 255
1.35314 1.56309 3.73807 0 0 0 255 255 0 255
1.43105 1.34779 3.68979 0 0 0 255 255 0 255
1.45778 1.27955 3.67376 0 0 0 255 255 0 255
1.32482 1.64981 3.75642 0 0 0 255 255 0 255
1.32582 1.64705 3.7558 0 0 0 255 255 0 255
1.43203 1.35354 3.68999 0 0 0 255 255 0 255
1.45699 1.29303 3.67535 0 0 0 255 255 0 255
1.29307 1.74886 3.77722 0 0 0 255 255 0 255
1.43878 1.349 3.6872 0 0 0 255 255 0 255
1.33213 1.64657 3.75359 0 0 0 255 255 0 255
1.43434 1.3641 3.69024 0 0 0 255 255 0 255
1.443 1.34018 3.68488 0 0 0 255 255 0 255
1.25911 1.85121 3.79913 0 0 0 255 255 0 255
1.44489 1.33779 3.684 0 0 0 255 255 0 255
1.4582 1.30099 3.67575 0 0 0 255 255 0 255
1.29562 1.75314 3.7768 0 0 0 255 255 0 255
1.39883 1.46791 3.71284 0 0 0 255 255 0 255
1.40482 1.45135 3.70912 0 0 0 255 255 0 255
1.28586 1.78296 3.78315 0 0 0 255 255 0 255
1.26311 1.84867 3.79754 0 0 0 255 255 0 255
1.34468 1.62324 3.747 0 0 0 255 255 0 255
1.44678 1.34391 3.68403 0 0 0 255 255 0 255
1.39241 1.49702 3.71803 0 0 0 255 255 0 255
1.37399 1.55077 3.72975 0 0 0 255 255 0 255
1.4752 1.27106 3.66703 0 0 0 255 255 0 255
1.26768 1.84742 3.79595 0 0 0 255 255 0 255
1.38123 1.54216 3.72653 0 0 0 255 255 0 255
1.38223 1.5394 3.72591 0 0 0 255 255 0 255
1.30023 1.76888 3.77706 0 0 0 255 255 0 255
1.33685 1.66767 3.75436 0 0 0 255 255 0 255
1.48235 1.26558 3.6642 0 0 0 255 255 0 255
1.49466 1.23154 3.65656 0 0 0 255 255 0 255
1.43197 1.40765 3.69574 0 0 0 255 255 0 255
1.47615 1.28842 3.66869 0 0 0 255 255 0 255
1.42382 1.44449 3.70247 0 0 0 255 255 0 255
1.47666 1.30133 3.67007 0 0 0 255 255 0 255
1.34239 1.67527 3.75363 0 0 0 255 255 0 255
1.42986 1.43642 3.69977 0 0 0 255 255 0 255
1.51775 1.19351 3.6453 0 0 0 255 255 0 255
1.38182 1.57204 3.7299 0 0 0 255 255 0 255
1.32746 1.72515 3.76394 0 0 0 255 255 0 255
1.37041 1.60646 3.73732 0 0 0 255 255 0 255
1.30339 1.79454 3.77921 0 0 0 255 255 0 255
1.51281 1.21579 3.64944 0 0 0 255 255 0 255
1.40485 1.51704 3.7167 0 0 0 255 255 0 255
1.42282 1.46735 3.70556 0 0 0 255 255 0 255
1.43314 1.43883 3.69917 0 0 0 255 255 0 255
1.37013 1.61586 3.73858 0 0 0 255 255 0 255
1.48532 1.29751 3.6672 0 0 0 255 255 0 255
1.51995 1.20182 3.64574 0 0 0 255 255 0 255
1.52028 1.2009 3.64553 0 0 0 255 255 0 255
1.35805 1.65212 3.74643 0 0 0 255 255 0 255
1.48314 1.30929 3.66928 0 0 0 255 255 0 255
1.28995 1.84608 3.78938 0 0 0 255 255 0 255
1.32924 1.73751 3.76503 0 0 0 255 255 0 255
1.4208 1.48448 3.7083 0 0 0 255 255 0 255
1.48838 1.2977 3.66641 0 0 0 255 255 0 255
1.49537 1.27838 3.66208 0 0 0 255 255 0 255
1.37809 1.60539 3.73514 0 0 0 255 255 0 255
1.52083 1.21379 3.64706 0 0 0 255 255 0 255
1.29726 1.83744 3.78637 0 0 0 255 255 0 255
1.41378 1.51541 3.71416 0 0 0 255 255 0 255
1.32946 1.75132 3.7668 0 0 0 255 255 0 255
1.38207 1.60595 3.7342 0 0 0 255 255 0 255
1.32671 1.76181 3.7689 0 0 0 255 255 0 255
1.52606 1.2138 3.64576 0 0 0 255 255 0 255
1.43142 1.47824 3.7048 0 0 0 255 255 0 255
1.49925 1.29367 3.66316 0 0 0 255 255 0 255
1.41885 1.52167 3.7138 0 0 0 255 255 0 255
1.43549 1.47566 3.70348 0 0 0 255 255 0 255
1.52639 1.22448 3.64715 0 0 0 255 255 0 255
1.32821 1.77506 3.77037 0 0 0 255 255 0 255
1.37815 1.63705 3.73943 0 0 0 255 255 0 255
1.40303 1.57117 3.72441 0 0 0 255 255 0 255
1.33004 1.7758 3.77006 0 0 0 255 255 0 255
1.32397 1.79549 3.77424 0 0 0 255 255 0 255
1.30491 1.85106 3.78647 0 0 0 255 255 0 255
1.35211 1.72353 3.75764 0 0 0 255 255 0 255
1.34037 1.75886 3.76534 0 0 0 255 255 0 255
1.312 1.84019 3.78335 0 0 0 255 255 0 255
1.33722 1.77339 3.76815 0 0 0 255 255 0 255
1.44775 1.46792 3.69965 0 0 0 255 255 0 255
1.51234 1.28942 3.65962 0 0 0 255 255 0 255
1.31317 1.84276 3.78349 0 0 0 255 255 0 255
1.38934 1.63518 3.73672 0 0 0 255 255 0 255
1.57312 1.12729 3.62283 0 0 0 255 255 0 255
1.45884 1.44601 3.69409 0 0 0 255 255 0 255
1.51644 1.28683 3.65839 0 0 0 255 255 0 255
1.53941 1.22334 3.64416 0 0 0 255 255 0 255
1.51503 1.29363 3.65971 0 0 0 255 255 0 255
1.34342 1.77373 3.76695 0 0 0 255 255 0 255
1.51155 1.30908 3.66275 0 0 0 255 255 0 255
1.34268 1.77869 3.76785 0 0 0 255 255 0 255
1.35012 1.76689 3.76461 0 0 0 255 255 0 255
1.54773 1.2266 3.64307 0 0 0 255 255 0 255
1.38286 1.68517 3.74571 0 0 0 255 255 0 255
1.47009 1.4441 3.69165 0 0 0 255 255 0 255
1.54692 1.23468 3.64451 0 0 0 255 255 0 255
1.39404 1.66012 3.73972 0 0 0 255 255 0 255
1.40369 1.63344 3.73374 0 0 0 255 255 0 255
1.41301 1.60768 3.72796 0 0 0 255 255 0 255
1.54645 1.24183 3.64575 0 0 0 255 255 0 255
1.36453 1.75044 3.75944 0 0 0 255 255 0 255
1.41846 1.60139 3.72602 0 0 0 255 255 0 255
1.41466 1.61774 3.72934 0 0 0 255 255 0 255
1.5423 1.27377 3.65172 0 0 0 255 255 0 255
1.41725 1.62816 3.73071 0 0 0 255 255 0 255
1.59271 1.14326 3.62198 0 0 0 255 255 0 255
1.42751 1.60275 3.72486 0 0 0 255 255 0 255
1.43117 1.59263 3.72259 0 0 0 255 255 0 255
1.44682 1.54938 3.71289 0 0 0 255 255 0 255
1.45514 1.52638 3.70773 0 0 0 255 255 0 255
1.53371 1.30924 3.65904 0 0 0 255 255 0 255
1.56761 1.2185 3.63855 0 0 0 255 255 0 255
1.41239 1.65038 3.73524 0 0 0 255 255 0 255
1.59551 1.14432 3.62176 0 0 0 255 255 0 255
1.41066 1.65809 3.73683 0 0 0 255 255 0 255
1.56881 1.22104 3.63882 0 0 0 255 255 0 255
1.45055 1.55079 3.71262 0 0 0 255 255 0 255
1.44216 1.57691 3.71834 0 0 0 255 255 0 255
1.4088 1.67203 3.73953 0 0 0 255 255 0 255
1.37711 1.76255 3.7597 0 0 0 255 255 0 255
1.49464 1.43775 3.68687 0 0 0 255 255 0 255
1.37738 1.76474 3.76006 0 0 0 255 255 0 255
1.34802 1.84882 3.77878 0 0 0 255 255 0 255
1.35102 1.84054 3.77692 0 0 0 255 255 0 255
1.41554 1.66515 3.73747 0 0 0 255 255 0 255
1.44617 1.5805 3.71849 0 0 0 255 255 0 255
1.56303 1.25754 3.64607 0 0 0 255 255 0 255
1.59959 1.15944 3.62395 0 0 0 255 255 0 255
1.44705 1.58396 3.71902 0 0 0 255 255 0 255
1.58255 1.20948 3.63504 0 0 0 255 255 0 255
1.38899 1.75027 3.75608 0 0 0 255 255 0 255
1.42661 1.6463 3.73276 0 0 0 255 255 0 255
1.55246 1.2985 3.65477 0 0 0 255 255 0 255
1.55646 1.28746 3.6523 0 0 0 255 255 0 255
1.37954 1.78225 3.76302 0 0 0 255 255 0 255
1.4165 1.68012 3.74012 0 0 0 255 255 0 255
1.35019 1.86632 3.78177 0 0 0 255 255 0 255
1.46238 1.55625 3.71224 0 0 0 255 255 0 255
1.55521 1.30265 3.65526 0 0 0 255 255 0 255
1.38302 1.78144 3.76253 0 0 0 255 255 0 255
1.56142 1.29138 3.65253 0 0 0 255 255 0 255
1.58506 1.22605 3.63788 0 0 0 255 255 0 255
1.57634 1.25308 3.64385 0 0 0 255 255 0 255
1.45243 1.59846 3.7212 0 0 0 255 255 0 255
1.51662 1.42398 3.68198 0 0 0 255 255 0 255
1.3784 1.80893 3.76821 0 0 0 255 255 0 255
1.44931 1.61294 3.72427 0 0 0 255 255 0 255
1.51923 1.41972 3.68094 0 0 0 255 255 0 255
1.48022 1.53048 3.70569 0 0 0 255 255 0 255
1.49786 1.48171 3.69475 0 0 0 255 255 0 255
1.39054 1.78419 3.76241 0 0 0 255 255 0 255
1.58198 1.25513 3.64378 0 0 0 255 255 0 255
1.60961 1.17876 3.62665 0 0 0 255 255 0 255
1.36551 1.8563 3.7785 0 0 0 255 255 0 255
1.36618 1.85446 3.77809 0 0 0 255 255 0 255
1.50767 1.46341 3.6904 0 0 0 255 255 0 255
1.44103 1.65054 3.73228 0 0 0 255 255 0 255
1.51294 1.45179 3.68772 0 0 0 255 255 0 255
1.51893 1.43523 3.68401 0 0 0 255 255 0 255
1.60816 1.18864 3.62871 0 0 0 255 255 0 255
1.39596 1.78095 3.76138 0 0 0 255 255 0 255
1.46388 1.59325 3.71929 0 0 0 255 255 0 255
1.49618 1.504 3.69928 0 0 0 255 255 0 255
1.49951 1.4948 3.69722 0 0 0 255 255 0 255
1.51882 1.44143 3.68525 0 0 0 255 255 0 255
1.57542 1.28501 3.65018 0 0 0 255 255 0 255
1.33625 1.95184 3.79957 0 0 0 255 255 0 255
1.38753 1.81015 3.76779 0 0 0 255 255 0 255
1.47176 1.57736 3.7156 0 0 0 255 255 0 255
1.61925 1.16976 3.6242 0 0 0 255 255 0 255
1.49367 1.51974 3.70261 0 0 0 255 255 0 255
1.50466 1.48937 3.6958 0 0 0 255 255 0 255
1.45666 1.62496 3.72614 0 0 0 255 255 0 255
1.58988 1.27148 3.64662 0 0 0 255 255 0 255
1.41697 1.7552 3.755 0 0 0 255 255 0 255
1.50254 1.51874 3.70197 0 0 0 255 255 0 255
1.59498 1.26914 3.64592 0 0 0 255 255 0 255
1.36753 1.90066 3.7875 0 0 0 255 255 0 255
1.47468 1.60748 3.72172 0 0 0 255 255 0 255
1.60547 1.24897 3.6413 0 0 0 255 255 0 255
1.38789 1.85907 3.77804 0 0 0 255 255 0 255
1.39189 1.84803 3.77556 0 0 0 255 255 0 255
1.41686 1.77902 3.76009 0 0 0 255 255 0 255
1.39083 1.85387 3.77685 0 0 0 255 255 0 255
1.53366 1.45915 3.68834 0 0 0 255 255 0 255
1.4537 1.68306 3.73854 0 0 0 255 255 0 255
1.50003 1.56969 3.71307 0 0 0 255 255 0 255
1.42507 1.77979 3.76018 0 0 0 255 255 0 255
1.49398 1.58933 3.71747 0 0 0 255 255 0 255
1.49393 1.59242 3.71817 0 0 0 255 255 0 255
1.55053 1.436 3.68309 0 0 0 255 255 0 255
1.53749 1.47497 3.69184 0 0 0 255 255 0 255
1.48216 1.63079 3.72678 0 0 0 255 255 0 255
1.65163 1.16246 3.62177 0 0 0 255 255 0 255
1.4365 1.75993 3.75575 0 0 0 255 255 0 255
1.40648 1.84582 3.77502 0 0 0 255 255 0 255
1.40376 1.85626 3.77738 0 0 0 255 255 0 255
1.46202 1.69524 3.74127 0 0 0 255 255 0 255
1.66045 1.14686 3.61831 0 0 0 255 255 0 255
1.63637 1.21927 3.63458 0 0 0 255 255 0 255
1.65396 1.17359 3.62436 0 0 0 255 255 0 255
1.6089 1.30396 3.65365 0 0 0 255 255 0 255
1.65379 1.18282 3.62652 0 0 0 255 255 0 255
1.55818 1.44997 3.68645 0 0 0 255 255 0 255
1.61611 1.28987 3.65055 0 0 0 255 255 0 255
1.65373 1.1859 3.62724 0 0 0 255 255 0 255
1.55346 1.46593 3.69007 0 0 0 255 255 0 255
1.68297 1.10801 3.60981 0 0 0 255 255 0 255
1.61627 1.29818 3.65253 0 0 0 255 255 0 255
1.4857 1.66194 3.73414 0 0 0 255 255 0 255
1.49037 1.64906 3.73126 0 0 0 255 255 0 255
1.51301 1.58649 3.71723 0 0 0 255 255 0 255
1.39442 1.91712 3.79141 0 0 0 255 255 0 255
1.61871 1.30312 3.65383 0 0 0 255 255 0 255
1.50479 1.62087 3.72514 0 0 0 255 255 0 255
1.68224 1.13045 3.61517 0 0 0 255 255 0 255
1.4231 1.85244 3.77718 0 0 0 255 255 0 255
1.48603 1.67854 3.73819 0 0 0 255 255 0 255
1.64284 1.24517 3.64101 0 0 0 255 255 0 255
1.42904 1.83895 3.77422 0 0 0 255 255 0 255
1.63579 1.26756 3.64609 0 0 0 255 255 0 255
1.48086 1.70155 3.74354 0 0 0 255 255 0 255
1.63568 1.2737 3.6476 0 0 0 255 255 0 255
1.42221 1.86656 3.78061 0 0 0 255 255 0 255
1.5187 1.6028 3.72154 0 0 0 255 255 0 255
1.63057 1.29364 3.65222 0 0 0 255 255 0 255
1.46404 1.75676 3.75614 0 0 0 255 255 0 255
1.48901 1.68775 3.74067 0 0 0 255 255 0 255
1.4293 1.85859 3.77913 0 0 0 255 255 0 255
1.52485 1.59452 3.71992 0 0 0 255 255 0 255
1.45515 1.79295 3.76458 0 0 0 255 255 0 255
1.53605 1.56937 3.71445 0 0 0 255 255 0 255
1.56601 1.48656 3.69588 0 0 0 255 255 0 255
1.64892 1.25745 3.6445 0 0 0 255 255 0 255
1.45908 1.78498 3.76288 0 0 0 255 255 0 255
1.51002 1.6442 3.73132 0 0 0 255 255 0 255
1.52001 1.6166 3.72513 0 0 0 255 255 0 255
1.5402 1.5666 3.7141 0 0 0 255 255 0 255
1.65633 1.24855 3.64288 0 0 0 255 255 0 255
1.45751 1.80091 3.76684 0 0 0 255 255 0 255
1.55733 1.52794 3.70573 0 0 0 255 255 0 255
1.65854 1.24823 3.64301 0 0 0 255 255 0 255
1.45872 1.80335 3.76759 0 0 0 255 255 0 255
1.47198 1.76961 3.76013 0 0 0 255 255 0 255
1.46293 1.79751 3.7665 0 0 0 255 255 0 255
1.4612 1.80517 3.76833 0 0 0 255 255 0 255
1.47452 1.76837 3.76007 0 0 0 255 255 0 255
1.59771 1.42793 3.68373 0 0 0 255 255 0 255
1.46813 1.78891 3.76479 0 0 0 255 255 0 255
1.59431 1.44019 3.6866 0 0 0 255 255 0 255
1.65158 1.28193 3.65111 0 0 0 255 255 0 255
1.52667 1.63003 3.72928 0 0 0 255 255 0 255
1.44364 1.86525 3.78227 0 0 0 255 255 0 255
1.66138 1.2635 3.64734 0 0 0 255 255 0 255
1.59806 1.44138 3.68735 0 0 0 255 255 0 255
1.65599 1.28128 3.65145 0 0 0 255 255 0 255
1.51609 1.67078 3.73892 0 0 0 255 255 0 255
1.52502 1.64899 3.73416 0 0 0 255 255 0 255
1.56664 1.53398 3.70837 0 0 0 255 255 0 255
1.65453 1.29107 3.6539 0 0 0 255 255 0 255
1.45637 1.84158 3.77748 0 0 0 255 255 0 255
1.45498 1.84832 3.77913 0 0 0 255 255 0 255
1.47656 1.8059 3.77048 0 0 0 255 255 0 255
1.62638 1.39185 3.67764 0 0 0 255 255 0 255
1.67965 1.24464 3.64463 0 0 0 255 255 0 255
1.45785 1.86047 3.78287 0 0 0 255 255 0 255
1.59135 1.49151 3.70014 0 0 0 255 255 0 255
1.61499 1.42618 3.68549 0 0 0 255 255 0 255
1.52204 1.68594 3.74389 0 0 0 255 255 0 255
1.52789 1.67547 3.74187 0 0 0 255 255 0 255
1.61046 1.44729 3.6907 0 0 0 255 255 0 255
1.47988 1.81101 3.77242 0 0 0 255 255 0 255
1.59941 1.4807 3.69835 0 0 0 255 255 0 255
1.56291 1.59012 3.7234 0 0 0 255 255 0 255
1.60379 1.47999 3.69888 0 0 0 255 255 0 255
1.63376 1.39718 3.68031 0 0 0 255 255 0 255
1.57169 1.57441 3.72041 0 0 0 255 255 0 255
1.54965 1.63817 3.73489 0 0 0 255 255 0 255
1.59293 1.51856 3.70807 0 0 0 255 255 0 255
1.50115 1.78071 3.76741 0 0 0 255 255 0 255
1.56867 1.59696 3.7264 0 0 0 255 255 0 255
1.47604 1.85579 3.78464 0 0 0 255 255 0 255
1.50767 1.76838 3.76504 0 0 0 255 255 0 255
1.63219 1.42426 3.68787 0 0 0 255 255 0 255
1.43901 1.96096 3.80842 0 0 0 255 255 0 255
1.56319 1.61776 3.73146 0 0 0 255 255 0 255
1.73358 1.14971 3.6267 0 0 0 255 255 0 255
1.62316 1.46336 3.69765 0 0 0 255 255 0 255
1.63448 1.43208 3.69064 0 0 0 255 255 0 255
1.60436 1.52095 3.71099 0 0 0 255 255 0 255
1.67827 1.31669 3.66519 0 0 0 255 255 0 255
1.48476 1.8543 3.78596 0 0 0 255 255 0 255
1.51739 1.76413 3.76574 0 0 0 255 255 0 255
1.63476 1.4454 3.6947 0 0 0 255 255 0 255
1.54745 1.68949 3.74966 0 0 0 255 255 0 255
1.52165 1.7664 3.76736 0 0 0 255 255 0 255
1.62953 1.46829 3.70051 0 0 0 255 255 0 255
1.4852 1.87274 3.79167 0 0 0 255 255 0 255
1.49386 1.84882 3.78631 0 0 0 255 255 0 255
1.49586 1.8433 3.78507 0 0 0 255 255 0 255
1.63536 1.45778 3.69862 0 0 0 255 255 0 255
1.64268 1.43754 3.69408 0 0 0 255 255 0 255
1.55462 1.69767 3.75387 0 0 0 255 255 0 255
1.56028 1.68203 3.75036 0 0 0 255 255 0 255
1.58417 1.6188 3.73644 0 0 0 255 255 0 255
1.53514 1.75708 3.7677 0 0 0 255 255 0 255
1.52374 1.79138 3.77565 0 0 0 255 255 0 255
1.59781 1.59223 3.73151 0 0 0 255 255 0 255
1.53513 1.76823 3.77124 0 0 0 255 255 0 255
1.65998 1.42319 3.69387 0 0 0 255 255 0 255
1.51313 1.8401 3.78844 0 0 0 255 255 0 255
1.61092 1.57261 3.72873 0 0 0 255 255 0 255
1.62591 1.5312 3.71945 0 0 0 255 255 0 255
1.51162 1.84981 3.79117 0 0 0 255 255 0 255
1.52693 1.80748 3.78168 0 0 0 255 255 0 255
1.60883 1.58114 3.73093 0 0 0 255 255 0 255
1.65078 1.46521 3.70493 0 0 0 255 255 0 255
1.48822 1.91723 3.80657 0 0 0 255 255 0 255
1.51252 1.85006 3.79151 0 0 0 255 255 0 255
1.57103 1.69114 3.75616 0 0 0 255 255 0 255
1.65526 1.45835 3.70396 0 0 0 255 255 0 255
1.67186 1.42346 3.6973 0 0 0 255 255 0 255
1.48466 1.94357 3.81422 0 0 0 255 255 0 255
1.5062 1.88677 3.80179 0 0 0 255 255 0 255
1.54206 1.7904 3.78048 0 0 0 255 255 0 255
1.66791 1.44261 3.70249 0 0 0 255 255 0 255
1.64617 1.50542 3.71688 0 0 0 255 255 0 255
1.65186 1.49787 3.71612 0 0 0 255 255 0 255
1.67596 1.4367 3.70303 0 0 0 255 255 0 255
1.48575 1.96508 3.82183 0 0 0 255 255 0 255
1.52483 1.86251 3.79948 0 0 0 255 255 0 255
1.55013 1.79258 3.7838 0 0 0 255 255 0 255
1.49499 1.95039 3.81984 0 0 0 255 255 0 255
1.66424 1.48806 3.71684 0 0 0 255 255 0 255
1.49811 1.95525 3.82262 0 0 0 255 255 0 255
1.53096 1.86715 3.80321 0 0 0 255 255 0 255
1.59988 1.67669 3.7605 0 0 0 255 255 0 255
1.53573 1.85933 3.80215 0 0 0 255 255 0 255
1.53873 1.85105 3.80029 0 0 0 255 255 0 255
1.57835 1.74156 3.77574 0 0 0 255 255 0 255
1.61663 1.63575 3.75202 0 0 0 255 255 0 255
1.68688 1.44161 3.70848 0 0 0 255 255 0 255
1.62751 1.60838 3.74623 0 0 0 255 255 0 255
1.67345 1.4814 3.71776 0 0 0 255 255 0 255
1.68411 1.45196 3.71115 0 0 0 255 255 0 255
1.69043 1.43448 3.70723 0 0 0 255 255 0 255
1.69076 1.43356 3.70703 0 0 0 255 255 0 255
1.50454 1.95088 3.82339 0 0 0 255 255 0 255
1.67755 1.47542 3.71713 0 0 0 255 255 0 255
1.68088 1.46622 3.71506 0 0 0 255 255 0 255
1.53427 1.87405 3.80687 0 0 0 255 255 0 255
1.55159 1.8262 3.79615 0 0 0 255 255 0 255
1.57211 1.77215 3.78438 0 0 0 255 255 0 255
1.68764 1.45287 3.71279 0 0 0 255 255 0 255
1.59706 1.71117 3.77181 0 0 0 255 255 0 255
1.54022 1.87356 3.80897 0 0 0 255 255 0 255
1.69104 1.45675 3.71551 0 0 0 255 255 0 255
1.50714 1.96763 3.83044 0 0 0 255 255 0 255
1.69025 1.46157 3.71697 0 0 0 255 255 0 255
1.69479 1.45167 3.71512 0 0 0 255 255 0 255
1.51455 1.95243 3.82779 0 0 0 255 255 0 255
1.68842 1.47717 3.72199 0 0 0 255 255 0 255
1.57477 1.79391 3.79341 0 0 0 255 255 0 255
1.70594 1.43139 3.71212 0 0 0 255 255 0 255
1.56785 1.81826 3.79965 0 0 0 255 255 0 255
1.62878 1.64988 3.7619 0 0 0 255 255 0 255
1.68579 1.49758 3.72854 0 0 0 255 255 0 255
1.64537 1.61188 3.75457 0 0 0 255 255 0 255
1.62033 1.68889 3.77305 0 0 0 255 255 0 255
1.6786 1.52787 3.73695 0 0 0 255 255 0 255
1.57778 1.81168 3.80141 0 0 0 255 255 0 255
1.63505 1.65342 3.76592 0 0 0 255 255 0 255
1.57038 1.8399 3.80899 0 0 0 255 255 0 255
1.66312 1.58616 3.75252 0 0 0 255 255 0 255
1.69875 1.48771 3.73044 0 0 0 255 255 0 255
1.65666 1.60661 3.75753 0 0 0 255 255 0 255
1.66032 1.59649 3.75526 0 0 0 255 255 0 255
1.72857 1.40787 3.71296 0 0 0 255 255 0 255
1.65518 1.61325 3.75944 0 0 0 255 255 0 255
1.6569 1.61366 3.7604 0 0 0 255 255 0 255
1.6461 1.64606 3.7681 0 0 0 255 255 0 255
1.69271 1.51725 3.73921 0 0 0 255 255 0 255
1.69804 1.50253 3.73591 0 0 0 255 255 0 255
1.73118 1.41348 3.71638 0 0 0 255 255 0 255
1.69393 1.52153 3.74149 0 0 0 255 255 0 255
1.73174 1.4196 3.71908 0 0 0 255 255 0 255
1.69497 1.52377 3.74288 0 0 0 255 255 0 255
1.52768 1.98861 3.84757 0 0 0 255 255 0 255
1.58095 1.8414 3.81455 0 0 0 255 255 0 255
1.68101 1.5674 3.75357 0 0 0 255 255 0 255
1.71533 1.47762 3.73434 0 0 0 255 255 0 255
1.64126 1.68484 3.78127 0 0 0 255 255 0 255
1.65724 1.64067 3.77136 0 0 0 255 255 0 255
1.70137 1.52125 3.74504 0 0 0 255 255 0 255
1.69755 1.53432 3.74844 0 0 0 255 255 0 255
1.74118 1.41877 3.72346 0 0 0 255 255 0 255
1.56423 1.91029 3.83415 0 0 0 255 255 0 255
1.66312 1.642 3.77493 0 0 0 255 255 0 255
1.67061 1.62378 3.77132 0 0 0 255 255 0 255
1.5932 1.84019 3.82033 0 0 0 255 255 0 255
1.61768 1.77505 3.8062 0 0 0 255 255 0 255
1.61152 1.79455 3.81106 0 0 0 255 255 0 255
1.59969 1.8297 3.81943 0 0 0 255 255 0 255
1.69092 1.57759 3.7629 0 0 0 255 255 0 255
1.60335 1.82454 3.81925 0 0 0 255 255 0 255
1.6473 1.70308 3.79202 0 0 0 255 255 0 255
1.69687 1.5759 3.76548 0 0 0 255 255 0 255
1.68904 1.6 3.77139 0 0 0 255 255 0 255
1.69403 1.5862 3.76829 0 0 0 255 255 0 255
1.67554 1.63974 3.7808 0 0 0 255 255 0 255
1.68287 1.6195 3.77626 0 0 0 255 255 0 255
1.61644 1.80553 3.81849 0 0 0 255 255 0 255
1.66353 1.67781 3.79036 0 0 0 255 255 0 255
1.70382 1.56648 3.76539 0 0 0 255 255 0 255
1.69498 1.59334 3.77192 0 0 0 255 255 0 255
1.68647 1.61927 3.77825 0 0 0 255 255 0 255
1.7161 1.53738 3.75989 0 0 0 255 255 0 255
1.67064 1.66545 3.78912 0 0 0 255 255 0 255
1.55974 1.97678 3.85997 0 0 0 255 255 0 255
1.60568 1.8498 3.8315 0 0 0 255 255 0 255
1.55921 1.98063 3.86136 0 0 0 255 255 0 255
1.61729 1.82254 3.82644 0 0 0 255 255 0 255
1.69686 1.60263 3.77712 0 0 0 255 255 0 255
1.61613 1.84008 3.83357 0 0 0 255 255 0 255
1.63244 1.795 3.82346 0 0 0 255 255 0 255
1.71495 1.57173 3.77448 0 0 0 255 255 0 255
1.68704 1.65593 3.795 0 0 0 255 255 0 255
1.64993 1.76789 3.82232 0 0 0 255 255 0 255
1.61467 1.87231 3.84743 0 0 0 255 255 0 255
1.6602 1.75804 3.82466 0 0 0 255 255 0 255
1.67752 1.71706 3.81721 0 0 0 255 255 0 255
1.64011 1.825 3.84259 0 0 0 255 255 0 255
1.66396 1.76363 3.83 0 0 0 255 255 0 255
1.63942 1.8337 3.84631 0 0 0 255 255 0 255
1.6618 1.78088 3.83686 0 0 0 255 255 0 255
1.61471 1.91548 3.86825 0 0 0 255 255 0 255
1.6129 1.92494 3.87159 0 0 0 255 255 0 255
1.64821 1.8362 3.85415 0 0 0 255 255 0 255
1.6087 1.96716 3.88982 0 0 0 255 255 0 255
1.78609 1.48548 3.78439 0 0 0 255 255 0 255
1.61188 1.97542 3.89686 0 0 0 255 255 0 255
1.63863 1.90571 3.88254 0 0 0 255 255 0 255
1.77464 1.55259 3.81075 0 0 0 255 255 0 255
1.61893 1.98901 3.91067 0 0 0 255 255 0 255
1.62551 1.99082 3.91805 0 0 0 255 255 0 255
1.63756 1.96922 3.91749 0 0 0 255 255 0 255
1.66886 1.88273 3.89809 0 0 0 255 255 0 255
1.64589 1.95388 3.91694 0 0 0 255 255 0 255
1.71747 1.7618 3.87605 0 0 0 255 255 0 255
1.64588 1.96153 3.92157 0 0 0 255 255 0 255
1.72078 1.75642 3.87631 0 0 0 255 255 0 255
1.79368 1.55683 3.83229 0 0 0 255 255 0 255
1.67848 1.87709 3.90485 0 0 0 255 255 0 255
1.67014 1.902 3.91117 0 0 0 255 255 0 255
1.66372 1.929 3.92095 0 0 0 255 255 0 255
1.73028 1.74688 3.88087 0 0 0 255 255 0 255
1.66022 1.94959 3.9301 0 0 0 255 255 0 255
1.67686 1.90359 3.91979 0 0 0 255 255 0 255
1.68666 1.88545 3.91955 0 0 0 255 255 0 255
1.73631 1.75876 3.89578 0 0 0 255 255 0 255
1.67161 1.94103 3.93822 0 0 0 255 255 0 255
1.66949 1.95031 3.94187 0 0 0 255 255 0 255
1.67282 1.94111 3.93981 0 0 0 255 255 0 255
1.66604 2.00069 3.97334 0 0 0 255 255 0 255
1.70273 1.91153 3.96001 0 0 0 255 255 0 255
1.69655 1.93456 3.96855 0 0 0 255 255 0 255
1.69462 1.94284 3.9721 0 0 0 255 255 0 255
1.75698 1.7763 3.93816 0 0 0 255 255 0 255
1.87127 1.46895 3.87439 0 0 0 255 255 0 255
1.77291 1.74769 3.94122 0 0 0 255 255 0 255
1.85132 1.53237 3.89381 0 0 0 255 255 0 255
1.73837 1.85517 3.97321 0 0 0 255 255 0 255
1.68774 2.00405 4.01279 0 0 0 255 255 0 255
1.74427 1.85033 3.98011 0 0 0 255 255 0 255
1.76471 1.79509 3.96862 0 0 0 255 255 0 255
1.75152 1.84702 3.992 0 0 0 255 255 0 255
1.75761 1.84972 4.0092 0 0 0 255 255 0 255
1.89933 1.46209 3.92601 0 0 0 255 255 0 255
1.77752 1.7997 4.00265 0 0 0 255 255 0 255
1.78095 1.7922 4.00285 0 0 0 255 255 0 255
1.91967 1.41452 3.92381 0 0 0 255 255 0 255
1.76806 1.84331 4.03042 0 0 0 255 255 0 255
1.78662 1.80894 4.04397 0 0 0 255 255 0 255
1.80077 1.78107 4.05541 0 0 0 255 255 0 255
1.76679 1.88697 4.10508 0 0 0 255 255 0 255
1.78849 1.83081 4.10458 0 0 0 255 255 0 255
1.90817 1.50033 4.03148 0 0 0 255 255 0 255
1.77303 1.87549 4.1227 0 0 0 255 255 0 255
1.79724 1.80988 4.11509 0 0 0 255 255 0 255
1.76542 1.89936 4.14941 0 0 0 255 255 0 255
