ply
format ascii 1.0
comment VCGLIB generated
element vertex 497
property float x
property float y
property float z
property float nx
property float ny
property float nz
property uchar red
property uchar green
property uchar blue
property uchar alpha
element face 0
property list uchar int vertex_indices
end_header
0.732522 0.131 4.27929 0 0 0 128 0 128 255
0.724026 0.133739 4.27985 0 0 0 128 0 128 255
0.542295 0.11166 4.28054 0 0 0 128 0 128 255
0.726927 0.148189 4.28179 0 0 0 128 0 128 255
0.548456 0.124593 4.28221 0 0 0 128 0 128 255
0.712756 0.155088 4.28304 0 0 0 128 0 128 255
0.715577 0.15651 4.28318 0 0 0 128 0 128 255
0.551357 0.139043 4.28415 0 0 0 128 0 128 255
0.580041 0.143318 4.28415 0 0 0 128 0 128 255
0.574511 0.146499 4.28471 0 0 0 128 0 128 255
0.688773 0.173541 4.2861 0 0 0 128 0 128 255
0.5743 0.161486 4.28679 0 0 0 128 0 128 255
1.71696 0.363826 4.29124 0 0 0 128 0 128 255
1.70875 0.364606 4.29152 0 0 0 128 0 128 255
1.697 0.368861 4.29235 0 0 0 128 0 128 255
1.68795 0.368514 4.29249 0 0 0 128 0 128 255
0.979624 0.263947 4.29263 0 0 0 128 0 128 255
1.02919 0.277342 4.29346 0 0 0 128 0 128 255
1.04007 0.278964 4.29346 0 0 0 128 0 128 255
1.55622 0.356892 4.2936 0 0 0 128 0 128 255
0.517547 0.20309 4.29374 0 0 0 128 0 128 255
1.04301 0.28641 4.29443 0 0 0 128 0 128 255
0.489674 0.206946 4.29485 0 0 0 128 0 128 255
1.57355 0.369487 4.29499 0 0 0 128 0 128 255
0.954102 0.279167 4.29527 0 0 0 128 0 128 255
1.25958 0.325697 4.2954 0 0 0 128 0 128 255
1.28288 0.332173 4.29582 0 0 0 128 0 128 255
1.28457 0.334427 4.2961 0 0 0 128 0 128 255
0.481842 0.218795 4.29665 0 0 0 128 0 128 255
1.1106 0.314507 4.29693 0 0 0 128 0 128 255
1.16526 0.327659 4.29763 0 0 0 128 0 128 255
1.60837 0.393699 4.29763 0 0 0 128 0 128 255
1.09727 0.322533 4.29832 0 0 0 128 0 128 255
1.2664 0.34774 4.29832 0 0 0 128 0 128 255
1.62445 0.401103 4.29832 0 0 0 128 0 128 255
1.2093 0.344235 4.29902 0 0 0 128 0 128 255
1.10006 0.330958 4.29943 0 0 0 128 0 128 255
1.07618 0.3284 4.29957 0 0 0 128 0 128 255
1.26707 0.35685 4.29957 0 0 0 128 0 128 255
1.21846 0.350607 4.29971 0 0 0 128 0 128 255
1.62695 0.411487 4.29971 0 0 0 128 0 128 255
1.10853 0.335224 4.29985 0 0 0 128 0 128 255
1.18963 0.347311 4.29985 0 0 0 128 0 128 255
1.26084 0.357925 4.29985 0 0 0 128 0 128 255
1.27667 0.360283 4.29985 0 0 0 128 0 128 255
1.1064 0.335908 4.29999 0 0 0 128 0 128 255
1.61874 0.412267 4.29999 0 0 0 128 0 128 255
1.56588 0.407393 4.3004 0 0 0 128 0 128 255
1.20132 0.357063 4.30096 0 0 0 128 0 128 255
1.21616 0.359275 4.30096 0 0 0 128 0 128 255
1.68696 0.429442 4.30096 0 0 0 128 0 128 255
1.68666 0.431401 4.30124 0 0 0 128 0 128 255
1.68256 0.431791 4.30138 0 0 0 128 0 128 255
1.68538 0.433212 4.30152 0 0 0 128 0 128 255
1.10366 0.347515 4.30165 0 0 0 128 0 128 255
1.6882 0.434634 4.30165 0 0 0 128 0 128 255
0.943105 0.332597 4.3029 0 0 0 128 0 128 255
1.09513 0.357257 4.30318 0 0 0 128 0 128 255
0.995931 0.344475 4.30346 0 0 0 128 0 128 255
1.1392 0.366829 4.3036 0 0 0 128 0 128 255
1.47336 0.417633 4.30374 0 0 0 128 0 128 255
1.27738 0.389426 4.30388 0 0 0 128 0 128 255
1.4937 0.423667 4.30415 0 0 0 128 0 128 255
1.4397 0.419625 4.30471 0 0 0 128 0 128 255
0.9785 0.352891 4.30499 0 0 0 128 0 128 255
1.22152 0.391113 4.30526 0 0 0 128 0 128 255
1.29076 0.401432 4.30526 0 0 0 128 0 128 255
1.15199 0.382753 4.30554 0 0 0 128 0 128 255
0.948795 0.355473 4.30596 0 0 0 128 0 128 255
1.05448 0.372225 4.3061 0 0 0 128 0 128 255
1.2335 0.398906 4.3061 0 0 0 128 0 128 255
1.18445 0.395601 4.30665 0 0 0 128 0 128 255
1.08837 0.382282 4.30679 0 0 0 128 0 128 255
1.2308 0.403509 4.30679 0 0 0 128 0 128 255
1.27714 0.411417 4.30693 0 0 0 128 0 128 255
1.28604 0.412743 4.30693 0 0 0 128 0 128 255
1.21241 0.404773 4.30735 0 0 0 128 0 128 255
1.17962 0.400888 4.30749 0 0 0 128 0 128 255
1.21197 0.407712 4.30777 0 0 0 128 0 128 255
1.23457 0.412082 4.3079 0 0 0 128 0 128 255
1.08691 0.392077 4.30818 0 0 0 128 0 128 255
0.949281 0.372566 4.30832 0 0 0 128 0 128 255
1.15501 0.403227 4.30832 0 0 0 128 0 128 255
1.09461 0.408243 4.31027 0 0 0 128 0 128 255
1.08329 0.40956 4.31068 0 0 0 128 0 128 255
1.04666 0.41111 4.31165 0 0 0 128 0 128 255
0.967391 0.400296 4.31179 0 0 0 128 0 128 255
1.36258 0.462199 4.31221 0 0 0 128 0 128 255
1.34661 0.46082 4.31235 0 0 0 128 0 128 255
1.32372 0.458409 4.31249 0 0 0 128 0 128 255
1.32343 0.460368 4.31276 0 0 0 128 0 128 255
0.493752 0.362747 4.31638 0 0 0 128 0 128 255
1.32824 0.48912 4.31665 0 0 0 128 0 128 255
1.18846 0.477298 4.3179 0 0 0 128 0 128 255
1.19142 0.477741 4.3179 0 0 0 128 0 128 255
1.21443 0.486176 4.3186 0 0 0 128 0 128 255
1.16172 0.480322 4.31888 0 0 0 128 0 128 255
0.440389 0.374819 4.31915 0 0 0 128 0 128 255
1.15732 0.482671 4.31929 0 0 0 128 0 128 255
1.15421 0.483208 4.31943 0 0 0 128 0 128 255
1.17158 0.4888 4.31985 0 0 0 128 0 128 255
0.454058 0.384866 4.32026 0 0 0 128 0 128 255
0.505198 0.39449 4.32054 0 0 0 128 0 128 255
1.06501 0.477925 4.32054 0 0 0 128 0 128 255
1.15755 0.49472 4.32096 0 0 0 128 0 128 255
1.15854 0.494867 4.32096 0 0 0 128 0 128 255
1.07191 0.48596 4.32151 0 0 0 128 0 128 255
0.452598 0.394661 4.32165 0 0 0 128 0 128 255
1.07923 0.491058 4.32207 0 0 0 128 0 128 255
1.04883 0.491533 4.32276 0 0 0 128 0 128 255
1.05773 0.492859 4.32276 0 0 0 128 0 128 255
1.05532 0.495503 4.32318 0 0 0 128 0 128 255
1.25808 0.525722 4.32318 0 0 0 128 0 128 255
1.06605 0.498104 4.32332 0 0 0 128 0 128 255
1.06195 0.498494 4.32346 0 0 0 128 0 128 255
0.481912 0.41505 4.32388 0 0 0 128 0 128 255
1.27812 0.533715 4.32388 0 0 0 128 0 128 255
0.525286 0.422515 4.32401 0 0 0 128 0 128 255
1.15024 0.516658 4.32415 0 0 0 128 0 128 255
1.26497 0.533758 4.32415 0 0 0 128 0 128 255
1.28658 0.53798 4.32429 0 0 0 128 0 128 255
0.507596 0.425886 4.32485 0 0 0 128 0 128 255
1.19259 0.53098 4.32526 0 0 0 128 0 128 255
1.08405 0.51981 4.32596 0 0 0 128 0 128 255
1.19212 0.540923 4.32665 0 0 0 128 0 128 255
1.20087 0.543229 4.32679 0 0 0 128 0 128 255
0.508227 0.442001 4.32707 0 0 0 128 0 128 255
1.24904 0.552411 4.32707 0 0 0 128 0 128 255
1.27956 0.55796 4.32721 0 0 0 128 0 128 255
1.24069 0.55417 4.32749 0 0 0 128 0 128 255
0.443207 0.437316 4.32776 0 0 0 128 0 128 255
1.09105 0.53387 4.32776 0 0 0 128 0 128 255
0.507059 0.449836 4.32818 0 0 0 128 0 128 255
1.2093 0.554498 4.32818 0 0 0 128 0 128 255
1.25154 0.562795 4.32846 0 0 0 128 0 128 255
0.445996 0.445742 4.32888 0 0 0 128 0 128 255
0.446693 0.447848 4.32915 0 0 0 128 0 128 255
0.447795 0.45402 4.32999 0 0 0 128 0 128 255
1.11696 0.556755 4.3304 0 0 0 128 0 128 255
1.27957 0.584996 4.33096 0 0 0 128 0 128 255
1.12019 0.562242 4.3311 0 0 0 128 0 128 255
1.09656 0.564729 4.33193 0 0 0 128 0 128 255
1.10235 0.566593 4.33207 0 0 0 128 0 128 255
1.26706 0.601153 4.33346 0 0 0 128 0 128 255
1.10045 0.579326 4.33387 0 0 0 128 0 128 255
1.19823 0.594899 4.33401 0 0 0 128 0 128 255
1.25658 0.603597 4.33401 0 0 0 128 0 128 255
1.19819 0.601903 4.33499 0 0 0 128 0 128 255
1.1083 0.594513 4.33582 0 0 0 128 0 128 255
1.1042 0.594903 4.33596 0 0 0 128 0 128 255
1.21102 0.610823 4.33596 0 0 0 128 0 128 255
1.12482 0.598978 4.3361 0 0 0 128 0 128 255
0.476085 0.542341 4.34165 0 0 0 128 0 128 255
0.472873 0.56389 4.34471 0 0 0 128 0 128 255
0.464862 0.583722 4.34762 0 0 0 128 0 128 255
1.1411 0.68651 4.3479 0 0 0 128 0 128 255
1.137 0.6869 4.34804 0 0 0 128 0 128 255
0.48406 0.590588 4.34818 0 0 0 128 0 128 255
0.479958 0.590978 4.34832 0 0 0 128 0 128 255
1.26034 0.707285 4.34832 0 0 0 128 0 128 255
0.49421 0.597107 4.34887 0 0 0 128 0 128 255
1.24789 0.709434 4.34887 0 0 0 128 0 128 255
0.514688 0.602162 4.34915 0 0 0 128 0 128 255
0.512564 0.602846 4.34929 0 0 0 128 0 128 255
1.21294 0.713237 4.35012 0 0 0 128 0 128 255
1.13789 0.708058 4.35096 0 0 0 128 0 128 255
1.17547 0.71366 4.35096 0 0 0 128 0 128 255
1.15738 0.712966 4.35123 0 0 0 128 0 128 255
0.468801 0.618351 4.35235 0 0 0 128 0 128 255
1.08598 0.710335 4.35235 0 0 0 128 0 128 255
0.991876 0.697311 4.35249 0 0 0 128 0 128 255
1.04232 0.704829 4.35249 0 0 0 128 0 128 255
1.27079 0.738881 4.35249 0 0 0 128 0 128 255
1.02239 0.70286 4.35262 0 0 0 128 0 128 255
1.20834 0.730573 4.35262 0 0 0 128 0 128 255
1.08738 0.714548 4.3529 0 0 0 128 0 128 255
1.10207 0.717739 4.35304 0 0 0 128 0 128 255
0.945648 0.695428 4.35318 0 0 0 128 0 128 255
0.931655 0.694343 4.35332 0 0 0 128 0 128 255
1.04045 0.710558 4.35332 0 0 0 128 0 128 255
1.09372 0.719498 4.35346 0 0 0 128 0 128 255
1.13116 0.726079 4.3536 0 0 0 128 0 128 255
1.17566 0.732713 4.3536 0 0 0 128 0 128 255
1.00144 0.707748 4.35373 0 0 0 128 0 128 255
1.06573 0.71733 4.35373 0 0 0 128 0 128 255
0.931914 0.699388 4.35401 0 0 0 128 0 128 255
1.0417 0.715751 4.35401 0 0 0 128 0 128 255
1.01031 0.716078 4.35471 0 0 0 128 0 128 255
0.934703 0.707814 4.35512 0 0 0 128 0 128 255
1.17292 0.744319 4.35526 0 0 0 128 0 128 255
0.94628 0.711542 4.3554 0 0 0 128 0 128 255
1.00958 0.720976 4.3554 0 0 0 128 0 128 255
1.21699 0.753891 4.35568 0 0 0 128 0 128 255
0.928038 0.711827 4.35582 0 0 0 128 0 128 255
0.992036 0.723367 4.3561 0 0 0 128 0 128 255
1.1223 0.744784 4.35637 0 0 0 128 0 128 255
1.15974 0.751366 4.35651 0 0 0 128 0 128 255
0.941999 0.719915 4.35665 0 0 0 128 0 128 255
0.924049 0.718241 4.35679 0 0 0 128 0 128 255
1.04472 0.736225 4.35679 0 0 0 128 0 128 255
1.07439 0.740647 4.35679 0 0 0 128 0 128 255
0.925735 0.720495 4.35707 0 0 0 128 0 128 255
0.949035 0.726971 4.35748 0 0 0 128 0 128 255
0.983653 0.73213 4.35748 0 0 0 128 0 128 255
1.03014 0.739059 4.35748 0 0 0 128 0 128 255
0.92387 0.726224 4.3579 0 0 0 128 0 128 255
0.965412 0.732415 4.3579 0 0 0 128 0 128 255
0.992117 0.736396 4.3579 0 0 0 128 0 128 255
0.966255 0.733542 4.35804 0 0 0 128 0 128 255
0.192214 0.622185 4.3586 0 0 0 128 0 128 255
0.204083 0.623954 4.3586 0 0 0 128 0 128 255
0.198553 0.627135 4.35915 0 0 0 128 0 128 255
0.674153 0.699019 4.35929 0 0 0 128 0 128 255
0.741571 0.735099 4.3629 0 0 0 128 0 128 255
0.41503 0.687433 4.36304 0 0 0 128 0 128 255
0.723329 0.735385 4.36332 0 0 0 128 0 128 255
0.665671 0.728794 4.3636 0 0 0 128 0 128 255
1.25414 0.823507 4.36457 0 0 0 128 0 128 255
0.729782 0.746359 4.36471 0 0 0 128 0 128 255
1.1863 0.817401 4.36512 0 0 0 128 0 128 255
1.2407 0.825508 4.36512 0 0 0 128 0 128 255
0.748834 0.754204 4.3654 0 0 0 128 0 128 255
0.702606 0.752321 4.3661 0 0 0 128 0 128 255
0.723377 0.755417 4.3661 0 0 0 128 0 128 255
1.25748 0.835018 4.3661 0 0 0 128 0 128 255
1.13963 0.818456 4.36623 0 0 0 128 0 128 255
1.1385 0.819288 4.36637 0 0 0 128 0 128 255
0.736494 0.762378 4.36679 0 0 0 128 0 128 255
0.0509187 0.661202 4.36693 0 0 0 128 0 128 255
1.04197 0.808907 4.36693 0 0 0 128 0 128 255
1.06868 0.812887 4.36693 0 0 0 128 0 128 255
0.659897 0.753966 4.36721 0 0 0 128 0 128 255
1.21843 0.839211 4.36748 0 0 0 128 0 128 255
0.677117 0.760537 4.36776 0 0 0 128 0 128 255
1.04307 0.815079 4.36776 0 0 0 128 0 128 255
1.16557 0.834337 4.3679 0 0 0 128 0 128 255
1.16854 0.834779 4.3679 0 0 0 128 0 128 255
0.706497 0.766918 4.36804 0 0 0 128 0 128 255
0.106971 0.678567 4.36818 0 0 0 128 0 128 255
1.24639 0.848384 4.36818 0 0 0 128 0 128 255
0.710161 0.769467 4.36832 0 0 0 128 0 128 255
1.21459 0.844646 4.36832 0 0 0 128 0 128 255
0.995858 0.813048 4.36846 0 0 0 128 0 128 255
1.0641 0.823219 4.36846 0 0 0 128 0 128 255
0.994431 0.815839 4.36887 0 0 0 128 0 128 255
0.0991718 0.683412 4.36901 0 0 0 128 0 128 255
0.0629811 0.682023 4.36957 0 0 0 128 0 128 255
0.675073 0.77425 4.36971 0 0 0 128 0 128 255
1.07169 0.833361 4.36971 0 0 0 128 0 128 255
0.68185 0.776261 4.36985 0 0 0 128 0 128 255
0.710534 0.780536 4.36985 0 0 0 128 0 128 255
1.02308 0.827118 4.36985 0 0 0 128 0 128 255
1.11704 0.841122 4.36985 0 0 0 128 0 128 255
0.085292 0.688352 4.36998 0 0 0 128 0 128 255
1.02491 0.828392 4.36998 0 0 0 128 0 128 255
1.04173 0.830898 4.36998 0 0 0 128 0 128 255
1.19108 0.853157 4.36998 0 0 0 128 0 128 255
0.731012 0.785591 4.37012 0 0 0 128 0 128 255
0.992825 0.826613 4.3704 0 0 0 128 0 128 255
0.0520685 0.687406 4.37054 0 0 0 128 0 128 255
0.715738 0.786318 4.37054 0 0 0 128 0 128 255
0.914396 0.816927 4.37068 0 0 0 128 0 128 255
1.01118 0.832353 4.37082 0 0 0 128 0 128 255
1.07052 0.841197 4.37082 0 0 0 128 0 128 255
1.08536 0.843408 4.37082 0 0 0 128 0 128 255
0.7153 0.789257 4.37096 0 0 0 128 0 128 255
0.962569 0.826109 4.37096 0 0 0 128 0 128 255
0.517193 0.761733 4.37123 0 0 0 128 0 128 255
1.03745 0.839271 4.37123 0 0 0 128 0 128 255
0.877768 0.818477 4.37165 0 0 0 128 0 128 255
0.704534 0.793659 4.37179 0 0 0 128 0 128 255
0.970595 0.833313 4.37179 0 0 0 128 0 128 255
1.02499 0.84142 4.37179 0 0 0 128 0 128 255
1.09819 0.852329 4.37179 0 0 0 128 0 128 255
0.092993 0.704519 4.37207 0 0 0 128 0 128 255
0.727834 0.800136 4.37221 0 0 0 128 0 128 255
0.874217 0.821952 4.37221 0 0 0 128 0 128 255
0.996862 0.840231 4.37221 0 0 0 128 0 128 255
0.706917 0.79802 4.37234 0 0 0 128 0 128 255
0.710873 0.798609 4.37234 0 0 0 128 0 128 255
0.971989 0.837525 4.37234 0 0 0 128 0 128 255
0.710727 0.799589 4.37248 0 0 0 128 0 128 255
0.88268 0.826218 4.37262 0 0 0 128 0 128 255
0.919276 0.831672 4.37262 0 0 0 128 0 128 255
0.96265 0.839137 4.37276 0 0 0 128 0 128 255
0.872498 0.826702 4.3729 0 0 0 128 0 128 255
0.92067 0.835885 4.37318 0 0 0 128 0 128 255
0.985949 0.845614 4.37318 0 0 0 128 0 128 255
0.0547915 0.709839 4.3736 0 0 0 128 0 128 255
0.875724 0.83219 4.3736 0 0 0 128 0 128 255
0.0526673 0.710524 4.37373 0 0 0 128 0 128 255
0.525299 0.781965 4.37387 0 0 0 128 0 128 255
0.696961 0.810553 4.37429 0 0 0 128 0 128 255
0.708246 0.81624 4.37485 0 0 0 128 0 128 255
0.717001 0.818546 4.37498 0 0 0 128 0 128 255
0.741144 0.826149 4.37554 0 0 0 128 0 128 255
0.509555 0.792635 4.37568 0 0 0 128 0 128 255
0.708359 0.822264 4.37568 0 0 0 128 0 128 255
-0.0539593 0.713656 4.37637 0 0 0 128 0 128 255
0.0469084 0.762731 4.38109 0 0 0 128 0 128 255
0.881104 0.891064 4.38165 0 0 0 128 0 128 255
0.537716 0.847896 4.38276 0 0 0 128 0 128 255
0.247625 0.806663 4.38304 0 0 0 128 0 128 255
0.8621 0.90325 4.38373 0 0 0 128 0 128 255
0.894594 0.909094 4.38387 0 0 0 128 0 128 255
0.928773 0.917192 4.38429 0 0 0 128 0 128 255
0.887086 0.91198 4.38443 0 0 0 128 0 128 255
0.959289 0.922741 4.38443 0 0 0 128 0 128 255
0.883973 0.912517 4.38457 0 0 0 128 0 128 255
0.916467 0.918361 4.38471 0 0 0 128 0 128 255
0.921412 0.919098 4.38471 0 0 0 128 0 128 255
0.954051 0.923963 4.38471 0 0 0 128 0 128 255
0.923065 0.928356 4.38596 0 0 0 128 0 128 255
-0.0757878 0.785496 4.38679 0 0 0 128 0 128 255
1.00913 0.968217 4.38971 0 0 0 128 0 128 255
0.891284 0.951654 4.38984 0 0 0 128 0 128 255
0.931916 0.970726 4.39165 0 0 0 128 0 128 255
0.93811 0.976656 4.39234 0 0 0 128 0 128 255
0.933862 0.978025 4.39262 0 0 0 128 0 128 255
0.560834 0.923431 4.39276 0 0 0 128 0 128 255
0.899941 0.974972 4.3929 0 0 0 128 0 128 255
0.932289 0.981796 4.39318 0 0 0 128 0 128 255
0.933942 0.991053 4.39443 0 0 0 128 0 128 255
0.894832 1.00925 4.39776 0 0 0 128 0 128 255
0.90769 1.01117 4.39776 0 0 0 128 0 128 255
0.913332 1.01401 4.39804 0 0 0 128 0 128 255
0.898171 1.02077 4.39929 0 0 0 128 0 128 255
0.96525 1.03877 4.4004 0 0 0 128 0 128 255
0.407265 0.956613 4.40054 0 0 0 128 0 128 255
0.898836 1.02988 4.40054 0 0 0 128 0 128 255
0.518885 0.97425 4.40068 0 0 0 128 0 128 255
0.798793 1.01597 4.40068 0 0 0 128 0 128 255
0.891766 1.02982 4.40068 0 0 0 128 0 128 255
-0.124161 0.879413 4.40082 0 0 0 128 0 128 255
0.408659 0.960826 4.40109 0 0 0 128 0 128 255
0.810775 1.02376 4.40151 0 0 0 128 0 128 255
0.929172 1.04341 4.40179 0 0 0 128 0 128 255
1.11003 1.07136 4.40193 0 0 0 128 0 128 255
0.822319 1.03449 4.40276 0 0 0 128 0 128 255
0.118729 0.94565 4.40498 0 0 0 128 0 128 255
0.825447 1.06099 4.40637 0 0 0 128 0 128 255
0.795045 1.06147 4.40707 0 0 0 128 0 128 255
0.825674 1.07304 4.40804 0 0 0 128 0 128 255
0.799812 1.07019 4.40818 0 0 0 128 0 128 255
0.830473 1.07476 4.40818 0 0 0 128 0 128 255
0.825236 1.07598 4.40845 0 0 0 128 0 128 255
0.828754 1.07951 4.40887 0 0 0 128 0 128 255
1.07192 1.11675 4.40901 0 0 0 128 0 128 255
0.405138 1.01837 4.40915 0 0 0 128 0 128 255
0.827473 1.08132 4.40915 0 0 0 128 0 128 255
1.25432 1.14794 4.40957 0 0 0 128 0 128 255
1.2423 1.14715 4.4097 0 0 0 128 0 128 255
0.832677 1.0871 4.40984 0 0 0 128 0 128 255
1.04222 1.11933 4.40998 0 0 0 128 0 128 255
1.06299 1.12243 4.40998 0 0 0 128 0 128 255
0.410747 1.02822 4.4104 0 0 0 128 0 128 255
1.09021 1.1365 4.41137 0 0 0 128 0 128 255
0.122748 0.993307 4.41151 0 0 0 128 0 128 255
1.07124 1.14168 4.41248 0 0 0 128 0 128 255
0.965115 1.12786 4.41276 0 0 0 128 0 128 255
1.05413 1.14113 4.41276 0 0 0 128 0 128 255
1.14044 1.159 4.41345 0 0 0 128 0 128 255
1.20048 1.16995 4.41373 0 0 0 128 0 128 255
0.834087 1.11835 4.41415 0 0 0 128 0 128 255
1.01436 1.15022 4.41484 0 0 0 128 0 128 255
1.15085 1.17056 4.41484 0 0 0 128 0 128 255
0.835528 1.14259 4.41748 0 0 0 128 0 128 255
0.840441 1.15033 4.41845 0 0 0 128 0 128 255
1.0073 1.17721 4.41873 0 0 0 128 0 128 255
1.05548 1.18639 4.41901 0 0 0 128 0 128 255
0.957685 1.20485 4.42359 0 0 0 128 0 128 255
-0.050475 1.0566 4.42387 0 0 0 128 0 128 255
0.728625 1.17472 4.42415 0 0 0 128 0 128 255
1.20492 1.24871 4.42456 0 0 0 128 0 128 255
0.737785 1.18109 4.42484 0 0 0 128 0 128 255
1.20815 1.2542 4.42526 0 0 0 128 0 128 255
-0.0520808 1.06738 4.4254 0 0 0 128 0 128 255
0.741158 1.1856 4.4254 0 0 0 128 0 128 255
0.902377 1.20963 4.4254 0 0 0 128 0 128 255
-0.112155 1.06343 4.42609 0 0 0 128 0 128 255
0.932422 1.22512 4.42693 0 0 0 128 0 128 255
1.16922 1.26441 4.42748 0 0 0 128 0 128 255
-0.0970927 1.07769 4.42776 0 0 0 128 0 128 255
-0.0460987 1.08829 4.42818 0 0 0 128 0 128 255
-0.153211 1.07433 4.42845 0 0 0 128 0 128 255
1.15516 1.27734 4.42956 0 0 0 128 0 128 255
1.15868 1.28087 4.42998 0 0 0 128 0 128 255
1.025 1.26195 4.43012 0 0 0 128 0 128 255
1.01622 1.26664 4.43095 0 0 0 128 0 128 255
0.990354 1.26379 4.43109 0 0 0 128 0 128 255
1.02904 1.27556 4.43193 0 0 0 128 0 128 255
1.0101 1.27374 4.43206 0 0 0 128 0 128 255
1.04047 1.28027 4.43234 0 0 0 128 0 128 255
1.1925 1.30493 4.43262 0 0 0 128 0 128 255
0.998201 1.27898 4.43304 0 0 0 128 0 128 255
1.02956 1.28565 4.43331 0 0 0 128 0 128 255
1.18964 1.31051 4.43345 0 0 0 128 0 128 255
1.03308 1.28918 4.43373 0 0 0 128 0 128 255
1.10019 1.30018 4.43387 0 0 0 128 0 128 255
1.09719 1.30675 4.43484 0 0 0 128 0 128 255
1.04712 1.3103 4.43637 0 0 0 128 0 128 255
1.1391 1.32401 4.43637 0 0 0 128 0 128 255
1.13526 1.32944 4.4372 0 0 0 128 0 128 255
0.51647 1.24823 4.43873 0 0 0 128 0 128 255
1.11172 1.34496 4.43984 0 0 0 128 0 128 255
0.500175 1.25582 4.44012 0 0 0 128 0 128 255
1.10982 1.35769 4.44165 0 0 0 128 0 128 255
0.0798978 1.20619 4.44193 0 0 0 128 0 128 255
1.11348 1.36024 4.44193 0 0 0 128 0 128 255
1.11327 1.37523 4.44401 0 0 0 128 0 128 255
1.17599 1.38858 4.44456 0 0 0 128 0 128 255
1.10448 1.37992 4.44484 0 0 0 128 0 128 255
1.1162 1.38267 4.44498 0 0 0 128 0 128 255
1.11265 1.38615 4.44554 0 0 0 128 0 128 255
1.04822 1.37754 4.44567 0 0 0 128 0 128 255
1.08196 1.38858 4.44651 0 0 0 128 0 128 255
1.03983 1.38631 4.44706 0 0 0 128 0 128 255
1.13054 1.40183 4.44734 0 0 0 128 0 128 255
1.01553 1.41372 4.45137 0 0 0 128 0 128 255
1.02795 1.41858 4.45179 0 0 0 128 0 128 255
0.505131 1.34466 4.45234 0 0 0 128 0 128 255
1.00165 1.41866 4.45234 0 0 0 128 0 128 255
0.98733 1.42654 4.45373 0 0 0 128 0 128 255
0.959311 1.43138 4.45498 0 0 0 128 0 128 255
0.973709 1.43653 4.4554 0 0 0 128 0 128 255
0.957446 1.43711 4.45581 0 0 0 128 0 128 255
1.00294 1.44389 4.45581 0 0 0 128 0 128 255
0.957997 1.44019 4.45623 0 0 0 128 0 128 255
1.04559 1.45625 4.45665 0 0 0 128 0 128 255
0.302645 1.34653 4.45679 0 0 0 128 0 128 255
0.985658 1.45132 4.4572 0 0 0 128 0 128 255
1.05475 1.46262 4.45734 0 0 0 128 0 128 255
0.957672 1.44916 4.45748 0 0 0 128 0 128 255
0.966428 1.45146 4.45762 0 0 0 128 0 128 255
0.982253 1.45382 4.45762 0 0 0 128 0 128 255
0.960347 1.45156 4.45776 0 0 0 128 0 128 255
0.965147 1.45327 4.4579 0 0 0 128 0 128 255
0.303017 1.35759 4.45831 0 0 0 128 0 128 255
0.98449 1.45916 4.45831 0 0 0 128 0 128 255
0.975151 1.46077 4.45873 0 0 0 128 0 128 255
0.966946 1.46155 4.45901 0 0 0 128 0 128 255
0.98376 1.46406 4.45901 0 0 0 128 0 128 255
0.953212 1.46551 4.45984 0 0 0 128 0 128 255
0.980614 1.4716 4.46012 0 0 0 128 0 128 255
0.988089 1.47572 4.46054 0 0 0 128 0 128 255
0.962778 1.47595 4.46109 0 0 0 128 0 128 255
0.997363 1.48811 4.46206 0 0 0 128 0 128 255
0.9811 1.48869 4.46248 0 0 0 128 0 128 255
0.994655 1.49272 4.46276 0 0 0 128 0 128 255
1.32454 1.55189 4.46415 0 0 0 128 0 128 255
0.792475 1.51965 4.47067 0 0 0 128 0 128 255
0.773325 1.53282 4.4729 0 0 0 128 0 128 255
0.757581 1.54349 4.4747 0 0 0 128 0 128 255
0.695123 1.53518 4.47484 0 0 0 128 0 128 255
0.755164 1.54613 4.47512 0 0 0 128 0 128 255
0.719412 1.54181 4.47526 0 0 0 128 0 128 255
0.413349 1.49919 4.47567 0 0 0 128 0 128 255
0.736339 1.55034 4.47609 0 0 0 128 0 128 255
0.770227 1.56039 4.47678 0 0 0 128 0 128 255
0.775577 1.5652 4.47734 0 0 0 128 0 128 255
0.755406 1.58522 4.48053 0 0 0 128 0 128 255
0.765993 1.5888 4.48081 0 0 0 128 0 128 255
0.770322 1.60046 4.48234 0 0 0 128 0 128 255
0.385426 1.54409 4.48248 0 0 0 128 0 128 255
0.777326 1.61452 4.48415 0 0 0 128 0 128 255
0.46288 1.58067 4.48595 0 0 0 128 0 128 255
0.428602 1.59358 4.48845 0 0 0 128 0 128 255
0.471133 1.59992 4.48845 0 0 0 128 0 128 255
0.418566 1.59309 4.48859 0 0 0 128 0 128 255
0.484834 1.60296 4.48859 0 0 0 128 0 128 255
0.438719 1.60711 4.49012 0 0 0 128 0 128 255
0.699803 1.65303 4.49109 0 0 0 128 0 128 255
0.375791 1.60874 4.49164 0 0 0 128 0 128 255
0.441475 1.62253 4.4922 0 0 0 128 0 128 255
0.428325 1.62258 4.49248 0 0 0 128 0 128 255
0.685485 1.6609 4.49248 0 0 0 128 0 128 255
0.403857 1.62394 4.49317 0 0 0 128 0 128 255
0.6897 1.66654 4.49317 0 0 0 128 0 128 255
0.483681 1.63784 4.49345 0 0 0 128 0 128 255
0.600359 1.66223 4.49442 0 0 0 128 0 128 255
0.671149 1.70282 4.49859 0 0 0 128 0 128 255
0.497703 1.69299 4.50081 0 0 0 128 0 128 255
0.701453 1.72336 4.50081 0 0 0 128 0 128 255
0.697106 1.74574 4.50401 0 0 0 128 0 128 255
0.898907 1.82988 4.51151 0 0 0 128 0 128 255
0.896166 1.84149 4.51317 0 0 0 128 0 128 255
0.212569 1.74061 4.51331 0 0 0 128 0 128 255
0.21312 1.74369 4.51373 0 0 0 128 0 128 255
0.647 1.81737 4.51498 0 0 0 128 0 128 255
0.952624 1.86292 4.51498 0 0 0 128 0 128 255
0.954602 1.86321 4.51498 0 0 0 128 0 128 255
0.484288 1.81014 4.51734 0 0 0 128 0 128 255
0.334499 1.79082 4.51775 0 0 0 128 0 128 255
0.358982 1.8165 4.52081 0 0 0 128 0 128 255
0.759572 1.90323 4.52456 0 0 0 128 0 128 255
0.824753 1.93397 4.52748 0 0 0 128 0 128 255
0.785741 1.93116 4.52789 0 0 0 128 0 128 255
