ply
format ascii 1.0
comment VCGLIB generated
element vertex 1025
property float x
property float y
property float z
property float nx
property float ny
property float nz
property uchar red
property uchar green
property uchar blue
property uchar alpha
element face 0
property list uchar int vertex_indices
end_header
1.49692 0.348981 4.30962 0 0 0 255 255 255 255
1.29668 0.342567 4.33724 0 0 0 255 255 255 255
1.61256 0.399696 4.13488 0 0 0 255 255 255 255
1.75503 0.118065 4.63494 0 0 0 255 255 255 255
1.77567 0.119631 4.63979 0 0 0 255 255 255 255
1.71265 0.1149 4.64 0 0 0 255 255 255 255
1.94196 0.131626 4.615 0 0 0 255 255 255 255
1.94576 0.137141 4.60813 0 0 0 255 255 255 255
1.93785 0.148611 4.60489 0 0 0 255 255 255 255
1.46821 0.407596 4.55241 0 0 0 255 255 255 255
1.73556 0.121736 4.59577 0 0 0 255 255 255 255
1.91805 0.141008 4.48391 0 0 0 255 255 255 255
1.61716 0.468198 3.70677 0 0 0 255 255 255 255
1.28035 0.623184 4.15901 0 0 0 255 255 255 255
1.41181 0.573519 4.17979 0 0 0 255 255 255 255
1.63245 0.443904 4.22278 0 0 0 255 255 255 255
1.51093 0.539692 4.42369 0 0 0 255 255 255 255
1.48982 0.545679 4.39543 0 0 0 255 255 255 255
1.33616 1.1182 3.6899 0 0 0 255 255 255 255
1.36147 1.1088 3.69305 0 0 0 255 255 255 255
1.35561 1.12007 3.69474 0 0 0 255 255 255 255
1.36471 1.16149 4.19934 0 0 0 255 255 255 255
1.70524 0.433248 4.3804 0 0 0 255 255 255 255
2.11596 1.30649 4.3449 0 0 0 255 255 255 255
2.09083 1.30041 4.35303 0 0 0 255 255 255 255
1.8971 1.23167 4.32587 0 0 0 255 255 255 255
1.97118 1.05682 4.05382 0 0 0 255 255 255 255
1.33821 0.560899 4.45566 0 0 0 255 255 255 255
1.31109 0.570163 4.44951 0 0 0 255 255 255 255
1.30818 0.613843 4.53016 0 0 0 255 255 255 255
1.3363 0.563122 4.44981 0 0 0 255 255 255 255
1.36776 0.599742 4.48153 0 0 0 255 255 255 255
1.34199 0.60876 4.47614 0 0 0 255 255 255 255
1.29678 0.616668 4.52647 0 0 0 255 255 255 255
1.30682 0.613936 4.53486 0 0 0 255 255 255 255
1.48467 0.751658 4.6234 0 0 0 255 255 255 255
1.70048 0.871049 5.2349 0 0 0 255 255 255 255
1.88897 0.846212 4.49147 0 0 0 255 255 255 255
1.94043 0.850422 4.52972 0 0 0 255 255 255 255
1.90584 0.803576 4.53078 0 0 0 255 255 255 255
1.89493 0.896171 4.52732 0 0 0 255 255 255 255
1.92283 1.2643 4.479 0 0 0 255 255 255 255
2.0091 0.881851 4.63954 0 0 0 255 255 255 255
1.93578 1.18684 4.46961 0 0 0 255 255 255 255
1.97124 1.03924 4.72906 0 0 0 255 255 255 255
1.91243 1.26732 4.45413 0 0 0 255 255 255 255
1.95262 1.02845 4.7691 0 0 0 255 255 255 255
1.93757 1.2844 4.46862 0 0 0 255 255 255 255
1.95135 1.01416 4.44712 0 0 0 255 255 255 255
1.942 1.01457 4.75216 0 0 0 255 255 255 255
1.94258 0.988838 4.72948 0 0 0 255 255 255 255
1.92319 1.09353 4.72709 0 0 0 255 255 255 255
-0.0831333 0.6747 5.71408 0 0 0 255 255 255 255
0.285692 1.65259 3.31064 0 0 0 255 255 255 255
0.271016 1.64597 3.28908 0 0 0 255 255 255 255
0.23911 1.54868 3.41991 0 0 0 255 255 255 255
0.316226 2.25372 2.89897 0 0 0 255 255 255 255
0.368944 2.34837 2.86777 0 0 0 255 255 255 255
0.380976 2.31879 2.8772 0 0 0 255 255 255 255
0.371171 2.14605 2.85941 0 0 0 255 255 255 255
0.379853 1.92093 3.11958 0 0 0 255 255 255 255
0.274489 1.72379 3.21455 0 0 0 255 255 255 255
0.348952 1.50671 3.4282 0 0 0 255 255 255 255
0.352099 1.52511 3.42341 0 0 0 255 255 255 255
-0.69136 2.03538 4.0437 0 0 0 255 255 255 255
-0.778646 1.79078 4.08392 0 0 0 255 255 255 255
-0.764434 1.33872 3.99727 0 0 0 255 255 255 255
-0.751008 1.57325 3.89473 0 0 0 255 255 255 255
-0.776006 1.7387 4.04977 0 0 0 255 255 255 255
-0.766668 1.44332 3.96874 0 0 0 255 255 255 255
-0.769173 1.45289 3.96213 0 0 0 255 255 255 255
-0.76738 1.47529 3.95575 0 0 0 255 255 255 255
-0.784683 1.89403 4.07209 0 0 0 255 255 255 255
-0.780719 1.90786 4.07747 0 0 0 255 255 255 255
-0.82185 1.973 4.15036 0 0 0 255 255 255 255
-0.783051 1.9048 4.08689 0 0 0 255 255 255 255
-0.842942 1.68738 4.09344 0 0 0 255 255 255 255
-0.702052 2.03775 4.0195 0 0 0 255 255 255 255
-0.770747 1.46636 4.00563 0 0 0 255 255 255 255
-0.770128 1.39582 3.9462 0 0 0 255 255 255 255
-0.833412 1.95329 4.25085 0 0 0 255 255 255 255
-0.761211 1.37112 3.96332 0 0 0 255 255 255 255
-0.867481 1.75447 4.47728 0 0 0 255 255 255 255
-0.9128 1.56784 4.74867 0 0 0 255 255 255 255
-0.92807 1.56608 4.76822 0 0 0 255 255 255 255
-0.869698 1.55856 4.66596 0 0 0 255 255 255 255
-0.871388 1.75678 4.47785 0 0 0 255 255 255 255
0.117374 1.77119 4.37426 0 0 0 255 255 255 255
0.272715 1.78671 4.38701 0 0 0 255 255 255 255
-0.019901 1.74998 4.01413 0 0 0 255 255 255 255
0.295494 1.56526 4.21945 0 0 0 255 255 255 255
0.305162 1.55123 4.30115 0 0 0 255 255 255 255
0.151168 1.74021 4.32236 0 0 0 255 255 255 255
-0.0593095 1.86737 4.0693 0 0 0 255 255 255 255
-0.352675 1.35536 3.98514 0 0 0 255 255 255 255
-0.102463 1.55811 4.01356 0 0 0 255 255 255 255
-0.104825 1.94658 4.23405 0 0 0 255 255 255 255
-0.0746073 1.88512 4.11433 0 0 0 255 255 255 255
0.314247 1.60097 4.18464 0 0 0 255 255 255 255
0.360553 1.68921 4.40057 0 0 0 255 255 255 255
0.372818 1.62627 4.33945 0 0 0 255 255 255 255
0.346931 1.61815 4.31948 0 0 0 255 255 255 255
0.344362 1.62546 4.28292 0 0 0 255 255 255 255
-0.401924 1.46505 4.4913 0 0 0 255 255 255 255
0.383211 1.67051 4.46603 0 0 0 255 255 255 255
0.0505391 1.47083 4.45003 0 0 0 255 255 255 255
0.131435 1.43971 4.58127 0 0 0 255 255 255 255
0.284215 1.87483 4.82421 0 0 0 255 255 255 255
0.321544 1.31454 4.57841 0 0 0 255 255 255 255
0.4769 1.74412 2.95596 0 0 0 255 255 255 255
0.466751 1.69405 2.89534 0 0 0 255 255 255 255
0.466853 1.71857 3.01737 0 0 0 255 255 255 255
0.493464 1.69917 3.06244 0 0 0 255 255 255 255
0.487288 1.66783 3.05727 0 0 0 255 255 255 255
0.506812 1.73079 3.06262 0 0 0 255 255 255 255
0.465543 1.68241 2.9722 0 0 0 255 255 255 255
0.401303 1.52698 3.40728 0 0 0 255 255 255 255
0.561934 1.66588 3.43376 0 0 0 255 255 255 255
0.424055 1.49132 3.32308 0 0 0 255 255 255 255
0.656663 2.17683 3.06778 0 0 0 255 255 255 255
0.484872 1.78448 3.09838 0 0 0 255 255 255 255
0.495592 1.93973 2.94202 0 0 0 255 255 255 255
0.488887 1.92539 2.75948 0 0 0 255 255 255 255
0.777034 1.75654 3.51731 0 0 0 255 255 255 255
0.464577 1.90201 3.37956 0 0 0 255 255 255 255
0.481429 1.80146 3.21534 0 0 0 255 255 255 255
0.43685 1.75005 3.37496 0 0 0 255 255 255 255
0.452014 1.90978 3.34811 0 0 0 255 255 255 255
0.478902 1.79219 3.16936 0 0 0 255 255 255 255
0.601133 2.13485 3.18871 0 0 0 255 255 255 255
1.20173 1.82048 3.49278 0 0 0 255 255 255 255
0.828786 2.13828 3.23464 0 0 0 255 255 255 255
0.416116 2.3659 2.50121 0 0 0 255 255 255 255
0.403486 2.35909 2.49513 0 0 0 255 255 255 255
0.82374 2.43283 2.35737 0 0 0 255 255 255 255
0.982747 2.44403 2.46211 0 0 0 255 255 255 255
0.986453 2.57319 2.56366 0 0 0 255 255 255 255
1.17708 2.34064 2.61277 0 0 0 255 255 255 255
0.644891 2.29073 2.8933 0 0 0 255 255 255 255
0.689286 2.28375 2.69258 0 0 0 255 255 255 255
0.409891 2.27849 2.9953 0 0 0 255 255 255 255
0.392729 2.28014 2.97967 0 0 0 255 255 255 255
0.673964 2.25635 2.98961 0 0 0 255 255 255 255
0.483377 2.44901 3.02652 0 0 0 255 255 255 255
0.711827 2.58822 3.53179 0 0 0 255 255 255 255
0.396981 2.48171 3.2099 0 0 0 255 255 255 255
0.707752 2.38218 3.3132 0 0 0 255 255 255 255
0.727761 2.26245 3.20549 0 0 0 255 255 255 255
0.64761 2.29646 3.16435 0 0 0 255 255 255 255
0.819907 2.45346 3.15951 0 0 0 255 255 255 255
0.684681 2.52979 3.47427 0 0 0 255 255 255 255
0.643156 2.4071 3.15986 0 0 0 255 255 255 255
0.906332 2.24439 3.10122 0 0 0 255 255 255 255
0.94177 2.52958 2.74655 0 0 0 255 255 255 255
1.05458 2.51672 2.85715 0 0 0 255 255 255 255
0.885905 2.26089 3.33306 0 0 0 255 255 255 255
0.898177 2.20834 3.31866 0 0 0 255 255 255 255
0.941282 2.29379 3.12414 0 0 0 255 255 255 255
1.11313 2.27767 3.2887 0 0 0 255 255 255 255
1.18158 2.22248 3.34232 0 0 0 255 255 255 255
1.17626 2.22798 3.2272 0 0 0 255 255 255 255
1.12508 2.21698 3.24603 0 0 0 255 255 255 255
0.859744 2.23807 3.3307 0 0 0 255 255 255 255
1.06773 2.45977 3.30005 0 0 0 255 255 255 255
1.1945 2.18667 3.48176 0 0 0 255 255 255 255
1.19235 2.28909 3.33456 0 0 0 255 255 255 255
1.13095 2.55074 3.38569 0 0 0 255 255 255 255
0.902444 2.1963 3.32033 0 0 0 255 255 255 255
1.90804 2.10688 3.38332 0 0 0 255 255 255 255
1.47574 1.71239 3.48574 0 0 0 255 255 255 255
1.73955 1.99013 3.5302 0 0 0 255 255 255 255
1.34225 3.04856 2.66991 0 0 0 255 255 255 255
1.50251 2.74377 2.28742 0 0 0 255 255 255 255
1.29981 2.67431 2.64374 0 0 0 255 255 255 255
1.80438 2.6967 2.50145 0 0 0 255 255 255 255
1.61357 2.47355 2.54031 0 0 0 255 255 255 255
1.32956 2.52335 2.3425 0 0 0 255 255 255 255
1.30832 2.58215 2.04339 0 0 0 255 255 255 255
1.40113 2.48994 2.15583 0 0 0 255 255 255 255
1.32515 2.65521 1.93449 0 0 0 255 255 255 255
1.73041 2.65455 2.66522 0 0 0 255 255 255 255
1.65378 2.53486 2.28302 0 0 0 255 255 255 255
1.36385 2.56903 2.38264 0 0 0 255 255 255 255
1.88975 2.68627 2.55633 0 0 0 255 255 255 255
1.97135 2.65373 2.61903 0 0 0 255 255 255 255
1.93191 2.6177 2.56509 0 0 0 255 255 255 255
1.56162 2.72721 2.32834 0 0 0 255 255 255 255
1.69609 2.51356 2.38864 0 0 0 255 255 255 255
1.55776 2.45797 1.97691 0 0 0 255 255 255 255
2.0496 2.1942 3.33416 0 0 0 255 255 255 255
1.7187 2.4139 3.36926 0 0 0 255 255 255 255
1.75424 2.3481 3.35681 0 0 0 255 255 255 255
1.74054 2.38851 3.36326 0 0 0 255 255 255 255
1.30632 2.4016 3.40866 0 0 0 255 255 255 255
1.34844 2.56226 2.8131 0 0 0 255 255 255 255
1.69665 2.49143 3.27639 0 0 0 255 255 255 255
1.33415 2.49736 3.23485 0 0 0 255 255 255 255
1.28386 2.36756 3.44656 0 0 0 255 255 255 255
1.6855 2.81021 2.76308 0 0 0 255 255 255 255
1.53473 2.55226 2.95201 0 0 0 255 255 255 255
1.49943 2.4638 3.3395 0 0 0 255 255 255 255
1.41774 2.53932 3.32029 0 0 0 255 255 255 255
1.79893 2.62654 2.68367 0 0 0 255 255 255 255
0.446327 1.4747 3.93122 0 0 0 255 255 255 255
0.76061 1.72666 3.74509 0 0 0 255 255 255 255
0.519653 1.58595 3.97668 0 0 0 255 255 255 255
0.573708 1.56625 3.96118 0 0 0 255 255 255 255
0.426619 1.65537 4.4079 0 0 0 255 255 255 255
0.414133 1.67829 4.42485 0 0 0 255 255 255 255
0.420864 1.61351 4.28118 0 0 0 255 255 255 255
0.662634 1.54568 4.3808 0 0 0 255 255 255 255
0.421884 1.47956 4.02233 0 0 0 255 255 255 255
0.435397 1.61904 4.35206 0 0 0 255 255 255 255
0.435736 1.51877 4.10124 0 0 0 255 255 255 255
0.657721 1.57934 4.39503 0 0 0 255 255 255 255
0.440636 1.62729 4.38973 0 0 0 255 255 255 255
0.649624 1.55906 4.00432 0 0 0 255 255 255 255
0.51705 1.59827 4.06251 0 0 0 255 255 255 255
0.409446 1.59071 4.34613 0 0 0 255 255 255 255
0.418367 1.68147 4.43076 0 0 0 255 255 255 255
0.677446 1.55208 4.39226 0 0 0 255 255 255 255
0.796671 1.534 4.31275 0 0 0 255 255 255 255
0.708583 1.76586 3.56096 0 0 0 255 255 255 255
0.766244 1.78679 3.91343 0 0 0 255 255 255 255
1.23684 1.67995 3.92518 0 0 0 255 255 255 255
0.985248 1.3919 4.39842 0 0 0 255 255 255 255
1.01596 1.41039 4.42545 0 0 0 255 255 255 255
0.999125 1.41264 4.42562 0 0 0 255 255 255 255
1.10993 2.18541 3.64024 0 0 0 255 255 255 255
1.21676 1.90961 3.93361 0 0 0 255 255 255 255
1.20993 1.90281 3.95105 0 0 0 255 255 255 255
1.23528 1.91252 3.92403 0 0 0 255 255 255 255
1.21861 1.93387 3.99785 0 0 0 255 255 255 255
1.04275 1.78411 3.94702 0 0 0 255 255 255 255
1.02171 1.91583 4.29206 0 0 0 255 255 255 255
1.1074 1.88631 4.08938 0 0 0 255 255 255 255
1.17507 1.90509 4.01449 0 0 0 255 255 255 255
1.09063 1.89389 4.34526 0 0 0 255 255 255 255
1.20481 1.78463 4.21896 0 0 0 255 255 255 255
1.11761 1.8669 4.34381 0 0 0 255 255 255 255
1.20117 1.79546 4.2337 0 0 0 255 255 255 255
1.23635 1.85016 4.38281 0 0 0 255 255 255 255
0.39965 1.57646 4.52879 0 0 0 255 255 255 255
0.39452 1.71644 4.52266 0 0 0 255 255 255 255
0.986796 1.46772 4.47574 0 0 0 255 255 255 255
1.19296 1.4557 4.54881 0 0 0 255 255 255 255
0.968491 1.42128 4.43763 0 0 0 255 255 255 255
0.905933 1.89369 4.62535 0 0 0 255 255 255 255
0.985614 1.4092 4.45685 0 0 0 255 255 255 255
0.633074 1.32012 4.80409 0 0 0 255 255 255 255
1.2343 2.44041 3.64923 0 0 0 255 255 255 255
1.25295 2.32934 3.56755 0 0 0 255 255 255 255
1.08136 2.25064 3.81303 0 0 0 255 255 255 255
0.682414 2.67363 3.82049 0 0 0 255 255 255 255
1.06784 2.25874 3.71612 0 0 0 255 255 255 255
1.40437 2.01251 3.94588 0 0 0 255 255 255 255
1.48076 2.12224 3.59572 0 0 0 255 255 255 255
1.637 2.12651 3.694 0 0 0 255 255 255 255
1.42102 2.05463 3.64373 0 0 0 255 255 255 255
1.42477 2.12459 3.67752 0 0 0 255 255 255 255
1.43453 2.11373 3.72134 0 0 0 255 255 255 255
1.39015 1.9009 3.65909 0 0 0 255 255 255 255
1.2714 1.93112 4.33289 0 0 0 255 255 255 255
1.27911 1.74875 4.42362 0 0 0 255 255 255 255
2.03188 1.66585 4.25811 0 0 0 255 255 255 255
1.93991 2.09024 3.74345 0 0 0 255 255 255 255
1.95645 2.10749 3.80072 0 0 0 255 255 255 255
1.91514 1.89 4.14032 0 0 0 255 255 255 255
1.91539 1.89463 4.18471 0 0 0 255 255 255 255
1.75408 1.8737 4.25718 0 0 0 255 255 255 255
1.7443 1.88701 4.17848 0 0 0 255 255 255 255
1.8764 1.88088 4.33977 0 0 0 255 255 255 255
1.74693 1.86704 4.2352 0 0 0 255 255 255 255
1.74108 1.85637 4.15797 0 0 0 255 255 255 255
1.83809 1.91808 4.30637 0 0 0 255 255 255 255
1.87703 1.72544 4.47449 0 0 0 255 255 255 255
1.89807 1.96921 4.6783 0 0 0 255 255 255 255
1.38889 1.94741 4.51945 0 0 0 255 255 255 255
1.87761 1.75777 4.44325 0 0 0 255 255 255 255
2.06926 1.71504 4.616 0 0 0 255 255 255 255
2.05551 1.731 4.60999 0 0 0 255 255 255 255
1.87449 1.89457 4.46236 0 0 0 255 255 255 255
1.84502 1.89911 4.493 0 0 0 255 255 255 255
1.86152 1.9158 4.52489 0 0 0 255 255 255 255
1.8293 1.99588 4.75069 0 0 0 255 255 255 255
1.91107 1.34286 4.77956 0 0 0 255 255 255 255
1.97376 1.36028 4.69041 0 0 0 255 255 255 255
1.82704 1.72435 4.52929 0 0 0 255 255 255 255
1.43041 1.96149 4.75143 0 0 0 255 255 255 255
1.33449 1.32692 4.52003 0 0 0 255 255 255 255
1.98267 2.21262 3.77985 0 0 0 255 255 255 255
1.59947 2.25329 3.95145 0 0 0 255 255 255 255
1.8241 2.74195 3.72997 0 0 0 255 255 255 255
1.42824 2.24042 3.65517 0 0 0 255 255 255 255
1.75939 2.25036 4.08912 0 0 0 255 255 255 255
1.42758 2.24725 3.65818 0 0 0 255 255 255 255
1.89869 2.21019 4.38612 0 0 0 255 255 255 255
1.96595 2.22251 4.08824 0 0 0 255 255 255 255
1.27747 2.34974 3.67772 0 0 0 255 255 255 255
2.03431 2.32834 5.16295 0 0 0 255 255 255 255
3.82033 0.972349 3.543 0 0 0 255 255 255 255
3.85638 1.01203 3.48528 0 0 0 255 255 255 255
3.83123 1.11862 3.4867 0 0 0 255 255 255 255
3.80896 0.966257 3.53964 0 0 0 255 255 255 255
3.82694 1.12841 3.48861 0 0 0 255 255 255 255
3.84433 1.10765 3.47399 0 0 0 255 255 255 255
2.38376 0.704621 4.3458 0 0 0 255 255 255 255
2.40692 0.639063 4.34772 0 0 0 255 255 255 255
2.50412 0.728909 4.19905 0 0 0 255 255 255 255
2.41485 0.65787 4.24894 0 0 0 255 255 255 255
2.40417 0.717637 4.23742 0 0 0 255 255 255 255
2.57314 0.666562 4.37298 0 0 0 255 255 255 255
2.48063 0.688962 4.22278 0 0 0 255 255 255 255
2.40688 0.646027 4.3453 0 0 0 255 255 255 255
2.35058 0.77455 4.33275 0 0 0 255 255 255 255
2.34561 0.697098 4.2707 0 0 0 255 255 255 255
2.38451 0.808336 4.31339 0 0 0 255 255 255 255
2.35976 0.655038 4.27749 0 0 0 255 255 255 255
2.43889 0.724578 4.24187 0 0 0 255 255 255 255
2.38946 0.654864 4.28203 0 0 0 255 255 255 255
2.45827 0.704561 4.22402 0 0 0 255 255 255 255
2.14533 1.2869 4.37069 0 0 0 255 255 255 255
2.364 1.11237 4.24785 0 0 0 255 255 255 255
2.17391 1.062 4.36208 0 0 0 255 255 255 255
2.99255 0.781617 4.0689 0 0 0 255 255 255 255
2.86565 1.25093 3.82025 0 0 0 255 255 255 255
2.87695 1.24149 3.82553 0 0 0 255 255 255 255
2.9509 1.22011 4.43038 0 0 0 255 255 255 255
2.99641 0.793719 4.9948 0 0 0 255 255 255 255
2.45499 0.837024 4.44712 0 0 0 255 255 255 255
2.78146 0.676335 4.51437 0 0 0 255 255 255 255
3.33064 0.353674 4.38584 0 0 0 255 255 255 255
3.47915 0.286635 4.43196 0 0 0 255 255 255 255
3.34264 0.354567 4.39101 0 0 0 255 255 255 255
3.79143 0.405037 3.98996 0 0 0 255 255 255 255
3.777 0.422764 3.91857 0 0 0 255 255 255 255
3.56583 0.33133 4.38335 0 0 0 255 255 255 255
3.76645 0.386067 4.10375 0 0 0 255 255 255 255
3.26928 0.346518 4.27599 0 0 0 255 255 255 255
3.574 0.349484 4.11027 0 0 0 255 255 255 255
3.47349 0.289552 4.41947 0 0 0 255 255 255 255
3.43465 0.639581 3.82513 0 0 0 255 255 255 255
3.33654 0.843421 4.18313 0 0 0 255 255 255 255
3.22007 0.661315 4.03874 0 0 0 255 255 255 255
3.19454 0.61305 4.00628 0 0 0 255 255 255 255
3.18322 0.686761 4.03728 0 0 0 255 255 255 255
3.15417 0.840342 4.02863 0 0 0 255 255 255 255
3.01875 0.812485 4.11569 0 0 0 255 255 255 255
3.26108 0.663341 4.11462 0 0 0 255 255 255 255
3.18555 1.29612 4.32712 0 0 0 255 255 255 255
3.12327 1.16245 4.02376 0 0 0 255 255 255 255
3.04972 1.27622 4.13318 0 0 0 255 255 255 255
3.4489 1.30805 4.12267 0 0 0 255 255 255 255
3.13406 1.28982 4.25949 0 0 0 255 255 255 255
3.337 0.881555 4.18963 0 0 0 255 255 255 255
3.33317 0.908651 4.2722 0 0 0 255 255 255 255
3.3991 0.933311 4.20354 0 0 0 255 255 255 255
3.09085 1.21786 4.22001 0 0 0 255 255 255 255
3.13988 1.27474 4.18958 0 0 0 255 255 255 255
3.12642 1.14866 4.10378 0 0 0 255 255 255 255
3.0806 1.2788 4.14951 0 0 0 255 255 255 255
3.16821 0.883917 4.08692 0 0 0 255 255 255 255
3.39819 0.934018 4.20269 0 0 0 255 255 255 255
3.09962 1.29516 4.16256 0 0 0 255 255 255 255
3.23818 1.19916 4.32052 0 0 0 255 255 255 255
3.24744 0.922681 4.23155 0 0 0 255 255 255 255
3.62621 0.690185 4.10451 0 0 0 255 255 255 255
3.60665 0.992862 3.99622 0 0 0 255 255 255 255
4.29585 0.773486 3.53541 0 0 0 255 255 255 255
4.17804 1.03288 3.54892 0 0 0 255 255 255 255
4.12135 1.15683 3.54234 0 0 0 255 255 255 255
3.99501 0.661798 3.18384 0 0 0 255 255 255 255
4.22511 0.64144 3.4249 0 0 0 255 255 255 255
3.92472 1.18626 4.42755 0 0 0 255 255 255 255
4.18623 0.54574 3.68508 0 0 0 255 255 255 255
4.12385 1.22159 3.57319 0 0 0 255 255 255 255
3.99045 0.434917 3.99016 0 0 0 255 255 255 255
4.45089 0.832119 3.72607 0 0 0 255 255 255 255
4.15742 1.16766 3.57182 0 0 0 255 255 255 255
4.16504 1.21779 3.59989 0 0 0 255 255 255 255
4.35461 0.957164 3.64089 0 0 0 255 255 255 255
4.46455 0.839045 3.74027 0 0 0 255 255 255 255
3.14831 -0.116464 7.89546 0 0 0 255 255 255 255
3.81744 -0.136947 8.5174 0 0 0 255 255 255 255
4.29759 -0.347271 8.78996 0 0 0 255 255 255 255
3.1855 -0.101642 7.97555 0 0 0 255 255 255 255
4.38097 -0.0359402 8.62032 0 0 0 255 255 255 255
4.29007 -0.318752 8.82611 0 0 0 255 255 255 255
4.1228 -0.0412463 8.50163 0 0 0 255 255 255 255
4.29199 -0.318973 8.82272 0 0 0 255 255 255 255
3.6573 -0.0360403 8.03718 0 0 0 255 255 255 255
3.70575 -0.0693317 8.16192 0 0 0 255 255 255 255
2.49283 1.60766 2.63115 0 0 0 255 255 255 255
2.52983 2.44672 3.26725 0 0 0 255 255 255 255
2.54083 2.50355 3.26399 0 0 0 255 255 255 255
2.55145 2.43743 3.26017 0 0 0 255 255 255 255
2.59758 2.40392 3.25568 0 0 0 255 255 255 255
2.5517 2.43937 3.27359 0 0 0 255 255 255 255
3.83806 1.81094 3.526 0 0 0 255 255 255 255
3.85341 1.95152 3.5382 0 0 0 255 255 255 255
3.88679 1.4126 3.45433 0 0 0 255 255 255 255
3.80413 1.73368 3.38084 0 0 0 255 255 255 255
3.87713 1.37971 3.47612 0 0 0 255 255 255 255
3.87243 1.52982 3.3055 0 0 0 255 255 255 255
3.85781 1.84409 3.4481 0 0 0 255 255 255 255
3.82968 1.82444 3.53902 0 0 0 255 255 255 255
3.88306 1.45597 3.28124 0 0 0 255 255 255 255
3.83941 2.04304 3.50695 0 0 0 255 255 255 255
3.88134 1.38112 3.47386 0 0 0 255 255 255 255
3.85715 1.83012 3.43433 0 0 0 255 255 255 255
3.82461 1.80509 3.53192 0 0 0 255 255 255 255
3.80288 1.73638 3.37914 0 0 0 255 255 255 255
3.86799 2.0018 3.50149 0 0 0 255 255 255 255
3.7959 1.75598 3.39048 0 0 0 255 255 255 255
3.40396 2.48935 3.5272 0 0 0 255 255 255 255
3.86045 2.3213 3.5493 0 0 0 255 255 255 255
2.41132 1.40533 4.39798 0 0 0 255 255 255 255
2.40177 1.64963 4.35006 0 0 0 255 255 255 255
2.38323 1.65483 4.30139 0 0 0 255 255 255 255
2.42276 1.38524 4.35807 0 0 0 255 255 255 255
2.5355 1.73214 4.37897 0 0 0 255 255 255 255
2.41736 1.66481 4.36331 0 0 0 255 255 255 255
2.38769 1.63136 4.30132 0 0 0 255 255 255 255
2.26666 1.95999 3.90639 0 0 0 255 255 255 255
2.33874 2.1693 4.31893 0 0 0 255 255 255 255
2.16258 2.05854 4.38162 0 0 0 255 255 255 255
2.63042 1.3815 4.18802 0 0 0 255 255 255 255
2.60565 1.52673 4.2563 0 0 0 255 255 255 255
2.6405 1.50264 4.23818 0 0 0 255 255 255 255
2.67477 1.52548 4.35525 0 0 0 255 255 255 255
2.5906 1.54788 4.33239 0 0 0 255 255 255 255
2.6554 1.55866 4.35989 0 0 0 255 255 255 255
2.62918 1.60777 4.23765 0 0 0 255 255 255 255
2.60511 1.5491 4.2516 0 0 0 255 255 255 255
2.6225 1.53944 4.32718 0 0 0 255 255 255 255
2.95089 1.36558 4.03546 0 0 0 255 255 255 255
2.9934 1.34982 4.1421 0 0 0 255 255 255 255
2.9314 1.39131 4.11699 0 0 0 255 255 255 255
3.00102 1.34856 4.24859 0 0 0 255 255 255 255
2.951 1.3602 4.23894 0 0 0 255 255 255 255
2.99837 1.61813 4.2062 0 0 0 255 255 255 255
2.95128 1.56748 4.06784 0 0 0 255 255 255 255
2.90774 1.63988 4.24326 0 0 0 255 255 255 255
2.69894 1.83687 4.23529 0 0 0 255 255 255 255
2.88772 1.87997 4.19503 0 0 0 255 255 255 255
2.81769 1.84999 4.14359 0 0 0 255 255 255 255
2.3425 1.55762 4.5071 0 0 0 255 255 255 255
2.37066 1.57078 4.47595 0 0 0 255 255 255 255
2.21474 2.3303 3.92074 0 0 0 255 255 255 255
2.71074 2.23813 4.40711 0 0 0 255 255 255 255
2.41349 2.20786 4.39151 0 0 0 255 255 255 255
3.01893 1.49182 4.16057 0 0 0 255 255 255 255
3.35517 1.58085 4.20602 0 0 0 255 255 255 255
3.35547 1.6387 4.22527 0 0 0 255 255 255 255
3.34814 1.64218 4.22873 0 0 0 255 255 255 255
3.0223 1.59832 4.21117 0 0 0 255 255 255 255
3.22132 1.3385 4.35079 0 0 0 255 255 255 255
3.04141 1.32162 4.19297 0 0 0 255 255 255 255
3.331 1.72307 4.23072 0 0 0 255 255 255 255
3.07242 1.58458 4.29938 0 0 0 255 255 255 255
3.04549 1.44893 4.239 0 0 0 255 255 255 255
3.35413 1.93912 4.2595 0 0 0 255 255 255 255
3.3175 1.9605 4.19951 0 0 0 255 255 255 255
3.32994 1.94726 4.18985 0 0 0 255 255 255 255
3.07902 2.08198 4.31121 0 0 0 255 255 255 255
3.40929 1.96127 4.22098 0 0 0 255 255 255 255
3.32353 1.74723 4.24388 0 0 0 255 255 255 255
3.13385 2.17414 4.3384 0 0 0 255 255 255 255
3.35253 1.94188 4.25636 0 0 0 255 255 255 255
3.36958 1.97242 4.16071 0 0 0 255 255 255 255
3.76014 1.6316 3.70412 0 0 0 255 255 255 255
3.78191 1.59852 3.69119 0 0 0 255 255 255 255
3.78461 1.59297 3.69108 0 0 0 255 255 255 255
3.77996 1.60565 3.72082 0 0 0 255 255 255 255
3.82449 1.45346 3.81933 0 0 0 255 255 255 255
3.57447 1.83813 3.84319 0 0 0 255 255 255 255
3.65941 1.9014 3.61471 0 0 0 255 255 255 255
3.66004 1.78119 4.09317 0 0 0 255 255 255 255
3.19234 2.04437 4.48499 0 0 0 255 255 255 255
3.10827 2.12475 4.55711 0 0 0 255 255 255 255
3.18704 2.04803 4.50036 0 0 0 255 255 255 255
3.62856 2.22945 3.91854 0 0 0 255 255 255 255
3.55948 2.28694 3.93678 0 0 0 255 255 255 255
3.47654 2.2331 4.13149 0 0 0 255 255 255 255
3.53912 2.21458 3.88516 0 0 0 255 255 255 255
3.83508 2.41371 3.61239 0 0 0 255 255 255 255
3.56063 2.28194 3.94726 0 0 0 255 255 255 255
3.37228 2.23122 4.24516 0 0 0 255 255 255 255
3.84986 2.41849 3.66021 0 0 0 255 255 255 255
3.70402 2.37448 4.04693 0 0 0 255 255 255 255
3.65102 2.26471 3.99449 0 0 0 255 255 255 255
4.02508 1.81295 3.55581 0 0 0 255 255 255 255
3.92455 1.83961 3.4977 0 0 0 255 255 255 255
3.9009 1.4541 3.30258 0 0 0 255 255 255 255
3.93651 1.82273 3.50204 0 0 0 255 255 255 255
4.02206 1.56493 3.43298 0 0 0 255 255 255 255
4.0466 1.74924 3.54272 0 0 0 255 255 255 255
4.11201 2.03412 3.7592 0 0 0 255 255 255 255
4.30117 1.73173 3.83582 0 0 0 255 255 255 255
4.153 1.66954 3.68582 0 0 0 255 255 255 255
4.18063 1.48581 3.66291 0 0 0 255 255 255 255
4.16432 1.62587 3.67993 0 0 0 255 255 255 255
4.1669 1.7219 3.71242 0 0 0 255 255 255 255
4.20576 1.81816 3.77254 0 0 0 255 255 255 255
4.30789 1.79477 3.86743 0 0 0 255 255 255 255
4.11296 1.97624 3.74009 0 0 0 255 255 255 255
4.13219 1.54102 3.6728 0 0 0 255 255 255 255
4.121 1.74443 3.70464 0 0 0 255 255 255 255
4.12201 1.96141 3.74212 0 0 0 255 255 255 255
4.15329 1.77621 3.72253 0 0 0 255 255 255 255
4.06893 2.05617 3.75719 0 0 0 255 255 255 255
4.11145 1.8655 3.74973 0 0 0 255 255 255 255
4.10371 2.00194 3.75956 0 0 0 255 255 255 255
4.14366 1.70228 3.6957 0 0 0 255 255 255 255
4.10323 2.00225 3.75835 0 0 0 255 255 255 255
4.21427 1.93008 3.81558 0 0 0 255 255 255 255
4.049 2.30146 3.80217 0 0 0 255 255 255 255
3.94761 2.36199 3.70089 0 0 0 255 255 255 255
3.94249 2.20172 3.60759 0 0 0 255 255 255 255
3.94853 2.36026 3.70891 0 0 0 255 255 255 255
4.04508 2.29002 3.79446 0 0 0 255 255 255 255
3.97395 2.29361 3.66811 0 0 0 255 255 255 255
4.1271 2.3571 3.84571 0 0 0 255 255 255 255
5.12666 2.08379 4.90093 0 0 0 255 255 255 255
5.22134 2.19838 4.74465 0 0 0 255 255 255 255
-0.748114 0.733433 3.92997 0 0 0 255 255 255 255
-0.749071 0.762994 3.90211 0 0 0 255 255 255 255
-0.750081 0.802669 3.9197 0 0 0 255 255 255 255
-0.755397 0.840344 3.94072 0 0 0 255 255 255 255
-0.762777 0.729008 3.94861 0 0 0 255 255 255 255
-0.750098 0.762997 3.90346 0 0 0 255 255 255 255
-0.538717 0.831695 4.05989 0 0 0 255 255 255 255
-0.756487 0.969178 3.94781 0 0 0 255 255 255 255
-0.758286 1.02795 3.97729 0 0 0 255 255 255 255
-0.75217 1.05193 3.97291 0 0 0 255 255 255 255
-0.757211 1.15109 3.95581 0 0 0 255 255 255 255
-0.523613 0.904423 3.74417 0 0 0 255 255 255 255
-0.532371 1.16915 3.98202 0 0 0 255 255 255 255
-0.568211 1.06872 4.01291 0 0 0 255 255 255 255
-0.822749 1.01621 4.06288 0 0 0 255 255 255 255
0.334532 0.199887 4.81061 0 0 0 255 255 255 255
0.332347 0.19765 4.81194 0 0 0 255 255 255 255
0.327482 0.181865 4.82467 0 0 0 255 255 255 255
0.312345 0.223352 4.81949 0 0 0 255 255 255 255
0.330875 0.179452 4.83222 0 0 0 255 255 255 255
-0.487397 0.856316 3.75257 0 0 0 255 255 255 255
-0.470506 0.844738 3.96089 0 0 0 255 255 255 255
-0.447956 0.86871 3.96289 0 0 0 255 255 255 255
-0.432171 0.848394 3.96118 0 0 0 255 255 255 255
-0.469145 0.844664 3.96209 0 0 0 255 255 255 255
-0.482701 0.845917 3.99218 0 0 0 255 255 255 255
-0.367658 0.719937 3.79413 0 0 0 255 255 255 255
-0.357774 0.677355 3.82068 0 0 0 255 255 255 255
-0.379489 0.825106 3.80613 0 0 0 255 255 255 255
-0.379912 0.766493 3.79527 0 0 0 255 255 255 255
-0.288461 0.773452 3.94954 0 0 0 255 255 255 255
-0.277191 0.771336 3.9593 0 0 0 255 255 255 255
-0.264135 0.647352 3.87657 0 0 0 255 255 255 255
-0.264146 0.596213 3.86849 0 0 0 255 255 255 255
-0.206938 0.586378 3.93678 0 0 0 255 255 255 255
-0.460667 0.604413 4.07346 0 0 0 255 255 255 255
-0.278066 0.593374 4.09469 0 0 0 255 255 255 255
-0.488448 0.851488 4.00232 0 0 0 255 255 255 255
-0.15509 0.616243 4.10179 0 0 0 255 255 255 255
-0.16602 0.601982 4.16266 0 0 0 255 255 255 255
-0.262591 0.596566 4.10503 0 0 0 255 255 255 255
-0.184772 0.591273 4.22909 0 0 0 255 255 255 255
-0.167301 0.597671 4.24651 0 0 0 255 255 255 255
-0.0765431 0.809889 4.04768 0 0 0 255 255 255 255
-0.072149 0.781265 4.03003 0 0 0 255 255 255 255
-0.105306 0.846617 4.04637 0 0 0 255 255 255 255
-0.0716644 0.861629 4.11749 0 0 0 255 255 255 255
-0.055354 0.845418 4.14887 0 0 0 255 255 255 255
-0.061521 0.852835 4.14911 0 0 0 255 255 255 255
-0.122302 0.831251 4.23776 0 0 0 255 255 255 255
-0.127466 0.844139 4.24373 0 0 0 255 255 255 255
-0.122727 0.813982 4.24374 0 0 0 255 255 255 255
-0.454818 0.964872 3.98027 0 0 0 255 255 255 255
-0.305301 1.09938 3.94133 0 0 0 255 255 255 255
-0.339551 1.10413 3.95254 0 0 0 255 255 255 255
-0.186596 0.871052 3.98044 0 0 0 255 255 255 255
-0.436675 0.968855 4.0141 0 0 0 255 255 255 255
-0.400055 1.02744 4.08824 0 0 0 255 255 255 255
-0.41842 1.08076 4.15336 0 0 0 255 255 255 255
-0.349345 0.876673 4.15035 0 0 0 255 255 255 255
-0.327307 1.08139 4.0004 0 0 0 255 255 255 255
-0.439891 1.12065 4.11287 0 0 0 255 255 255 255
-0.375393 1.14177 4.02519 0 0 0 255 255 255 255
-0.283288 1.11611 4.12528 0 0 0 255 255 255 255
-0.122568 0.877085 4.1589 0 0 0 255 255 255 255
-0.19849 0.888381 4.14908 0 0 0 255 255 255 255
-0.120233 0.87171 4.06815 0 0 0 255 255 255 255
-0.0745764 0.940788 4.22155 0 0 0 255 255 255 255
-0.105962 0.93165 4.29776 0 0 0 255 255 255 255
-0.0938203 0.936912 4.2554 0 0 0 255 255 255 255
-0.216656 1.22626 4.01776 0 0 0 255 255 255 255
-0.207674 1.24879 4.34581 0 0 0 255 255 255 255
-0.216895 1.25967 4.34109 0 0 0 255 255 255 255
0.133191 0.629732 3.88863 0 0 0 255 255 255 255
0.134127 0.594627 3.83553 0 0 0 255 255 255 255
0.133735 0.592978 3.8321 0 0 0 255 255 255 255
0.0975825 0.770215 4.20778 0 0 0 255 255 255 255
0.0429424 0.782529 4.25848 0 0 0 255 255 255 255
0.0518453 0.783384 4.24438 0 0 0 255 255 255 255
0.0830139 0.783871 4.26507 0 0 0 255 255 255 255
0.0698226 0.785477 4.26489 0 0 0 255 255 255 255
0.243275 0.75895 4.30442 0 0 0 255 255 255 255
0.0986758 1.06347 4.01605 0 0 0 255 255 255 255
0.0458289 1.0567 4.24111 0 0 0 255 255 255 255
0.0744696 1.0617 4.24986 0 0 0 255 255 255 255
0.120735 1.04677 4.23759 0 0 0 255 255 255 255
0.112057 1.06889 4.25558 0 0 0 255 255 255 255
0.0988987 1.24917 4.29368 0 0 0 255 255 255 255
-0.0646405 0.902999 4.57827 0 0 0 255 255 255 255
-0.0664641 0.984565 4.72807 0 0 0 255 255 255 255
-0.0806548 0.918453 4.44814 0 0 0 255 255 255 255
-0.161297 1.15237 4.75707 0 0 0 255 255 255 255
-0.0654702 0.904871 4.56244 0 0 0 255 255 255 255
-0.339834 1.19908 4.94299 0 0 0 255 255 255 255
0.35139 0.431036 4.43881 0 0 0 255 255 255 255
0.333805 0.458473 4.43876 0 0 0 255 255 255 255
0.205154 0.833939 4.79937 0 0 0 255 255 255 255
0.202953 0.763332 4.78245 0 0 0 255 255 255 255
0.197422 0.827926 4.87885 0 0 0 255 255 255 255
-0.00871325 1.08288 4.64859 0 0 0 255 255 255 255
0.0480744 0.939067 4.5148 0 0 0 255 255 255 255
0.146851 0.937511 4.685 0 0 0 255 255 255 255
0.0827466 1.21267 4.55038 0 0 0 255 255 255 255
0.0986229 1.2194 4.54505 0 0 0 255 255 255 255
0.290301 1.14651 4.62244 0 0 0 255 255 255 255
0.30131 1.17592 4.56406 0 0 0 255 255 255 255
0.302733 1.18183 4.58259 0 0 0 255 255 255 255
0.837149 0.672986 3.24582 0 0 0 255 255 255 255
0.777681 0.675419 2.83863 0 0 0 255 255 255 255
0.924508 0.694917 3.20685 0 0 0 255 255 255 255
0.928218 0.690204 3.42563 0 0 0 255 255 255 255
0.981757 0.786103 3.34783 0 0 0 255 255 255 255
0.531673 0.205598 4.30936 0 0 0 255 255 255 255
0.411353 0.276341 4.38482 0 0 0 255 255 255 255
0.404777 0.288965 4.37124 0 0 0 255 255 255 255
0.47135 0.113318 4.4336 0 0 0 255 255 255 255
0.476976 0.188509 4.27993 0 0 0 255 255 255 255
0.470683 0.113193 4.43416 0 0 0 255 255 255 255
0.963782 0.318995 4.20284 0 0 0 255 255 255 255
0.987963 0.285852 4.21115 0 0 0 255 255 255 255
0.960133 0.317384 4.19759 0 0 0 255 255 255 255
1.00504 0.410754 4.13662 0 0 0 255 255 255 255
0.92137 0.348103 4.26301 0 0 0 255 255 255 255
1.02556 0.268889 4.40419 0 0 0 255 255 255 255
0.934005 0.37801 4.24495 0 0 0 255 255 255 255
1.12909 0.390435 4.2046 0 0 0 255 255 255 255
1.12391 0.372264 4.19794 0 0 0 255 255 255 255
1.06317 0.404186 4.19541 0 0 0 255 255 255 255
1.11121 0.304619 4.41025 0 0 0 255 255 255 255
1.09664 0.397327 4.32305 0 0 0 255 255 255 255
1.12198 0.355113 4.21978 0 0 0 255 255 255 255
1.09511 0.330896 4.39767 0 0 0 255 255 255 255
1.11595 0.351138 4.38881 0 0 0 255 255 255 255
1.19481 0.352898 4.3406 0 0 0 255 255 255 255
1.22745 0.350189 4.3931 0 0 0 255 255 255 255
1.19177 0.329838 4.39628 0 0 0 255 255 255 255
1.17235 0.32834 4.36995 0 0 0 255 255 255 255
0.497372 0.0891666 4.4926 0 0 0 255 255 255 255
0.400963 0.219058 4.57698 0 0 0 255 255 255 255
1.22147 0.357494 4.57437 0 0 0 255 255 255 255
0.489412 0.569651 4.31267 0 0 0 255 255 255 255
0.481338 0.579744 4.29094 0 0 0 255 255 255 255
0.465094 0.552117 4.2935 0 0 0 255 255 255 255
0.730136 0.756745 4.39411 0 0 0 255 255 255 255
0.748276 0.732176 4.39268 0 0 0 255 255 255 255
0.519031 1.02127 4.42684 0 0 0 255 255 255 255
0.503452 0.985553 4.34134 0 0 0 255 255 255 255
0.478087 1.08726 4.34252 0 0 0 255 255 255 255
0.493262 1.07575 4.35256 0 0 0 255 255 255 255
0.547642 1.009 4.3176 0 0 0 255 255 255 255
0.508205 1.05429 4.37278 0 0 0 255 255 255 255
0.523936 1.04731 4.40011 0 0 0 255 255 255 255
0.485492 1.0798 4.35002 0 0 0 255 255 255 255
0.490997 1.07024 4.34644 0 0 0 255 255 255 255
0.517362 1.06271 4.34427 0 0 0 255 255 255 255
0.796857 1.00709 4.42673 0 0 0 255 255 255 255
0.789863 1.05331 4.42012 0 0 0 255 255 255 255
0.712298 1.14761 4.35478 0 0 0 255 255 255 255
0.747756 1.1767 4.39323 0 0 0 255 255 255 255
1.0854 0.493219 4.34635 0 0 0 255 255 255 255
1.08899 0.606078 4.28548 0 0 0 255 255 255 255
1.07977 0.712456 4.33757 0 0 0 255 255 255 255
1.21387 0.720156 4.34458 0 0 0 255 255 255 255
0.900134 1.02445 4.38297 0 0 0 255 255 255 255
0.87957 1.00686 4.3892 0 0 0 255 255 255 255
0.890508 1.02988 4.3267 0 0 0 255 255 255 255
1.01046 1.26884 4.40696 0 0 0 255 255 255 255
0.904394 1.20651 4.37832 0 0 0 255 255 255 255
0.917234 1.20936 4.39209 0 0 0 255 255 255 255
0.936299 1.16521 4.25265 0 0 0 255 255 255 255
1.23119 1.12709 4.39008 0 0 0 255 255 255 255
0.675059 0.866724 4.44128 0 0 0 255 255 255 255
0.521224 0.804515 4.4543 0 0 0 255 255 255 255
0.576322 0.801602 4.50688 0 0 0 255 255 255 255
0.665235 0.77112 4.77108 0 0 0 255 255 255 255
0.675274 0.834552 4.6732 0 0 0 255 255 255 255
0.788952 0.844564 4.68178 0 0 0 255 255 255 255
0.634528 0.782995 5.04697 0 0 0 255 255 255 255
0.540377 0.998064 4.52793 0 0 0 255 255 255 255
0.797722 1.18895 4.51798 0 0 0 255 255 255 255
0.499225 1.10249 4.46057 0 0 0 255 255 255 255
0.677155 0.869962 4.44005 0 0 0 255 255 255 255
0.528418 1.04214 4.50746 0 0 0 255 255 255 255
0.938471 0.831317 4.47685 0 0 0 255 255 255 255
0.939831 0.68319 5.00218 0 0 0 255 255 255 255
1.02685 1.14121 4.60432 0 0 0 255 255 255 255
0.91744 1.01983 4.50672 0 0 0 255 255 255 255
0.902615 1.22006 4.44319 0 0 0 255 255 255 255
0.867987 1.03317 4.52022 0 0 0 255 255 255 255
1.28427 0.352929 4.38755 0 0 0 255 255 255 255
1.58555 0.361889 4.19045 0 0 0 255 255 255 255
1.60415 0.418045 4.3396 0 0 0 255 255 255 255
1.63191 0.368764 4.24646 0 0 0 255 255 255 255
1.49828 0.425823 4.34767 0 0 0 255 255 255 255
1.55452 0.334431 4.31052 0 0 0 255 255 255 255
1.71925 0.112436 4.6546 0 0 0 255 255 255 255
2.08018 0.184699 4.58 0 0 0 255 255 255 255
2.08691 0.194948 4.57213 0 0 0 255 255 255 255
2.10569 0.193545 4.6011 0 0 0 255 255 255 255
2.08582 0.188149 4.58568 0 0 0 255 255 255 255
1.93859 0.1484 4.48719 0 0 0 255 255 255 255
2.00921 0.153304 4.74778 0 0 0 255 255 255 255
1.61701 0.46934 3.70724 0 0 0 255 255 255 255
1.43368 0.63455 4.18293 0 0 0 255 255 255 255
1.4675 0.609428 4.23956 0 0 0 255 255 255 255
1.56984 0.722081 4.37288 0 0 0 255 255 255 255
1.36187 1.12277 3.75845 0 0 0 255 255 255 255
1.65325 1.14803 3.68948 0 0 0 255 255 255 255
1.64767 1.10202 3.79059 0 0 0 255 255 255 255
1.26466 1.17598 4.4123 0 0 0 255 255 255 255
2.08526 1.13569 4.09684 0 0 0 255 255 255 255
1.7351 0.977252 4.03759 0 0 0 255 255 255 255
2.08965 1.11478 4.12128 0 0 0 255 255 255 255
1.70207 1.0138 4.11033 0 0 0 255 255 255 255
2.13299 1.14953 4.26494 0 0 0 255 255 255 255
1.31591 0.56581 4.45448 0 0 0 255 255 255 255
1.33258 0.607603 4.50157 0 0 0 255 255 255 255
1.33862 0.599762 4.4887 0 0 0 255 255 255 255
1.26482 0.735898 5.21845 0 0 0 255 255 255 255
1.30999 0.737684 5.15596 0 0 0 255 255 255 255
1.44445 0.734766 4.9992 0 0 0 255 255 255 255
1.95491 0.834508 4.51953 0 0 0 255 255 255 255
1.90481 0.853339 4.4923 0 0 0 255 255 255 255
1.94519 0.819975 4.50982 0 0 0 255 255 255 255
1.73625 0.895803 4.59434 0 0 0 255 255 255 255
1.73243 0.892103 4.59751 0 0 0 255 255 255 255
1.91754 0.988563 4.80673 0 0 0 255 255 255 255
1.92007 1.04416 4.79903 0 0 0 255 255 255 255
1.91414 1.04277 4.85149 0 0 0 255 255 255 255
1.93022 0.893701 4.5298 0 0 0 255 255 255 255
1.93896 0.906942 4.52309 0 0 0 255 255 255 255
1.94194 1.02149 4.78067 0 0 0 255 255 255 255
1.93155 1.28571 4.50298 0 0 0 255 255 255 255
1.94358 1.28743 4.48156 0 0 0 255 255 255 255
1.93665 1.17334 4.45731 0 0 0 255 255 255 255
-0.0195168 0.709075 5.34791 0 0 0 255 255 255 255
0.36195 1.51218 3.41952 0 0 0 255 255 255 255
0.37757 1.92539 3.12372 0 0 0 255 255 255 255
0.347873 2.32372 2.8669 0 0 0 255 255 255 255
0.317066 2.2743 2.89421 0 0 0 255 255 255 255
0.258009 2.30615 2.69922 0 0 0 255 255 255 255
0.273748 2.34912 2.92203 0 0 0 255 255 255 255
0.269369 2.33047 2.91933 0 0 0 255 255 255 255
0.200859 2.61957 3.19934 0 0 0 255 255 255 255
-0.759779 1.36998 3.93043 0 0 0 255 255 255 255
-0.756251 1.36919 3.95759 0 0 0 255 255 255 255
-0.76545 1.37118 3.96723 0 0 0 255 255 255 255
-0.753468 1.39066 3.93783 0 0 0 255 255 255 255
-0.768536 1.42339 3.96215 0 0 0 255 255 255 255
-0.76806 1.49822 3.95695 0 0 0 255 255 255 255
-0.762225 1.33091 3.98015 0 0 0 255 255 255 255
-0.763724 1.44799 3.97403 0 0 0 255 255 255 255
-0.771817 1.50073 3.94974 0 0 0 255 255 255 255
-0.761289 1.36312 3.93426 0 0 0 255 255 255 255
-0.775728 1.61077 3.92662 0 0 0 255 255 255 255
-0.853689 1.71061 4.14359 0 0 0 255 255 255 255
-0.771807 1.61349 4.02253 0 0 0 255 255 255 255
-0.779649 1.93112 4.10836 0 0 0 255 255 255 255
-0.702887 2.03784 4.05682 0 0 0 255 255 255 255
-0.927675 1.78834 4.42155 0 0 0 255 255 255 255
-0.818449 1.96715 4.20893 0 0 0 255 255 255 255
-0.931305 1.81214 4.42564 0 0 0 255 255 255 255
-0.827119 1.96656 4.23662 0 0 0 255 255 255 255
-0.800472 1.92807 4.01375 0 0 0 255 255 255 255
-0.708306 2.04668 4.05701 0 0 0 255 255 255 255
-0.941279 1.56908 4.78289 0 0 0 255 255 255 255
-0.30447 1.4408 4.25918 0 0 0 255 255 255 255
-0.151839 1.34987 4.3356 0 0 0 255 255 255 255
-0.111588 1.55245 4.04522 0 0 0 255 255 255 255
-0.0554239 1.92135 4.0824 0 0 0 255 255 255 255
0.0264607 1.52662 3.76887 0 0 0 255 255 255 255
0.0638939 1.48112 4.17937 0 0 0 255 255 255 255
0.0834323 1.32362 4.28932 0 0 0 255 255 255 255
0.0556993 1.47206 4.42184 0 0 0 255 255 255 255
0.0855724 1.68911 4.02562 0 0 0 255 255 255 255
0.0207085 1.73562 4.11913 0 0 0 255 255 255 255
0.113255 1.72753 4.21696 0 0 0 255 255 255 255
0.18406 1.73632 4.34978 0 0 0 255 255 255 255
0.374385 1.62622 4.34017 0 0 0 255 255 255 255
-0.0306249 1.76192 4.03691 0 0 0 255 255 255 255
0.108369 1.75468 4.31579 0 0 0 255 255 255 255
-0.0244977 1.75642 4.02772 0 0 0 255 255 255 255
-0.275472 1.53107 4.46503 0 0 0 255 255 255 255
0.0967809 1.47376 4.59116 0 0 0 255 255 255 255
0.117685 1.45229 4.59037 0 0 0 255 255 255 255
0.118059 1.44714 4.71573 0 0 0 255 255 255 255
0.169358 1.4661 4.55503 0 0 0 255 255 255 255
0.372339 1.6724 4.44434 0 0 0 255 255 255 255
0.381939 1.54594 4.45056 0 0 0 255 255 255 255
0.367666 1.67278 4.44689 0 0 0 255 255 255 255
0.0243206 1.5114 4.97437 0 0 0 255 255 255 255
0.241181 1.89422 4.81617 0 0 0 255 255 255 255
0.203741 1.89788 4.78461 0 0 0 255 255 255 255
0.448745 1.59607 3.11256 0 0 0 255 255 255 255
0.465678 1.69433 2.97174 0 0 0 255 255 255 255
0.449944 1.58862 3.0865 0 0 0 255 255 255 255
0.465417 1.69581 2.90553 0 0 0 255 255 255 255
0.506352 1.72853 3.06546 0 0 0 255 255 255 255
0.465478 1.59869 3.31043 0 0 0 255 255 255 255
0.440095 1.60993 3.3401 0 0 0 255 255 255 255
0.417123 1.65323 3.35097 0 0 0 255 255 255 255
0.500965 1.76142 3.05888 0 0 0 255 255 255 255
0.487729 1.81063 3.10643 0 0 0 255 255 255 255
0.499656 1.92882 2.8765 0 0 0 255 255 255 255
0.442164 2.06784 3.04399 0 0 0 255 255 255 255
0.495554 1.78978 2.89486 0 0 0 255 255 255 255
0.494148 1.93675 2.95288 0 0 0 255 255 255 255
0.441368 2.06819 3.04961 0 0 0 255 255 255 255
0.510037 1.77365 3.06031 0 0 0 255 255 255 255
0.478824 1.79093 3.17002 0 0 0 255 255 255 255
0.477995 1.80765 3.22756 0 0 0 255 255 255 255
0.474368 1.79465 3.21883 0 0 0 255 255 255 255
0.443276 1.93389 3.35352 0 0 0 255 255 255 255
0.785773 1.77805 3.5429 0 0 0 255 255 255 255
0.76626 1.75756 3.52194 0 0 0 255 255 255 255
0.509865 2.19047 2.65949 0 0 0 255 255 255 255
0.562471 2.41627 2.41868 0 0 0 255 255 255 255
0.805992 2.46101 2.42521 0 0 0 255 255 255 255
0.560147 2.69927 2.62594 0 0 0 255 255 255 255
1.0101 2.34835 2.67169 0 0 0 255 255 255 255
1.15271 2.39278 2.37934 0 0 0 255 255 255 255
1.15177 2.40522 2.66953 0 0 0 255 255 255 255
1.05202 2.33747 2.61347 0 0 0 255 255 255 255
1.21953 2.58471 2.31969 0 0 0 255 255 255 255
0.722808 2.24578 2.74512 0 0 0 255 255 255 255
0.680307 2.25441 2.98769 0 0 0 255 255 255 255
0.67022 2.32051 2.94739 0 0 0 255 255 255 255
0.720226 2.26531 3.18415 0 0 0 255 255 255 255
0.730092 2.25407 3.1907 0 0 0 255 255 255 255
0.95036 2.26817 3.07082 0 0 0 255 255 255 255
1.00836 2.3041 2.98685 0 0 0 255 255 255 255
0.958052 2.39104 3.00425 0 0 0 255 255 255 255
0.929108 2.60587 2.82564 0 0 0 255 255 255 255
1.09517 2.22401 3.02583 0 0 0 255 255 255 255
1.10281 2.54823 3.10997 0 0 0 255 255 255 255
1.2484 2.52869 2.94665 0 0 0 255 255 255 255
1.09247 2.46908 3.03922 0 0 0 255 255 255 255
0.901483 2.27553 3.13548 0 0 0 255 255 255 255
0.904601 2.25354 3.30216 0 0 0 255 255 255 255
0.901229 2.21395 3.31712 0 0 0 255 255 255 255
0.873412 2.25323 3.32797 0 0 0 255 255 255 255
0.83835 2.3811 3.27952 0 0 0 255 255 255 255
0.973772 2.27035 3.15356 0 0 0 255 255 255 255
0.961622 2.41425 3.42136 0 0 0 255 255 255 255
1.12019 2.21149 3.25687 0 0 0 255 255 255 255
1.13967 2.26616 3.26364 0 0 0 255 255 255 255
1.13854 2.27044 3.2534 0 0 0 255 255 255 255
1.24942 2.31774 3.31714 0 0 0 255 255 255 255
1.22843 2.40327 3.5549 0 0 0 255 255 255 255
1.25533 2.58738 3.50668 0 0 0 255 255 255 255
1.17557 2.53484 3.43271 0 0 0 255 255 255 255
1.11789 2.85956 2.69102 0 0 0 255 255 255 255
1.46183 2.14881 3.3354 0 0 0 255 255 255 255
1.86928 2.17504 3.38813 0 0 0 255 255 255 255
1.35313 2.37868 2.42333 0 0 0 255 255 255 255
1.30392 2.383 2.49119 0 0 0 255 255 255 255
1.29873 2.51876 2.33924 0 0 0 255 255 255 255
1.2764 2.56029 2.31199 0 0 0 255 255 255 255
1.66413 2.46092 2.32207 0 0 0 255 255 255 255
1.53924 2.48504 2.60415 0 0 0 255 255 255 255
1.48239 2.42356 2.66554 0 0 0 255 255 255 255
1.32284 2.66444 1.93142 0 0 0 255 255 255 255
1.60582 2.63079 2.14994 0 0 0 255 255 255 255
1.6532 2.67631 2.611 0 0 0 255 255 255 255
1.55804 2.77789 2.35316 0 0 0 255 255 255 255
1.61914 2.7726 2.4027 0 0 0 255 255 255 255
1.3022 2.71087 2.64582 0 0 0 255 255 255 255
1.735 2.45289 2.38214 0 0 0 255 255 255 255
1.76137 2.50171 2.37139 0 0 0 255 255 255 255
1.7286 2.45835 2.37438 0 0 0 255 255 255 255
1.75285 2.8555 2.60469 0 0 0 255 255 255 255
1.98388 2.74364 2.40057 0 0 0 255 255 255 255
1.93552 2.64293 2.57477 0 0 0 255 255 255 255
1.92919 2.77586 2.46616 0 0 0 255 255 255 255
1.61552 2.60493 2.79586 0 0 0 255 255 255 255
1.50504 2.5458 2.91638 0 0 0 255 255 255 255
1.27958 2.55039 3.20926 0 0 0 255 255 255 255
1.44983 2.54825 3.36702 0 0 0 255 255 255 255
1.39841 2.41982 3.4897 0 0 0 255 255 255 255
1.51926 2.48943 3.33291 0 0 0 255 255 255 255
1.57233 2.45374 3.14441 0 0 0 255 255 255 255
1.52632 2.79747 3.16752 0 0 0 255 255 255 255
1.55626 2.63349 3.48548 0 0 0 255 255 255 255
1.76334 2.55771 2.86972 0 0 0 255 255 255 255
1.96632 2.85444 3.02251 0 0 0 255 255 255 255
1.73878 2.67524 2.93886 0 0 0 255 255 255 255
1.84714 2.82033 2.7967 0 0 0 255 255 255 255
1.78406 2.6955 2.73678 0 0 0 255 255 255 255
1.82332 2.76326 3.36182 0 0 0 255 255 255 255
0.499569 1.64728 3.75605 0 0 0 255 255 255 255
0.522588 1.68006 3.68522 0 0 0 255 255 255 255
0.76353 1.72099 3.74303 0 0 0 255 255 255 255
0.395944 1.51482 4.13198 0 0 0 255 255 255 255
0.38816 1.51198 4.12654 0 0 0 255 255 255 255
0.591576 1.55104 4.00314 0 0 0 255 255 255 255
0.52268 1.60737 4.02258 0 0 0 255 255 255 255
0.492945 1.54691 4.01129 0 0 0 255 255 255 255
0.502627 1.68391 4.15303 0 0 0 255 255 255 255
0.512608 1.58765 4.06938 0 0 0 255 255 255 255
0.479912 1.53316 4.07072 0 0 0 255 255 255 255
0.502656 1.56459 4.07892 0 0 0 255 255 255 255
0.390116 1.62487 4.30921 0 0 0 255 255 255 255
0.441118 1.61056 4.2681 0 0 0 255 255 255 255
0.415807 1.69584 4.43122 0 0 0 255 255 255 255
0.427787 1.65883 4.41506 0 0 0 255 255 255 255
0.454403 1.60882 4.24037 0 0 0 255 255 255 255
0.588162 1.54604 4.37547 0 0 0 255 255 255 255
0.392503 1.61841 4.34513 0 0 0 255 255 255 255
0.397939 1.68474 4.38565 0 0 0 255 255 255 255
0.650756 1.59537 4.13079 0 0 0 255 255 255 255
0.616991 1.6307 4.31793 0 0 0 255 255 255 255
0.654624 1.54636 4.37874 0 0 0 255 255 255 255
0.632059 1.58131 4.39618 0 0 0 255 255 255 255
0.774859 1.78834 3.91866 0 0 0 255 255 255 255
0.995431 1.41694 4.41535 0 0 0 255 255 255 255
0.852306 1.74526 4.19678 0 0 0 255 255 255 255
1.19959 1.87705 3.92098 0 0 0 255 255 255 255
1.23497 1.83466 3.90259 0 0 0 255 255 255 255
0.901807 1.74889 3.85367 0 0 0 255 255 255 255
1.26047 1.91253 3.70772 0 0 0 255 255 255 255
1.25995 1.93674 3.9164 0 0 0 255 255 255 255
1.19951 1.90497 3.99099 0 0 0 255 255 255 255
1.02303 1.86324 4.07679 0 0 0 255 255 255 255
0.992735 1.77138 4.1855 0 0 0 255 255 255 255
0.892034 1.80792 4.41553 0 0 0 255 255 255 255
1.00883 1.83365 4.24639 0 0 0 255 255 255 255
0.905662 1.83092 4.41795 0 0 0 255 255 255 255
1.07328 1.89227 4.14811 0 0 0 255 255 255 255
1.16069 1.89927 4.02554 0 0 0 255 255 255 255
1.07417 1.81029 4.07118 0 0 0 255 255 255 255
1.20663 1.79679 4.25175 0 0 0 255 255 255 255
1.12247 1.85136 4.29813 0 0 0 255 255 255 255
1.21423 1.89638 4.3617 0 0 0 255 255 255 255
1.19077 1.80605 4.26652 0 0 0 255 255 255 255
1.20498 1.75082 4.39205 0 0 0 255 255 255 255
1.10075 1.8954 4.23554 0 0 0 255 255 255 255
1.20622 1.83698 4.42844 0 0 0 255 255 255 255
1.08108 1.90597 4.24708 0 0 0 255 255 255 255
1.24453 1.77221 4.23968 0 0 0 255 255 255 255
0.405249 1.58555 4.60369 0 0 0 255 255 255 255
0.396177 1.71444 4.52159 0 0 0 255 255 255 255
0.996611 1.51434 4.49745 0 0 0 255 255 255 255
1.22952 1.5806 4.57511 0 0 0 255 255 255 255
1.20317 1.57749 4.6164 0 0 0 255 255 255 255
0.949747 1.46505 4.44682 0 0 0 255 255 255 255
0.991181 2.41811 3.67993 0 0 0 255 255 255 255
1.10406 2.20996 3.62806 0 0 0 255 255 255 255
0.7205 2.63394 3.71639 0 0 0 255 255 255 255
1.17001 2.43262 3.58497 0 0 0 255 255 255 255
1.07683 2.19483 3.63981 0 0 0 255 255 255 255
1.14683 2.2005 3.65928 0 0 0 255 255 255 255
1.70015 1.47571 3.74687 0 0 0 255 255 255 255
1.33019 1.4704 4.3087 0 0 0 255 255 255 255
1.3228 1.5651 4.37588 0 0 0 255 255 255 255
1.32225 1.55881 4.36352 0 0 0 255 255 255 255
1.26762 1.92007 3.92455 0 0 0 255 255 255 255
1.43859 2.15127 3.71582 0 0 0 255 255 255 255
1.60054 2.08806 3.59995 0 0 0 255 255 255 255
1.77283 1.63051 4.10736 0 0 0 255 255 255 255
1.87249 1.62819 4.39517 0 0 0 255 255 255 255
1.9081 2.08105 3.76074 0 0 0 255 255 255 255
1.82766 2.08606 3.64885 0 0 0 255 255 255 255
1.8316 2.13795 3.7631 0 0 0 255 255 255 255
1.80454 2.09071 3.59934 0 0 0 255 255 255 255
2.04929 2.08226 3.86177 0 0 0 255 255 255 255
1.89067 1.85436 4.13041 0 0 0 255 255 255 255
1.88495 1.82646 4.08287 0 0 0 255 255 255 255
1.87944 1.85386 4.20109 0 0 0 255 255 255 255
1.74803 1.90024 4.13474 0 0 0 255 255 255 255
1.75054 1.86583 4.15338 0 0 0 255 255 255 255
1.90184 1.91474 4.36233 0 0 0 255 255 255 255
1.80453 2.12865 4.13622 0 0 0 255 255 255 255
1.9702 1.95324 4.11056 0 0 0 255 255 255 255
1.95722 1.87096 4.17155 0 0 0 255 255 255 255
1.98287 1.91478 4.37531 0 0 0 255 255 255 255
1.3039 1.56235 4.67664 0 0 0 255 255 255 255
1.30244 1.75501 4.45605 0 0 0 255 255 255 255
1.3879 1.95115 4.51544 0 0 0 255 255 255 255
1.9158 1.31093 4.49971 0 0 0 255 255 255 255
1.85225 1.74587 4.48959 0 0 0 255 255 255 255
1.8406 1.71421 4.51766 0 0 0 255 255 255 255
1.87339 1.68494 4.83192 0 0 0 255 255 255 255
1.86888 1.73137 4.81588 0 0 0 255 255 255 255
1.98355 1.34514 4.81979 0 0 0 255 255 255 255
1.9615 1.66044 4.76878 0 0 0 255 255 255 255
1.81382 1.90954 4.49692 0 0 0 255 255 255 255
1.88333 1.75914 4.47481 0 0 0 255 255 255 255
1.83335 1.79383 4.72854 0 0 0 255 255 255 255
1.82245 1.79714 4.8213 0 0 0 255 255 255 255
1.81058 1.99977 4.73744 0 0 0 255 255 255 255
1.844 1.75999 4.81014 0 0 0 255 255 255 255
1.83788 1.90281 4.47042 0 0 0 255 255 255 255
1.53533 2.25073 3.9532 0 0 0 255 255 255 255
1.42843 2.25786 3.68811 0 0 0 255 255 255 255
1.37089 2.29268 3.68947 0 0 0 255 255 255 255
1.46831 2.23195 4.17095 0 0 0 255 255 255 255
1.69061 2.26687 4.02571 0 0 0 255 255 255 255
1.43558 2.26977 4.01365 0 0 0 255 255 255 255
1.85473 2.26684 3.95705 0 0 0 255 255 255 255
2.13898 2.3068 3.81811 0 0 0 255 255 255 255
