ply
format ascii 1.0
comment VCGLIB generated
element vertex 369
property float x
property float y
property float z
property float nx
property float ny
property float nz
property uchar red
property uchar green
property uchar blue
property uchar alpha
element face 0
property list uchar int vertex_indices
end_header
0.099387 1.56895 3.67008 0 0 0 0 255 255 255
0.130905 1.53725 3.60194 0 0 0 0 255 255 255
0.13999 1.53136 3.58896 0 0 0 0 255 255 255
0.135764 1.54182 3.5435 0 0 0 0 255 255 255
0.227328 1.49303 3.70151 0 0 0 0 255 255 255
0.234187 1.49049 3.70196 0 0 0 0 255 255 255
0.165473 1.51769 3.5624 0 0 0 0 255 255 255
0.147449 1.53686 3.52947 0 0 0 0 255 255 255
0.233438 1.48245 3.65305 0 0 0 0 255 255 255
0.168752 1.5275 3.51342 0 0 0 0 255 255 255
0.253586 1.47522 3.584 0 0 0 0 255 255 255
0.413802 1.52594 3.8333 0 0 0 0 255 255 255
0.430203 1.51011 3.80312 0 0 0 0 255 255 255
0.426785 1.49489 3.7739 0 0 0 0 255 255 255
0.259419 1.47593 3.56277 0 0 0 0 255 255 255
0.425496 1.56394 3.87863 0 0 0 0 255 255 255
0.441644 1.53827 3.84327 0 0 0 0 255 255 255
0.446287 1.53097 3.83135 0 0 0 0 255 255 255
0.444222 1.49711 3.77135 0 0 0 0 255 255 255
0.450563 1.54586 3.85027 0 0 0 0 255 255 255
0.425444 1.59718 3.91044 0 0 0 0 255 255 255
0.481808 1.53045 3.81401 0 0 0 0 255 255 255
0.444879 1.46949 3.67844 0 0 0 0 255 255 255
0.499056 1.57446 3.86281 0 0 0 0 255 255 255
0.483295 1.48754 3.71509 0 0 0 0 255 255 255
0.497787 1.5865 3.87613 0 0 0 0 255 255 255
0.50146 1.50132 3.73855 0 0 0 0 255 255 255
0.506096 1.57941 3.86437 0 0 0 0 255 255 255
0.503736 1.58626 3.87282 0 0 0 0 255 255 255
0.474369 1.4787 3.6892 0 0 0 0 255 255 255
0.473928 1.47746 3.68335 0 0 0 0 255 255 255
0.529367 1.5609 3.82683 0 0 0 0 255 255 255
0.508656 1.60613 3.88906 0 0 0 0 255 255 255
0.220119 1.5298 3.44349 0 0 0 0 255 255 255
0.523439 1.50733 3.72904 0 0 0 0 255 255 255
0.493842 1.63037 3.91535 0 0 0 0 255 255 255
0.538889 1.51115 3.71749 0 0 0 0 255 255 255
0.568319 1.54924 3.76935 0 0 0 0 255 255 255
0.575157 1.5635 3.78636 0 0 0 0 255 255 255
0.237109 1.52946 3.43088 0 0 0 0 255 255 255
0.522143 1.48955 3.64329 0 0 0 0 255 255 255
0.395931 1.46453 3.54384 0 0 0 0 255 255 255
0.235748 1.54132 3.41279 0 0 0 0 255 255 255
0.596866 1.64501 3.85917 0 0 0 0 255 255 255
0.591651 1.65776 3.87384 0 0 0 0 255 255 255
0.500754 1.48148 3.58398 0 0 0 0 255 255 255
0.496711 1.48098 3.57466 0 0 0 0 255 255 255
0.635648 1.61295 3.77678 0 0 0 0 255 255 255
0.323296 1.49337 3.4573 0 0 0 0 255 255 255
0.569135 1.71118 3.92165 0 0 0 0 255 255 255
0.265125 1.5362 3.4038 0 0 0 0 255 255 255
0.425347 1.4779 3.50325 0 0 0 0 255 255 255
0.269215 1.54124 3.39474 0 0 0 0 255 255 255
0.595685 1.7365 3.91307 0 0 0 0 255 255 255
0.282409 1.5323 3.40189 0 0 0 0 255 255 255
0.288593 1.52951 3.40363 0 0 0 0 255 255 255
0.679897 1.62154 3.6799 0 0 0 0 255 255 255
0.426899 1.48831 3.47426 0 0 0 0 255 255 255
0.567445 1.52105 3.53746 0 0 0 0 255 255 255
0.347767 1.50301 3.43305 0 0 0 0 255 255 255
0.586396 1.77422 3.93113 0 0 0 0 255 255 255
0.350504 1.50517 3.42878 0 0 0 0 255 255 255
0.425103 1.49384 3.46037 0 0 0 0 255 255 255
0.472825 1.49745 3.47807 0 0 0 0 255 255 255
0.419503 1.49472 3.45646 0 0 0 0 255 255 255
0.615478 1.55374 3.54583 0 0 0 0 255 255 255
0.634742 1.77454 3.89143 0 0 0 0 255 255 255
0.63612 1.7749 3.89019 0 0 0 0 255 255 255
0.715097 1.70183 3.71908 0 0 0 0 255 255 255
0.458546 1.49938 3.46382 0 0 0 0 255 255 255
0.668598 1.77322 3.85355 0 0 0 0 255 255 255
0.383173 1.50406 3.43063 0 0 0 0 255 255 255
0.361894 1.50999 3.41956 0 0 0 0 255 255 255
0.720053 1.71457 3.71939 0 0 0 0 255 255 255
0.720584 1.70575 3.70486 0 0 0 0 255 255 255
0.338397 1.51937 3.40629 0 0 0 0 255 255 255
0.721307 1.71147 3.71072 0 0 0 0 255 255 255
0.374658 1.50901 3.42128 0 0 0 0 255 255 255
0.723817 1.73359 3.72869 0 0 0 0 255 255 255
0.493033 1.51095 3.46232 0 0 0 0 255 255 255
0.365631 1.5135 3.41359 0 0 0 0 255 255 255
0.72384 1.73806 3.73295 0 0 0 0 255 255 255
0.727282 1.72466 3.70604 0 0 0 0 255 255 255
0.502474 1.51663 3.45806 0 0 0 0 255 255 255
0.667044 1.60723 3.54378 0 0 0 0 255 255 255
0.484158 1.51358 3.45012 0 0 0 0 255 255 255
0.454052 1.51017 3.43903 0 0 0 0 255 255 255
0.718756 1.77983 3.77295 0 0 0 0 255 255 255
0.65809 1.60159 3.52796 0 0 0 0 255 255 255
0.736419 1.75067 3.70044 0 0 0 0 255 255 255
0.733638 1.77205 3.72931 0 0 0 0 255 255 255
0.496426 1.52186 3.44292 0 0 0 0 255 255 255
0.677889 1.62927 3.52287 0 0 0 0 255 255 255
0.364347 1.52776 3.39183 0 0 0 0 255 255 255
0.478511 1.524 3.42727 0 0 0 0 255 255 255
0.74303 1.7818 3.70103 0 0 0 0 255 255 255
0.576133 1.55904 3.4551 0 0 0 0 255 255 255
0.401504 1.52396 3.39992 0 0 0 0 255 255 255
0.557144 1.55468 3.44021 0 0 0 0 255 255 255
0.671265 1.63456 3.49354 0 0 0 0 255 255 255
0.42978 1.52713 3.40146 0 0 0 0 255 255 255
0.527168 1.54586 3.42595 0 0 0 0 255 255 255
0.331031 1.55406 3.36109 0 0 0 0 255 255 255
0.491488 1.53805 3.41242 0 0 0 0 255 255 255
0.397281 1.53255 3.38703 0 0 0 0 255 255 255
0.679262 1.65012 3.48779 0 0 0 0 255 255 255
0.372675 1.53911 3.37654 0 0 0 0 255 255 255
0.397348 1.53437 3.38457 0 0 0 0 255 255 255
0.672528 1.64684 3.47714 0 0 0 0 255 255 255
0.491683 1.54301 3.40521 0 0 0 0 255 255 255
0.74374 1.75595 3.56506 0 0 0 0 255 255 255
0.297788 1.60509 3.31821 0 0 0 0 255 255 255
0.641364 1.62918 3.44306 0 0 0 0 255 255 255
0.742733 1.75851 3.55433 0 0 0 0 255 255 255
0.582978 1.58951 3.41705 0 0 0 0 255 255 255
0.612632 1.60924 3.42702 0 0 0 0 255 255 255
0.410937 1.54244 3.37611 0 0 0 0 255 255 255
0.706682 1.7027 3.48744 0 0 0 0 255 255 255
0.620739 1.61882 3.42589 0 0 0 0 255 255 255
0.65671 1.6511 3.44183 0 0 0 0 255 255 255
0.495037 1.55633 3.38908 0 0 0 0 255 255 255
0.739588 1.76456 3.53132 0 0 0 0 255 255 255
0.414621 1.54817 3.36969 0 0 0 0 255 255 255
0.739408 1.7656 3.52954 0 0 0 0 255 255 255
0.712439 1.72183 3.48282 0 0 0 0 255 255 255
0.732957 1.75592 3.51328 0 0 0 0 255 255 255
0.731865 1.75393 3.51121 0 0 0 0 255 255 255
0.726122 1.74476 3.50051 0 0 0 0 255 255 255
0.611458 1.62247 3.41011 0 0 0 0 255 255 255
0.517475 1.57027 3.38538 0 0 0 0 255 255 255
0.441798 1.55181 3.37197 0 0 0 0 255 255 255
0.345276 1.56962 3.34272 0 0 0 0 255 255 255
0.73044 1.75739 3.50356 0 0 0 0 255 255 255
0.42649 1.55329 3.3661 0 0 0 0 255 255 255
0.726291 1.75257 3.49457 0 0 0 0 255 255 255
0.687192 1.70036 3.44672 0 0 0 0 255 255 255
0.569886 1.60312 3.3883 0 0 0 0 255 255 255
0.640768 1.65738 3.41181 0 0 0 0 255 255 255
0.728906 1.76423 3.49383 0 0 0 0 255 255 255
0.603231 1.62763 3.39553 0 0 0 0 255 255 255
0.673659 1.69172 3.43026 0 0 0 0 255 255 255
0.72127 1.75395 3.47973 0 0 0 0 255 255 255
0.715526 1.74591 3.47097 0 0 0 0 255 255 255
0.709947 1.74103 3.46151 0 0 0 0 255 255 255
0.664544 1.68868 3.41843 0 0 0 0 255 255 255
0.444345 1.56329 3.35948 0 0 0 0 255 255 255
0.724187 1.76804 3.47846 0 0 0 0 255 255 255
0.722885 1.7694 3.47439 0 0 0 0 255 255 255
0.714645 1.75896 3.46074 0 0 0 0 255 255 255
0.626245 1.66043 3.39117 0 0 0 0 255 255 255
0.361293 1.57455 3.33697 0 0 0 0 255 255 255
0.720956 1.77347 3.46758 0 0 0 0 255 255 255
0.719391 1.77651 3.46249 0 0 0 0 255 255 255
0.754868 1.89413 3.60405 0 0 0 0 255 255 255
0.752194 1.85903 3.55068 0 0 0 0 255 255 255
0.497428 1.58786 3.35488 0 0 0 0 255 255 255
0.720921 1.78584 3.46201 0 0 0 0 255 255 255
0.636677 1.68255 3.38622 0 0 0 0 255 255 255
0.642138 1.6926 3.38571 0 0 0 0 255 255 255
0.753666 1.90049 3.59538 0 0 0 0 255 255 255
0.679458 1.73397 3.4105 0 0 0 0 255 255 255
0.67153 1.72729 3.40257 0 0 0 0 255 255 255
0.670128 1.72927 3.39951 0 0 0 0 255 255 255
0.70748 1.77932 3.43663 0 0 0 0 255 255 255
0.667606 1.72727 3.39711 0 0 0 0 255 255 255
0.547011 1.62439 3.35056 0 0 0 0 255 255 255
0.63943 1.6991 3.37837 0 0 0 0 255 255 255
0.751505 1.90488 3.57616 0 0 0 0 255 255 255
0.659706 1.72382 3.38852 0 0 0 0 255 255 255
0.666574 1.73249 3.39296 0 0 0 0 255 255 255
0.65959 1.72552 3.38747 0 0 0 0 255 255 255
0.58151 1.6564 3.35119 0 0 0 0 255 255 255
0.606074 1.67737 3.35798 0 0 0 0 255 255 255
0.641881 1.71297 3.37303 0 0 0 0 255 255 255
0.636195 1.70899 3.36894 0 0 0 0 255 255 255
0.694073 1.77931 3.4133 0 0 0 0 255 255 255
0.600581 1.67842 3.35235 0 0 0 0 255 255 255
0.699014 1.79186 3.41756 0 0 0 0 255 255 255
0.574625 1.66123 3.34244 0 0 0 0 255 255 255
0.625922 1.71249 3.3564 0 0 0 0 255 255 255
0.665318 1.76059 3.37909 0 0 0 0 255 255 255
0.442881 1.59684 3.32634 0 0 0 0 255 255 255
0.6663 1.76284 3.37952 0 0 0 0 255 255 255
0.665143 1.76143 3.37857 0 0 0 0 255 255 255
0.533118 1.64752 3.32447 0 0 0 0 255 255 255
0.457778 1.60823 3.32103 0 0 0 0 255 255 255
0.662138 1.7739 3.3708 0 0 0 0 255 255 255
0.569989 1.6858 3.32405 0 0 0 0 255 255 255
0.641682 1.75629 3.3536 0 0 0 0 255 255 255
0.640208 1.75571 3.35227 0 0 0 0 255 255 255
0.667958 1.79269 3.373 0 0 0 0 255 255 255
0.734203 1.9785 3.59143 0 0 0 0 255 255 255
0.652593 1.77451 3.35962 0 0 0 0 255 255 255
0.450033 1.61395 3.31428 0 0 0 0 255 255 255
0.648625 1.77427 3.35535 0 0 0 0 255 255 255
0.564055 1.69017 3.3177 0 0 0 0 255 255 255
0.624556 1.75154 3.33842 0 0 0 0 255 255 255
0.56511 1.69489 3.31596 0 0 0 0 255 255 255
0.477993 1.63293 3.30919 0 0 0 0 255 255 255
0.672314 1.81676 3.37425 0 0 0 0 255 255 255
0.721478 1.91037 3.46434 0 0 0 0 255 255 255
0.564729 1.70142 3.3125 0 0 0 0 255 255 255
0.56061 1.69889 3.31108 0 0 0 0 255 255 255
0.719975 1.91149 3.46136 0 0 0 0 255 255 255
0.703904 1.87542 3.42025 0 0 0 0 255 255 255
0.684616 1.84154 3.38866 0 0 0 0 255 255 255
0.64778 1.79068 3.35044 0 0 0 0 255 255 255
0.554312 1.69754 3.30785 0 0 0 0 255 255 255
0.426321 1.61746 3.30618 0 0 0 0 255 255 255
0.719783 1.92042 3.46495 0 0 0 0 255 255 255
0.684942 1.84747 3.38906 0 0 0 0 255 255 255
0.712664 1.90434 3.44316 0 0 0 0 255 255 255
0.679422 1.84149 3.3816 0 0 0 0 255 255 255
0.683498 1.85064 3.38708 0 0 0 0 255 255 255
0.726375 1.9807 3.54073 0 0 0 0 255 255 255
0.720997 1.93734 3.47747 0 0 0 0 255 255 255
0.696783 1.87664 3.40869 0 0 0 0 255 255 255
0.692373 1.87294 3.40138 0 0 0 0 255 255 255
0.719601 1.95131 3.48389 0 0 0 0 255 255 255
0.714835 1.94181 3.46544 0 0 0 0 255 255 255
0.717389 1.95458 3.48069 0 0 0 0 255 255 255
0.718729 1.9683 3.49669 0 0 0 0 255 255 255
0.717376 1.96332 3.48808 0 0 0 0 255 255 255
0.718796 1.9777 3.50728 0 0 0 0 255 255 255
0.717147 1.96524 3.48923 0 0 0 0 255 255 255
0.715684 1.97002 3.48976 0 0 0 0 255 255 255
0.515364 1.71035 3.28191 0 0 0 0 255 255 255
0.579148 1.7736 3.29663 0 0 0 0 255 255 255
0.636302 1.84153 3.33328 0 0 0 0 255 255 255
0.706478 2.0203 3.53021 0 0 0 0 255 255 255
0.574817 1.77532 3.29342 0 0 0 0 255 255 255
0.374157 1.63476 3.2889 0 0 0 0 255 255 255
0.703797 2.02599 3.53137 0 0 0 0 255 255 255
0.505114 1.71873 3.27432 0 0 0 0 255 255 255
0.560439 1.76971 3.2859 0 0 0 0 255 255 255
0.513735 1.72917 3.27414 0 0 0 0 255 255 255
0.694988 1.97268 3.44506 0 0 0 0 255 255 255
0.390756 1.64814 3.28133 0 0 0 0 255 255 255
0.501989 1.72872 3.26952 0 0 0 0 255 255 255
0.37277 1.64414 3.28299 0 0 0 0 255 255 255
0.493383 1.72526 3.26749 0 0 0 0 255 255 255
0.688446 2.04903 3.52407 0 0 0 0 255 255 255
0.598974 1.85283 3.30207 0 0 0 0 255 255 255
0.601153 1.85975 3.30389 0 0 0 0 255 255 255
0.679064 2.06378 3.52546 0 0 0 0 255 255 255
0.454514 1.73073 3.25406 0 0 0 0 255 255 255
0.559605 1.82746 3.27711 0 0 0 0 255 255 255
0.596743 1.87735 3.30186 0 0 0 0 255 255 255
0.426452 1.72118 3.25163 0 0 0 0 255 255 255
0.410562 1.71088 3.25312 0 0 0 0 255 255 255
0.461127 1.74945 3.25021 0 0 0 0 255 255 255
0.56389 1.84696 3.27901 0 0 0 0 255 255 255
0.555571 1.83791 3.27442 0 0 0 0 255 255 255
0.666309 2.02281 3.43704 0 0 0 0 255 255 255
0.46634 1.76285 3.24826 0 0 0 0 255 255 255
0.379626 1.7007 3.25476 0 0 0 0 255 255 255
0.429496 1.7429 3.24535 0 0 0 0 255 255 255
0.403425 1.7241 3.24769 0 0 0 0 255 255 255
0.437306 1.75115 3.24451 0 0 0 0 255 255 255
0.449199 1.76169 3.24436 0 0 0 0 255 255 255
0.567953 1.87691 3.28276 0 0 0 0 255 255 255
0.568303 1.88022 3.28328 0 0 0 0 255 255 255
0.564243 1.88117 3.28097 0 0 0 0 255 255 255
0.560266 1.88079 3.27863 0 0 0 0 255 255 255
0.415011 1.75409 3.24029 0 0 0 0 255 255 255
0.443816 1.7789 3.23971 0 0 0 0 255 255 255
0.473187 1.8055 3.24294 0 0 0 0 255 255 255
0.420235 1.76376 3.23873 0 0 0 0 255 255 255
0.394271 1.75141 3.23894 0 0 0 0 255 255 255
0.465895 1.81712 3.23986 0 0 0 0 255 255 255
0.373119 1.73544 3.24244 0 0 0 0 255 255 255
0.397854 1.75867 3.23744 0 0 0 0 255 255 255
0.589813 1.96891 3.31962 0 0 0 0 255 255 255
0.455544 1.81849 3.23721 0 0 0 0 255 255 255
0.623138 2.06363 3.41628 0 0 0 0 255 255 255
0.618537 2.05212 3.39906 0 0 0 0 255 255 255
0.619474 2.06289 3.41092 0 0 0 0 255 255 255
0.368641 1.75 3.23837 0 0 0 0 255 255 255
0.34272 1.72112 3.24783 0 0 0 0 255 255 255
0.357027 1.73892 3.24154 0 0 0 0 255 255 255
0.507321 1.88577 3.25404 0 0 0 0 255 255 255
0.388425 1.77213 3.23394 0 0 0 0 255 255 255
0.436997 1.81798 3.23343 0 0 0 0 255 255 255
0.578806 1.9872 3.31968 0 0 0 0 255 255 255
0.611163 2.08337 3.42387 0 0 0 0 255 255 255
0.446672 1.83793 3.23432 0 0 0 0 255 255 255
0.312666 1.66939 3.27326 0 0 0 0 255 255 255
0.571576 1.98987 3.31592 0 0 0 0 255 255 255
0.313144 1.64917 3.28442 0 0 0 0 255 255 255
0.606961 2.0983 3.43807 0 0 0 0 255 255 255
0.32319 1.71743 3.25097 0 0 0 0 255 255 255
0.305828 1.67159 3.2733 0 0 0 0 255 255 255
0.358328 1.7761 3.23275 0 0 0 0 255 255 255
0.343905 1.76671 3.23523 0 0 0 0 255 255 255
0.339979 1.76606 3.23564 0 0 0 0 255 255 255
0.314231 1.7315 3.24748 0 0 0 0 255 255 255
0.372162 1.81497 3.22749 0 0 0 0 255 255 255
0.316123 1.74512 3.24322 0 0 0 0 255 255 255
0.293941 1.65504 3.2847 0 0 0 0 255 255 255
0.409556 1.9207 3.23551 0 0 0 0 255 255 255
0.300266 1.7814 3.23767 0 0 0 0 255 255 255
0.297856 1.77718 3.23887 0 0 0 0 255 255 255
0.393491 1.91159 3.23244 0 0 0 0 255 255 255
0.36167 1.87489 3.22723 0 0 0 0 255 255 255
0.287434 1.62554 3.30522 0 0 0 0 255 255 255
0.405563 1.9544 3.2432 0 0 0 0 255 255 255
0.282379 1.78433 3.24081 0 0 0 0 255 255 255
0.261964 1.64313 3.30086 0 0 0 0 255 255 255
0.362678 1.95932 3.24278 0 0 0 0 255 255 255
0.32252 1.91027 3.23404 0 0 0 0 255 255 255
0.319072 1.90774 3.23405 0 0 0 0 255 255 255
0.351677 1.96185 3.24387 0 0 0 0 255 255 255
0.337826 1.94259 3.2393 0 0 0 0 255 255 255
0.35678 1.98756 3.25261 0 0 0 0 255 255 255
0.371287 2.02242 3.26794 0 0 0 0 255 255 255
0.319829 1.94728 3.2424 0 0 0 0 255 255 255
0.260675 1.85892 3.24137 0 0 0 0 255 255 255
0.302851 1.94536 3.24446 0 0 0 0 255 255 255
0.348936 2.03174 3.2733 0 0 0 0 255 255 255
0.232793 1.83418 3.25051 0 0 0 0 255 255 255
0.248857 1.87739 3.24602 0 0 0 0 255 255 255
0.36213 2.09969 3.31928 0 0 0 0 255 255 255
0.257867 1.91477 3.24821 0 0 0 0 255 255 255
0.258645 1.92223 3.24943 0 0 0 0 255 255 255
0.258355 1.92314 3.24971 0 0 0 0 255 255 255
0.206008 1.79176 3.26561 0 0 0 0 255 255 255
0.299479 2.07548 3.3077 0 0 0 0 255 255 255
0.207627 1.91137 3.26649 0 0 0 0 255 255 255
0.276566 2.07912 3.31647 0 0 0 0 255 255 255
0.132092 1.81486 3.30711 0 0 0 0 255 255 255
0.118653 1.81182 3.31818 0 0 0 0 255 255 255
0.132091 1.69107 3.3473 0 0 0 0 255 255 255
0.120878 1.93056 3.32614 0 0 0 0 255 255 255
0.105862 1.82032 3.32844 0 0 0 0 255 255 255
0.107453 1.9149 3.33389 0 0 0 0 255 255 255
0.112465 1.96003 3.34398 0 0 0 0 255 255 255
0.107243 1.95931 3.34867 0 0 0 0 255 255 255
0.105959 1.95191 3.34692 0 0 0 0 255 255 255
0.115008 2.02472 3.37836 0 0 0 0 255 255 255
0.090143 1.77855 3.35094 0 0 0 0 255 255 255
0.099342 1.97955 3.36633 0 0 0 0 255 255 255
0.138398 1.63338 3.38393 0 0 0 0 255 255 255
0.0957088 1.98181 3.37153 0 0 0 0 255 255 255
0.106654 2.0605 3.42057 0 0 0 0 255 255 255
0.105918 2.05992 3.42092 0 0 0 0 255 255 255
0.0948631 2.03283 3.40876 0 0 0 0 255 255 255
0.0932784 2.04038 3.41796 0 0 0 0 255 255 255
0.0906004 2.0189 3.40249 0 0 0 0 255 255 255
0.102428 1.68394 3.38131 0 0 0 0 255 255 255
0.124312 1.63567 3.39652 0 0 0 0 255 255 255
0.100537 1.66126 3.4011 0 0 0 0 255 255 255
0.0567543 1.97102 3.41633 0 0 0 0 255 255 255
0.057265 1.78708 3.3879 0 0 0 0 255 255 255
0.0496396 1.82152 3.39203 0 0 0 0 255 255 255
0.0473981 1.815 3.39608 0 0 0 0 255 255 255
0.0440156 1.95585 3.42805 0 0 0 0 255 255 255
0.0469948 1.80942 3.39755 0 0 0 0 255 255 255
0.0382029 1.91336 3.41857 0 0 0 0 255 255 255
0.0161687 2.00889 3.569 0 0 0 0 255 255 255
0.0442377 1.71776 3.44076 0 0 0 0 255 255 255
0.0167736 1.81508 3.44917 0 0 0 0 255 255 255
0.0899771 1.6243 3.45672 0 0 0 0 255 255 255
0.0709789 1.64569 3.46265 0 0 0 0 255 255 255
0.00540236 1.81459 3.47564 0 0 0 0 255 255 255
0.062226 1.64058 3.48881 0 0 0 0 255 255 255
-0.00241473 1.76636 3.52346 0 0 0 0 255 255 255
0.010431 1.70992 3.54081 0 0 0 0 255 255 255
0.00119987 1.7314 3.54971 0 0 0 0 255 255 255
0.00913894 1.69355 3.61195 0 0 0 0 255 255 255
