ply
format ascii 1.0
comment VCGLIB generated
element vertex 227
property float x
property float y
property float z
property float nx
property float ny
property float nz
property uchar red
property uchar green
property uchar blue
property uchar alpha
element face 0
property list uchar int vertex_indices
end_header
-0.431565 1.84664 5.23073 0 0 0 128 128 0 255
-0.49738 1.76254 5.27045 0 0 0 128 128 0 255
-0.503491 1.75656 5.27389 0 0 0 128 128 0 255
-0.503636 1.82832 5.28103 0 0 0 128 128 0 255
-0.626266 1.51712 5.3189 0 0 0 128 128 0 255
-0.622721 1.61679 5.32621 0 0 0 128 128 0 255
-0.627043 1.52012 5.31952 0 0 0 128 128 0 255
-0.643938 1.42861 5.31885 0 0 0 128 128 0 255
-0.712369 0.145127 5.23468 0 0 0 128 128 0 255
-0.723558 0.164261 5.2409 0 0 0 128 128 0 255
-0.785337 0.174485 5.26356 0 0 0 128 128 0 255
-0.754746 1.26622 5.34455 0 0 0 128 128 0 255
-0.761833 1.32327 5.35118 0 0 0 128 128 0 255
-0.771041 1.26864 5.3492 0 0 0 128 128 0 255
-0.771918 1.27065 5.3496 0 0 0 128 128 0 255
-0.77613 1.37155 5.35881 0 0 0 128 128 0 255
-0.778604 1.35964 5.35847 0 0 0 128 128 0 255
-0.782258 1.27792 5.35281 0 0 0 128 128 0 255
-0.795233 1.31421 5.3588 0 0 0 128 128 0 255
-0.832332 1.29537 5.36494 0 0 0 128 128 0 255
-0.846127 1.16307 5.35718 0 0 0 128 128 0 255
-0.842977 1.29971 5.36715 0 0 0 128 128 0 255
-0.850785 1.16922 5.35844 0 0 0 128 128 0 255
-0.898242 1.17188 5.36516 0 0 0 128 128 0 255
-0.906966 1.11031 5.36152 0 0 0 128 128 0 255
-0.905242 1.17114 5.36583 0 0 0 128 128 0 255
-0.912754 1.11452 5.3624 0 0 0 128 128 0 255
-0.956892 0.908598 5.35069 0 0 0 128 128 0 255
-0.975608 1.20594 5.37232 0 0 0 128 128 0 255
-0.995611 0.915237 5.35226 0 0 0 128 128 0 255
-1.0495 0.873787 5.34807 0 0 0 128 128 0 255
-1.08015 0.813379 5.34184 0 0 0 128 128 0 255
-1.12712 -0.23706 5.26911 0 0 0 128 128 0 255
-1.12869 -0.18304 5.27249 0 0 0 128 128 0 255
-1.13577 -0.207649 5.27019 0 0 0 128 128 0 255
-1.14593 -0.279046 5.26451 0 0 0 128 128 0 255
-1.14537 -0.244112 5.26682 0 0 0 128 128 0 255
-1.15582 -0.255549 5.26486 0 0 0 128 128 0 255
-1.17971 -0.257256 5.26145 0 0 0 128 128 0 255
-1.18922 -0.226755 5.26182 0 0 0 128 128 0 255
-1.18376 0.00573486 5.27708 0 0 0 128 128 0 255
-1.19451 -0.21247 5.26181 0 0 0 128 128 0 255
-1.18721 0.0169204 5.27717 0 0 0 128 128 0 255
-1.20914 -0.451436 5.24457 0 0 0 128 128 0 255
-1.19155 0.0301565 5.2772 0 0 0 128 128 0 255
-1.20417 0.0338824 5.27501 0 0 0 128 128 0 255
-1.23232 -0.486067 5.23802 0 0 0 128 128 0 255
-1.21462 0.0195075 5.27199 0 0 0 128 128 0 255
-1.24195 -0.416548 5.24011 0 0 0 128 128 0 255
-1.24324 -0.423466 5.23941 0 0 0 128 128 0 255
-1.24447 -0.407403 5.24008 0 0 0 128 128 0 255
-1.22748 0.0382625 5.27027 0 0 0 128 128 0 255
-1.23192 -0.0174306 5.26597 0 0 0 128 128 0 255
-1.23971 -0.14787 5.25648 0 0 0 128 128 0 255
-1.22774 0.185179 5.27885 0 0 0 128 128 0 255
-1.22778 0.184182 5.27878 0 0 0 128 128 0 255
-1.25122 -0.340041 5.24249 0 0 0 128 128 0 255
-1.25189 -0.35499 5.24145 0 0 0 128 128 0 255
-1.25219 -0.339981 5.24226 0 0 0 128 128 0 255
-1.24439 -0.143588 5.25562 0 0 0 128 128 0 255
-1.25291 -0.268983 5.24623 0 0 0 128 128 0 255
-1.25317 -0.166033 5.25216 0 0 0 128 128 0 255
-1.26386 -0.383236 5.23687 0 0 0 128 128 0 255
-1.25847 -0.197685 5.24898 0 0 0 128 128 0 255
-1.24982 0.0176458 5.26364 0 0 0 128 128 0 255
-1.25061 0.0216925 5.26367 0 0 0 128 128 0 255
-1.2638 -0.143384 5.25072 0 0 0 128 128 0 255
-1.26671 -0.165188 5.24869 0 0 0 128 128 0 255
-1.28603 -0.40283 5.22986 0 0 0 128 128 0 255
-1.29484 -0.384274 5.22838 0 0 0 128 128 0 255
-1.30332 -0.166816 5.23788 0 0 0 128 128 0 255
-1.3061 -0.14364 5.23827 0 0 0 128 128 0 255
-1.30812 -0.167496 5.23631 0 0 0 128 128 0 255
-1.31304 -0.256132 5.22986 0 0 0 128 128 0 255
-1.30777 -0.0105799 5.24498 0 0 0 128 128 0 255
-1.31783 -0.17184 5.23286 0 0 0 128 128 0 255
-1.31909 -0.178752 5.23206 0 0 0 128 128 0 255
-1.31068 0.0306024 5.24623 0 0 0 128 128 0 255
-1.30741 0.167333 5.25473 0 0 0 128 128 0 255
-1.31835 -0.0138586 5.2412 0 0 0 128 128 0 255
-1.32576 -0.13731 5.23199 0 0 0 128 128 0 255
-1.32344 0.0414747 5.24236 0 0 0 128 128 0 255
-1.33374 -0.16775 5.22754 0 0 0 128 128 0 255
-1.3436 -0.241043 5.22006 0 0 0 128 128 0 255
-1.3494 -0.286624 5.21551 0 0 0 128 128 0 255
-1.34614 -0.171881 5.22275 0 0 0 128 128 0 255
-1.33995 -0.0123556 5.23344 0 0 0 128 128 0 255
-1.34235 0.0178076 5.2341 0 0 0 128 128 0 255
-1.34212 0.0437861 5.23554 0 0 0 128 128 0 255
-1.34497 -0.0199977 5.23112 0 0 0 128 128 0 255
-1.35622 -0.14617 5.2202 0 0 0 128 128 0 255
-1.36557 -0.230482 5.21214 0 0 0 128 128 0 255
-1.3658 -0.235464 5.2118 0 0 0 128 128 0 255
-1.36624 -0.141447 5.21642 0 0 0 128 128 0 255
-1.38239 -0.461227 5.19352 0 0 0 128 128 0 255
-1.36986 -0.16018 5.21398 0 0 0 128 128 0 255
-1.36542 0.0424718 5.22609 0 0 0 128 128 0 255
-1.38712 -0.442883 5.19249 0 0 0 128 128 0 255
-1.37028 -0.00416586 5.22169 0 0 0 128 128 0 255
-1.36356 0.187321 5.23416 0 0 0 128 128 0 255
-1.37709 0.00833842 5.21939 0 0 0 128 128 0 255
-1.34525 0.740923 5.26971 0 0 0 128 128 0 255
-1.37724 0.189344 5.22827 0 0 0 128 128 0 255
-1.38084 0.190616 5.22671 0 0 0 128 128 0 255
-1.41005 -0.442169 5.18249 0 0 0 128 128 0 255
-1.41085 -0.460108 5.18125 0 0 0 128 128 0 255
-1.39046 0.0163457 5.21382 0 0 0 128 128 0 255
-1.39526 0.0107124 5.21133 0 0 0 128 128 0 255
-1.39768 0.0378991 5.21152 0 0 0 128 128 0 255
-1.40733 -0.137367 5.19853 0 0 0 128 128 0 255
-1.42926 -0.526697 5.16942 0 0 0 128 128 0 255
-1.42336 -0.334139 5.18145 0 0 0 128 128 0 255
-1.38172 0.878739 5.25919 0 0 0 128 128 0 255
-1.38907 0.7343 5.24874 0 0 0 128 128 0 255
-1.42706 0.04421 5.19731 0 0 0 128 128 0 255
-1.43241 0.0436418 5.19448 0 0 0 128 128 0 255
-1.43486 -0.0111724 5.19068 0 0 0 128 128 0 255
-1.42736 0.196268 5.20411 0 0 0 128 128 0 255
-1.42984 0.180465 5.20207 0 0 0 128 128 0 255
-1.43728 0.0140298 5.19055 0 0 0 128 128 0 255
-1.39459 1.04781 5.26022 0 0 0 128 128 0 255
-1.4109 0.68305 5.23497 0 0 0 128 128 0 255
-1.3912 1.14356 5.26638 0 0 0 128 128 0 255
-1.41028 0.756019 5.23859 0 0 0 128 128 0 255
-1.47016 -0.563435 5.14676 0 0 0 128 128 0 255
-1.4106 0.80806 5.24075 0 0 0 128 128 0 255
-1.47124 -0.489324 5.14948 0 0 0 128 128 0 255
-1.40879 0.926947 5.24704 0 0 0 128 128 0 255
-1.4652 -0.334775 5.15969 0 0 0 128 128 0 255
-1.47945 -0.555663 5.14195 0 0 0 128 128 0 255
-1.4267 0.66335 5.22536 0 0 0 128 128 0 255
-1.45831 0.0147683 5.17897 0 0 0 128 128 0 255
-1.48199 -0.456415 5.14485 0 0 0 128 128 0 255
-1.43679 0.690212 5.22071 0 0 0 128 128 0 255
-1.42347 1.04623 5.24383 0 0 0 128 128 0 255
-1.48483 0.019041 5.16336 0 0 0 128 128 0 255
-1.48599 0.0501591 5.16393 0 0 0 128 128 0 255
-1.48264 0.200947 5.17223 0 0 0 128 128 0 255
-1.49115 0.0486126 5.16061 0 0 0 128 128 0 255
-1.48668 0.186296 5.16906 0 0 0 128 128 0 255
-1.46132 0.791394 5.20988 0 0 0 128 128 0 255
-1.51804 -0.458294 5.12281 0 0 0 128 128 0 255
-1.47317 0.770443 5.2013 0 0 0 128 128 0 255
-1.50611 0.164029 5.1554 0 0 0 128 128 0 255
-1.51371 0.0126178 5.14436 0 0 0 128 128 0 255
-1.53359 -0.431875 5.11359 0 0 0 128 128 0 255
-1.51289 0.0495683 5.14635 0 0 0 128 128 0 255
-1.52986 -0.182038 5.12578 0 0 0 128 128 0 255
-1.48136 0.976339 5.20368 0 0 0 128 128 0 255
-1.48584 1.04081 5.20292 0 0 0 128 128 0 255
-1.50442 0.625218 5.17415 0 0 0 128 128 0 255
-1.49687 0.830675 5.18721 0 0 0 128 128 0 255
-1.49555 0.896605 5.1906 0 0 0 128 128 0 255
-1.53436 0.0465634 5.13116 0 0 0 128 128 0 255
-1.53646 0.017738 5.12857 0 0 0 128 128 0 255
-1.53941 -0.0120075 5.12533 0 0 0 128 128 0 255
-1.5579 -0.425605 5.0967 0 0 0 128 128 0 255
-1.49919 0.941989 5.1896 0 0 0 128 128 0 255
-1.53929 0.0450301 5.1275 0 0 0 128 128 0 255
-1.53974 0.0530799 5.12746 0 0 0 128 128 0 255
-1.56749 -0.316585 5.09343 0 0 0 128 128 0 255
-1.52613 0.626296 5.1581 0 0 0 128 128 0 255
-1.55397 0.0214245 5.11561 0 0 0 128 128 0 255
-1.55116 0.155281 5.12243 0 0 0 128 128 0 255
-1.51225 1.18449 5.18811 0 0 0 128 128 0 255
-1.52564 0.902527 5.16797 0 0 0 128 128 0 255
-1.53057 0.844957 5.1621 0 0 0 128 128 0 255
-1.58361 -0.324002 5.08055 0 0 0 128 128 0 255
-1.5716 -0.0028564 5.10089 0 0 0 128 128 0 255
-1.56537 0.188729 5.11226 0 0 0 128 128 0 255
-1.58206 -0.028827 5.09146 0 0 0 128 128 0 255
-1.54452 0.845367 5.1507 0 0 0 128 128 0 255
-1.55463 0.619134 5.13503 0 0 0 128 128 0 255
-1.5297 1.21128 5.17474 0 0 0 128 128 0 255
-1.57578 0.197798 5.10393 0 0 0 128 128 0 255
-1.60917 -0.446544 5.05543 0 0 0 128 128 0 255
-1.54046 1.17535 5.16444 0 0 0 128 128 0 255
-1.54024 1.19736 5.16531 0 0 0 128 128 0 255
-1.59161 0.0482526 5.08576 0 0 0 128 128 0 255
-1.54054 1.2074 5.16535 0 0 0 128 128 0 255
-1.5678 0.648534 5.12468 0 0 0 128 128 0 255
-1.54997 1.0642 5.15279 0 0 0 128 128 0 255
-1.56229 0.839205 5.13523 0 0 0 128 128 0 255
-1.59417 0.159667 5.08685 0 0 0 128 128 0 255
-1.55555 1.12388 5.14959 0 0 0 128 128 0 255
-1.57031 0.827041 5.1277 0 0 0 128 128 0 255
-1.61167 0.00131813 5.06648 0 0 0 128 128 0 255
-1.61196 0.0444114 5.06742 0 0 0 128 128 0 255
-1.61374 0.00454655 5.06466 0 0 0 128 128 0 255
-1.56463 1.13587 5.14162 0 0 0 128 128 0 255
-1.62433 0.0127187 5.05491 0 0 0 128 128 0 255
-1.5731 1.17486 5.13467 0 0 0 128 128 0 255
-1.58141 1.1177 5.12513 0 0 0 128 128 0 255
-1.62999 0.190643 5.05389 0 0 0 128 128 0 255
-1.62989 0.208662 5.05442 0 0 0 128 128 0 255
-1.63322 0.149942 5.04965 0 0 0 128 128 0 255
-1.62355 0.429317 5.06613 0 0 0 128 128 0 255
-1.64913 -0.0175216 5.02945 0 0 0 128 128 0 255
-1.64057 0.344143 5.0465 0 0 0 128 128 0 255
-1.65194 0.151122 5.0302 0 0 0 128 128 0 255
-1.65893 0.177009 5.02312 0 0 0 128 128 0 255
-1.66708 -0.00537309 5.0105 0 0 0 128 128 0 255
-1.64924 0.690896 5.04366 0 0 0 128 128 0 255
-1.67959 0.186586 4.99958 0 0 0 128 128 0 255
-1.68312 0.164986 4.995 0 0 0 128 128 0 255
-1.68589 0.343773 4.99415 0 0 0 128 128 0 255
-1.6861 0.464103 4.99538 0 0 0 128 128 0 255
-1.69621 0.293012 4.98037 0 0 0 128 128 0 255
-1.70867 0.0279924 4.96123 0 0 0 128 128 0 255
-1.69321 0.469072 4.98618 0 0 0 128 128 0 255
-1.71015 0.184612 4.96087 0 0 0 128 128 0 255
-1.71768 0.016183 4.94921 0 0 0 128 128 0 255
-1.7019 0.462247 4.97444 0 0 0 128 128 0 255
-1.71735 0.169568 4.95093 0 0 0 128 128 0 255
-1.71749 0.179616 4.95081 0 0 0 128 128 0 255
-1.72779 -0.0114891 4.93514 0 0 0 128 128 0 255
-1.73299 0.0273674 4.92799 0 0 0 128 128 0 255
-1.73599 0.261551 4.92424 0 0 0 128 128 0 255
-1.73459 0.329568 4.92642 0 0 0 128 128 0 255
-1.74869 0.277557 4.90415 0 0 0 128 128 0 255
-1.74014 0.527123 4.91714 0 0 0 128 128 0 255
-1.74352 0.520639 4.91153 0 0 0 128 128 0 255
-1.76158 0.241491 4.88268 0 0 0 128 128 0 255
-1.75564 0.441307 4.89129 0 0 0 128 128 0 255
-1.7684 0.446509 4.86788 0 0 0 128 128 0 255
-1.84064 0.125746 4.70698 0 0 0 128 128 0 255
-1.83847 0.234092 4.70586 0 0 0 128 128 0 255
