ply
format ascii 1.0
comment VCGLIB generated
element vertex 615
property float x
property float y
property float z
property float nx
property float ny
property float nz
property uchar red
property uchar green
property uchar blue
property uchar alpha
element face 0
property list uchar int vertex_indices
end_header
0.098309 1.56652 3.66721 0 0 0 0 128 0 255
0.127885 1.53145 3.59972 0 0 0 0 128 0 255
0.136697 1.52483 3.58682 0 0 0 0 128 0 255
0.219997 1.50946 3.74291 0 0 0 0 128 0 255
0.131179 1.53299 3.54554 0 0 0 0 128 0 255
0.225425 1.49704 3.71809 0 0 0 0 128 0 255
0.232759 1.49531 3.7215 0 0 0 0 128 0 255
0.14184 1.5279 3.52996 0 0 0 0 128 0 255
0.161593 1.50954 3.56138 0 0 0 0 128 0 255
0.231325 1.48104 3.67006 0 0 0 0 128 0 255
0.156794 1.51779 3.52863 0 0 0 0 128 0 255
0.234351 1.65501 3.91097 0 0 0 0 128 0 255
0.175395 1.50448 3.538 0 0 0 0 128 0 255
0.291551 1.62041 3.90808 0 0 0 0 128 0 255
0.175882 1.51409 3.49676 0 0 0 0 128 0 255
0.252076 1.46658 3.57955 0 0 0 0 128 0 255
0.412884 1.53049 3.82878 0 0 0 0 128 0 255
0.25786 1.46681 3.5542 0 0 0 0 128 0 255
0.42904 1.51353 3.80051 0 0 0 0 128 0 255
0.426324 1.49714 3.77305 0 0 0 0 128 0 255
0.422914 1.57022 3.87131 0 0 0 0 128 0 255
0.440248 1.54284 3.83744 0 0 0 0 128 0 255
0.443859 1.49935 3.77048 0 0 0 0 128 0 255
0.444458 1.53484 3.82603 0 0 0 0 128 0 255
0.448023 1.55266 3.84646 0 0 0 0 128 0 255
0.193 1.52088 3.45305 0 0 0 0 128 0 255
0.421778 1.60429 3.90066 0 0 0 0 128 0 255
0.480662 1.53323 3.80816 0 0 0 0 128 0 255
0.444575 1.46683 3.6824 0 0 0 0 128 0 255
0.200583 1.52231 3.44135 0 0 0 0 128 0 255
0.482273 1.48717 3.71739 0 0 0 0 128 0 255
0.47498 1.47697 3.69178 0 0 0 0 128 0 255
0.501397 1.50183 3.73719 0 0 0 0 128 0 255
0.474103 1.47523 3.68609 0 0 0 0 128 0 255
0.495495 1.58009 3.85584 0 0 0 0 128 0 255
0.493459 1.59342 3.86924 0 0 0 0 128 0 255
0.503466 1.58334 3.85494 0 0 0 0 128 0 255
0.238828 1.49449 3.46583 0 0 0 0 128 0 255
0.500836 1.592 3.86442 0 0 0 0 128 0 255
0.526667 1.56636 3.82257 0 0 0 0 128 0 255
0.523439 1.50724 3.72676 0 0 0 0 128 0 255
0.217002 1.5184 3.43278 0 0 0 0 128 0 255
0.505128 1.61107 3.87848 0 0 0 0 128 0 255
0.536734 1.51799 3.73634 0 0 0 0 128 0 255
0.566138 1.5529 3.76851 0 0 0 0 128 0 255
0.554148 1.51895 3.71469 0 0 0 0 128 0 255
0.2648 1.48807 3.46001 0 0 0 0 128 0 255
0.572367 1.56766 3.78402 0 0 0 0 128 0 255
0.524906 1.48597 3.64369 0 0 0 0 128 0 255
0.397866 1.45358 3.54401 0 0 0 0 128 0 255
0.582227 1.58828 3.80047 0 0 0 0 128 0 255
0.568016 1.51863 3.68827 0 0 0 0 128 0 255
0.547011 1.49909 3.65752 0 0 0 0 128 0 255
0.2751 1.48737 3.45457 0 0 0 0 128 0 255
0.585879 1.59429 3.80373 0 0 0 0 128 0 255
0.589818 1.5921 3.79688 0 0 0 0 128 0 255
0.230063 1.52695 3.40693 0 0 0 0 128 0 255
0.234883 1.52174 3.41216 0 0 0 0 128 0 255
0.543146 1.49353 3.63345 0 0 0 0 128 0 255
0.260106 1.50127 3.4331 0 0 0 0 128 0 255
0.503475 1.47395 3.58691 0 0 0 0 128 0 255
0.40797 1.45733 3.52649 0 0 0 0 128 0 255
0.498281 1.47231 3.57891 0 0 0 0 128 0 255
0.584802 1.52246 3.65848 0 0 0 0 128 0 255
0.247359 1.51803 3.41001 0 0 0 0 128 0 255
0.542434 1.49139 3.61008 0 0 0 0 128 0 255
0.589178 1.65152 3.8529 0 0 0 0 128 0 255
0.583874 1.66438 3.86598 0 0 0 0 128 0 255
0.631013 1.61688 3.77415 0 0 0 0 128 0 255
0.427093 1.46528 3.50192 0 0 0 0 128 0 255
0.559582 1.71596 3.90875 0 0 0 0 128 0 255
0.282987 1.50928 3.40575 0 0 0 0 128 0 255
0.324821 1.4866 3.43439 0 0 0 0 128 0 255
0.264171 1.5255 3.38859 0 0 0 0 128 0 255
0.250414 1.54241 3.3719 0 0 0 0 128 0 255
0.520573 1.48686 3.5303 0 0 0 0 128 0 255
0.264637 1.52852 3.38391 0 0 0 0 128 0 255
0.399054 1.473 3.46511 0 0 0 0 128 0 255
0.303141 1.50124 3.41202 0 0 0 0 128 0 255
0.268187 1.52846 3.38233 0 0 0 0 128 0 255
0.678601 1.62361 3.68129 0 0 0 0 128 0 255
0.584583 1.74115 3.90086 0 0 0 0 128 0 255
0.573042 1.51382 3.53692 0 0 0 0 128 0 255
0.281881 1.52198 3.38588 0 0 0 0 128 0 255
0.288865 1.51769 3.38968 0 0 0 0 128 0 255
0.406539 1.4779 3.45412 0 0 0 0 128 0 255
0.347724 1.49164 3.41989 0 0 0 0 128 0 255
0.291821 1.52006 3.38498 0 0 0 0 128 0 255
0.420245 1.4803 3.4526 0 0 0 0 128 0 255
0.476318 1.48558 3.47302 0 0 0 0 128 0 255
0.620596 1.54832 3.54495 0 0 0 0 128 0 255
0.57608 1.77631 3.91532 0 0 0 0 128 0 255
0.421789 1.48376 3.44486 0 0 0 0 128 0 255
0.427223 1.48418 3.44597 0 0 0 0 128 0 255
0.461951 1.4871 3.45766 0 0 0 0 128 0 255
0.288635 1.52971 3.3723 0 0 0 0 128 0 255
0.705742 1.71547 3.73765 0 0 0 0 128 0 255
0.709457 1.70447 3.71758 0 0 0 0 128 0 255
0.692584 1.62768 3.6067 0 0 0 0 128 0 255
0.62262 1.77654 3.87948 0 0 0 0 128 0 255
0.62348 1.77628 3.87864 0 0 0 0 128 0 255
0.349728 1.4981 3.40761 0 0 0 0 128 0 255
0.383385 1.4901 3.42269 0 0 0 0 128 0 255
0.28038 1.54035 3.36129 0 0 0 0 128 0 255
0.338128 1.50283 3.40071 0 0 0 0 128 0 255
0.279594 1.54156 3.36007 0 0 0 0 128 0 255
0.714733 1.70805 3.70587 0 0 0 0 128 0 255
0.27966 1.54303 3.35823 0 0 0 0 128 0 255
0.362535 1.49603 3.41063 0 0 0 0 128 0 255
0.714003 1.71649 3.71704 0 0 0 0 128 0 255
0.715848 1.7141 3.70913 0 0 0 0 128 0 255
0.655906 1.77563 3.84525 0 0 0 0 128 0 255
0.374405 1.49517 3.41233 0 0 0 0 128 0 255
0.274515 1.55285 3.34847 0 0 0 0 128 0 255
0.45012 1.49114 3.44088 0 0 0 0 128 0 255
0.498664 1.49941 3.45735 0 0 0 0 128 0 255
0.716597 1.7345 3.72561 0 0 0 0 128 0 255
0.716791 1.7391 3.72855 0 0 0 0 128 0 255
0.721326 1.7259 3.70403 0 0 0 0 128 0 255
0.365892 1.4994 3.40453 0 0 0 0 128 0 255
0.465929 1.4953 3.44102 0 0 0 0 128 0 255
0.673198 1.60543 3.54435 0 0 0 0 128 0 255
0.489398 1.50071 3.44613 0 0 0 0 128 0 255
0.384623 1.49768 3.40844 0 0 0 0 128 0 255
0.506291 1.50588 3.44949 0 0 0 0 128 0 255
0.664077 1.59779 3.52809 0 0 0 0 128 0 255
0.385671 1.49826 3.4075 0 0 0 0 128 0 255
0.501586 1.50884 3.43882 0 0 0 0 128 0 255
0.730488 1.75138 3.69615 0 0 0 0 128 0 255
0.732509 1.74101 3.67794 0 0 0 0 128 0 255
0.724557 1.77293 3.72811 0 0 0 0 128 0 255
0.386079 1.50382 3.39791 0 0 0 0 128 0 255
0.68389 1.62644 3.52362 0 0 0 0 128 0 255
0.41504 1.50184 3.40638 0 0 0 0 128 0 255
0.393959 1.50368 3.39908 0 0 0 0 128 0 255
0.720104 1.68 3.57476 0 0 0 0 128 0 255
0.705886 1.65637 3.54694 0 0 0 0 128 0 255
0.352068 1.51469 3.38035 0 0 0 0 128 0 255
0.455772 1.50457 3.41664 0 0 0 0 128 0 255
0.398888 1.50438 3.39863 0 0 0 0 128 0 255
0.365177 1.51082 3.38573 0 0 0 0 128 0 255
0.71722 1.67536 3.56405 0 0 0 0 128 0 255
0.341944 1.51921 3.37467 0 0 0 0 128 0 255
0.728558 1.69934 3.59016 0 0 0 0 128 0 255
0.696484 1.64447 3.5304 0 0 0 0 128 0 255
0.484288 1.51138 3.42068 0 0 0 0 128 0 255
0.584514 1.55111 3.45012 0 0 0 0 128 0 255
0.735243 1.78246 3.69997 0 0 0 0 128 0 255
0.402893 1.50715 3.39473 0 0 0 0 128 0 255
0.4894 1.51541 3.41682 0 0 0 0 128 0 255
0.396066 1.51032 3.38855 0 0 0 0 128 0 255
0.678231 1.63091 3.49273 0 0 0 0 128 0 255
0.5639 1.54486 3.43398 0 0 0 0 128 0 255
0.357597 1.52059 3.37151 0 0 0 0 128 0 255
0.438833 1.51144 3.39748 0 0 0 0 128 0 255
0.535128 1.53494 3.42017 0 0 0 0 128 0 255
0.348079 1.52672 3.36371 0 0 0 0 128 0 255
0.348007 1.52733 3.3629 0 0 0 0 128 0 255
0.432477 1.51371 3.39165 0 0 0 0 128 0 255
0.685419 1.64583 3.48636 0 0 0 0 128 0 255
0.496906 1.52624 3.40356 0 0 0 0 128 0 255
0.680167 1.6436 3.47559 0 0 0 0 128 0 255
0.633357 1.60097 3.44271 0 0 0 0 128 0 255
0.397656 1.5196 3.37488 0 0 0 0 128 0 255
0.370948 1.52631 3.36355 0 0 0 0 128 0 255
0.744343 1.75689 3.56888 0 0 0 0 128 0 255
0.496059 1.53094 3.39565 0 0 0 0 128 0 255
0.398497 1.52152 3.37229 0 0 0 0 128 0 255
0.331601 1.54316 3.34506 0 0 0 0 128 0 255
0.409341 1.52147 3.37417 0 0 0 0 128 0 255
0.648446 1.62411 3.43617 0 0 0 0 128 0 255
0.414024 1.5239 3.3717 0 0 0 0 128 0 255
0.59068 1.58019 3.41086 0 0 0 0 128 0 255
0.712673 1.70147 3.48682 0 0 0 0 128 0 255
0.631415 1.61276 3.42299 0 0 0 0 128 0 255
0.430868 1.52826 3.36987 0 0 0 0 128 0 255
0.664032 1.64743 3.43527 0 0 0 0 128 0 255
0.740205 1.76278 3.52699 0 0 0 0 128 0 255
0.501877 1.54443 3.38002 0 0 0 0 128 0 255
0.375599 1.53576 3.3516 0 0 0 0 128 0 255
0.318341 1.56492 3.32374 0 0 0 0 128 0 255
0.734709 1.75287 3.51051 0 0 0 0 128 0 255
0.735701 1.75573 3.51209 0 0 0 0 128 0 255
0.361721 1.54069 3.34556 0 0 0 0 128 0 255
0.46347 1.53642 3.37053 0 0 0 0 128 0 255
0.445096 1.53391 3.36677 0 0 0 0 128 0 255
0.640007 1.63278 3.41206 0 0 0 0 128 0 255
0.619285 1.61492 3.40319 0 0 0 0 128 0 255
0.433086 1.53378 3.36317 0 0 0 0 128 0 255
0.709363 1.71405 3.46399 0 0 0 0 128 0 255
0.374061 1.53886 3.34779 0 0 0 0 128 0 255
0.733616 1.75708 3.50222 0 0 0 0 128 0 255
0.723948 1.73843 3.48404 0 0 0 0 128 0 255
0.730358 1.75194 3.49428 0 0 0 0 128 0 255
0.416681 1.53487 3.35772 0 0 0 0 128 0 255
0.524912 1.55972 3.37564 0 0 0 0 128 0 255
0.411643 1.53591 3.35542 0 0 0 0 128 0 255
0.732345 1.76381 3.49235 0 0 0 0 128 0 255
0.692112 1.69928 3.43737 0 0 0 0 128 0 255
0.61433 1.62048 3.39085 0 0 0 0 128 0 255
0.344527 1.55469 3.33081 0 0 0 0 128 0 255
0.651762 1.65516 3.40667 0 0 0 0 128 0 255
0.429522 1.5391 3.35546 0 0 0 0 128 0 255
0.72382 1.75054 3.47419 0 0 0 0 128 0 255
0.601179 1.6118 3.38476 0 0 0 0 128 0 255
0.576819 1.59443 3.37833 0 0 0 0 128 0 255
0.712629 1.73803 3.45304 0 0 0 0 128 0 255
0.711281 1.73671 3.45071 0 0 0 0 128 0 255
0.676492 1.68925 3.41638 0 0 0 0 128 0 255
0.671453 1.68405 3.41211 0 0 0 0 128 0 255
0.726823 1.76544 3.47355 0 0 0 0 128 0 255
0.727496 1.76852 3.47381 0 0 0 0 128 0 255
0.717778 1.75596 3.45451 0 0 0 0 128 0 255
0.636791 1.65445 3.38644 0 0 0 0 128 0 255
0.725759 1.77334 3.46636 0 0 0 0 128 0 255
0.679892 1.70492 3.41029 0 0 0 0 128 0 255
0.682886 1.70953 3.41219 0 0 0 0 128 0 255
0.447919 1.55031 3.34754 0 0 0 0 128 0 255
0.724358 1.7763 3.46119 0 0 0 0 128 0 255
0.750583 1.86019 3.55645 0 0 0 0 128 0 255
0.361277 1.55751 3.32699 0 0 0 0 128 0 255
0.748498 1.8953 3.60867 0 0 0 0 128 0 255
0.347005 1.56571 3.31941 0 0 0 0 128 0 255
0.72298 1.78248 3.45509 0 0 0 0 128 0 255
0.747623 1.90179 3.59986 0 0 0 0 128 0 255
0.687245 1.73159 3.40604 0 0 0 0 128 0 255
0.50359 1.57556 3.34429 0 0 0 0 128 0 255
0.650158 1.68693 3.37868 0 0 0 0 128 0 255
0.641621 1.67775 3.37422 0 0 0 0 128 0 255
0.679303 1.7236 3.39752 0 0 0 0 128 0 255
0.71319 1.77863 3.43374 0 0 0 0 128 0 255
0.678561 1.72622 3.3949 0 0 0 0 128 0 255
0.674995 1.72338 3.391 0 0 0 0 128 0 255
0.746672 1.90464 3.57683 0 0 0 0 128 0 255
0.674006 1.72853 3.3868 0 0 0 0 128 0 255
0.644092 1.69526 3.36569 0 0 0 0 128 0 255
0.553759 1.61539 3.33864 0 0 0 0 128 0 255
0.662174 1.72001 3.37462 0 0 0 0 128 0 255
0.661487 1.72009 3.37366 0 0 0 0 128 0 255
0.700813 1.77873 3.40952 0 0 0 0 128 0 255
0.644426 1.70447 3.36072 0 0 0 0 128 0 255
0.610897 1.67014 3.34562 0 0 0 0 128 0 255
0.705131 1.79162 3.41388 0 0 0 0 128 0 255
0.64558 1.70853 3.35985 0 0 0 0 128 0 255
0.363715 1.57241 3.31234 0 0 0 0 128 0 255
0.608627 1.67207 3.34216 0 0 0 0 128 0 255
0.583851 1.65018 3.33489 0 0 0 0 128 0 255
0.582582 1.65458 3.33078 0 0 0 0 128 0 255
0.634391 1.70886 3.34706 0 0 0 0 128 0 255
0.671601 1.75845 3.37071 0 0 0 0 128 0 255
0.669975 1.7562 3.3693 0 0 0 0 128 0 255
0.669798 1.75703 3.36878 0 0 0 0 128 0 255
0.674754 1.7662 3.3725 0 0 0 0 128 0 255
0.578656 1.65842 3.32508 0 0 0 0 128 0 255
0.676219 1.77168 3.37289 0 0 0 0 128 0 255
0.700268 1.81299 3.40142 0 0 0 0 128 0 255
0.540003 1.63849 3.31168 0 0 0 0 128 0 255
0.662862 1.7674 3.35659 0 0 0 0 128 0 255
0.701653 1.83135 3.40254 0 0 0 0 128 0 255
0.727449 1.97463 3.59127 0 0 0 0 128 0 255
0.701441 1.83368 3.40214 0 0 0 0 128 0 255
0.679788 1.79596 3.37224 0 0 0 0 128 0 255
0.64983 1.75328 3.34551 0 0 0 0 128 0 255
0.680918 1.79899 3.37332 0 0 0 0 128 0 255
0.674739 1.78937 3.36656 0 0 0 0 128 0 255
0.673988 1.78944 3.36554 0 0 0 0 128 0 255
0.648217 1.75341 3.34365 0 0 0 0 128 0 255
0.465693 1.59708 3.30782 0 0 0 0 128 0 255
0.660094 1.77164 3.35206 0 0 0 0 128 0 255
0.462139 1.59773 3.30609 0 0 0 0 128 0 255
0.641276 1.75236 3.33644 0 0 0 0 128 0 255
0.573219 1.68083 3.3077 0 0 0 0 128 0 255
0.651175 1.76996 3.34213 0 0 0 0 128 0 255
0.722136 1.90986 3.46283 0 0 0 0 128 0 255
0.679547 1.81472 3.36939 0 0 0 0 128 0 255
0.721582 1.91207 3.4626 0 0 0 0 128 0 255
0.571171 1.68269 3.30525 0 0 0 0 128 0 255
0.630214 1.74756 3.32672 0 0 0 0 128 0 255
0.584016 1.69624 3.30778 0 0 0 0 128 0 255
0.707495 1.87529 3.41739 0 0 0 0 128 0 255
0.691038 1.84188 3.38526 0 0 0 0 128 0 255
0.572021 1.68837 3.30293 0 0 0 0 128 0 255
0.720552 1.92173 3.46581 0 0 0 0 128 0 255
0.454375 1.60344 3.29909 0 0 0 0 128 0 255
0.715354 1.90634 3.44424 0 0 0 0 128 0 255
0.69114 1.8479 3.38569 0 0 0 0 128 0 255
0.654954 1.7886 3.34226 0 0 0 0 128 0 255
0.684643 1.83723 3.37563 0 0 0 0 128 0 255
0.685085 1.83946 3.3763 0 0 0 0 128 0 255
0.722051 1.97786 3.54115 0 0 0 0 128 0 255
0.720761 1.9365 3.47755 0 0 0 0 128 0 255
0.689703 1.85106 3.38369 0 0 0 0 128 0 255
0.70155 1.8777 3.40698 0 0 0 0 128 0 255
0.568363 1.6928 3.29823 0 0 0 0 128 0 255
0.481722 1.62251 3.29417 0 0 0 0 128 0 255
0.430962 1.5973 3.29797 0 0 0 0 128 0 255
0.697069 1.87246 3.39819 0 0 0 0 128 0 255
0.557263 1.68818 3.29321 0 0 0 0 128 0 255
0.718198 1.9505 3.48281 0 0 0 0 128 0 255
0.561663 1.69342 3.2935 0 0 0 0 128 0 255
0.690545 1.86658 3.3867 0 0 0 0 128 0 255
0.55687 1.68983 3.29216 0 0 0 0 128 0 255
0.714687 1.94178 3.46482 0 0 0 0 128 0 255
0.435408 1.6056 3.29248 0 0 0 0 128 0 255
0.716768 1.96753 3.49803 0 0 0 0 128 0 255
0.714592 1.9475 3.46942 0 0 0 0 128 0 255
0.716073 1.96385 3.4909 0 0 0 0 128 0 255
0.716062 1.97663 3.50883 0 0 0 0 128 0 255
0.715646 1.96461 3.49041 0 0 0 0 128 0 255
0.714066 1.96989 3.4918 0 0 0 0 128 0 255
0.429405 1.60777 3.28956 0 0 0 0 128 0 255
0.701452 2.01895 3.534 0 0 0 0 128 0 255
0.641724 1.8385 3.3239 0 0 0 0 128 0 255
0.698577 2.02448 3.5352 0 0 0 0 128 0 255
0.511636 1.69241 3.26701 0 0 0 0 128 0 255
0.583996 1.76961 3.28271 0 0 0 0 128 0 255
0.694995 1.97256 3.44418 0 0 0 0 128 0 255
0.443135 1.63999 3.27097 0 0 0 0 128 0 255
0.58386 1.77334 3.28185 0 0 0 0 128 0 255
0.520607 1.70758 3.26484 0 0 0 0 128 0 255
0.510916 1.6985 3.26411 0 0 0 0 128 0 255
0.566333 1.76604 3.2719 0 0 0 0 128 0 255
0.510005 1.714 3.25773 0 0 0 0 128 0 255
0.66535 1.92731 3.36788 0 0 0 0 128 0 255
0.683925 2.0452 3.52561 0 0 0 0 128 0 255
0.66625 1.93144 3.37078 0 0 0 0 128 0 255
0.515289 1.7239 3.2566 0 0 0 0 128 0 255
0.485281 1.70432 3.25182 0 0 0 0 128 0 255
0.503345 1.72344 3.25177 0 0 0 0 128 0 255
0.374561 1.62455 3.27173 0 0 0 0 128 0 255
0.497707 1.71934 3.25093 0 0 0 0 128 0 255
0.484438 1.71196 3.24872 0 0 0 0 128 0 255
0.391814 1.63857 3.26388 0 0 0 0 128 0 255
0.674213 2.05964 3.52702 0 0 0 0 128 0 255
0.605888 1.85294 3.29237 0 0 0 0 128 0 255
0.608219 1.85946 3.29467 0 0 0 0 128 0 255
0.385432 1.63955 3.26288 0 0 0 0 128 0 255
0.373907 1.634 3.26576 0 0 0 0 128 0 255
0.481024 1.72477 3.24329 0 0 0 0 128 0 255
0.561566 1.81641 3.26225 0 0 0 0 128 0 255
0.666116 2.02346 3.43904 0 0 0 0 128 0 255
0.602221 1.87594 3.2917 0 0 0 0 128 0 255
0.563639 1.82765 3.26302 0 0 0 0 128 0 255
0.568024 1.84663 3.26575 0 0 0 0 128 0 255
0.456725 1.72749 3.23549 0 0 0 0 128 0 255
0.561039 1.8391 3.26142 0 0 0 0 128 0 255
0.456714 1.7361 3.23302 0 0 0 0 128 0 255
0.429484 1.71469 3.23378 0 0 0 0 128 0 255
0.464195 1.7467 3.2322 0 0 0 0 128 0 255
0.412438 1.70279 3.2354 0 0 0 0 128 0 255
0.572869 1.87651 3.27114 0 0 0 0 128 0 255
0.571632 1.87636 3.27034 0 0 0 0 128 0 255
0.443392 1.73516 3.23023 0 0 0 0 128 0 255
0.469884 1.76095 3.23057 0 0 0 0 128 0 255
0.633208 2.00256 3.37078 0 0 0 0 128 0 255
0.569613 1.88153 3.26977 0 0 0 0 128 0 255
0.3862 1.69293 3.23679 0 0 0 0 128 0 255
0.566582 1.88046 3.26775 0 0 0 0 128 0 255
0.432594 1.73758 3.22747 0 0 0 0 128 0 255
0.451924 1.75778 3.22662 0 0 0 0 128 0 255
0.439549 1.74629 3.22657 0 0 0 0 128 0 255
0.380354 1.69407 3.23608 0 0 0 0 128 0 255
0.40437 1.71849 3.22908 0 0 0 0 128 0 255
0.537833 1.8577 3.24966 0 0 0 0 128 0 255
0.609788 1.97847 3.33114 0 0 0 0 128 0 255
0.377819 1.70009 3.23368 0 0 0 0 128 0 255
0.620241 2.00742 3.35973 0 0 0 0 128 0 255
0.446452 1.76508 3.22394 0 0 0 0 128 0 255
0.414577 1.73557 3.22524 0 0 0 0 128 0 255
0.522806 1.85397 3.24241 0 0 0 0 128 0 255
0.469716 1.79586 3.22511 0 0 0 0 128 0 255
0.478894 1.8068 3.22677 0 0 0 0 128 0 255
0.399616 1.72995 3.22517 0 0 0 0 128 0 255
0.445601 1.77429 3.22214 0 0 0 0 128 0 255
0.41694 1.74826 3.22236 0 0 0 0 128 0 255
0.594282 1.97123 3.31408 0 0 0 0 128 0 255
0.619493 2.05187 3.39872 0 0 0 0 128 0 255
0.605176 2.00265 3.34131 0 0 0 0 128 0 255
0.42299 1.75871 3.22092 0 0 0 0 128 0 255
0.619352 2.06183 3.41005 0 0 0 0 128 0 255
0.616012 2.04326 3.38545 0 0 0 0 128 0 255
0.603391 2.00307 3.33993 0 0 0 0 128 0 255
0.453284 1.79603 3.22091 0 0 0 0 128 0 255
0.469046 1.81519 3.22336 0 0 0 0 128 0 255
0.396944 1.74555 3.22085 0 0 0 0 128 0 255
0.400799 1.75274 3.21952 0 0 0 0 128 0 255
0.519643 1.88499 3.24401 0 0 0 0 128 0 255
0.609784 2.08191 3.42333 0 0 0 0 128 0 255
0.456193 1.81218 3.22024 0 0 0 0 128 0 255
0.582817 1.99035 3.31492 0 0 0 0 128 0 255
0.467358 1.82694 3.22245 0 0 0 0 128 0 255
0.414192 1.77181 3.21727 0 0 0 0 128 0 255
0.372559 1.73008 3.22372 0 0 0 0 128 0 255
0.508308 1.87807 3.23841 0 0 0 0 128 0 255
0.605259 2.09587 3.43816 0 0 0 0 128 0 255
0.576897 1.99321 3.31203 0 0 0 0 128 0 255
0.426561 1.79416 3.21592 0 0 0 0 128 0 255
0.382799 1.7507 3.21878 0 0 0 0 128 0 255
0.518992 1.90473 3.24708 0 0 0 0 128 0 255
0.435159 1.80823 3.21611 0 0 0 0 128 0 255
0.501291 1.88594 3.23672 0 0 0 0 128 0 255
0.390654 1.76455 3.21634 0 0 0 0 128 0 255
0.367872 1.74374 3.22007 0 0 0 0 128 0 255
0.504682 1.89814 3.23995 0 0 0 0 128 0 255
0.448915 1.83102 3.21789 0 0 0 0 128 0 255
0.358102 1.73379 3.22274 0 0 0 0 128 0 255
0.343246 1.71534 3.22892 0 0 0 0 128 0 255
0.447264 1.83054 3.21754 0 0 0 0 128 0 255
0.362841 1.75149 3.21828 0 0 0 0 128 0 255
0.311223 1.66054 3.25537 0 0 0 0 128 0 255
0.572875 2.0561 3.35414 0 0 0 0 128 0 255
0.309684 1.6409 3.26646 0 0 0 0 128 0 255
0.344348 1.74695 3.21996 0 0 0 0 128 0 255
0.361327 1.76911 3.2148 0 0 0 0 128 0 255
0.32024 1.71309 3.23187 0 0 0 0 128 0 255
0.304146 1.66427 3.2547 0 0 0 0 128 0 255
0.557313 2.05674 3.34224 0 0 0 0 128 0 255
0.424759 1.84937 3.21365 0 0 0 0 128 0 255
0.346548 1.76009 3.21698 0 0 0 0 128 0 255
0.508235 1.96928 3.26164 0 0 0 0 128 0 255
0.341473 1.76038 3.21723 0 0 0 0 128 0 255
0.341743 1.7654 3.21625 0 0 0 0 128 0 255
0.370562 1.80386 3.21034 0 0 0 0 128 0 255
0.373869 1.81276 3.20976 0 0 0 0 128 0 255
0.313329 1.72922 3.22777 0 0 0 0 128 0 255
0.317254 1.74229 3.2237 0 0 0 0 128 0 255
0.351012 1.79533 3.21143 0 0 0 0 128 0 255
0.290842 1.64785 3.26623 0 0 0 0 128 0 255
0.360263 1.82577 3.2092 0 0 0 0 128 0 255
0.297883 1.73275 3.22933 0 0 0 0 128 0 255
0.292547 1.61923 3.28386 0 0 0 0 128 0 255
0.360653 1.85079 3.20937 0 0 0 0 128 0 255
0.410263 1.92213 3.22137 0 0 0 0 128 0 255
0.29196 1.75201 3.22562 0 0 0 0 128 0 255
0.289741 1.74864 3.22685 0 0 0 0 128 0 255
0.295653 1.61032 3.28949 0 0 0 0 128 0 255
0.27966 1.72965 3.23412 0 0 0 0 128 0 255
0.361361 1.86777 3.2104 0 0 0 0 128 0 255
0.297172 1.77177 3.2207 0 0 0 0 128 0 255
0.286828 1.61875 3.28561 0 0 0 0 128 0 255
0.29773 1.77414 3.2202 0 0 0 0 128 0 255
0.393849 1.91707 3.2187 0 0 0 0 128 0 255
0.298411 1.60489 3.29293 0 0 0 0 128 0 255
0.277194 1.6318 3.27946 0 0 0 0 128 0 255
0.318182 1.81873 3.21244 0 0 0 0 128 0 255
0.407617 1.9544 3.23003 0 0 0 0 128 0 255
0.425742 1.98483 3.24393 0 0 0 0 128 0 255
0.314455 1.822 3.2128 0 0 0 0 128 0 255
0.287839 1.78085 3.22112 0 0 0 0 128 0 255
0.408851 1.9713 3.23611 0 0 0 0 128 0 255
0.283802 1.77684 3.2226 0 0 0 0 128 0 255
0.266505 1.63796 3.27876 0 0 0 0 128 0 255
0.407145 1.97711 3.23816 0 0 0 0 128 0 255
0.420508 2.01283 3.25632 0 0 0 0 128 0 255
0.35855 1.91909 3.21825 0 0 0 0 128 0 255
0.295699 1.59347 3.30263 0 0 0 0 128 0 255
0.282757 1.81119 3.21903 0 0 0 0 128 0 255
0.363225 1.96245 3.23047 0 0 0 0 128 0 255
0.27421 1.82714 3.22034 0 0 0 0 128 0 255
0.243192 1.74507 3.24061 0 0 0 0 128 0 255
0.338026 1.94317 3.22542 0 0 0 0 128 0 255
0.35108 1.96684 3.23234 0 0 0 0 128 0 255
0.321413 1.91697 3.22042 0 0 0 0 128 0 255
0.283511 1.85381 3.21852 0 0 0 0 128 0 255
0.262396 1.81091 3.22417 0 0 0 0 128 0 255
0.374281 2.01554 3.25357 0 0 0 0 128 0 255
0.357993 1.98569 3.23949 0 0 0 0 128 0 255
0.316832 1.9153 3.22064 0 0 0 0 128 0 255
0.352164 1.99468 3.2436 0 0 0 0 128 0 255
0.231166 1.73265 3.24847 0 0 0 0 128 0 255
0.40318 2.12825 3.34573 0 0 0 0 128 0 255
0.320594 1.94512 3.22776 0 0 0 0 128 0 255
0.261155 1.85079 3.22402 0 0 0 0 128 0 255
0.26277 1.85574 3.2238 0 0 0 0 128 0 255
0.305444 1.93884 3.22815 0 0 0 0 128 0 255
0.244319 1.81476 3.22949 0 0 0 0 128 0 255
0.350653 2.03189 3.26299 0 0 0 0 128 0 255
0.226012 1.78288 3.23939 0 0 0 0 128 0 255
0.302712 1.95668 3.23412 0 0 0 0 128 0 255
0.363223 2.10583 3.31923 0 0 0 0 128 0 255
0.213985 1.74304 3.25271 0 0 0 0 128 0 255
0.230586 1.83077 3.2338 0 0 0 0 128 0 255
0.256982 1.92315 3.23542 0 0 0 0 128 0 255
0.255504 1.92162 3.23551 0 0 0 0 128 0 255
0.240103 1.8886 3.23421 0 0 0 0 128 0 255
0.251262 1.92413 3.23746 0 0 0 0 128 0 255
0.201463 1.77916 3.25068 0 0 0 0 128 0 255
0.200834 1.78683 3.24982 0 0 0 0 128 0 255
0.214502 1.85529 3.24079 0 0 0 0 128 0 255
0.296681 2.09079 3.31384 0 0 0 0 128 0 255
0.197819 1.85343 3.24832 0 0 0 0 128 0 255
0.286614 2.11256 3.33813 0 0 0 0 128 0 255
0.273765 2.08496 3.31525 0 0 0 0 128 0 255
0.207883 1.90759 3.25059 0 0 0 0 128 0 255
0.164916 1.71762 3.28764 0 0 0 0 128 0 255
0.160963 1.67113 3.31257 0 0 0 0 128 0 255
0.142117 1.75446 3.29155 0 0 0 0 128 0 255
0.149445 1.68584 3.31301 0 0 0 0 128 0 255
0.15068 1.68178 3.31425 0 0 0 0 128 0 255
0.134181 1.80589 3.28817 0 0 0 0 128 0 255
0.126488 1.81038 3.29374 0 0 0 0 128 0 255
0.153326 2.14564 3.50741 0 0 0 0 128 0 255
0.126804 1.93332 3.30865 0 0 0 0 128 0 255
0.143047 1.65196 3.33918 0 0 0 0 128 0 255
0.116377 1.8837 3.30496 0 0 0 0 128 0 255
0.110506 1.8112 3.30711 0 0 0 0 128 0 255
0.119682 1.92268 3.31128 0 0 0 0 128 0 255
0.119788 1.94293 3.3182 0 0 0 0 128 0 255
0.12267 1.68417 3.33674 0 0 0 0 128 0 255
0.150257 1.62211 3.35669 0 0 0 0 128 0 255
0.0972119 1.81975 3.31886 0 0 0 0 128 0 255
0.161377 1.60513 3.36272 0 0 0 0 128 0 255
0.155428 1.61085 3.36245 0 0 0 0 128 0 255
0.103332 1.94837 3.33606 0 0 0 0 128 0 255
0.138164 1.63127 3.35997 0 0 0 0 128 0 255
0.106914 2.0781 3.44348 0 0 0 0 128 0 255
0.10478 2.04211 3.4002 0 0 0 0 128 0 255
0.0934062 1.98972 3.36978 0 0 0 0 128 0 255
0.0991366 2.08429 3.46912 0 0 0 0 128 0 255
0.0992043 2.08343 3.4673 0 0 0 0 128 0 255
0.0826977 1.77596 3.34014 0 0 0 0 128 0 255
0.0820087 1.93135 3.35223 0 0 0 0 128 0 255
0.0942629 2.07842 3.46811 0 0 0 0 128 0 255
0.0879746 1.98894 3.37597 0 0 0 0 128 0 255
0.0818926 1.94564 3.35849 0 0 0 0 128 0 255
0.091585 2.08276 3.48306 0 0 0 0 128 0 255
0.0837501 1.97243 3.37053 0 0 0 0 128 0 255
0.0900495 2.03998 3.41916 0 0 0 0 128 0 255
0.0853265 1.99149 3.38121 0 0 0 0 128 0 255
0.0850159 1.99946 3.38765 0 0 0 0 128 0 255
0.0880382 2.05135 3.43674 0 0 0 0 128 0 255
0.0861731 2.02346 3.40732 0 0 0 0 128 0 255
0.0808624 1.98795 3.38459 0 0 0 0 128 0 255
0.0841439 2.02931 3.4165 0 0 0 0 128 0 255
0.0978747 1.68108 3.36462 0 0 0 0 128 0 255
0.128572 1.62224 3.37816 0 0 0 0 128 0 255
0.0759466 1.99697 3.39846 0 0 0 0 128 0 255
0.135591 1.60849 3.3846 0 0 0 0 128 0 255
0.105979 1.65416 3.37513 0 0 0 0 128 0 255
0.0673563 1.99739 3.41213 0 0 0 0 128 0 255
0.0669385 2.00809 3.42288 0 0 0 0 128 0 255
0.120454 1.62648 3.38314 0 0 0 0 128 0 255
0.0924935 1.67749 3.37355 0 0 0 0 128 0 255
0.0600552 1.94072 3.38496 0 0 0 0 128 0 255
0.0606837 1.80355 3.36151 0 0 0 0 128 0 255
0.0627395 1.76555 3.36717 0 0 0 0 128 0 255
0.0592727 1.7819 3.36739 0 0 0 0 128 0 255
0.051641 1.91885 3.38761 0 0 0 0 128 0 255
0.0532006 1.97219 3.4153 0 0 0 0 128 0 255
0.0493738 1.90429 3.38574 0 0 0 0 128 0 255
0.0503396 1.96687 3.41634 0 0 0 0 128 0 255
0.0473902 1.94598 3.4077 0 0 0 0 128 0 255
0.0490972 1.81536 3.37608 0 0 0 0 128 0 255
0.0499749 1.7836 3.38006 0 0 0 0 128 0 255
0.0434299 1.81873 3.38422 0 0 0 0 128 0 255
0.0396633 1.94597 3.42148 0 0 0 0 128 0 255
0.040467 1.81206 3.38947 0 0 0 0 128 0 255
0.0338868 1.93708 3.4271 0 0 0 0 128 0 255
0.0394216 1.8088 3.39153 0 0 0 0 128 0 255
0.0328555 1.91662 3.41828 0 0 0 0 128 0 255
0.061185 1.70331 3.39899 0 0 0 0 128 0 255
0.0949494 1.63162 3.41107 0 0 0 0 128 0 255
0.0776299 1.65769 3.41042 0 0 0 0 128 0 255
0.0210886 2.00722 3.57182 0 0 0 0 128 0 255
0.0924443 1.63218 3.41417 0 0 0 0 128 0 255
0.0284179 1.80896 3.41031 0 0 0 0 128 0 255
0.0614133 1.68395 3.41311 0 0 0 0 128 0 255
0.0212582 1.83994 3.42204 0 0 0 0 128 0 255
0.0622873 1.68141 3.41378 0 0 0 0 128 0 255
0.0796005 1.64701 3.41808 0 0 0 0 128 0 255
0.0974066 1.61844 3.42286 0 0 0 0 128 0 255
0.100344 1.61272 3.42561 0 0 0 0 128 0 255
0.0707204 1.65855 3.4208 0 0 0 0 128 0 255
0.0167674 1.8189 3.43206 0 0 0 0 128 0 255
0.0142762 1.83431 3.43663 0 0 0 0 128 0 255
0.00650916 1.8809 3.46263 0 0 0 0 128 0 255
0.00614658 1.85481 3.45737 0 0 0 0 128 0 255
0.0354488 1.71743 3.43496 0 0 0 0 128 0 255
0.00965738 1.81527 3.44867 0 0 0 0 128 0 255
0.00518489 1.7955 3.46451 0 0 0 0 128 0 255
-0.000504822 1.81613 3.47616 0 0 0 0 128 0 255
0.0795986 1.6183 3.45463 0 0 0 0 128 0 255
0.0799528 1.61751 3.45513 0 0 0 0 128 0 255
0.0639805 1.6392 3.45667 0 0 0 0 128 0 255
0.0761062 1.62003 3.4592 0 0 0 0 128 0 255
-0.00202793 1.77932 3.49379 0 0 0 0 128 0 255
0.0612712 1.63304 3.4723 0 0 0 0 128 0 255
-0.0164686 1.86052 3.55034 0 0 0 0 128 0 255
-0.00522065 1.88928 3.6867 0 0 0 0 128 0 255
-0.0125629 1.8045 3.52714 0 0 0 0 128 0 255
0.025789 1.68456 3.49324 0 0 0 0 128 0 255
0.0124956 1.70521 3.51164 0 0 0 0 128 0 255
0.0433157 1.64382 3.50525 0 0 0 0 128 0 255
0.0473614 1.63647 3.50676 0 0 0 0 128 0 255
0.0013302 1.72851 3.52817 0 0 0 0 128 0 255
0.0280849 1.66798 3.51338 0 0 0 0 128 0 255
0.0491633 1.63253 3.50925 0 0 0 0 128 0 255
0.0373374 1.65088 3.5124 0 0 0 0 128 0 255
-0.0192813 1.82096 3.61319 0 0 0 0 128 0 255
0.039083 1.64428 3.52085 0 0 0 0 128 0 255
-0.0176154 1.81557 3.63315 0 0 0 0 128 0 255
-0.0168795 1.7871 3.59086 0 0 0 0 128 0 255
0.0560191 1.61703 3.52324 0 0 0 0 128 0 255
-0.0169114 1.79516 3.62241 0 0 0 0 128 0 255
-0.0163647 1.7891 3.62033 0 0 0 0 128 0 255
0.00366122 1.70867 3.55549 0 0 0 0 128 0 255
0.0597138 1.60982 3.5299 0 0 0 0 128 0 255
-0.0157667 1.78463 3.62079 0 0 0 0 128 0 255
-0.0144083 1.78148 3.63225 0 0 0 0 128 0 255
-0.0108833 1.75686 3.62298 0 0 0 0 128 0 255
-0.00118476 1.77849 3.70013 0 0 0 0 128 0 255
0.0631891 1.59932 3.55572 0 0 0 0 128 0 255
-0.00243628 1.74585 3.66779 0 0 0 0 128 0 255
3.12924e-06 1.75333 3.68668 0 0 0 0 128 0 255
0.0071786 1.69507 3.6185 0 0 0 0 128 0 255
