ply
format ascii 1.0
comment VCGLIB generated
element vertex 139
property float x
property float y
property float z
property float nx
property float ny
property float nz
property uchar red
property uchar green
property uchar blue
property uchar alpha
element face 0
property list uchar int vertex_indices
end_header
-0.430559 0.89119 5.57669 0 0 0 128 0 0 255
-0.387289 0.872117 5.57765 0 0 0 128 0 0 255
-0.350808 0.906964 5.58198 0 0 0 128 0 0 255
-0.330854 0.901829 5.58268 0 0 0 128 0 0 255
-0.230187 0.849213 5.58432 0 0 0 128 0 0 255
-0.325341 0.933912 5.58519 0 0 0 128 0 0 255
-0.283841 0.922433 5.58658 0 0 0 128 0 0 255
-0.300144 0.942306 5.5871 0 0 0 128 0 0 255
-0.206842 0.896527 5.58883 0 0 0 128 0 0 255
-0.199811 0.907449 5.58996 0 0 0 128 0 0 255
0.0920168 0.699793 5.59091 0 0 0 128 0 0 255
-0.199542 0.926003 5.59126 0 0 0 128 0 0 255
-0.187943 0.929708 5.59213 0 0 0 128 0 0 255
0.0871169 0.72477 5.59239 0 0 0 128 0 0 255
0.0829391 0.72919 5.59247 0 0 0 128 0 0 255
-0.223561 0.965485 5.59273 0 0 0 128 0 0 255
-0.221717 0.977842 5.59369 0 0 0 128 0 0 255
-0.22269 0.984833 5.59412 0 0 0 128 0 0 255
-0.267655 1.03145 5.59499 0 0 0 128 0 0 255
0.11476 0.746314 5.59533 0 0 0 128 0 0 255
0.0792354 0.807031 5.59768 0 0 0 128 0 0 255
-0.183217 1.01866 5.59854 0 0 0 128 0 0 255
-0.17463 1.0184 5.59898 0 0 0 128 0 0 255
-0.181994 1.02524 5.59906 0 0 0 128 0 0 255
-0.184578 1.02845 5.59915 0 0 0 128 0 0 255
-0.330876 1.1632 5.6008 0 0 0 128 0 0 255
0.0816359 0.861483 5.60158 0 0 0 128 0 0 255
-0.191794 1.07519 5.60201 0 0 0 128 0 0 255
-0.103346 1.01308 5.60236 0 0 0 128 0 0 255
-0.108515 1.01951 5.60253 0 0 0 128 0 0 255
-0.0377882 0.972099 5.60296 0 0 0 128 0 0 255
0.0514375 0.904403 5.60296 0 0 0 128 0 0 255
0.0106134 0.936627 5.60305 0 0 0 128 0 0 255
0.00882557 0.939234 5.60314 0 0 0 128 0 0 255
-0.0857636 1.01475 5.6034 0 0 0 128 0 0 255
-0.0488856 0.995525 5.604 0 0 0 128 0 0 255
0.0495297 0.92836 5.60453 0 0 0 128 0 0 255
-0.152979 1.09326 5.60531 0 0 0 128 0 0 255
0.0814706 0.924134 5.60591 0 0 0 128 0 0 255
0.0805167 0.936113 5.60669 0 0 0 128 0 0 255
0.0371082 0.971548 5.60687 0 0 0 128 0 0 255
-0.032377 1.03052 5.6073 0 0 0 128 0 0 255
-0.166605 1.13486 5.60747 0 0 0 128 0 0 255
0.00228697 1.00672 5.60747 0 0 0 128 0 0 255
-0.0247808 1.03226 5.60782 0 0 0 128 0 0 255
0.0638801 0.973745 5.60843 0 0 0 128 0 0 255
-0.0153594 1.04137 5.60895 0 0 0 128 0 0 255
-0.194783 1.18375 5.60938 0 0 0 128 0 0 255
-0.0613338 1.085 5.60955 0 0 0 128 0 0 255
0.0444272 1.00601 5.60964 0 0 0 128 0 0 255
-0.215052 1.21163 5.61025 0 0 0 128 0 0 255
-0.192745 1.19471 5.61025 0 0 0 128 0 0 255
0.223324 0.882787 5.61051 0 0 0 128 0 0 255
-0.0899576 1.12173 5.61059 0 0 0 128 0 0 255
-0.0977111 1.13136 5.61085 0 0 0 128 0 0 255
0.0660116 1.00964 5.61103 0 0 0 128 0 0 255
-0.0681974 1.11897 5.61155 0 0 0 128 0 0 255
0.0875586 1.0033 5.61172 0 0 0 128 0 0 255
-0.0257614 1.09053 5.61181 0 0 0 128 0 0 255
-0.0308931 1.10693 5.61268 0 0 0 128 0 0 255
0.13685 0.992163 5.61354 0 0 0 128 0 0 255
0.531289 0.71791 5.61528 0 0 0 128 0 0 255
0.0276066 1.10131 5.61536 0 0 0 128 0 0 255
0.1097 1.04903 5.61606 0 0 0 128 0 0 255
0.515236 0.751348 5.61675 0 0 0 128 0 0 255
0.564648 0.718861 5.6171 0 0 0 128 0 0 255
0.114147 1.06316 5.61727 0 0 0 128 0 0 255
0.222316 0.987344 5.6177 0 0 0 128 0 0 255
0.514301 0.768314 5.61788 0 0 0 128 0 0 255
0.608344 0.706967 5.61857 0 0 0 128 0 0 255
0.604166 0.711388 5.61866 0 0 0 128 0 0 255
0.171988 1.04178 5.61883 0 0 0 128 0 0 255
0.0345739 1.14854 5.619 0 0 0 128 0 0 255
0.166838 1.0532 5.61935 0 0 0 128 0 0 255
0.0766582 1.13287 5.62013 0 0 0 128 0 0 255
0.200761 1.04497 5.62056 0 0 0 128 0 0 255
0.252757 1.00927 5.62083 0 0 0 128 0 0 255
0.0890717 1.14096 5.62135 0 0 0 128 0 0 255
0.233693 1.03874 5.62187 0 0 0 128 0 0 255
0.160206 1.09574 5.62195 0 0 0 128 0 0 255
0.164616 1.0999 5.62247 0 0 0 128 0 0 255
0.247681 1.04063 5.62273 0 0 0 128 0 0 255
0.201901 1.08287 5.62325 0 0 0 128 0 0 255
0.51522 0.853903 5.62386 0 0 0 128 0 0 255
0.117104 1.15971 5.62412 0 0 0 128 0 0 255
0.4517 0.905847 5.62412 0 0 0 128 0 0 255
0.596498 0.797239 5.62421 0 0 0 128 0 0 255
0.463067 0.900975 5.62438 0 0 0 128 0 0 255
0.512071 0.866296 5.62455 0 0 0 128 0 0 255
0.322271 1.01155 5.62464 0 0 0 128 0 0 255
0.147609 1.14532 5.62473 0 0 0 128 0 0 255
0.400983 0.963084 5.62542 0 0 0 128 0 0 255
0.24544 1.08235 5.62551 0 0 0 128 0 0 255
0.443012 0.932447 5.62551 0 0 0 128 0 0 255
0.63044 0.793996 5.62577 0 0 0 128 0 0 255
0.494424 0.900943 5.62603 0 0 0 128 0 0 255
0.545216 0.863658 5.62611 0 0 0 128 0 0 255
0.389303 0.990704 5.62672 0 0 0 128 0 0 255
0.504818 0.903062 5.62672 0 0 0 128 0 0 255
0.308062 1.05734 5.62707 0 0 0 128 0 0 255
0.640519 0.818862 5.62802 0 0 0 128 0 0 255
0.597907 0.853693 5.62819 0 0 0 128 0 0 255
0.386422 1.02165 5.62872 0 0 0 128 0 0 255
0.368701 1.03635 5.6288 0 0 0 128 0 0 255
0.577231 0.879384 5.62889 0 0 0 128 0 0 255
0.368525 1.04273 5.62924 0 0 0 128 0 0 255
0.497797 0.948405 5.6295 0 0 0 128 0 0 255
0.159236 1.21028 5.62984 0 0 0 128 0 0 255
0.394871 1.03775 5.63028 0 0 0 128 0 0 255
0.29012 1.11973 5.63045 0 0 0 128 0 0 255
0.300476 1.11187 5.63045 0 0 0 128 0 0 255
0.502031 0.958948 5.63045 0 0 0 128 0 0 255
0.312639 1.10639 5.63071 0 0 0 128 0 0 255
0.409267 1.04183 5.63132 0 0 0 128 0 0 255
0.690812 0.861988 5.63366 0 0 0 128 0 0 255
0.55501 0.972525 5.63418 0 0 0 128 0 0 255
0.588896 0.954319 5.6347 0 0 0 128 0 0 255
0.661021 0.9071 5.63522 0 0 0 128 0 0 255
0.546785 1.01628 5.63678 0 0 0 128 0 0 255
0.498226 1.06313 5.63747 0 0 0 128 0 0 255
0.648813 0.953878 5.63782 0 0 0 128 0 0 255
0.498671 1.07529 5.63834 0 0 0 128 0 0 255
0.515243 1.07398 5.63912 0 0 0 128 0 0 255
0.660662 0.971149 5.63964 0 0 0 128 0 0 255
0.696511 0.94395 5.63964 0 0 0 128 0 0 255
0.713667 0.938436 5.64016 0 0 0 128 0 0 255
0.678244 0.972815 5.64068 0 0 0 128 0 0 255
0.702034 1.0323 5.64606 0 0 0 128 0 0 255
0.609696 1.12236 5.64744 0 0 0 128 0 0 255
0.610549 1.13672 5.64848 0 0 0 128 0 0 255
0.652633 1.12105 5.64961 0 0 0 128 0 0 255
0.524603 1.22694 5.65022 0 0 0 128 0 0 255
0.687121 1.10364 5.65022 0 0 0 128 0 0 255
0.815653 1.02488 5.65152 0 0 0 128 0 0 255
0.604964 1.19223 5.65204 0 0 0 128 0 0 255
0.612774 1.19756 5.65282 0 0 0 128 0 0 255
0.563253 1.30766 5.65785 0 0 0 128 0 0 255
0.562493 1.31824 5.65854 0 0 0 128 0 0 255
0.57046 1.3122 5.65854 0 0 0 128 0 0 255
