ply
format ascii 1.0
comment VCGLIB generated
element vertex 326
property float x
property float y
property float z
property float nx
property float ny
property float nz
property uchar red
property uchar green
property uchar blue
property uchar alpha
element face 0
property list uchar int vertex_indices
end_header
0.393255 1.01137 4.38462 0 0 0 255 255 0 255
0.409912 1.29844 4.35738 0 0 0 255 255 0 255
0.406687 1.03313 4.34836 0 0 0 255 255 0 255
0.40054 0.720942 4.34211 0 0 0 255 255 0 255
0.409679 0.985526 4.32793 0 0 0 255 255 0 255
0.411393 1.01634 4.32125 0 0 0 255 255 0 255
0.398177 0.556588 4.3292 0 0 0 255 255 0 255
0.412673 1.03816 4.31477 0 0 0 255 255 0 255
0.412123 0.99796 4.30674 0 0 0 255 255 0 255
0.404227 0.72196 4.3053 0 0 0 255 255 0 255
0.421189 1.30426 4.27946 0 0 0 255 255 0 255
0.421219 1.30526 4.27944 0 0 0 255 255 0 255
0.395633 0.449745 4.29378 0 0 0 255 255 0 255
0.393058 0.367761 4.29374 0 0 0 255 255 0 255
0.39565 0.461652 4.28951 0 0 0 255 255 0 255
0.391959 0.346672 4.28926 0 0 0 255 255 0 255
0.408223 0.898277 4.27615 0 0 0 255 255 0 255
0.408667 0.929174 4.27144 0 0 0 255 255 0 255
0.40789 0.90717 4.27097 0 0 0 255 255 0 255
0.39544 0.48945 4.27991 0 0 0 255 255 0 255
0.393433 0.446385 4.27599 0 0 0 255 255 0 255
0.389834 0.335427 4.27665 0 0 0 255 255 0 255
0.392073 0.411373 4.27485 0 0 0 255 255 0 255
0.417828 1.30268 4.25071 0 0 0 255 255 0 255
0.387888 0.313318 4.2703 0 0 0 255 255 0 255
0.38739 0.303308 4.26956 0 0 0 255 255 0 255
0.392448 0.48914 4.26318 0 0 0 255 255 0 255
0.40783 1.02572 4.24848 0 0 0 255 255 0 255
0.403407 0.91572 4.24623 0 0 0 255 255 0 255
0.414335 1.30341 4.23508 0 0 0 255 255 0 255
0.400169 0.840713 4.24415 0 0 0 255 255 0 255
0.380542 0.184168 4.25879 0 0 0 255 255 0 255
0.379078 0.153161 4.25761 0 0 0 255 255 0 255
0.379562 0.179128 4.25603 0 0 0 255 255 0 255
0.383813 0.333003 4.25141 0 0 0 255 255 0 255
0.398401 0.837627 4.23846 0 0 0 255 255 0 255
0.375859 0.0831542 4.25544 0 0 0 255 255 0 255
0.383226 0.332975 4.2495 0 0 0 255 255 0 255
0.375058 0.0661526 4.25489 0 0 0 255 255 0 255
0.395705 0.819546 4.23223 0 0 0 255 255 0 255
0.378032 0.253913 4.24285 0 0 0 255 255 0 255
0.382848 0.428776 4.23775 0 0 0 255 255 0 255
0.380573 0.436689 4.23103 0 0 0 255 255 0 255
0.373807 0.355636 4.22286 0 0 0 255 255 0 255
0.383635 0.839207 4.20241 0 0 0 255 255 0 255
0.38181 0.825196 4.20009 0 0 0 255 255 0 255
0.374395 0.673267 4.19847 0 0 0 255 255 0 255
0.368374 0.503378 4.20078 0 0 0 255 255 0 255
0.356385 0.239529 4.20025 0 0 0 255 255 0 255
0.368157 0.657226 4.18948 0 0 0 255 255 0 255
0.371652 0.870057 4.18027 0 0 0 255 255 0 255
0.354084 0.452337 4.18289 0 0 0 255 255 0 255
0.359239 0.66818 4.17617 0 0 0 255 255 0 255
0.351676 0.432349 4.18098 0 0 0 255 255 0 255
0.34009 0.209508 4.18004 0 0 0 255 255 0 255
0.343364 0.386384 4.17355 0 0 0 255 255 0 255
0.367466 1.2038 4.15412 0 0 0 255 255 0 255
0.343682 0.419362 4.17201 0 0 0 255 255 0 255
0.360469 1.19383 4.14694 0 0 0 255 255 0 255
0.339836 0.588274 4.15846 0 0 0 255 255 0 255
0.33391 0.483366 4.15813 0 0 0 255 255 0 255
0.336169 0.584298 4.15503 0 0 0 255 255 0 255
0.344666 0.946053 4.14436 0 0 0 255 255 0 255
0.334424 0.648277 4.15007 0 0 0 255 255 0 255
0.326372 0.450437 4.15275 0 0 0 255 255 0 255
0.328022 0.506397 4.15142 0 0 0 255 255 0 255
0.330223 0.606331 4.14838 0 0 0 255 255 0 255
0.330989 0.632312 4.14777 0 0 0 255 255 0 255
0.327029 0.523397 4.14969 0 0 0 255 255 0 255
0.328458 0.59735 4.14727 0 0 0 255 255 0 255
0.328056 0.609348 4.14633 0 0 0 255 255 0 255
0.325943 0.563388 4.14677 0 0 0 255 255 0 255
0.326684 0.614359 4.14491 0 0 0 255 255 0 255
0.323739 0.566408 4.14477 0 0 0 255 255 0 255
0.326092 0.672339 4.14161 0 0 0 255 255 0 255
0.315809 0.482524 4.14238 0 0 0 255 255 0 255
0.317758 0.575467 4.13956 0 0 0 255 255 0 255
0.312385 0.501557 4.1389 0 0 0 255 255 0 255
0.312906 0.546534 4.13724 0 0 0 255 255 0 255
0.313406 0.563522 4.13684 0 0 0 255 255 0 255
0.305464 0.376686 4.13952 0 0 0 255 255 0 255
0.309884 0.526578 4.13596 0 0 0 255 255 0 255
0.301998 0.426715 4.13493 0 0 0 255 255 0 255
0.303818 0.516662 4.13224 0 0 0 255 255 0 255
0.303589 0.56565 4.12998 0 0 0 255 255 0 255
0.299578 0.48673 4.13078 0 0 0 255 255 0 255
0.300992 0.534696 4.12964 0 0 0 255 255 0 255
0.298326 0.501744 4.12936 0 0 0 255 255 0 255
0.301067 0.594677 4.12715 0 0 0 255 255 0 255
0.29765 0.594729 4.12507 0 0 0 255 255 0 255
0.295376 0.546776 4.1257 0 0 0 255 255 0 255
0.290535 0.411887 4.1284 0 0 0 255 255 0 255
0.295308 0.573771 4.12455 0 0 0 255 255 0 255
0.300736 0.816624 4.11778 0 0 0 255 255 0 255
0.304566 0.946531 4.11469 0 0 0 255 255 0 255
0.303962 0.955538 4.11399 0 0 0 255 255 0 255
0.285542 0.599926 4.11819 0 0 0 255 255 0 255
0.294049 0.918713 4.11016 0 0 0 255 255 0 255
0.272991 0.542165 4.11443 0 0 0 255 255 0 255
0.272428 0.554174 4.11375 0 0 0 255 255 0 255
0.26365 0.444361 4.11405 0 0 0 255 255 0 255
0.267333 0.569272 4.11108 0 0 0 255 255 0 255
0.264076 0.490347 4.11259 0 0 0 255 255 0 255
0.267023 0.590275 4.11021 0 0 0 255 255 0 255
0.282426 1.17589 4.09557 0 0 0 255 255 0 255
0.282544 1.17989 4.09548 0 0 0 255 255 0 255
0.259228 0.484447 4.11095 0 0 0 255 255 0 255
0.272075 0.920134 4.1006 0 0 0 255 255 0 255
0.272019 0.950132 4.09954 0 0 0 255 255 0 255
0.268247 0.950212 4.09822 0 0 0 255 255 0 255
0.25351 0.482568 4.10901 0 0 0 255 255 0 255
0.252259 0.504593 4.10786 0 0 0 255 255 0 255
0.272325 1.18511 4.09169 0 0 0 255 255 0 255
0.252192 0.534592 4.10684 0 0 0 255 255 0 255
0.245144 0.392757 4.10932 0 0 0 255 255 0 255
0.250537 0.575626 4.10498 0 0 0 255 255 0 255
0.248872 0.551665 4.10526 0 0 0 255 255 0 255
0.250169 0.595633 4.10421 0 0 0 255 255 0 255
0.245226 0.525748 4.10504 0 0 0 255 255 0 255
0.246611 0.572715 4.10392 0 0 0 255 255 0 255
0.264673 1.18528 4.08936 0 0 0 255 255 0 255
0.243632 0.569783 4.10319 0 0 0 255 255 0 255
0.23593 0.472966 4.10426 0 0 0 255 255 0 255
0.250515 0.967611 4.0925 0 0 0 255 255 0 255
0.233515 0.424024 4.10519 0 0 0 255 255 0 255
0.233482 0.489024 4.10319 0 0 0 255 255 0 255
0.246948 0.945697 4.09234 0 0 0 255 255 0 255
0.230975 0.437085 4.10421 0 0 0 255 255 0 255
0.232949 0.504037 4.10262 0 0 0 255 255 0 255
0.233362 0.518027 4.10228 0 0 0 255 255 0 255
0.234305 0.550004 4.10152 0 0 0 255 255 0 255
0.240374 0.755857 4.09663 0 0 0 255 255 0 255
0.227189 0.408177 4.10427 0 0 0 255 255 0 255
0.23345 0.687026 4.09724 0 0 0 255 255 0 255
0.229169 0.57513 4.09971 0 0 0 255 255 0 255
0.23731 0.917934 4.09119 0 0 0 255 255 0 255
0.236091 0.909964 4.09121 0 0 0 255 255 0 255
0.227801 0.729169 4.095 0 0 0 255 255 0 255
0.21771 0.420416 4.10218 0 0 0 255 255 0 255
0.219743 0.489366 4.10054 0 0 0 255 255 0 255
0.215115 0.399482 4.10237 0 0 0 255 255 0 255
0.236207 1.18197 4.08349 0 0 0 255 255 0 255
0.220072 0.668367 4.09556 0 0 0 255 255 0 255
0.220436 0.71436 4.09434 0 0 0 255 255 0 255
0.221291 0.743339 4.09365 0 0 0 255 255 0 255
0.215997 0.59747 4.09699 0 0 0 255 255 0 255
0.212854 0.524549 4.0986 0 0 0 255 255 0 255
0.210485 0.511611 4.09868 0 0 0 255 255 0 255
0.212606 0.583559 4.09697 0 0 0 255 255 0 255
0.216967 0.731453 4.09346 0 0 0 255 255 0 255
0.203089 0.395802 4.10104 0 0 0 255 255 0 255
0.21168 0.788602 4.09145 0 0 0 255 255 0 255
0.210305 0.809643 4.09081 0 0 0 255 255 0 255
0.205687 0.720762 4.0928 0 0 0 255 255 0 255
0.19895 0.593938 4.09566 0 0 0 255 255 0 255
0.209882 0.964672 4.08685 0 0 0 255 255 0 255
0.195241 0.502032 4.09781 0 0 0 255 255 0 255
0.19695 0.559991 4.09643 0 0 0 255 255 0 255
0.206526 0.884758 4.08871 0 0 0 255 255 0 255
0.201372 0.743888 4.09202 0 0 0 255 255 0 255
0.19392 0.525073 4.09719 0 0 0 255 255 0 255
0.206325 0.945772 4.08719 0 0 0 255 255 0 255
0.197579 0.716993 4.09258 0 0 0 255 255 0 255
0.192044 0.597138 4.0954 0 0 0 255 255 0 255
0.185594 0.412299 4.09979 0 0 0 255 255 0 255
0.18922 0.569216 4.09606 0 0 0 255 255 0 255
0.187396 0.541266 4.09672 0 0 0 255 255 0 255
0.192567 0.920174 4.08783 0 0 0 255 255 0 255
0.176102 0.429586 4.09957 0 0 0 255 255 0 255
0.179814 0.555496 4.09657 0 0 0 255 255 0 255
0.172985 0.391675 4.10056 0 0 0 255 255 0 255
0.184801 0.792387 4.09104 0 0 0 255 255 0 255
0.173503 0.544688 4.09717 0 0 0 255 255 0 255
0.168015 0.49385 4.0987 0 0 0 255 255 0 255
0.164163 0.531981 4.09831 0 0 0 255 255 0 255
0.161294 0.502067 4.09925 0 0 0 255 255 0 255
0.162944 0.558027 4.09792 0 0 0 255 255 0 255
0.167167 0.734932 4.09384 0 0 0 255 255 0 255
0.156512 0.4072 4.10176 0 0 0 255 255 0 255
0.162081 0.596064 4.09727 0 0 0 255 255 0 255
0.165469 0.710982 4.09454 0 0 0 255 255 0 255
0.157878 0.487175 4.1 0 0 0 255 255 0 255
0.158539 0.543167 4.09881 0 0 0 255 255 0 255
0.158463 0.574177 4.09821 0 0 0 255 255 0 255
0.158728 0.583171 4.098 0 0 0 255 255 0 255
0.149976 0.420419 4.10249 0 0 0 255 255 0 255
0.145273 0.39457 4.10381 0 0 0 255 255 0 255
0.158602 0.913265 4.09185 0 0 0 255 255 0 255
0.151965 0.721436 4.09661 0 0 0 255 255 0 255
0.152201 0.729431 4.09642 0 0 0 255 255 0 255
0.146065 0.55459 4.10078 0 0 0 255 255 0 255
0.151133 0.726466 4.09669 0 0 0 255 255 0 255
0.150096 0.724501 4.09694 0 0 0 255 255 0 255
0.147049 0.720606 4.09768 0 0 0 255 255 0 255
0.153058 0.95747 4.09227 0 0 0 255 255 0 255
0.132848 0.404004 4.10637 0 0 0 255 255 0 255
0.138844 0.705891 4.09995 0 0 0 255 255 0 255
0.144273 0.92277 4.09505 0 0 0 255 255 0 255
0.133497 0.590043 4.10322 0 0 0 255 255 0 255
0.13385 0.602035 4.10294 0 0 0 255 255 0 255
0.125545 0.418271 4.10813 0 0 0 255 255 0 255
0.122967 0.525405 4.10735 0 0 0 255 255 0 255
0.117591 0.407561 4.11078 0 0 0 255 255 0 255
0.119793 0.578545 4.10769 0 0 0 255 255 0 255
0.112517 0.395747 4.1127 0 0 0 255 255 0 255
0.112694 0.401743 4.11256 0 0 0 255 255 0 255
0.117114 0.551636 4.109 0 0 0 255 255 0 255
0.117909 0.578616 4.10835 0 0 0 255 255 0 255
0.116498 0.562664 4.10908 0 0 0 255 255 0 255
0.116828 0.605669 4.1084 0 0 0 255 255 0 255
0.107642 0.420945 4.11422 0 0 0 255 255 0 255
0.106802 0.423979 4.11452 0 0 0 255 255 0 255
0.109145 0.534936 4.11225 0 0 0 255 255 0 255
0.128297 1.18447 4.09681 0 0 0 255 255 0 255
0.115109 0.924875 4.10531 0 0 0 255 255 0 255
0.0960491 0.49444 4.11846 0 0 0 255 255 0 255
0.0961965 0.499437 4.11834 0 0 0 255 255 0 255
0.0955528 0.599513 4.11772 0 0 0 255 255 0 255
0.0869237 0.576863 4.12247 0 0 0 255 255 0 255
0.0844899 0.523939 4.12422 0 0 0 255 255 0 255
0.0828539 0.497995 4.12533 0 0 0 255 255 0 255
0.076482 0.515282 4.12901 0 0 0 255 255 0 255
0.077307 0.543262 4.12834 0 0 0 255 255 0 255
0.0764 0.541301 4.12892 0 0 0 255 255 0 255
0.0713537 0.484492 4.13243 0 0 0 255 255 0 255
0.0719841 0.562512 4.13167 0 0 0 255 255 0 255
0.066034 0.500745 4.13597 0 0 0 255 255 0 255
0.0632052 0.596941 4.1378 0 0 0 255 255 0 255
0.0581196 0.532139 4.14178 0 0 0 255 255 0 255
0.0558905 0.483212 4.14356 0 0 0 255 255 0 255
0.0552554 0.488246 4.14406 0 0 0 255 255 0 255
0.0526861 0.506384 4.14616 0 0 0 255 255 0 255
0.0538044 0.570376 4.14528 0 0 0 255 255 0 255
0.0539812 0.576372 4.14514 0 0 0 255 255 0 255
0.0509481 0.499465 4.14761 0 0 0 255 255 0 255
0.0515964 0.521449 4.14709 0 0 0 255 255 0 255
0.053983 0.602391 4.14516 0 0 0 255 255 0 255
0.0496306 0.557575 4.14884 0 0 0 255 255 0 255
0.0606209 0.930308 4.13999 0 0 0 255 255 0 255
0.042828 0.477859 4.15477 0 0 0 255 255 0 255
0.0441845 0.597886 4.15398 0 0 0 255 255 0 255
0.044214 0.598885 4.15395 0 0 0 255 255 0 255
0.0541604 0.960664 4.14605 0 0 0 255 255 0 255
0.0347911 0.495298 4.16278 0 0 0 255 255 0 255
0.0348542 0.567359 4.16325 0 0 0 255 255 0 255
0.0325544 0.512436 4.16529 0 0 0 255 255 0 255
0.0339707 0.583423 4.16434 0 0 0 255 255 0 255
0.0323476 0.596525 4.16626 0 0 0 255 255 0 255
0.0229672 0.841345 4.18174 0 0 0 255 255 0 255
0.0171396 0.845737 4.19089 0 0 0 255 255 0 255
-0.00165087 0.361402 4.21019 0 0 0 255 255 0 255
-0.00987406 0.381074 4.22769 0 0 0 255 255 0 255
-0.00533357 0.674227 4.23093 0 0 0 255 255 0 255
-0.0248936 0.376746 4.27957 0 0 0 255 255 0 255
-0.0189007 0.594673 4.27736 0 0 0 255 255 0 255
-0.0209026 0.53577 4.28074 0 0 0 255 255 0 255
-0.0191048 0.619871 4.28471 0 0 0 255 255 0 255
-0.0192339 0.621923 4.28665 0 0 0 255 255 0 255
-0.0200279 0.597966 4.28821 0 0 0 255 255 0 255
-0.0258742 0.405157 4.29479 0 0 0 255 255 0 255
-0.0209211 0.587204 4.29745 0 0 0 255 255 0 255
-0.0210803 0.586304 4.30147 0 0 0 255 255 0 255
-0.0214702 0.574361 4.30376 0 0 0 255 255 0 255
-0.0238679 0.493443 4.30668 0 0 0 255 255 0 255
-0.0211046 0.5874 4.30545 0 0 0 255 255 0 255
-0.0245425 0.470555 4.31123 0 0 0 255 255 0 255
-0.0221264 0.552496 4.30928 0 0 0 255 255 0 255
-0.0235575 0.503554 4.31144 0 0 0 255 255 0 255
-0.0222513 0.544617 4.31447 0 0 0 255 255 0 255
-0.0132646 0.849399 4.30722 0 0 0 255 255 0 255
-0.0132577 0.848422 4.30825 0 0 0 255 255 0 255
-0.0235717 0.49572 4.31863 0 0 0 255 255 0 255
-0.0231003 0.511708 4.31825 0 0 0 255 255 0 255
-0.0286799 0.316914 4.32587 0 0 0 255 255 0 255
-0.0284678 0.321932 4.32675 0 0 0 255 255 0 255
-0.025374 0.426857 4.32426 0 0 0 255 255 0 255
-0.028206 0.325973 4.32865 0 0 0 255 255 0 255
-0.0252984 0.421925 4.32737 0 0 0 255 255 0 255
-0.00950988 0.954565 4.31571 0 0 0 255 255 0 255
-0.0324334 0.174145 4.33525 0 0 0 255 255 0 255
-0.032134 0.181161 4.33608 0 0 0 255 255 0 255
-0.0311815 0.210161 4.33639 0 0 0 255 255 0 255
-0.0276772 0.318145 4.3368 0 0 0 255 255 0 255
-0.0266754 0.352121 4.336 0 0 0 255 255 0 255
-0.0326283 0.146288 4.34188 0 0 0 255 255 0 255
-0.0303264 0.220255 4.34112 0 0 0 255 255 0 255
-0.0263192 0.356158 4.33789 0 0 0 255 255 0 255
-0.025751 0.371167 4.33852 0 0 0 255 255 0 255
-0.0184143 0.619989 4.33261 0 0 0 255 255 0 255
-0.0220843 0.491101 4.33666 0 0 0 255 255 0 255
-0.0215362 0.50511 4.33732 0 0 0 255 255 0 255
-0.0202466 0.544102 4.33738 0 0 0 255 255 0 255
-0.0226332 0.453205 4.34152 0 0 0 255 255 0 255
-0.021035 0.502189 4.34135 0 0 0 255 255 0 255
-0.0223998 0.43929 4.3458 0 0 0 255 255 0 255
-0.0222856 0.43731 4.34683 0 0 0 255 255 0 255
-0.0110595 0.818037 4.33779 0 0 0 255 255 0 255
-0.0231685 0.401354 4.34867 0 0 0 255 255 0 255
-0.0274942 0.248481 4.35329 0 0 0 255 255 0 255
-0.0234765 0.378406 4.35119 0 0 0 255 255 0 255
-0.0196998 0.493359 4.35042 0 0 0 255 255 0 255
-0.0206478 0.454404 4.35232 0 0 0 255 255 0 255
-0.0200295 0.468411 4.35297 0 0 0 255 255 0 255
-0.00906862 0.840145 4.34413 0 0 0 255 255 0 255
-0.0198987 0.458452 4.35516 0 0 0 255 255 0 255
-0.0221065 0.36855 4.35925 0 0 0 255 255 0 255
-0.0158895 0.579399 4.35423 0 0 0 255 255 0 255
-0.0191963 0.459501 4.35806 0 0 0 255 255 0 255
-0.0223217 0.345599 4.36174 0 0 0 255 255 0 255
-0.0215603 0.320711 4.36814 0 0 0 255 255 0 255
-0.0217744 0.226908 4.379 0 0 0 255 255 0 255
-0.0188707 0.282921 4.38147 0 0 0 255 255 0 255
-0.0178389 0.306917 4.38184 0 0 0 255 255 0 255
-0.00813043 0.613722 4.37644 0 0 0 255 255 0 255
-0.0180276 0.255004 4.38685 0 0 0 255 255 0 255
-0.000554964 0.847579 4.37276 0 0 0 255 255 0 255
-0.0122114 0.391965 4.38827 0 0 0 255 255 0 255
0.00225617 0.831693 4.38152 0 0 0 255 255 0 255
-0.00198756 0.606915 4.39237 0 0 0 255 255 0 255
-0.00722733 0.401081 4.39908 0 0 0 255 255 0 255
0.00476484 0.80779 4.38942 0 0 0 255 255 0 255
0.00661395 0.841783 4.39042 0 0 0 255 255 0 255
-0.00517748 0.321222 4.40996 0 0 0 255 255 0 255
-0.00371163 0.355205 4.41004 0 0 0 255 255 0 255
0.0234266 0.836986 4.41996 0 0 0 255 255 0 255
0.00796884 0.254411 4.43627 0 0 0 255 255 0 255
