ply
format ascii 1.0
comment VCGLIB generated
element vertex 121
property float x
property float y
property float z
property float nx
property float ny
property float nz
property uchar red
property uchar green
property uchar blue
property uchar alpha
element face 0
property list uchar int vertex_indices
end_header
-0.578568 1.54043 3.54663 0 0 0 128 128 0 255
-0.582149 1.53683 3.54708 0 0 0 128 128 0 255
-0.551733 1.52655 3.56016 0 0 0 128 128 0 255
-0.52521 1.52008 3.57053 0 0 0 128 128 0 255
-0.525717 1.51209 3.57369 0 0 0 128 128 0 255
-0.636349 1.43124 3.57504 0 0 0 128 128 0 255
-0.621405 1.43954 3.57595 0 0 0 128 128 0 255
-0.618537 1.43719 3.57775 0 0 0 128 128 0 255
-0.480363 1.51882 3.58407 0 0 0 128 128 0 255
-0.746764 1.33092 3.58452 0 0 0 128 128 0 255
-0.716465 1.34345 3.58813 0 0 0 128 128 0 255
-0.718921 1.34173 3.58813 0 0 0 128 128 0 255
-0.762722 1.30665 3.58993 0 0 0 128 128 0 255
-0.580752 1.43208 3.59083 0 0 0 128 128 0 255
-0.549946 1.45259 3.59128 0 0 0 128 128 0 255
-0.687803 1.35483 3.59173 0 0 0 128 128 0 255
-0.539196 1.45468 3.59354 0 0 0 128 128 0 255
-0.429683 1.52493 3.59624 0 0 0 128 128 0 255
-0.431321 1.52378 3.59624 0 0 0 128 128 0 255
-0.735079 1.31077 3.59624 0 0 0 128 128 0 255
-0.725354 1.31432 3.5976 0 0 0 128 128 0 255
-0.505104 1.46005 3.60121 0 0 0 128 128 0 255
-0.91315 1.17282 3.60166 0 0 0 128 128 0 255
-0.9197 1.16823 3.60166 0 0 0 128 128 0 255
-0.50336 1.45582 3.60346 0 0 0 128 128 0 255
-0.762287 1.26771 3.60617 0 0 0 128 128 0 255
-0.785213 1.25164 3.60617 0 0 0 128 128 0 255
-0.771906 1.25879 3.60707 0 0 0 128 128 0 255
-0.776307 1.25461 3.60752 0 0 0 128 128 0 255
-0.605788 1.35457 3.61564 0 0 0 128 128 0 255
-0.610289 1.34705 3.61745 0 0 0 128 128 0 255
-0.601171 1.33927 3.62331 0 0 0 128 128 0 255
-0.640572 1.30837 3.62466 0 0 0 128 128 0 255
-0.79286 1.20158 3.62466 0 0 0 128 128 0 255
-0.794498 1.20043 3.62466 0 0 0 128 128 0 255
-0.800229 1.19642 3.62466 0 0 0 128 128 0 255
-0.640366 1.30634 3.62557 0 0 0 128 128 0 255
-0.557978 1.36302 3.62602 0 0 0 128 128 0 255
-0.600347 1.33113 3.62692 0 0 0 128 128 0 255
-0.555416 1.35937 3.62827 0 0 0 128 128 0 255
-0.598498 1.32153 3.63143 0 0 0 128 128 0 255
-0.626642 1.3007 3.63188 0 0 0 128 128 0 255
-0.714655 1.23462 3.63368 0 0 0 128 128 0 255
-0.709125 1.23196 3.63639 0 0 0 128 128 0 255
-0.710762 1.23081 3.63639 0 0 0 128 128 0 255
-0.866938 1.11912 3.63729 0 0 0 128 128 0 255
-0.871132 1.1129 3.63865 0 0 0 128 128 0 255
-0.815557 1.14861 3.64 0 0 0 128 128 0 255
-0.83499 1.11536 3.64812 0 0 0 128 128 0 255
-0.585883 1.28786 3.64902 0 0 0 128 128 0 255
-0.768053 1.15576 3.65083 0 0 0 128 128 0 255
-0.771941 1.15085 3.65173 0 0 0 128 128 0 255
-0.795066 1.12809 3.65443 0 0 0 128 128 0 255
-0.571034 1.2841 3.65489 0 0 0 128 128 0 255
-0.797623 1.12303 3.65579 0 0 0 128 128 0 255
-0.825767 1.1022 3.65624 0 0 0 128 128 0 255
-0.850736 1.08033 3.65804 0 0 0 128 128 0 255
-0.646148 1.22053 3.6594 0 0 0 128 128 0 255
-0.929743 1.02057 3.65985 0 0 0 128 128 0 255
-0.650954 1.21171 3.66165 0 0 0 128 128 0 255
-0.642254 1.21672 3.6621 0 0 0 128 128 0 255
-0.699874 1.17523 3.66255 0 0 0 128 128 0 255
-0.929431 1.01316 3.66301 0 0 0 128 128 0 255
-0.923188 1.01645 3.66346 0 0 0 128 128 0 255
-0.558636 1.26991 3.66436 0 0 0 128 128 0 255
-0.8889 1.03722 3.66481 0 0 0 128 128 0 255
-0.556786 1.2603 3.66887 0 0 0 128 128 0 255
-0.807938 1.08201 3.66977 0 0 0 128 128 0 255
-0.547775 1.2579 3.67248 0 0 0 128 128 0 255
-0.942103 0.973753 3.67564 0 0 0 128 128 0 255
-0.541626 1.24913 3.67789 0 0 0 128 128 0 255
-0.918353 0.981687 3.67924 0 0 0 128 128 0 255
-0.689408 1.14114 3.6797 0 0 0 128 128 0 255
-0.769847 1.0782 3.6824 0 0 0 128 128 0 255
-0.800753 1.05434 3.6833 0 0 0 128 128 0 255
-0.613565 1.18452 3.68376 0 0 0 128 128 0 255
-0.61039 1.18347 3.68511 0 0 0 128 128 0 255
-0.590734 1.18853 3.68872 0 0 0 128 128 0 255
-0.817836 1.02819 3.68917 0 0 0 128 128 0 255
-0.588072 1.18822 3.68962 0 0 0 128 128 0 255
-0.816193 1.02062 3.69278 0 0 0 128 128 0 255
-0.73053 1.0796 3.69323 0 0 0 128 128 0 255
-0.948419 0.923542 3.69458 0 0 0 128 128 0 255
-0.730118 1.07553 3.69503 0 0 0 128 128 0 255
-0.7601 1.04688 3.69819 0 0 0 128 128 0 255
-0.942476 0.916809 3.69909 0 0 0 128 128 0 255
-0.673819 1.09975 3.70135 0 0 0 128 128 0 255
-0.941652 0.908667 3.7027 0 0 0 128 128 0 255
-0.837353 0.965455 3.70947 0 0 0 128 128 0 255
-0.721802 1.04103 3.71172 0 0 0 128 128 0 255
-0.824453 0.96796 3.71217 0 0 0 128 128 0 255
-0.966404 0.867328 3.71263 0 0 0 128 128 0 255
-0.766934 1.00611 3.71308 0 0 0 128 128 0 255
-0.72139 1.03696 3.71353 0 0 0 128 128 0 255
-0.941123 0.881786 3.71398 0 0 0 128 128 0 255
-0.709716 1.03425 3.71804 0 0 0 128 128 0 255
-0.961893 0.857411 3.71804 0 0 0 128 128 0 255
-0.703573 1.0342 3.71984 0 0 0 128 128 0 255
-0.974375 0.842118 3.72074 0 0 0 128 128 0 255
-0.614423 1.08472 3.7248 0 0 0 128 128 0 255
-0.765074 0.979078 3.7248 0 0 0 128 128 0 255
-0.759649 0.981792 3.72526 0 0 0 128 128 0 255
-0.793625 0.953607 3.72706 0 0 0 128 128 0 255
-0.775712 0.962897 3.72841 0 0 0 128 128 0 255
-0.712663 0.99839 3.73202 0 0 0 128 128 0 255
-0.571219 1.09104 3.73473 0 0 0 128 128 0 255
-0.713682 0.991135 3.73473 0 0 0 128 128 0 255
-0.768845 0.951362 3.73518 0 0 0 128 128 0 255
-0.713782 0.987794 3.73608 0 0 0 128 128 0 255
-0.655946 1.00982 3.74375 0 0 0 128 128 0 255
-0.651646 1.01066 3.74465 0 0 0 128 128 0 255
-0.654102 1.00893 3.74465 0 0 0 128 128 0 255
-0.62759 1.01989 3.74781 0 0 0 128 128 0 255
-0.704537 0.939775 3.75864 0 0 0 128 128 0 255
-0.709449 0.93633 3.75864 0 0 0 128 128 0 255
-0.710574 0.934451 3.75909 0 0 0 128 128 0 255
-0.663081 0.959035 3.7627 0 0 0 128 128 0 255
-0.647725 0.963263 3.7654 0 0 0 128 128 0 255
-0.625508 0.964672 3.77127 0 0 0 128 128 0 255
-0.601558 0.979287 3.77217 0 0 0 128 128 0 255
-0.629395 0.959766 3.77217 0 0 0 128 128 0 255
