ply
format ascii 1.0
comment VCGLIB generated
element vertex 482
property float x
property float y
property float z
property float nx
property float ny
property float nz
property uchar red
property uchar green
property uchar blue
property uchar alpha
element face 0
property list uchar int vertex_indices
end_header
0.702687 1.18507 3.5855 0 0 0 128 128 128 255
0.758693 1.08521 3.57347 0 0 0 128 128 128 255
0.74678 1.08696 3.57338 0 0 0 128 128 128 255
0.74666 1.08556 3.57319 0 0 0 128 128 128 255
0.793564 0.987178 3.56134 0 0 0 128 128 128 255
0.773872 1.00579 3.56333 0 0 0 128 128 128 255
0.699648 1.09179 3.5729 0 0 0 128 128 128 255
0.795826 0.9722 3.55945 0 0 0 128 128 128 255
0.725271 1.0431 3.56717 0 0 0 128 128 128 255
0.702281 1.05636 3.56845 0 0 0 128 128 128 255
0.69399 1.05073 3.56763 0 0 0 128 128 128 255
0.693346 1.05149 3.56772 0 0 0 128 128 128 255
0.696852 1.04274 3.56669 0 0 0 128 128 128 255
0.697232 0.997612 3.56128 0 0 0 128 128 128 255
0.720678 0.948378 3.55568 0 0 0 128 128 128 255
0.721013 0.910973 3.55146 0 0 0 128 128 128 255
0.806597 0.808495 3.54003 0 0 0 128 128 128 255
0.704268 0.906041 3.55097 0 0 0 128 128 128 255
0.801613 0.783518 3.53733 0 0 0 128 128 128 255
0.787437 0.800237 3.5392 0 0 0 128 128 128 255
0.695572 0.903951 3.55079 0 0 0 128 128 128 255
0.783296 0.78506 3.53762 0 0 0 128 128 128 255
0.713099 0.860129 3.54605 0 0 0 128 128 128 255
0.758698 0.787829 3.53815 0 0 0 128 128 128 255
0.790437 0.744222 3.53335 0 0 0 128 128 128 255
0.749282 0.777318 3.53722 0 0 0 128 128 128 255
0.678683 0.855949 3.54604 0 0 0 128 128 128 255
0.757058 0.760426 3.53543 0 0 0 128 128 128 255
0.735957 0.779135 3.5376 0 0 0 128 128 128 255
0.725572 0.782119 3.53807 0 0 0 128 128 128 255
0.771727 0.724595 3.5317 0 0 0 128 128 128 255
0.704394 0.791649 3.53938 0 0 0 128 128 128 255
0.64451 0.854552 3.54653 0 0 0 128 128 128 255
0.483292 1.04314 3.56759 0 0 0 128 128 128 255
0.47427 1.05378 3.56878 0 0 0 128 128 128 255
0.476085 1.0501 3.56839 0 0 0 128 128 128 255
0.637751 0.850166 3.54626 0 0 0 128 128 128 255
0.733001 0.736285 3.53359 0 0 0 128 128 128 255
0.734978 0.726228 3.53262 0 0 0 128 128 128 255
0.762567 0.692145 3.52885 0 0 0 128 128 128 255
0.674165 0.794858 3.54034 0 0 0 128 128 128 255
0.765549 0.685537 3.52818 0 0 0 128 128 128 255
0.677956 0.781117 3.539 0 0 0 128 128 128 255
0.545212 0.937673 3.55646 0 0 0 128 128 128 255
0.751103 0.682489 3.52827 0 0 0 128 128 128 255
0.605994 0.85208 3.54723 0 0 0 128 128 128 255
0.721956 0.698319 3.53048 0 0 0 128 128 128 255
0.695536 0.729478 3.53396 0 0 0 128 128 128 255
0.694247 0.730998 3.53413 0 0 0 128 128 128 255
0.64451 0.788113 3.54054 0 0 0 128 128 128 255
0.717208 0.700831 3.53084 0 0 0 128 128 128 255
0.69852 0.722871 3.5333 0 0 0 128 128 128 255
0.35506 1.12794 3.57849 0 0 0 128 128 128 255
0.657682 0.76794 3.53841 0 0 0 128 128 128 255
0.353411 1.12525 3.5783 0 0 0 128 128 128 255
0.657443 0.765131 3.53817 0 0 0 128 128 128 255
0.579472 0.857089 3.54843 0 0 0 128 128 128 255
0.723051 0.686209 3.52941 0 0 0 128 128 128 255
0.696631 0.717368 3.53289 0 0 0 128 128 128 255
0.529734 0.914203 3.55484 0 0 0 128 128 128 255
0.629255 0.792193 3.54136 0 0 0 128 128 128 255
0.737442 0.655331 3.52634 0 0 0 128 128 128 255
0.527371 0.903085 3.55398 0 0 0 128 128 128 255
0.62713 0.783882 3.54073 0 0 0 128 128 128 255
0.623908 0.787682 3.54115 0 0 0 128 128 128 255
0.622833 0.775041 3.54014 0 0 0 128 128 128 255
0.624001 0.772115 3.53986 0 0 0 128 128 128 255
0.563428 0.843553 3.54783 0 0 0 128 128 128 255
0.560731 0.845188 3.54806 0 0 0 128 128 128 255
0.59517 0.799934 3.54315 0 0 0 128 128 128 255
0.444023 0.973555 3.56266 0 0 0 128 128 128 255
0.756483 0.595775 3.52081 0 0 0 128 128 128 255
0.663333 0.700997 3.5327 0 0 0 128 128 128 255
0.408321 0.995569 3.56576 0 0 0 128 128 128 255
0.575742 0.796567 3.54362 0 0 0 128 128 128 255
0.575622 0.795162 3.54351 0 0 0 128 128 128 255
0.408536 0.981401 3.56466 0 0 0 128 128 128 255
0.576127 0.776019 3.54202 0 0 0 128 128 128 255
0.295172 1.10737 3.57898 0 0 0 128 128 128 255
0.385553 0.99459 3.56663 0 0 0 128 128 128 255
0.632236 0.702111 3.53406 0 0 0 128 128 128 255
0.555554 0.792549 3.54415 0 0 0 128 128 128 255
0.508513 0.848028 3.55034 0 0 0 128 128 128 255
0.64694 0.683227 3.53201 0 0 0 128 128 128 255
0.686128 0.635462 3.52674 0 0 0 128 128 128 255
0.289183 1.10361 3.57896 0 0 0 128 128 128 255
0.553671 0.787041 3.54382 0 0 0 128 128 128 255
0.61219 0.716476 3.53601 0 0 0 128 128 128 255
0.356367 1.01819 3.56966 0 0 0 128 128 128 255
0.283839 1.09909 3.57886 0 0 0 128 128 128 255
0.550378 0.781646 3.54357 0 0 0 128 128 128 255
0.614342 0.700024 3.53471 0 0 0 128 128 128 255
0.614869 0.697859 3.53453 0 0 0 128 128 128 255
0.28494 1.08697 3.57793 0 0 0 128 128 128 255
0.212412 1.16787 3.58714 0 0 0 128 128 128 255
0.270167 1.09666 3.57932 0 0 0 128 128 128 255
0.332437 1.02013 3.57091 0 0 0 128 128 128 255
0.519599 0.794756 3.54596 0 0 0 128 128 128 255
0.428739 0.901913 3.55791 0 0 0 128 128 128 255
0.32757 1.02123 3.57122 0 0 0 128 128 128 255
0.52104 0.769861 3.54417 0 0 0 128 128 128 255
0.610898 0.659243 3.53204 0 0 0 128 128 128 255
0.542475 0.738395 3.54094 0 0 0 128 128 128 255
0.39737 0.907986 3.55992 0 0 0 128 128 128 255
0.62021 0.643625 3.5305 0 0 0 128 128 128 255
0.500168 0.774375 3.54558 0 0 0 128 128 128 255
0.49888 0.775895 3.54575 0 0 0 128 128 128 255
0.802269 0.416537 3.50574 0 0 0 128 128 128 255
0.127473 1.21083 3.59441 0 0 0 128 128 128 255
0.473918 0.799147 3.54863 0 0 0 128 128 128 255
0.532322 0.727176 3.54075 0 0 0 128 128 128 255
0.189389 1.13008 3.58577 0 0 0 128 128 128 255
0.708938 0.511146 3.51702 0 0 0 128 128 128 255
0.480061 0.779533 3.54704 0 0 0 128 128 128 255
0.112113 1.21348 3.59544 0 0 0 128 128 128 255
0.522355 0.726562 3.54128 0 0 0 128 128 128 255
0.107367 1.21599 3.59587 0 0 0 128 128 128 255
0.544673 0.697148 3.53815 0 0 0 128 128 128 255
0.539518 0.703228 3.53883 0 0 0 128 128 128 255
0.762359 0.438867 3.50941 0 0 0 128 128 128 255
0.46494 0.784998 3.54825 0 0 0 128 128 128 255
0.707404 0.492857 3.51597 0 0 0 128 128 128 255
0.519241 0.714771 3.54073 0 0 0 128 128 128 255
0.0889612 1.21605 3.59696 0 0 0 128 128 128 255
0.510156 0.716208 3.54136 0 0 0 128 128 128 255
0.165406 1.1228 3.58672 0 0 0 128 128 128 255
0.125982 1.16775 3.59181 0 0 0 128 128 128 255
0.548112 0.662165 3.53582 0 0 0 128 128 128 255
0.191764 1.08244 3.5827 0 0 0 128 128 128 255
0.145895 1.13499 3.58864 0 0 0 128 128 128 255
0.746875 0.423109 3.5094 0 0 0 128 128 128 255
0.490408 0.725582 3.54314 0 0 0 128 128 128 255
0.142202 1.13316 3.58876 0 0 0 128 128 128 255
0.751908 0.398621 3.50767 0 0 0 128 128 128 255
0.728593 0.424573 3.51065 0 0 0 128 128 128 255
0.722675 0.430005 3.51134 0 0 0 128 128 128 255
0.66626 0.4919 3.5185 0 0 0 128 128 128 255
0.541131 0.637929 3.53488 0 0 0 128 128 128 255
0.61178 0.551517 3.52542 0 0 0 128 128 128 255
0.70832 0.436111 3.51263 0 0 0 128 128 128 255
0.138562 1.10653 3.5875 0 0 0 128 128 128 255
0.743528 0.391497 3.50783 0 0 0 128 128 128 255
0.465151 0.71981 3.54445 0 0 0 128 128 128 255
0.0873036 1.16234 3.59399 0 0 0 128 128 128 255
0.135398 1.10253 3.5875 0 0 0 128 128 128 255
0.726187 0.404218 3.5097 0 0 0 128 128 128 255
0.532225 0.632973 3.53521 0 0 0 128 128 128 255
0.760927 0.353973 3.50463 0 0 0 128 128 128 255
0.642884 0.491641 3.52008 0 0 0 128 128 128 255
0.0751756 1.16119 3.59477 0 0 0 128 128 128 255
0.464271 0.700748 3.5435 0 0 0 128 128 128 255
0.0757031 1.15902 3.59462 0 0 0 128 128 128 255
0.47511 0.686422 3.54199 0 0 0 128 128 128 255
0.492801 0.660919 3.53943 0 0 0 128 128 128 255
0.732398 0.376797 3.50783 0 0 0 128 128 128 255
0.499128 0.651911 3.53851 0 0 0 128 128 128 255
0.596313 0.535745 3.52565 0 0 0 128 128 128 255
0.708966 0.401341 3.51075 0 0 0 128 128 128 255
0.640016 0.482659 3.51982 0 0 0 128 128 128 255
0.457009 0.698494 3.5439 0 0 0 128 128 128 255
0.70797 0.397876 3.51065 0 0 0 128 128 128 255
0.742651 0.355429 3.50601 0 0 0 128 128 128 255
0.743706 0.351093 3.50571 0 0 0 128 128 128 255
0.756359 0.333078 3.5039 0 0 0 128 128 128 255
0.762042 0.32483 3.50307 0 0 0 128 128 128 255
0.709202 0.387148 3.51002 0 0 0 128 128 128 255
0.182734 1.00805 3.57928 0 0 0 128 128 128 255
0.736677 0.351652 3.50626 0 0 0 128 128 128 255
0.759642 0.321477 3.50309 0 0 0 128 128 128 255
0.113845 1.08157 3.58797 0 0 0 128 128 128 255
0.0970905 1.10133 3.59017 0 0 0 128 128 128 255
0.60206 0.502688 3.52359 0 0 0 128 128 128 255
0.114255 1.07799 3.58777 0 0 0 128 128 128 255
0.541959 0.562748 3.53099 0 0 0 128 128 128 255
0.0733715 1.11385 3.59256 0 0 0 128 128 128 255
0.675116 0.402616 3.51332 0 0 0 128 128 128 255
0.0487679 1.14132 3.59572 0 0 0 128 128 128 255
0.051872 1.13611 3.59524 0 0 0 128 128 128 255
0.56727 0.526717 3.52737 0 0 0 128 128 128 255
0.0923535 1.08682 3.58985 0 0 0 128 128 128 255
0.569087 0.523029 3.52706 0 0 0 128 128 128 255
0.480045 0.626498 3.5387 0 0 0 128 128 128 255
0.550578 0.538675 3.52921 0 0 0 128 128 128 255
0.545951 0.542586 3.52975 0 0 0 128 128 128 255
0.649466 0.417412 3.516 0 0 0 128 128 128 255
0.0882007 1.07936 3.58983 0 0 0 128 128 128 255
0.559663 0.520233 3.52767 0 0 0 128 128 128 255
0.736754 0.309829 3.50431 0 0 0 128 128 128 255
0.640391 0.418841 3.51678 0 0 0 128 128 128 255
0.637995 0.415488 3.51683 0 0 0 128 128 128 255
0.0662515 1.07897 3.59159 0 0 0 128 128 128 255
0.667881 0.366331 3.51231 0 0 0 128 128 128 255
0.0758666 1.05836 3.58994 0 0 0 128 128 128 255
0.00691676 1.13968 3.59901 0 0 0 128 128 128 255
-0.120144 1.28799 3.61566 0 0 0 128 128 128 255
-0.0282277 1.17649 3.60345 0 0 0 128 128 128 255
0.46123 0.586875 3.53857 0 0 0 128 128 128 255
-0.0712682 1.2118 3.6085 0 0 0 128 128 128 255
0.45444 0.590248 3.53929 0 0 0 128 128 128 255
0.0889542 1.01975 3.58731 0 0 0 128 128 128 255
0.057379 1.05699 3.59146 0 0 0 128 128 128 255
0.649229 0.354338 3.51343 0 0 0 128 128 128 255
0.636341 0.369538 3.51512 0 0 0 128 128 128 255
0.0351235 1.0786 3.59422 0 0 0 128 128 128 255
-0.0225735 1.14201 3.60163 0 0 0 128 128 128 255
-0.0322394 1.15341 3.60291 0 0 0 128 128 128 255
-0.0335282 1.15493 3.60307 0 0 0 128 128 128 255
-0.0883472 1.21032 3.60995 0 0 0 128 128 128 255
0.0636127 1.02955 3.5899 0 0 0 128 128 128 255
0.533145 0.472709 3.52802 0 0 0 128 128 128 255
0.0947287 0.986678 3.58559 0 0 0 128 128 128 255
0.624948 0.359804 3.51578 0 0 0 128 128 128 255
0.618274 0.364586 3.51656 0 0 0 128 128 128 255
0.49561 0.506164 3.53259 0 0 0 128 128 128 255
0.537151 0.452538 3.52697 0 0 0 128 128 128 255
0.442195 0.561437 3.53935 0 0 0 128 128 128 255
0.502653 0.48859 3.53135 0 0 0 128 128 128 255
0.0354693 1.03958 3.59281 0 0 0 128 128 128 255
0.461182 0.53441 3.5367 0 0 0 128 128 128 255
0.510573 0.473074 3.53011 0 0 0 128 128 128 255
-0.105696 1.1968 3.61108 0 0 0 128 128 128 255
0.424525 0.569924 3.54128 0 0 0 128 128 128 255
-0.000360012 1.06793 3.59708 0 0 0 128 128 128 255
0.503441 0.472219 3.53075 0 0 0 128 128 128 255
0.444801 0.541377 3.53847 0 0 0 128 128 128 255
-0.00638723 1.07196 3.59777 0 0 0 128 128 128 255
-0.115289 1.20039 3.6121 0 0 0 128 128 128 255
0.245227 0.770575 3.56453 0 0 0 128 128 128 255
0.232224 0.784365 3.56619 0 0 0 128 128 128 255
-0.0887971 1.16143 3.60838 0 0 0 128 128 128 255
0.425313 0.553552 3.5407 0 0 0 128 128 128 255
0.231237 0.780897 3.56618 0 0 0 128 128 128 255
0.228545 0.782528 3.56649 0 0 0 128 128 128 255
0.373493 0.602317 3.54715 0 0 0 128 128 128 255
-0.0350506 1.08415 3.6009 0 0 0 128 128 128 255
0.224712 0.770065 3.56651 0 0 0 128 128 128 255
0.218912 0.776905 3.56727 0 0 0 128 128 128 255
0.223499 0.763779 3.56646 0 0 0 128 128 128 255
-0.0800095 1.12173 3.60639 0 0 0 128 128 128 255
0.475228 0.463807 3.53326 0 0 0 128 128 128 255
0.206517 0.78072 3.56861 0 0 0 128 128 128 255
0.484022 0.450349 3.53202 0 0 0 128 128 128 255
0.482506 0.449049 3.53214 0 0 0 128 128 128 255
0.392935 0.554687 3.54392 0 0 0 128 128 128 255
0.204659 0.775192 3.56865 0 0 0 128 128 128 255
0.192416 0.789632 3.57026 0 0 0 128 128 128 255
0.0964014 0.902869 3.5829 0 0 0 128 128 128 255
-0.104153 1.1286 3.60901 0 0 0 128 128 128 255
0.0961375 0.890833 3.58262 0 0 0 128 128 128 255
-0.104268 1.12719 3.60899 0 0 0 128 128 128 255
-0.108135 1.13175 3.6095 0 0 0 128 128 128 255
0.497368 0.414546 3.52977 0 0 0 128 128 128 255
0.375882 0.553194 3.54564 0 0 0 128 128 128 255
0.26698 0.681631 3.55996 0 0 0 128 128 128 255
0.190297 0.772069 3.57005 0 0 0 128 128 128 255
0.371676 0.553526 3.54609 0 0 0 128 128 128 255
0.263949 0.679033 3.56022 0 0 0 128 128 128 255
0.188329 0.765132 3.5701 0 0 0 128 128 128 255
0.478611 0.418151 3.53181 0 0 0 128 128 128 255
0.165323 0.786093 3.57299 0 0 0 128 128 128 255
0.49385 0.397092 3.52974 0 0 0 128 128 128 255
-0.116389 1.1168 3.61002 0 0 0 128 128 128 255
-0.0978134 1.09335 3.60754 0 0 0 128 128 128 255
-0.096639 1.09042 3.60736 0 0 0 128 128 128 255
0.433132 0.457904 3.5375 0 0 0 128 128 128 255
0.180888 0.733801 3.57028 0 0 0 128 128 128 255
-0.199415 1.18078 3.62029 0 0 0 128 128 128 255
0.128439 0.783323 3.57697 0 0 0 128 128 128 255
0.184052 0.711564 3.56956 0 0 0 128 128 128 255
0.162761 0.727426 3.57222 0 0 0 128 128 128 255
0.475179 0.357425 3.5311 0 0 0 128 128 128 255
-0.125394 1.06573 3.61011 0 0 0 128 128 128 255
-0.146238 1.08723 3.61281 0 0 0 128 128 128 255
0.48182 0.343426 3.53014 0 0 0 128 128 128 255
-0.106731 1.03447 3.60753 0 0 0 128 128 128 255
-0.107376 1.03523 3.60761 0 0 0 128 128 128 255
-0.128221 1.05673 3.61031 0 0 0 128 128 128 255
0.153268 0.723208 3.57326 0 0 0 128 128 128 255
0.476838 0.333887 3.5306 0 0 0 128 128 128 255
0.0823606 0.797587 3.58248 0 0 0 128 128 128 255
0.138312 0.730059 3.5751 0 0 0 128 128 128 255
0.0910261 0.773498 3.58119 0 0 0 128 128 128 255
0.0903817 0.774258 3.58128 0 0 0 128 128 128 255
0.478728 0.313169 3.53016 0 0 0 128 128 128 255
-0.118623 1.01767 3.60874 0 0 0 128 128 128 255
0.0641425 0.7898 3.58459 0 0 0 128 128 128 255
0.263683 0.551385 3.55831 0 0 0 128 128 128 255
0.0587661 0.79306 3.58527 0 0 0 128 128 128 255
0.260238 0.552364 3.55874 0 0 0 128 128 128 255
-0.175371 1.06611 3.61605 0 0 0 128 128 128 255
0.0545679 0.79339 3.58579 0 0 0 128 128 128 255
0.106653 0.730421 3.57892 0 0 0 128 128 128 255
0.466647 0.302771 3.53154 0 0 0 128 128 128 255
0.112232 0.720762 3.57817 0 0 0 128 128 128 255
0.410474 0.36748 3.53892 0 0 0 128 128 128 255
0.0507936 0.79014 3.58623 0 0 0 128 128 128 255
0.193093 0.620774 3.5675 0 0 0 128 128 128 255
0.0494874 0.78244 3.58635 0 0 0 128 128 128 255
0.090508 0.730982 3.58094 0 0 0 128 128 128 255
-0.137717 0.998606 3.61095 0 0 0 128 128 128 255
0.107687 0.707643 3.57866 0 0 0 128 128 128 255
0.05076 0.771701 3.58614 0 0 0 128 128 128 255
0.43331 0.317452 3.5358 0 0 0 128 128 128 255
0.136026 0.664984 3.5749 0 0 0 128 128 128 255
0.029701 0.790381 3.58888 0 0 0 128 128 128 255
-0.179082 1.03662 3.61635 0 0 0 128 128 128 255
-0.191435 1.04965 3.61797 0 0 0 128 128 128 255
0.185959 0.601476 3.56831 0 0 0 128 128 128 255
0.127209 0.669224 3.57604 0 0 0 128 128 128 255
0.449185 0.286413 3.53367 0 0 0 128 128 128 255
-0.0895258 0.921758 3.60454 0 0 0 128 128 128 255
0.0244095 0.776611 3.58953 0 0 0 128 128 128 255
0.184754 0.585966 3.56844 0 0 0 128 128 128 255
0.111293 0.672604 3.5781 0 0 0 128 128 128 255
-0.2021 1.03914 3.61933 0 0 0 128 128 128 255
-0.0926627 0.908528 3.60493 0 0 0 128 128 128 255
0.00377882 0.791712 3.59224 0 0 0 128 128 128 255
0.306315 0.430291 3.55244 0 0 0 128 128 128 255
0.188818 0.565787 3.5679 0 0 0 128 128 128 255
0.336919 0.389582 3.54842 0 0 0 128 128 128 255
0.00161743 0.781952 3.59253 0 0 0 128 128 128 255
0.426698 0.277544 3.53661 0 0 0 128 128 128 255
0.170005 0.567977 3.57041 0 0 0 128 128 128 255
0.110077 0.638656 3.57829 0 0 0 128 128 128 255
0.270315 0.446601 3.55722 0 0 0 128 128 128 255
0.337222 0.366153 3.54843 0 0 0 128 128 128 255
0.116196 0.626827 3.5775 0 0 0 128 128 128 255
0.11233 0.631387 3.57801 0 0 0 128 128 128 255
0.281588 0.428692 3.55576 0 0 0 128 128 128 255
0.112649 0.626397 3.57799 0 0 0 128 128 128 255
0.412826 0.270834 3.53851 0 0 0 128 128 128 255
0.334855 0.362792 3.54876 0 0 0 128 128 128 255
0.332277 0.365832 3.5491 0 0 0 128 128 128 255
-0.0311596 0.794462 3.59691 0 0 0 128 128 128 255
0.33797 0.357583 3.54836 0 0 0 128 128 128 255
0.265582 0.439881 3.5579 0 0 0 128 128 128 255
-0.218681 1.0064 3.62163 0 0 0 128 128 128 255
0.147654 0.569738 3.57346 0 0 0 128 128 128 255
0.315734 0.369974 3.55136 0 0 0 128 128 128 255
0.297581 0.389843 3.55376 0 0 0 128 128 128 255
0.13498 0.578539 3.57517 0 0 0 128 128 128 255
-0.00130975 0.734666 3.59313 0 0 0 128 128 128 255
-0.0348181 0.774185 3.59754 0 0 0 128 128 128 255
0.0233912 0.699387 3.58992 0 0 0 128 128 128 255
0.250646 0.428293 3.56005 0 0 0 128 128 128 255
0.157747 0.536321 3.57229 0 0 0 128 128 128 255
-0.0517881 0.781905 3.59986 0 0 0 128 128 128 255
0.230992 0.446863 3.56268 0 0 0 128 128 128 255
0.245061 0.428733 3.56084 0 0 0 128 128 128 255
0.388009 0.258607 3.54205 0 0 0 128 128 128 255
0.264286 0.404524 3.55832 0 0 0 128 128 128 255
0.387257 0.257957 3.54216 0 0 0 128 128 128 255
0.375658 0.271637 3.54369 0 0 0 128 128 128 255
0.317019 0.340795 3.5514 0 0 0 128 128 128 255
0.0558261 0.645768 3.58579 0 0 0 128 128 128 255
0.0866495 0.60788 3.58175 0 0 0 128 128 128 255
-0.026439 0.736648 3.59668 0 0 0 128 128 128 255
0.185995 0.483033 3.56876 0 0 0 128 128 128 255
-0.0292315 0.736867 3.59707 0 0 0 128 128 128 255
0.252906 0.402586 3.55997 0 0 0 128 128 128 255
0.0639911 0.623849 3.58484 0 0 0 128 128 128 255
-0.2596 1.00395 3.62743 0 0 0 128 128 128 255
-0.0595144 0.763367 3.60116 0 0 0 128 128 128 255
0.137564 0.529403 3.57525 0 0 0 128 128 128 255
-0.265181 1.00439 3.62824 0 0 0 128 128 128 255
-0.26722 1.00526 3.62852 0 0 0 128 128 128 255
0.376419 0.244629 3.54387 0 0 0 128 128 128 255
0.0641083 0.606822 3.58503 0 0 0 128 128 128 255
0.066694 0.594564 3.58482 0 0 0 128 128 128 255
0.356456 0.249751 3.54674 0 0 0 128 128 128 255
0.253998 0.370589 3.56022 0 0 0 128 128 128 255
-0.0405931 0.716492 3.599 0 0 0 128 128 128 255
-0.102342 0.78164 3.60724 0 0 0 128 128 128 255
0.210622 0.40947 3.56611 0 0 0 128 128 128 255
-0.109103 0.785011 3.6082 0 0 0 128 128 128 255
0.194195 0.424241 3.56835 0 0 0 128 128 128 255
0.192906 0.425761 3.56852 0 0 0 128 128 128 255
0.346705 0.241305 3.54834 0 0 0 128 128 128 255
0.279688 0.320343 3.55715 0 0 0 128 128 128 255
-0.256551 0.951239 3.62772 0 0 0 128 128 128 255
0.267772 0.329794 3.5588 0 0 0 128 128 128 255
0.337261 0.246306 3.54968 0 0 0 128 128 128 255
0.0511515 0.583738 3.58732 0 0 0 128 128 128 255
-0.260839 0.95016 3.62839 0 0 0 128 128 128 255
-0.0437851 0.692636 3.59987 0 0 0 128 128 128 255
-0.0505433 0.696008 3.60084 0 0 0 128 128 128 255
0.0844634 0.532182 3.58316 0 0 0 128 128 128 255
-0.124964 0.779177 3.61072 0 0 0 128 128 128 255
-0.0239009 0.658448 3.59745 0 0 0 128 128 128 255
-0.021637 0.651181 3.59724 0 0 0 128 128 128 255
0.317207 0.250019 3.55269 0 0 0 128 128 128 255
-0.00143695 0.621221 3.59471 0 0 0 128 128 128 255
0.0214496 0.589635 3.59179 0 0 0 128 128 128 255
0.263427 0.299653 3.56005 0 0 0 128 128 128 255
0.0636659 0.535248 3.58633 0 0 0 128 128 128 255
0.260099 0.302042 3.56053 0 0 0 128 128 128 255
0.0919132 0.500398 3.58265 0 0 0 128 128 128 255
0.113074 0.473908 3.5799 0 0 0 128 128 128 255
-0.0138714 0.623625 3.5966 0 0 0 128 128 128 255
0.115548 0.46946 3.57961 0 0 0 128 128 128 255
0.0607748 0.534059 3.58681 0 0 0 128 128 128 255
0.0105124 0.593337 3.59343 0 0 0 128 128 128 255
0.302962 0.246896 3.55499 0 0 0 128 128 128 255
0.0587376 0.534929 3.58712 0 0 0 128 128 128 255
0.117916 0.4636 3.57936 0 0 0 128 128 128 255
0.0572388 0.533628 3.58738 0 0 0 128 128 128 255
0.247231 0.308025 3.56242 0 0 0 128 128 128 255
-0.00483119 0.603768 3.59562 0 0 0 128 128 128 255
0.179486 0.377197 3.57158 0 0 0 128 128 128 255
-0.0666715 0.66751 3.60397 0 0 0 128 128 128 255
-0.283187 0.922864 3.63245 0 0 0 128 128 128 255
0.286143 0.246811 3.55766 0 0 0 128 128 128 255
0.276478 0.25821 3.55894 0 0 0 128 128 128 255
0.177886 0.374488 3.57191 0 0 0 128 128 128 255
0.0120695 0.566984 3.5938 0 0 0 128 128 128 255
0.28261 0.246382 3.55824 0 0 0 128 128 128 255
0.112928 0.443438 3.58064 0 0 0 128 128 128 255
0.123779 0.429109 3.57925 0 0 0 128 128 128 255
0.0219655 0.549186 3.59265 0 0 0 128 128 128 255
0.183502 0.355613 3.57148 0 0 0 128 128 128 255
-0.0653377 0.647556 3.60425 0 0 0 128 128 128 255
0.175252 0.357685 3.57276 0 0 0 128 128 128 255
0.263328 0.250749 3.56126 0 0 0 128 128 128 255
-0.0472686 0.617061 3.60212 0 0 0 128 128 128 255
-0.024175 0.588291 3.59912 0 0 0 128 128 128 255
-0.0525283 0.62173 3.60285 0 0 0 128 128 128 255
0.0517614 0.497204 3.58918 0 0 0 128 128 128 255
0.141229 0.390158 3.57745 0 0 0 128 128 128 255
0.139836 0.390267 3.57767 0 0 0 128 128 128 255
0.0116018 0.541503 3.59454 0 0 0 128 128 128 255
-0.0638933 0.629013 3.60452 0 0 0 128 128 128 255
0.135663 0.390601 3.57835 0 0 0 128 128 128 255
0.113036 0.406575 3.58164 0 0 0 128 128 128 255
-0.0521337 0.598312 3.60346 0 0 0 128 128 128 255
0.241606 0.25035 3.56486 0 0 0 128 128 128 255
0.0726721 0.448056 3.58714 0 0 0 128 128 128 255
0.240553 0.245474 3.56519 0 0 0 128 128 128 255
-0.00828409 0.537418 3.59797 0 0 0 128 128 128 255
-0.0225632 0.552728 3.5999 0 0 0 128 128 128 255
0.128461 0.368495 3.58023 0 0 0 128 128 128 255
-0.0287709 0.553931 3.60091 0 0 0 128 128 128 255
0.134599 0.356668 3.57957 0 0 0 128 128 128 255
0.128596 0.360689 3.58046 0 0 0 128 128 128 255
0.165125 0.314553 3.57575 0 0 0 128 128 128 255
-0.0385031 0.554707 3.60254 0 0 0 128 128 128 255
-0.0688927 0.589016 3.60659 0 0 0 128 128 128 255
0.126801 0.355165 3.58095 0 0 0 128 128 128 255
0.16957 0.298609 3.57553 0 0 0 128 128 128 255
-0.0295475 0.533444 3.60173 0 0 0 128 128 128 255
0.0244787 0.468195 3.59467 0 0 0 128 128 128 255
0.146068 0.321742 3.57878 0 0 0 128 128 128 255
0.137046 0.332381 3.57997 0 0 0 128 128 128 255
-0.00492203 0.496759 3.59875 0 0 0 128 128 128 255
0.150516 0.305798 3.57858 0 0 0 128 128 128 255
0.0493299 0.405281 3.59264 0 0 0 128 128 128 255
-0.0261638 0.49279 3.60263 0 0 0 128 128 128 255
0.00198889 0.456533 3.59905 0 0 0 128 128 128 255
-0.0496626 0.515923 3.6059 0 0 0 128 128 128 255
-0.0515957 0.518203 3.60615 0 0 0 128 128 128 255
-0.0504069 0.515274 3.60606 0 0 0 128 128 128 255
-0.0703377 0.529621 3.60905 0 0 0 128 128 128 255
-0.0352931 0.482188 3.60469 0 0 0 128 128 128 255
-0.0176972 0.444653 3.60309 0 0 0 128 128 128 255
-0.0453546 0.468121 3.60713 0 0 0 128 128 128 255
-0.0850987 0.498229 3.61312 0 0 0 128 128 128 255
-0.0362246 0.439061 3.60676 0 0 0 128 128 128 255
-0.0478632 0.442123 3.6088 0 0 0 128 128 128 255
-0.0814692 0.480234 3.61329 0 0 0 128 128 128 255
-0.0510247 0.436715 3.60966 0 0 0 128 128 128 255
0.0970865 0.26051 3.59025 0 0 0 128 128 128 255
-0.0885665 0.458153 3.61575 0 0 0 128 128 128 255
0.0805903 0.243439 3.5943 0 0 0 128 128 128 255
0.0753379 0.24811 3.59507 0 0 0 128 128 128 255
-0.0766697 0.418259 3.61556 0 0 0 128 128 128 255
0.0740234 0.239017 3.59582 0 0 0 128 128 128 255
0.0717077 0.235666 3.59647 0 0 0 128 128 128 255
-0.088841 0.423494 3.61767 0 0 0 128 128 128 255
-0.0868356 0.412008 3.61792 0 0 0 128 128 128 255
-0.0831593 0.404633 3.61761 0 0 0 128 128 128 255
-0.0859251 0.404859 3.61815 0 0 0 128 128 128 255
-0.0629182 0.374684 3.6153 0 0 0 128 128 128 255
-0.0769622 0.351777 3.61954 0 0 0 128 128 128 255
