ply
format ascii 1.0
comment VCGLIB generated
element vertex 585
property float x
property float y
property float z
property float nx
property float ny
property float nz
property uchar red
property uchar green
property uchar blue
property uchar alpha
element face 0
property list uchar int vertex_indices
end_header
1.73155 1.11227 3.86908 0 0 0 128 0 0 255
1.73212 1.0828 3.86339 0 0 0 128 0 0 255
1.71647 1.80653 4.03978 0 0 0 128 0 0 255
1.73133 1.0748 3.87589 0 0 0 128 0 0 255
1.73137 1.00997 3.8723 0 0 0 128 0 0 255
1.72982 1.01576 3.88275 0 0 0 128 0 0 255
1.72787 1.10131 3.90328 0 0 0 128 0 0 255
1.71171 1.83614 4.07597 0 0 0 128 0 0 255
1.727 1.03551 3.89932 0 0 0 128 0 0 255
1.72855 0.949515 3.8807 0 0 0 128 0 0 255
1.7097 1.81518 4.0822 0 0 0 128 0 0 255
1.72409 1.07057 3.91629 0 0 0 128 0 0 255
1.7239 1.06742 3.91656 0 0 0 128 0 0 255
1.70255 1.90264 4.12088 0 0 0 128 0 0 255
1.69649 1.87029 4.13175 0 0 0 128 0 0 255
1.71383 1.032 3.94049 0 0 0 128 0 0 255
1.70094 1.63614 4.07927 0 0 0 128 0 0 255
1.71483 0.964534 3.92604 0 0 0 128 0 0 255
1.69493 1.88817 4.13866 0 0 0 128 0 0 255
1.69262 1.90076 4.14622 0 0 0 128 0 0 255
1.69344 1.8608 4.1371 0 0 0 128 0 0 255
1.68887 1.89206 4.15256 0 0 0 128 0 0 255
1.67812 0.986596 3.99239 0 0 0 128 0 0 255
1.35484 0.93736 4.03499 0 0 0 128 0 0 255
1.35372 0.910274 4.0277 0 0 0 128 0 0 255
1.29055 1.06267 4.006 0 0 0 128 0 0 255
1.27546 1.15236 4.00724 0 0 0 128 0 0 255
1.27778 0.93765 3.95479 0 0 0 128 0 0 255
1.27141 0.977663 3.9542 0 0 0 128 0 0 255
1.27126 0.961277 3.94956 0 0 0 128 0 0 255
1.26154 1.04072 3.95123 0 0 0 128 0 0 255
1.2542 1.20351 3.97898 0 0 0 128 0 0 255
1.25576 1.09181 3.9516 0 0 0 128 0 0 255
1.23816 1.92444 4.14062 0 0 0 128 0 0 255
1.24451 1.44883 4.02251 0 0 0 128 0 0 255
1.24597 1.34688 3.99731 0 0 0 128 0 0 255
1.22873 1.91812 4.109 0 0 0 128 0 0 255
1.23814 1.45143 4.00153 0 0 0 128 0 0 255
1.22416 1.96268 4.10216 0 0 0 128 0 0 255
1.23401 1.45277 3.98178 0 0 0 128 0 0 255
1.22273 1.96072 4.09261 0 0 0 128 0 0 255
1.23353 1.43165 3.97088 0 0 0 128 0 0 255
1.22471 1.83878 4.06073 0 0 0 128 0 0 255
1.23314 1.4191 3.96294 0 0 0 128 0 0 255
1.22307 1.86533 4.05659 0 0 0 128 0 0 255
1.22311 1.86338 4.05615 0 0 0 128 0 0 255
1.24061 1.0173 3.86311 0 0 0 128 0 0 255
1.22438 1.78996 4.03633 0 0 0 128 0 0 255
1.23955 1.04321 3.86186 0 0 0 128 0 0 255
1.22253 1.85606 4.04323 0 0 0 128 0 0 255
1.22221 1.8655 4.0423 0 0 0 128 0 0 255
1.23922 1.04206 3.8534 0 0 0 128 0 0 255
1.22272 1.83617 4.03151 0 0 0 128 0 0 255
1.22259 1.84224 4.03187 0 0 0 128 0 0 255
1.24058 0.97148 3.83012 0 0 0 128 0 0 255
1.23934 1.03759 3.837 0 0 0 128 0 0 255
1.22153 1.90047 4.03285 0 0 0 128 0 0 255
1.22166 1.90016 4.02971 0 0 0 128 0 0 255
1.23822 1.11054 3.84545 0 0 0 128 0 0 255
1.22341 1.84466 4.00783 0 0 0 128 0 0 255
1.23192 1.43332 3.91398 0 0 0 128 0 0 255
1.22233 1.90554 4.01968 0 0 0 128 0 0 255
1.22229 1.91671 4.02018 0 0 0 128 0 0 255
1.24191 1.02705 3.80701 0 0 0 128 0 0 255
1.2346 1.42511 3.89175 0 0 0 128 0 0 255
1.24311 1.04682 3.80139 0 0 0 128 0 0 255
1.22553 1.93376 3.99972 0 0 0 128 0 0 255
1.22876 1.79676 3.96646 0 0 0 128 0 0 255
1.24021 1.25307 3.8414 0 0 0 128 0 0 255
1.2375 1.44838 3.87996 0 0 0 128 0 0 255
1.24186 1.24878 3.83342 0 0 0 128 0 0 255
1.24244 1.24434 3.83041 0 0 0 128 0 0 255
1.23627 1.60415 3.90754 0 0 0 128 0 0 255
1.24012 1.44376 3.86897 0 0 0 128 0 0 255
1.24561 1.17863 3.80847 0 0 0 128 0 0 255
1.2454 1.229 3.81701 0 0 0 128 0 0 255
1.24123 1.4585 3.8674 0 0 0 128 0 0 255
1.24714 1.18676 3.80442 0 0 0 128 0 0 255
1.23993 1.54959 3.88622 0 0 0 128 0 0 255
1.24029 1.56172 3.88703 0 0 0 128 0 0 255
1.25119 1.07988 3.77417 0 0 0 128 0 0 255
1.23485 1.90105 3.95958 0 0 0 128 0 0 255
1.25238 1.08562 3.77159 0 0 0 128 0 0 255
1.25305 1.06926 3.76689 0 0 0 128 0 0 255
1.24294 1.5744 3.88118 0 0 0 128 0 0 255
1.25189 1.19197 3.79103 0 0 0 128 0 0 255
1.24483 1.55089 3.87196 0 0 0 128 0 0 255
1.25099 1.25262 3.80391 0 0 0 128 0 0 255
1.25251 1.24958 3.79939 0 0 0 128 0 0 255
1.25561 1.1182 3.76846 0 0 0 128 0 0 255
1.2442 1.68767 3.89744 0 0 0 128 0 0 255
1.24626 1.58824 3.87475 0 0 0 128 0 0 255
1.25365 1.24924 3.79646 0 0 0 128 0 0 255
1.24958 1.46488 3.84471 0 0 0 128 0 0 255
1.25399 1.25141 3.796 0 0 0 128 0 0 255
1.24377 1.76434 3.91209 0 0 0 128 0 0 255
1.24099 1.91759 3.94611 0 0 0 128 0 0 255
1.2412 1.90784 3.94388 0 0 0 128 0 0 255
1.24506 1.77883 3.91162 0 0 0 128 0 0 255
1.24863 1.6063 3.87226 0 0 0 128 0 0 255
1.25857 1.14546 3.76617 0 0 0 128 0 0 255
1.25204 1.48098 3.84179 0 0 0 128 0 0 255
1.25964 1.1135 3.75794 0 0 0 128 0 0 255
1.25986 1.20521 3.77421 0 0 0 128 0 0 255
1.25006 1.69961 3.88608 0 0 0 128 0 0 255
1.25499 1.48245 3.83561 0 0 0 128 0 0 255
1.25775 1.34891 3.80514 0 0 0 128 0 0 255
1.25781 1.34599 3.80448 0 0 0 128 0 0 255
1.26108 1.18808 3.76845 0 0 0 128 0 0 255
1.24952 1.83322 3.91196 0 0 0 128 0 0 255
1.25634 1.52541 3.84081 0 0 0 128 0 0 255
1.25796 1.46908 3.82705 0 0 0 128 0 0 255
1.2647 1.25664 3.77404 0 0 0 128 0 0 255
1.26596 1.21883 3.76451 0 0 0 128 0 0 255
1.26695 1.17107 3.75361 0 0 0 128 0 0 255
1.25459 1.79219 3.89443 0 0 0 128 0 0 255
1.26912 1.11299 3.73856 0 0 0 128 0 0 255
1.25656 1.74386 3.8816 0 0 0 128 0 0 255
1.25437 1.92187 3.91954 0 0 0 128 0 0 255
1.26324 1.49298 3.82169 0 0 0 128 0 0 255
1.2679 1.26782 3.77031 0 0 0 128 0 0 255
1.26792 1.26684 3.77009 0 0 0 128 0 0 255
1.26752 1.36005 3.7887 0 0 0 128 0 0 255
1.25667 1.93458 3.91802 0 0 0 128 0 0 255
1.26973 1.30294 3.77391 0 0 0 128 0 0 255
1.26487 1.5634 3.83246 0 0 0 128 0 0 255
1.27221 1.20859 3.7515 0 0 0 128 0 0 255
1.26535 1.56555 3.83207 0 0 0 128 0 0 255
1.26615 1.52656 3.82318 0 0 0 128 0 0 255
1.2617 1.76752 3.87728 0 0 0 128 0 0 255
1.27359 1.19242 3.74607 0 0 0 128 0 0 255
1.26215 1.77162 3.87735 0 0 0 128 0 0 255
1.25927 1.93655 3.91411 0 0 0 128 0 0 255
1.27353 1.27294 3.76183 0 0 0 128 0 0 255
1.26419 1.75077 3.86999 0 0 0 128 0 0 255
1.27375 1.28874 3.76457 0 0 0 128 0 0 255
1.26992 1.50046 3.81201 0 0 0 128 0 0 255
1.27732 1.16924 3.73558 0 0 0 128 0 0 255
1.27672 1.225 3.74745 0 0 0 128 0 0 255
1.28007 1.0897 3.71572 0 0 0 128 0 0 255
1.28004 1.11817 3.72137 0 0 0 128 0 0 255
1.26915 1.69951 3.85231 0 0 0 128 0 0 255
1.27477 1.45504 3.79568 0 0 0 128 0 0 255
1.275 1.4718 3.79866 0 0 0 128 0 0 255
1.27532 1.45621 3.7951 0 0 0 128 0 0 255
1.27033 1.72543 3.85569 0 0 0 128 0 0 255
1.27531 1.48467 3.80076 0 0 0 128 0 0 255
1.27072 1.7344 3.8569 0 0 0 128 0 0 255
1.27536 1.51021 3.80574 0 0 0 128 0 0 255
1.2722 1.74765 3.85742 0 0 0 128 0 0 255
1.27886 1.45444 3.78969 0 0 0 128 0 0 255
1.28236 1.31427 3.75688 0 0 0 128 0 0 255
1.28585 1.17409 3.72407 0 0 0 128 0 0 255
1.28867 1.12593 3.71063 0 0 0 128 0 0 255
1.28183 1.54563 3.80395 0 0 0 128 0 0 255
1.28204 1.56531 3.80763 0 0 0 128 0 0 255
1.28287 1.52535 3.79852 0 0 0 128 0 0 255
1.28424 1.48947 3.78953 0 0 0 128 0 0 255
1.28152 1.68187 3.83182 0 0 0 128 0 0 255
1.28645 1.50483 3.78984 0 0 0 128 0 0 255
1.28464 1.74846 3.8415 0 0 0 128 0 0 255
1.28801 1.58568 3.80436 0 0 0 128 0 0 255
1.29043 1.46871 3.77767 0 0 0 128 0 0 255
1.28663 1.74803 3.83907 0 0 0 128 0 0 255
1.29243 1.56434 3.79486 0 0 0 128 0 0 255
1.29489 1.44542 3.76773 0 0 0 128 0 0 255
1.29884 1.35238 3.74423 0 0 0 128 0 0 255
1.2922 1.7397 3.8311 0 0 0 128 0 0 255
1.29516 1.59642 3.7984 0 0 0 128 0 0 255
1.30212 1.26013 3.72168 0 0 0 128 0 0 255
1.29746 1.55193 3.78676 0 0 0 128 0 0 255
1.30138 1.36283 3.74362 0 0 0 128 0 0 255
1.30458 1.20784 3.70825 0 0 0 128 0 0 255
1.29505 1.70221 3.82031 0 0 0 128 0 0 255
1.30021 1.45268 3.76337 0 0 0 128 0 0 255
1.29282 1.84373 3.85186 0 0 0 128 0 0 255
1.30008 1.49282 3.77179 0 0 0 128 0 0 255
1.29752 1.7185 3.82109 0 0 0 128 0 0 255
1.30048 1.6095 3.79549 0 0 0 128 0 0 255
1.30056 1.6056 3.7946 0 0 0 128 0 0 255
1.31056 1.12213 3.68429 0 0 0 128 0 0 255
1.29639 1.84166 3.84774 0 0 0 128 0 0 255
1.30414 1.50165 3.76944 0 0 0 128 0 0 255
1.30475 1.4724 3.76277 0 0 0 128 0 0 255
1.30649 1.49241 3.76518 0 0 0 128 0 0 255
1.31354 1.1865 3.69468 0 0 0 128 0 0 255
1.30654 1.63149 3.7941 0 0 0 128 0 0 255
1.3086 1.63881 3.79369 0 0 0 128 0 0 255
1.31049 1.58341 3.78036 0 0 0 128 0 0 255
1.31176 1.522 3.76635 0 0 0 128 0 0 255
1.31715 1.37043 3.72972 0 0 0 128 0 0 255
1.31296 1.6094 3.78357 0 0 0 128 0 0 255
1.31385 1.63994 3.7892 0 0 0 128 0 0 255
1.31664 1.57885 3.77393 0 0 0 128 0 0 255
1.31945 1.44336 3.74301 0 0 0 128 0 0 255
1.31667 1.76483 3.8131 0 0 0 128 0 0 255
1.31703 1.74729 3.80909 0 0 0 128 0 0 255
1.32847 1.2318 3.69084 0 0 0 128 0 0 255
1.31756 1.83548 3.82729 0 0 0 128 0 0 255
1.33224 1.12586 3.66539 0 0 0 128 0 0 255
1.3258 1.47498 3.74441 0 0 0 128 0 0 255
1.33365 1.13397 3.66597 0 0 0 128 0 0 255
1.32702 1.64743 3.78002 0 0 0 128 0 0 255
1.33311 1.35306 3.71286 0 0 0 128 0 0 255
1.32849 1.61542 3.7721 0 0 0 128 0 0 255
1.3317 1.49957 3.74506 0 0 0 128 0 0 255
1.32962 1.63911 3.7763 0 0 0 128 0 0 255
1.33279 1.48607 3.74138 0 0 0 128 0 0 255
1.33339 1.45683 3.73471 0 0 0 128 0 0 255
1.3342 1.45697 3.73414 0 0 0 128 0 0 255
1.33733 1.34502 3.708 0 0 0 128 0 0 255
1.33776 1.36369 3.71167 0 0 0 128 0 0 255
1.34462 1.11152 3.65295 0 0 0 128 0 0 255
1.33518 1.60781 3.7656 0 0 0 128 0 0 255
1.34057 1.34755 3.70622 0 0 0 128 0 0 255
1.33139 1.83116 3.81598 0 0 0 128 0 0 255
1.33913 1.45686 3.73058 0 0 0 128 0 0 255
1.34161 1.37707 3.7118 0 0 0 128 0 0 255
1.33378 1.83646 3.81547 0 0 0 128 0 0 255
1.33858 1.64457 3.77112 0 0 0 128 0 0 255
1.34583 1.457 3.72609 0 0 0 128 0 0 255
1.35831 0.976853 3.61491 0 0 0 128 0 0 255
1.34493 1.66516 3.77141 0 0 0 128 0 0 255
1.34531 1.77083 3.79393 0 0 0 128 0 0 255
1.35031 1.52909 3.73877 0 0 0 128 0 0 255
1.34629 1.76511 3.7921 0 0 0 128 0 0 255
1.3563 1.36475 3.69971 0 0 0 128 0 0 255
1.3491 1.75477 3.78819 0 0 0 128 0 0 255
1.3531 1.56177 3.74415 0 0 0 128 0 0 255
1.35862 1.33674 3.6923 0 0 0 128 0 0 255
1.35056 1.76868 3.79034 0 0 0 128 0 0 255
1.35256 1.67218 3.76833 0 0 0 128 0 0 255
1.35704 1.53986 3.73713 0 0 0 128 0 0 255
1.36493 1.20077 3.65927 0 0 0 128 0 0 255
1.36243 1.4497 3.7146 0 0 0 128 0 0 255
1.36729 1.21479 3.66101 0 0 0 128 0 0 255
1.35696 1.75687 3.78421 0 0 0 128 0 0 255
1.36817 1.30093 3.67923 0 0 0 128 0 0 255
1.36256 1.8319 3.79761 0 0 0 128 0 0 255
1.36112 1.94508 3.82299 0 0 0 128 0 0 255
1.36508 1.84101 3.79836 0 0 0 128 0 0 255
1.38093 1.11884 3.63315 0 0 0 128 0 0 255
1.36879 1.74961 3.77663 0 0 0 128 0 0 255
1.37359 1.60557 3.74291 0 0 0 128 0 0 255
1.38051 1.44809 3.70532 0 0 0 128 0 0 255
1.37589 1.85011 3.79544 0 0 0 128 0 0 255
1.38166 1.57133 3.73184 0 0 0 128 0 0 255
1.38395 1.46021 3.70649 0 0 0 128 0 0 255
1.3852 1.5346 3.7223 0 0 0 128 0 0 255
1.39014 1.29578 3.66781 0 0 0 128 0 0 255
1.38391 1.64192 3.7464 0 0 0 128 0 0 255
1.38607 1.53762 3.72261 0 0 0 128 0 0 255
1.38508 1.63032 3.74338 0 0 0 128 0 0 255
1.38565 1.60303 3.73716 0 0 0 128 0 0 255
1.38329 1.76201 3.77306 0 0 0 128 0 0 255
1.38971 1.49698 3.71222 0 0 0 128 0 0 255
1.38521 1.80519 3.78182 0 0 0 128 0 0 255
1.38571 1.78082 3.77626 0 0 0 128 0 0 255
1.38763 1.77906 3.77515 0 0 0 128 0 0 255
1.39014 1.74903 3.7676 0 0 0 128 0 0 255
1.39106 1.7501 3.76751 0 0 0 128 0 0 255
1.39783 1.46849 3.70292 0 0 0 128 0 0 255
1.40225 1.30092 3.66435 0 0 0 128 0 0 255
1.40296 1.45042 3.69717 0 0 0 128 0 0 255
1.39574 1.84528 3.78695 0 0 0 128 0 0 255
1.39654 1.85316 3.78844 0 0 0 128 0 0 255
1.39753 1.85129 3.78771 0 0 0 128 0 0 255
1.40443 1.56383 3.72182 0 0 0 128 0 0 255
1.4145 1.12333 3.62102 0 0 0 128 0 0 255
1.41263 1.30674 3.66228 0 0 0 128 0 0 255
1.41577 1.20155 3.638 0 0 0 128 0 0 255
1.40734 1.65586 3.74137 0 0 0 128 0 0 255
1.41463 1.303 3.66086 0 0 0 128 0 0 255
1.40984 1.67462 3.74483 0 0 0 128 0 0 255
1.40827 1.84437 3.78304 0 0 0 128 0 0 255
1.4141 1.6564 3.73964 0 0 0 128 0 0 255
1.41587 1.61748 3.73051 0 0 0 128 0 0 255
1.41609 1.60676 3.72807 0 0 0 128 0 0 255
1.41203 1.85052 3.78344 0 0 0 128 0 0 255
1.41989 1.51722 3.70715 0 0 0 128 0 0 255
1.42054 1.48603 3.70003 0 0 0 128 0 0 255
1.41859 1.62744 3.73206 0 0 0 128 0 0 255
1.42291 1.4657 3.69493 0 0 0 128 0 0 255
1.42622 1.44739 3.69007 0 0 0 128 0 0 255
1.42196 1.74774 3.75817 0 0 0 128 0 0 255
1.42346 1.77029 3.7629 0 0 0 128 0 0 255
1.42693 1.60263 3.72465 0 0 0 128 0 0 255
1.42936 1.48469 3.69774 0 0 0 128 0 0 255
1.43174 1.36967 3.6715 0 0 0 128 0 0 255
1.42999 1.59697 3.72277 0 0 0 128 0 0 255
1.43529 1.34061 3.66428 0 0 0 128 0 0 255
1.43826 1.33981 3.66355 0 0 0 128 0 0 255
1.43915 1.34474 3.6645 0 0 0 128 0 0 255
1.44008 1.29991 3.65427 0 0 0 128 0 0 255
1.43289 1.83819 3.77642 0 0 0 128 0 0 255
1.43544 1.85881 3.78067 0 0 0 128 0 0 255
1.44122 1.57906 3.71684 0 0 0 128 0 0 255
1.44338 1.47476 3.69305 0 0 0 128 0 0 255
1.43856 1.75554 3.75696 0 0 0 128 0 0 255
1.44274 1.64939 3.73247 0 0 0 128 0 0 255
1.45293 1.20496 3.63094 0 0 0 128 0 0 255
1.44612 1.58223 3.71689 0 0 0 128 0 0 255
1.44676 1.55104 3.70977 0 0 0 128 0 0 255
1.44703 1.58617 3.71767 0 0 0 128 0 0 255
1.45306 1.29472 3.65117 0 0 0 128 0 0 255
1.45465 1.21772 3.6336 0 0 0 128 0 0 255
1.44843 1.61453 3.72391 0 0 0 128 0 0 255
1.45492 1.30066 3.65229 0 0 0 128 0 0 255
1.45678 1.21099 3.63183 0 0 0 128 0 0 255
1.45175 1.55028 3.70903 0 0 0 128 0 0 255
1.45172 1.60004 3.72028 0 0 0 128 0 0 255
1.44711 1.87106 3.78202 0 0 0 128 0 0 255
1.45516 1.52994 3.7041 0 0 0 128 0 0 255
1.45285 1.68983 3.74049 0 0 0 128 0 0 255
1.45876 1.45203 3.68615 0 0 0 128 0 0 255
1.45619 1.6246 3.72544 0 0 0 128 0 0 255
1.46369 1.262 3.64271 0 0 0 128 0 0 255
1.46776 1.25824 3.64157 0 0 0 128 0 0 255
1.45654 1.84897 3.77629 0 0 0 128 0 0 255
1.46267 1.55264 3.70868 0 0 0 128 0 0 255
1.47055 1.22029 3.63279 0 0 0 128 0 0 255
1.46382 1.59364 3.71792 0 0 0 128 0 0 255
1.46047 1.80422 3.76592 0 0 0 128 0 0 255
1.46053 1.8013 3.76525 0 0 0 128 0 0 255
1.46028 1.86176 3.77901 0 0 0 128 0 0 255
1.46161 1.79743 3.76433 0 0 0 128 0 0 255
1.46162 1.84522 3.77519 0 0 0 128 0 0 255
1.46458 1.79848 3.76446 0 0 0 128 0 0 255
1.47184 1.44757 3.6844 0 0 0 128 0 0 255
1.46576 1.78974 3.76244 0 0 0 128 0 0 255
1.47739 1.27607 3.64522 0 0 0 128 0 0 255
1.46841 1.75859 3.75529 0 0 0 128 0 0 255
1.4722 1.57534 3.71348 0 0 0 128 0 0 255
1.47874 1.30731 3.65231 0 0 0 128 0 0 255
1.47117 1.77035 3.75794 0 0 0 128 0 0 255
1.47453 1.60757 3.7208 0 0 0 128 0 0 255
1.48164 1.31224 3.65342 0 0 0 128 0 0 255
1.4839 1.29961 3.65054 0 0 0 128 0 0 255
1.48019 1.52772 3.7026 0 0 0 128 0 0 255
1.48688 1.30063 3.65082 0 0 0 128 0 0 255
1.48115 1.62621 3.72513 0 0 0 128 0 0 255
1.4807 1.69641 3.74117 0 0 0 128 0 0 255
1.48256 1.65451 3.73164 0 0 0 128 0 0 255
1.4803 1.81243 3.76771 0 0 0 128 0 0 255
1.48127 1.86216 3.77914 0 0 0 128 0 0 255
1.48133 1.85924 3.77847 0 0 0 128 0 0 255
1.48884 1.64092 3.72881 0 0 0 128 0 0 255
1.48648 1.85148 3.77698 0 0 0 128 0 0 255
1.49329 1.52201 3.70181 0 0 0 128 0 0 255
1.49304 1.58245 3.71567 0 0 0 128 0 0 255
1.49396 1.58636 3.71663 0 0 0 128 0 0 255
1.48709 1.96651 3.80344 0 0 0 128 0 0 255
1.49802 1.4382 3.6829 0 0 0 128 0 0 255
1.50381 1.20621 3.63005 0 0 0 128 0 0 255
1.50004 1.48499 3.69383 0 0 0 128 0 0 255
1.49936 1.56589 3.71238 0 0 0 128 0 0 255
1.50175 1.49863 3.69714 0 0 0 128 0 0 255
1.5083 1.18184 3.62486 0 0 0 128 0 0 255
1.49339 1.95091 3.80043 0 0 0 128 0 0 255
1.50905 1.29003 3.64986 0 0 0 128 0 0 255
1.49851 1.84758 3.77718 0 0 0 128 0 0 255
1.50686 1.49179 3.69612 0 0 0 128 0 0 255
1.5028 1.7842 3.76309 0 0 0 128 0 0 255
1.50812 1.57462 3.7154 0 0 0 128 0 0 255
1.51405 1.28804 3.65001 0 0 0 128 0 0 255
1.51137 1.46544 3.69062 0 0 0 128 0 0 255
1.50841 1.65648 3.73435 0 0 0 128 0 0 255
1.51758 1.21297 3.63316 0 0 0 128 0 0 255
1.51791 1.29287 3.65168 0 0 0 128 0 0 255
1.5166 1.45173 3.68823 0 0 0 128 0 0 255
1.507 1.96346 3.80514 0 0 0 128 0 0 255
1.50852 1.89035 3.78846 0 0 0 128 0 0 255
1.51585 1.63103 3.72963 0 0 0 128 0 0 255
1.51632 1.60862 3.72451 0 0 0 128 0 0 255
1.52468 1.2041 3.63222 0 0 0 128 0 0 255
1.51421 1.85322 3.78085 0 0 0 128 0 0 255
1.5228 1.43798 3.68611 0 0 0 128 0 0 255
1.52294 1.43116 3.68455 0 0 0 128 0 0 255
1.5276 1.20599 3.63318 0 0 0 128 0 0 255
1.51618 1.85318 3.78121 0 0 0 128 0 0 255
1.51797 1.76643 3.76142 0 0 0 128 0 0 255
1.52196 1.62117 3.72847 0 0 0 128 0 0 255
1.51826 1.84729 3.78025 0 0 0 128 0 0 255
1.51815 1.94764 3.80355 0 0 0 128 0 0 255
1.5219 1.76633 3.76219 0 0 0 128 0 0 255
1.52391 1.66886 3.73995 0 0 0 128 0 0 255
1.53336 1.25944 3.64674 0 0 0 128 0 0 255
1.53947 1.19984 3.63424 0 0 0 128 0 0 255
1.52786 1.80805 3.77325 0 0 0 128 0 0 255
1.53396 1.56043 3.71699 0 0 0 128 0 0 255
1.5361 1.45711 3.69341 0 0 0 128 0 0 255
1.52955 1.86741 3.78751 0 0 0 128 0 0 255
1.54298 1.21823 3.63939 0 0 0 128 0 0 255
1.54495 1.1227 3.6176 0 0 0 128 0 0 255
1.5406 1.4735 3.6984 0 0 0 128 0 0 255
1.54677 1.22198 3.64127 0 0 0 128 0 0 255
1.54675 1.31645 3.66336 0 0 0 128 0 0 255
1.53644 1.8613 3.78794 0 0 0 128 0 0 255
1.55023 1.24132 3.64676 0 0 0 128 0 0 255
1.53802 1.87778 3.79226 0 0 0 128 0 0 255
1.54096 1.78222 3.77074 0 0 0 128 0 0 255
1.54142 1.85231 3.78731 0 0 0 128 0 0 255
1.54579 1.68753 3.75002 0 0 0 128 0 0 255
1.54783 1.63485 3.7383 0 0 0 128 0 0 255
1.5561 1.2352 3.64711 0 0 0 128 0 0 255
1.55626 1.2274 3.64533 0 0 0 128 0 0 255
1.55722 1.22736 3.64563 0 0 0 128 0 0 255
1.54749 1.88121 3.79607 0 0 0 128 0 0 255
1.55487 1.52446 3.71467 0 0 0 128 0 0 255
1.54282 2.15312 3.85843 0 0 0 128 0 0 255
1.55707 1.46397 3.70119 0 0 0 128 0 0 255
1.55862 1.43468 3.69484 0 0 0 128 0 0 255
1.55661 1.57791 3.72785 0 0 0 128 0 0 255
1.55311 1.7923 3.7771 0 0 0 128 0 0 255
1.55549 1.67728 3.75086 0 0 0 128 0 0 255
1.55597 1.69964 3.7563 0 0 0 128 0 0 255
1.5664 1.28624 3.66267 0 0 0 128 0 0 255
1.55801 1.82802 3.78735 0 0 0 128 0 0 255
1.56386 1.59012 3.73344 0 0 0 128 0 0 255
1.56509 1.53066 3.71987 0 0 0 128 0 0 255
1.57007 1.2899 3.66494 0 0 0 128 0 0 255
1.56882 1.48564 3.71071 0 0 0 128 0 0 255
1.56648 1.68826 3.7577 0 0 0 128 0 0 255
1.57543 1.25547 3.65896 0 0 0 128 0 0 255
1.5771 1.21934 3.6511 0 0 0 128 0 0 255
1.56659 1.81672 3.78818 0 0 0 128 0 0 255
1.57253 1.57394 3.73319 0 0 0 128 0 0 255
1.57991 1.21719 3.65179 0 0 0 128 0 0 255
1.56462 2.26551 3.89387 0 0 0 128 0 0 255
1.57611 1.84127 3.79837 0 0 0 128 0 0 255
1.58167 1.61603 3.74742 0 0 0 128 0 0 255
1.59106 1.20558 3.65422 0 0 0 128 0 0 255
1.59241 1.14027 3.63932 0 0 0 128 0 0 255
1.57972 1.79717 3.78964 0 0 0 128 0 0 255
1.58026 1.81464 3.79408 0 0 0 128 0 0 255
1.59206 1.28722 3.6742 0 0 0 128 0 0 255
1.59625 1.17106 3.64862 0 0 0 128 0 0 255
1.59659 1.15449 3.64483 0 0 0 128 0 0 255
1.59635 1.25179 3.66797 0 0 0 128 0 0 255
1.59956 1.13961 3.64285 0 0 0 128 0 0 255
1.58681 1.84126 3.80389 0 0 0 128 0 0 255
1.59527 1.51747 3.73099 0 0 0 128 0 0 255
1.60043 1.26793 3.67406 0 0 0 128 0 0 255
1.59296 1.67139 3.7666 0 0 0 128 0 0 255
1.60141 1.26297 3.67342 0 0 0 128 0 0 255
1.5988 1.47333 3.72241 0 0 0 128 0 0 255
1.6022 1.43504 3.71519 0 0 0 128 0 0 255
1.60338 1.41935 3.71212 0 0 0 128 0 0 255
1.60072 1.58983 3.75154 0 0 0 128 0 0 255
1.604 1.47277 3.72535 0 0 0 128 0 0 255
1.60795 1.28172 3.68176 0 0 0 128 0 0 255
1.59724 1.84113 3.80992 0 0 0 128 0 0 255
1.60895 1.2748 3.6807 0 0 0 128 0 0 255
1.60648 1.43553 3.7179 0 0 0 128 0 0 255
1.61128 1.2862 3.6849 0 0 0 128 0 0 255
1.60898 1.43816 3.72011 0 0 0 128 0 0 255
1.60866 1.57627 3.75325 0 0 0 128 0 0 255
1.6089 1.56457 3.75059 0 0 0 128 0 0 255
1.60596 1.82842 3.81245 0 0 0 128 0 0 255
1.61973 1.16266 3.66055 0 0 0 128 0 0 255
1.61975 1.16169 3.66033 0 0 0 128 0 0 255
1.61616 1.41589 3.71946 0 0 0 128 0 0 255
1.62255 1.26632 3.68763 0 0 0 128 0 0 255
1.62314 1.23805 3.68118 0 0 0 128 0 0 255
1.61557 1.68329 3.78394 0 0 0 128 0 0 255
1.62438 1.25732 3.68675 0 0 0 128 0 0 255
1.61739 1.63444 3.77338 0 0 0 128 0 0 255
1.62273 1.45486 3.7336 0 0 0 128 0 0 255
1.62999 1.14282 3.66301 0 0 0 128 0 0 255
1.61727 1.79676 3.81281 0 0 0 128 0 0 255
1.6312 1.16209 3.66861 0 0 0 128 0 0 255
1.62205 1.6435 3.77906 0 0 0 128 0 0 255
1.62668 1.45818 3.73739 0 0 0 128 0 0 255
1.61986 1.82651 3.82205 0 0 0 128 0 0 255
1.63502 1.20816 3.68284 0 0 0 128 0 0 255
1.62917 1.60452 3.77517 0 0 0 128 0 0 255
1.63687 1.23217 3.69022 0 0 0 128 0 0 255
1.63913 1.16089 3.67459 0 0 0 128 0 0 255
1.63935 1.15017 3.67215 0 0 0 128 0 0 255
1.62672 1.79825 3.82066 0 0 0 128 0 0 255
1.6323 1.60305 3.77742 0 0 0 128 0 0 255
1.63615 1.41687 3.73494 0 0 0 128 0 0 255
1.64012 1.22485 3.69113 0 0 0 128 0 0 255
1.63999 1.26858 3.70176 0 0 0 128 0 0 255
1.64202 1.17013 3.6793 0 0 0 128 0 0 255
1.62705 1.93128 3.85362 0 0 0 128 0 0 255
1.6423 1.26722 3.70343 0 0 0 128 0 0 255
1.64659 1.13342 3.67423 0 0 0 128 0 0 255
1.63757 1.67791 3.80049 0 0 0 128 0 0 255
1.64679 1.23245 3.69885 0 0 0 128 0 0 255
1.64814 1.16715 3.68395 0 0 0 128 0 0 255
1.636 1.78988 3.82672 0 0 0 128 0 0 255
1.64249 1.47601 3.7551 0 0 0 128 0 0 255
1.64368 1.45443 3.75087 0 0 0 128 0 0 255
1.64145 1.63351 3.7931 0 0 0 128 0 0 255
1.64316 1.58659 3.78309 0 0 0 128 0 0 255
1.64593 1.488 3.76129 0 0 0 128 0 0 255
1.64434 1.63491 3.79622 0 0 0 128 0 0 255
1.64827 1.44484 3.75285 0 0 0 128 0 0 255
1.64888 1.4156 3.74618 0 0 0 128 0 0 255
1.64906 1.40682 3.74418 0 0 0 128 0 0 255
1.64491 1.64257 3.79867 0 0 0 128 0 0 255
1.64569 1.60456 3.79 0 0 0 128 0 0 255
1.64186 1.82471 3.84094 0 0 0 128 0 0 255
1.64522 1.69688 3.81248 0 0 0 128 0 0 255
1.64711 1.60525 3.79158 0 0 0 128 0 0 255
1.65226 1.42562 3.75202 0 0 0 128 0 0 255
1.64668 1.76357 3.83057 0 0 0 128 0 0 255
1.65839 1.23121 3.70984 0 0 0 128 0 0 255
1.66224 1.11298 3.68432 0 0 0 128 0 0 255
1.66409 1.09027 3.68062 0 0 0 128 0 0 255
1.65708 1.46247 3.76628 0 0 0 128 0 0 255
1.65015 1.83078 3.85106 0 0 0 128 0 0 255
1.65972 1.43376 3.76197 0 0 0 128 0 0 255
1.6554 1.67535 3.81784 0 0 0 128 0 0 255
1.65811 1.57675 3.7961 0 0 0 128 0 0 255
1.66164 1.40617 3.75718 0 0 0 128 0 0 255
1.66102 1.4684 3.77214 0 0 0 128 0 0 255
1.65554 1.76555 3.8407 0 0 0 128 0 0 255
1.66097 1.50334 3.78087 0 0 0 128 0 0 255
1.663 1.40489 3.75841 0 0 0 128 0 0 255
1.66222 1.50693 3.78322 0 0 0 128 0 0 255
1.65772 1.75631 3.84089 0 0 0 128 0 0 255
1.66282 1.5097 3.78462 0 0 0 128 0 0 255
1.66501 1.43547 3.76846 0 0 0 128 0 0 255
1.65748 1.83106 3.85949 0 0 0 128 0 0 255
1.65476 1.99369 3.89737 0 0 0 128 0 0 255
1.66255 1.61743 3.81153 0 0 0 128 0 0 255
1.66136 1.70598 3.83251 0 0 0 128 0 0 255
1.66549 1.50616 3.78692 0 0 0 128 0 0 255
1.66664 1.4506 3.77424 0 0 0 128 0 0 255
1.66289 1.66293 3.82347 0 0 0 128 0 0 255
1.66751 1.47075 3.78041 0 0 0 128 0 0 255
1.66601 1.63501 3.82026 0 0 0 128 0 0 255
1.66818 1.59082 3.81177 0 0 0 128 0 0 255
1.67142 1.43389 3.77597 0 0 0 128 0 0 255
1.66955 1.55459 3.80431 0 0 0 128 0 0 255
1.67182 1.4745 3.78684 0 0 0 128 0 0 255
1.67044 1.57084 3.80962 0 0 0 128 0 0 255
1.66737 1.74906 3.8511 0 0 0 128 0 0 255
1.67088 1.57945 3.8124 0 0 0 128 0 0 255
1.67281 1.48587 3.79105 0 0 0 128 0 0 255
1.67187 1.56077 3.80895 0 0 0 128 0 0 255
1.67121 1.65109 3.83119 0 0 0 128 0 0 255
1.66556 1.95309 3.90091 0 0 0 128 0 0 255
1.67446 1.55133 3.81007 0 0 0 128 0 0 255
1.6689 1.96183 3.90787 0 0 0 128 0 0 255
1.68088 1.38283 3.77577 0 0 0 128 0 0 255
1.68105 1.45738 3.79529 0 0 0 128 0 0 255
1.68797 1.12304 3.71901 0 0 0 128 0 0 255
1.68472 1.38845 3.78295 0 0 0 128 0 0 255
1.68515 1.39413 3.7851 0 0 0 128 0 0 255
1.68232 1.55771 3.82328 0 0 0 128 0 0 255
1.68524 1.52094 3.81833 0 0 0 128 0 0 255
1.6914 1.27398 3.76372 0 0 0 128 0 0 255
1.6795 1.94973 3.9214 0 0 0 128 0 0 255
1.69309 1.39048 3.79733 0 0 0 128 0 0 255
1.68354 1.9473 3.92794 0 0 0 128 0 0 255
1.68531 1.95435 3.93314 0 0 0 128 0 0 255
1.6942 2.00063 3.96496 0 0 0 128 0 0 255
1.71414 1.10989 3.76552 0 0 0 128 0 0 255
1.69781 1.95245 3.96062 0 0 0 128 0 0 255
1.71542 1.15255 3.78099 0 0 0 128 0 0 255
1.70275 1.90908 3.96229 0 0 0 128 0 0 255
1.71877 1.14955 3.78997 0 0 0 128 0 0 255
1.70271 1.94084 3.97149 0 0 0 128 0 0 255
1.72291 1.1408 3.80173 0 0 0 128 0 0 255
1.71222 1.84951 3.98141 0 0 0 128 0 0 255
1.72946 1.04178 3.80015 0 0 0 128 0 0 255
1.72484 1.27355 3.85404 0 0 0 128 0 0 255
1.72784 1.15204 3.82935 0 0 0 128 0 0 255
1.71434 1.8401 3.9914 0 0 0 128 0 0 255
1.72649 1.26554 3.86234 0 0 0 128 0 0 255
1.72946 1.12225 3.82965 0 0 0 128 0 0 255
1.73038 1.11119 3.83324 0 0 0 128 0 0 255
1.73218 1.02444 3.81344 0 0 0 128 0 0 255
1.71588 1.83531 4.00355 0 0 0 128 0 0 255
1.72924 1.21285 3.86869 0 0 0 128 0 0 255
1.7291 1.22238 3.87189 0 0 0 128 0 0 255
1.71623 1.84697 4.01542 0 0 0 128 0 0 255
1.72824 1.27887 3.894 0 0 0 128 0 0 255
1.72959 1.21356 3.8791 0 0 0 128 0 0 255
1.7314 1.12583 3.85909 0 0 0 128 0 0 255
1.71783 1.78259 4.00996 0 0 0 128 0 0 255
1.72824 1.27962 3.8952 0 0 0 128 0 0 255
