ply
format ascii 1.0
comment VCGLIB generated
element vertex 1037
property float x
property float y
property float z
property float nx
property float ny
property float nz
property uchar red
property uchar green
property uchar blue
property uchar alpha
element face 0
property list uchar int vertex_indices
end_header
1.06221 2.51317 2.59652 0 0 0 128 128 128 255
1.01037 2.50905 2.59747 0 0 0 128 128 128 255
1.36645 2.53477 2.59938 0 0 0 128 128 128 255
1.02937 2.50986 2.59938 0 0 0 128 128 128 255
2.70085 2.63281 2.60129 0 0 0 128 128 128 255
0.992533 2.50625 2.60225 0 0 0 128 128 128 255
1.04242 2.50964 2.6032 0 0 0 128 128 128 255
0.950734 2.50197 2.60607 0 0 0 128 128 128 255
1.10835 2.51303 2.60798 0 0 0 128 128 128 255
0.395315 2.46003 2.60894 0 0 0 128 128 128 255
1.76462 2.56065 2.61085 0 0 0 128 128 128 255
1.14234 2.51436 2.6118 0 0 0 128 128 128 255
2.67119 2.62707 2.61276 0 0 0 128 128 128 255
1.08454 2.5095 2.61371 0 0 0 128 128 128 255
1.06859 2.50832 2.61371 0 0 0 128 128 128 255
2.64032 2.6242 2.61467 0 0 0 128 128 128 255
1.09655 2.50979 2.61562 0 0 0 128 128 128 255
1.0786 2.50846 2.61562 0 0 0 128 128 128 255
1.1245 2.51156 2.61658 0 0 0 128 128 128 255
1.06067 2.50684 2.61658 0 0 0 128 128 128 255
0.387597 2.45591 2.6204 0 0 0 128 128 128 255
1.53349 2.54031 2.62136 0 0 0 128 128 128 255
1.75292 2.55624 2.62231 0 0 0 128 128 128 255
1.06182 2.50486 2.62327 0 0 0 128 128 128 255
2.68544 2.62428 2.62518 0 0 0 128 128 128 255
2.54784 2.61381 2.62613 0 0 0 128 128 128 255
0.389766 2.4537 2.62804 0 0 0 128 128 128 255
0.545385 2.46461 2.62996 0 0 0 128 128 128 255
0.407761 2.45444 2.62996 0 0 0 128 128 128 255
1.05903 2.50199 2.63187 0 0 0 128 128 128 255
0.799735 2.48282 2.63187 0 0 0 128 128 128 255
1.73421 2.5516 2.63282 0 0 0 128 128 128 255
1.30241 2.51938 2.63378 0 0 0 128 128 128 255
2.73853 2.62494 2.63569 0 0 0 128 128 128 255
1.5139 2.53413 2.63664 0 0 0 128 128 128 255
0.801838 2.4815 2.63664 0 0 0 128 128 128 255
2.67076 2.61934 2.6376 0 0 0 128 128 128 255
1.05916 2.50022 2.6376 0 0 0 128 128 128 255
0.753037 2.477 2.63951 0 0 0 128 128 128 255
0.732094 2.47545 2.63951 0 0 0 128 128 128 255
1.71643 2.54792 2.64047 0 0 0 128 128 128 255
0.772007 2.47811 2.64047 0 0 0 128 128 128 255
2.74567 2.6234 2.64238 0 0 0 128 128 128 255
0.781026 2.47818 2.64238 0 0 0 128 128 128 255
1.17896 2.5073 2.64333 0 0 0 128 128 128 255
0.785037 2.47818 2.64333 0 0 0 128 128 128 255
2.77164 2.62473 2.64429 0 0 0 128 128 128 255
1.51307 2.5317 2.64429 0 0 0 128 128 128 255
0.591586 2.46359 2.64429 0 0 0 128 128 128 255
1.52307 2.53214 2.64524 0 0 0 128 128 128 255
0.857925 2.48239 2.64715 0 0 0 128 128 128 255
2.68598 2.61692 2.64906 0 0 0 128 128 128 255
0.863952 2.48224 2.64906 0 0 0 128 128 128 255
0.837026 2.48025 2.64906 0 0 0 128 128 128 255
0.82805 2.47959 2.64906 0 0 0 128 128 128 255
1.74158 2.54681 2.65002 0 0 0 128 128 128 255
1.47431 2.52706 2.65002 0 0 0 128 128 128 255
0.882988 2.48246 2.65289 0 0 0 128 128 128 255
1.67385 2.54062 2.65384 0 0 0 128 128 128 255
0.517008 2.45512 2.65384 0 0 0 128 128 128 255
0.806241 2.4762 2.6548 0 0 0 128 128 128 255
0.554926 2.45762 2.6548 0 0 0 128 128 128 255
2.51161 2.60196 2.65575 0 0 0 128 128 128 255
0.804268 2.47576 2.65575 0 0 0 128 128 128 255
1.70583 2.5421 2.65671 0 0 0 128 128 128 255
2.48074 2.59908 2.65766 0 0 0 128 128 128 255
0.66569 2.46492 2.65766 0 0 0 128 128 128 255
1.73081 2.54335 2.65862 0 0 0 128 128 128 255
1.72582 2.54299 2.65862 0 0 0 128 128 128 255
1.45857 2.52294 2.65957 0 0 0 128 128 128 255
1.33493 2.5135 2.66053 0 0 0 128 128 128 255
1.43468 2.52058 2.66149 0 0 0 128 128 128 255
1.69399 2.53945 2.66244 0 0 0 128 128 128 255
0.615934 2.45976 2.66244 0 0 0 128 128 128 255
1.49356 2.52434 2.6634 0 0 0 128 128 128 255
1.65514 2.53599 2.66435 0 0 0 128 128 128 255
1.38588 2.51608 2.66435 0 0 0 128 128 128 255
1.46668 2.52176 2.66531 0 0 0 128 128 128 255
0.545193 2.45365 2.66531 0 0 0 128 128 128 255
0.547209 2.4535 2.66626 0 0 0 128 128 128 255
0.533247 2.45247 2.66626 0 0 0 128 128 128 255
1.80382 2.54579 2.66817 0 0 0 128 128 128 255
0.599133 2.45645 2.66913 0 0 0 128 128 128 255
0.584174 2.45534 2.66913 0 0 0 128 128 128 255
0.561258 2.45335 2.67008 0 0 0 128 128 128 255
1.43494 2.51705 2.67295 0 0 0 128 128 128 255
0.532402 2.45033 2.67295 0 0 0 128 128 128 255
0.516446 2.44915 2.67295 0 0 0 128 128 128 255
1.69027 2.53562 2.67391 0 0 0 128 128 128 255
0.568326 2.45269 2.67391 0 0 0 128 128 128 255
1.49881 2.52117 2.67486 0 0 0 128 128 128 255
0.798741 2.46913 2.67582 0 0 0 128 128 128 255
0.482604 2.44577 2.67582 0 0 0 128 128 128 255
2.58793 2.60049 2.67868 0 0 0 128 128 128 255
2.51714 2.59497 2.67964 0 0 0 128 128 128 255
0.493682 2.4451 2.68059 0 0 0 128 128 128 255
0.558527 2.4496 2.68155 0 0 0 128 128 128 255
1.25565 2.50083 2.68251 0 0 0 128 128 128 255
0.523644 2.44673 2.68251 0 0 0 128 128 128 255
2.75757 2.61155 2.68346 0 0 0 128 128 128 255
1.44715 2.51469 2.68346 0 0 0 128 128 128 255
1.81317 2.54145 2.68442 0 0 0 128 128 128 255
0.832844 2.46899 2.68442 0 0 0 128 128 128 255
1.66161 2.52995 2.68537 0 0 0 128 128 128 255
1.46913 2.51573 2.68537 0 0 0 128 128 128 255
2.70578 2.60684 2.68633 0 0 0 128 128 128 255
1.41033 2.51079 2.68728 0 0 0 128 128 128 255
1.2767 2.50091 2.68728 0 0 0 128 128 128 255
0.625476 2.45277 2.68728 0 0 0 128 128 128 255
0.593563 2.45042 2.68728 0 0 0 128 128 128 255
1.54798 2.52067 2.68824 0 0 0 128 128 128 255
2.77565 2.61111 2.68919 0 0 0 128 128 128 255
0.549726 2.44658 2.68919 0 0 0 128 128 128 255
2.78166 2.61126 2.69015 0 0 0 128 128 128 255
2.77171 2.61023 2.6911 0 0 0 128 128 128 255
2.52048 2.59048 2.69493 0 0 0 128 128 128 255
1.47533 2.51322 2.69493 0 0 0 128 128 128 255
1.23898 2.49575 2.69493 0 0 0 128 128 128 255
1.42651 2.50902 2.69684 0 0 0 128 128 128 255
1.18417 2.49111 2.69684 0 0 0 128 128 128 255
0.536957 2.44298 2.69779 0 0 0 128 128 128 255
2.78684 2.60898 2.69875 0 0 0 128 128 128 255
1.0406 2.47991 2.69875 0 0 0 128 128 128 255
0.787296 2.46118 2.69875 0 0 0 128 128 128 255
1.20617 2.49185 2.6997 0 0 0 128 128 128 255
1.17725 2.48971 2.6997 0 0 0 128 128 128 255
0.653726 2.45042 2.70161 0 0 0 128 128 128 255
1.18038 2.48817 2.70544 0 0 0 128 128 128 255
0.480308 2.43612 2.70639 0 0 0 128 128 128 255
1.17942 2.4875 2.70735 0 0 0 128 128 128 255
1.01487 2.47534 2.70735 0 0 0 128 128 128 255
0.811448 2.46001 2.7083 0 0 0 128 128 128 255
2.80306 2.60663 2.71021 0 0 0 128 128 128 255
0.36573 2.42618 2.71117 0 0 0 128 128 128 255
1.21645 2.48847 2.71308 0 0 0 128 128 128 255
1.19154 2.48633 2.71404 0 0 0 128 128 128 255
1.29634 2.49289 2.71786 0 0 0 128 128 128 255
0.34895 2.42257 2.71881 0 0 0 128 128 128 255
2.5021 2.58142 2.71977 0 0 0 128 128 128 255
1.00618 2.47085 2.71977 0 0 0 128 128 128 255
0.553414 2.43738 2.71977 0 0 0 128 128 128 255
2.77537 2.60133 2.72072 0 0 0 128 128 128 255
1.61155 2.5153 2.72072 0 0 0 128 128 128 255
2.52209 2.58231 2.72168 0 0 0 128 128 128 255
1.14686 2.48036 2.72263 0 0 0 128 128 128 255
0.991307 2.46857 2.72359 0 0 0 128 128 128 255
1.85996 2.53248 2.72455 0 0 0 128 128 128 255
1.16991 2.48059 2.72741 0 0 0 128 128 128 255
2.79452 2.60008 2.72932 0 0 0 128 128 128 255
1.40631 2.49747 2.72932 0 0 0 128 128 128 255
1.84513 2.52961 2.73028 0 0 0 128 128 128 255
0.334252 2.41793 2.73028 0 0 0 128 128 128 255
0.982505 2.46555 2.73123 0 0 0 128 128 128 255
0.516819 2.43054 2.73314 0 0 0 128 128 128 255
0.523822 2.43076 2.7341 0 0 0 128 128 128 255
1.80036 2.52482 2.73505 0 0 0 128 128 128 255
0.936717 2.46098 2.73505 0 0 0 128 128 128 255
0.886875 2.457 2.73601 0 0 0 128 128 128 255
0.895916 2.45678 2.73888 0 0 0 128 128 128 255
0.947796 2.46032 2.73983 0 0 0 128 128 128 255
0.463162 2.42391 2.74174 0 0 0 128 128 128 255
0.462165 2.42383 2.74174 0 0 0 128 128 128 255
0.571909 2.43135 2.74365 0 0 0 128 128 128 255
0.763408 2.44521 2.74461 0 0 0 128 128 128 255
1.13548 2.47153 2.74843 0 0 0 128 128 128 255
1.81771 2.52077 2.75225 0 0 0 128 128 128 255
0.957055 2.45716 2.75225 0 0 0 128 128 128 255
0.744634 2.44146 2.75225 0 0 0 128 128 128 255
1.07079 2.46497 2.75416 0 0 0 128 128 128 255
0.932166 2.45473 2.75416 0 0 0 128 128 128 255
1.54662 2.49837 2.7599 0 0 0 128 128 128 255
2.67855 2.58174 2.76085 0 0 0 128 128 128 255
0.491521 2.42008 2.76085 0 0 0 128 128 128 255
1.58558 2.50036 2.76276 0 0 0 128 128 128 255
0.954324 2.4534 2.76372 0 0 0 128 128 128 255
0.700018 2.43461 2.76372 0 0 0 128 128 128 255
0.487597 2.41891 2.76372 0 0 0 128 128 128 255
2.42035 2.56147 2.76467 0 0 0 128 128 128 255
1.56368 2.49815 2.76467 0 0 0 128 128 128 255
2.50215 2.56722 2.76563 0 0 0 128 128 128 255
2.71459 2.58263 2.76658 0 0 0 128 128 128 255
1.61561 2.5011 2.76754 0 0 0 128 128 128 255
0.727053 2.43513 2.7685 0 0 0 128 128 128 255
1.59969 2.49933 2.76945 0 0 0 128 128 128 255
0.700148 2.43284 2.76945 0 0 0 128 128 128 255
0.695162 2.43247 2.76945 0 0 0 128 128 128 255
2.72465 2.58219 2.77041 0 0 0 128 128 128 255
2.8304 2.58941 2.77232 0 0 0 128 128 128 255
1.6746 2.50339 2.77423 0 0 0 128 128 128 255
2.83645 2.58897 2.77518 0 0 0 128 128 128 255
2.46846 2.56177 2.77518 0 0 0 128 128 128 255
0.911702 2.4467 2.77518 0 0 0 128 128 128 255
2.72179 2.5802 2.77614 0 0 0 128 128 128 255
0.644453 2.42665 2.77614 0 0 0 128 128 128 255
0.887833 2.44405 2.77805 0 0 0 128 128 128 255
0.777134 2.43587 2.77805 0 0 0 128 128 128 255
1.49726 2.48791 2.78187 0 0 0 128 128 128 255
1.69973 2.50258 2.78283 0 0 0 128 128 128 255
0.680572 2.42636 2.78569 0 0 0 128 128 128 255
2.75593 2.57947 2.78665 0 0 0 128 128 128 255
1.66497 2.49794 2.78952 0 0 0 128 128 128 255
1.64204 2.49625 2.78952 0 0 0 128 128 128 255
0.722545 2.42828 2.78952 0 0 0 128 128 128 255
1.65901 2.4972 2.79047 0 0 0 128 128 128 255
1.67798 2.49831 2.79143 0 0 0 128 128 128 255
2.46286 2.55603 2.79238 0 0 0 128 128 128 255
2.43596 2.55375 2.79334 0 0 0 128 128 128 255
0.715673 2.42629 2.79429 0 0 0 128 128 128 255
1.31406 2.47023 2.79525 0 0 0 128 128 128 255
0.696746 2.4246 2.79525 0 0 0 128 128 128 255
1.63625 2.49315 2.79811 0 0 0 128 128 128 255
1.36299 2.47296 2.79811 0 0 0 128 128 128 255
1.33507 2.47089 2.79811 0 0 0 128 128 128 255
1.34207 2.47111 2.79907 0 0 0 128 128 128 255
0.503361 2.40912 2.79907 0 0 0 128 128 128 255
1.35307 2.47163 2.80003 0 0 0 128 128 128 255
1.70014 2.49699 2.80098 0 0 0 128 128 128 255
0.661972 2.42025 2.80098 0 0 0 128 128 128 255
1.08187 2.4507 2.80289 0 0 0 128 128 128 255
0.692931 2.42195 2.80289 0 0 0 128 128 128 255
0.868496 2.43433 2.8048 0 0 0 128 128 128 255
2.75739 2.57336 2.80671 0 0 0 128 128 128 255
0.695035 2.42062 2.80767 0 0 0 128 128 128 255
1.77015 2.4995 2.80958 0 0 0 128 128 128 255
2.8592 2.5797 2.81054 0 0 0 128 128 128 255
0.523611 2.40647 2.81245 0 0 0 128 128 128 255
1.43018 2.47289 2.81436 0 0 0 128 128 128 255
0.425922 2.39866 2.81436 0 0 0 128 128 128 255
0.412957 2.3977 2.81436 0 0 0 128 128 128 255
0.699242 2.41798 2.81722 0 0 0 128 128 128 255
1.36744 2.46707 2.81818 0 0 0 128 128 128 255
1.36245 2.4667 2.81818 0 0 0 128 128 128 255
0.412047 2.39645 2.81818 0 0 0 128 128 128 255
2.77861 2.57108 2.81913 0 0 0 128 128 128 255
0.630473 2.4123 2.81913 0 0 0 128 128 128 255
0.445976 2.39866 2.81913 0 0 0 128 128 128 255
2.76866 2.57005 2.82009 0 0 0 128 128 128 255
1.38244 2.46759 2.82009 0 0 0 128 128 128 255
1.2887 2.46066 2.82009 0 0 0 128 128 128 255
1.38548 2.46722 2.822 0 0 0 128 128 128 255
2.56927 2.55442 2.82296 0 0 0 128 128 128 255
0.416145 2.39527 2.82296 0 0 0 128 128 128 255
1.04046 2.44113 2.82391 0 0 0 128 128 128 255
0.495949 2.40088 2.82391 0 0 0 128 128 128 255
1.4015 2.46752 2.82487 0 0 0 128 128 128 255
1.42945 2.46929 2.82582 0 0 0 128 128 128 255
0.448145 2.39646 2.82678 0 0 0 128 128 128 255
2.57042 2.55244 2.82964 0 0 0 128 128 128 255
1.11439 2.44481 2.82964 0 0 0 128 128 128 255
0.455191 2.39609 2.82964 0 0 0 128 128 128 255
2.75095 2.56549 2.8306 0 0 0 128 128 128 255
2.55548 2.55104 2.8306 0 0 0 128 128 128 255
1.18821 2.44997 2.8306 0 0 0 128 128 128 255
0.463191 2.39638 2.8306 0 0 0 128 128 128 255
0.480166 2.39734 2.83156 0 0 0 128 128 128 255
1.56623 2.47732 2.83251 0 0 0 128 128 128 255
1.10149 2.44297 2.83251 0 0 0 128 128 128 255
0.471213 2.39638 2.83251 0 0 0 128 128 128 255
1.59517 2.47917 2.83347 0 0 0 128 128 128 255
1.07858 2.44098 2.83347 0 0 0 128 128 128 255
1.05965 2.43929 2.83442 0 0 0 128 128 128 255
0.453305 2.39447 2.83442 0 0 0 128 128 128 255
1.0876 2.44106 2.83538 0 0 0 128 128 128 255
2.46295 2.54124 2.84015 0 0 0 128 128 128 255
0.398585 2.38865 2.84015 0 0 0 128 128 128 255
2.3084 2.52952 2.84111 0 0 0 128 128 128 255
2.30543 2.529 2.84207 0 0 0 128 128 128 255
2.77519 2.56313 2.84398 0 0 0 128 128 128 255
0.377729 2.38592 2.84398 0 0 0 128 128 128 255
0.368754 2.38526 2.84398 0 0 0 128 128 128 255
2.48899 2.54168 2.84493 0 0 0 128 128 128 255
2.77723 2.56269 2.84589 0 0 0 128 128 128 255
2.48004 2.54073 2.84589 0 0 0 128 128 128 255
2.58178 2.54795 2.84684 0 0 0 128 128 128 255
1.76603 2.48736 2.8478 0 0 0 128 128 128 255
1.77702 2.48787 2.84875 0 0 0 128 128 128 255
1.15372 2.4418 2.84875 0 0 0 128 128 128 255
0.177385 2.36963 2.84875 0 0 0 128 128 128 255
1.14579 2.44062 2.85066 0 0 0 128 128 128 255
1.1119 2.43782 2.85162 0 0 0 128 128 128 255
1.12987 2.43885 2.85258 0 0 0 128 128 128 255
2.36253 2.52967 2.85353 0 0 0 128 128 128 255
1.4949 2.46554 2.85353 0 0 0 128 128 128 255
1.36825 2.45618 2.85353 0 0 0 128 128 128 255
2.77343 2.55975 2.85449 0 0 0 128 128 128 255
1.46702 2.46289 2.85544 0 0 0 128 128 128 255
1.78817 2.48633 2.8564 0 0 0 128 128 128 255
1.77126 2.48449 2.85831 0 0 0 128 128 128 255
0.788957 2.41158 2.85926 0 0 0 128 128 128 255
0.803959 2.4121 2.86117 0 0 0 128 128 128 255
1.34453 2.45147 2.86309 0 0 0 128 128 128 255
1.21787 2.4421 2.86309 0 0 0 128 128 128 255
2.35781 2.52577 2.865 0 0 0 128 128 128 255
1.188 2.4393 2.865 0 0 0 128 128 128 255
2.58321 2.54214 2.86595 0 0 0 128 128 128 255
0.859938 2.41446 2.86691 0 0 0 128 128 128 255
1.13621 2.43459 2.86786 0 0 0 128 128 128 255
0.978657 2.42265 2.86882 0 0 0 128 128 128 255
0.77621 2.40768 2.86882 0 0 0 128 128 128 255
2.85057 2.56071 2.86977 0 0 0 128 128 128 255
1.18113 2.43732 2.86977 0 0 0 128 128 128 255
2.85658 2.56086 2.87073 0 0 0 128 128 128 255
0.904902 2.4166 2.87073 0 0 0 128 128 128 255
2.49758 2.53403 2.87168 0 0 0 128 128 128 255
1.30882 2.44616 2.87168 0 0 0 128 128 128 255
2.74792 2.55224 2.87264 0 0 0 128 128 128 255
2.58838 2.54015 2.87359 0 0 0 128 128 128 255
0.817229 2.40894 2.87455 0 0 0 128 128 128 255
0.849163 2.411 2.87551 0 0 0 128 128 128 255
0.830237 2.40931 2.87646 0 0 0 128 128 128 255
2.95446 2.56603 2.87742 0 0 0 128 128 128 255
2.3432 2.51996 2.88028 0 0 0 128 128 128 255
1.30603 2.44329 2.88028 0 0 0 128 128 128 255
0.798411 2.40577 2.88028 0 0 0 128 128 128 255
2.40306 2.52408 2.88124 0 0 0 128 128 128 255
1.23533 2.43659 2.88506 0 0 0 128 128 128 255
2.59269 2.53603 2.88793 0 0 0 128 128 128 255
2.80513 2.55144 2.88888 0 0 0 128 128 128 255
2.60268 2.53647 2.88888 0 0 0 128 128 128 255
0.901326 2.41071 2.88888 0 0 0 128 128 128 255
0.884373 2.40946 2.88888 0 0 0 128 128 128 255
0.871408 2.4085 2.88888 0 0 0 128 128 128 255
0.403706 2.37364 2.88984 0 0 0 128 128 128 255
1.54262 2.45752 2.89079 0 0 0 128 128 128 255
1.10581 2.42524 2.89079 0 0 0 128 128 128 255
1.09883 2.42472 2.89079 0 0 0 128 128 128 255
0.855517 2.40644 2.89175 0 0 0 128 128 128 255
2.96578 2.56213 2.8927 0 0 0 128 128 128 255
2.84114 2.55262 2.89366 0 0 0 128 128 128 255
1.58657 2.45989 2.89366 0 0 0 128 128 128 255
0.884481 2.40799 2.89366 0 0 0 128 128 128 255
0.375891 2.3701 2.89461 0 0 0 128 128 128 255
0.18541 2.35602 2.89461 0 0 0 128 128 128 255
0.377907 2.36995 2.89557 0 0 0 128 128 128 255
1.53779 2.4551 2.89748 0 0 0 128 128 128 255
1.08205 2.42111 2.89844 0 0 0 128 128 128 255
0.9175 2.40895 2.89844 0 0 0 128 128 128 255
2.76249 2.54503 2.89939 0 0 0 128 128 128 255
2.66874 2.5381 2.89939 0 0 0 128 128 128 255
2.75757 2.54378 2.90226 0 0 0 128 128 128 255
0.520692 2.37814 2.90321 0 0 0 128 128 128 255
0.184631 2.353 2.90417 0 0 0 128 128 128 255
2.84938 2.54968 2.90512 0 0 0 128 128 128 255
2.35872 2.51341 2.90512 0 0 0 128 128 128 255
0.575586 2.38161 2.90512 0 0 0 128 128 128 255
1.49211 2.44906 2.90608 0 0 0 128 128 128 255
0.846868 2.40136 2.90608 0 0 0 128 128 128 255
2.24211 2.5039 2.90799 0 0 0 128 128 128 255
0.591629 2.38161 2.90895 0 0 0 128 128 128 255
2.97615 2.55757 2.9099 0 0 0 128 128 128 255
2.26509 2.50501 2.9099 0 0 0 128 128 128 255
2.76774 2.54186 2.91086 0 0 0 128 128 128 255
2.27309 2.5053 2.91086 0 0 0 128 128 128 255
2.18333 2.49867 2.91086 0 0 0 128 128 128 255
1.13918 2.42149 2.91086 0 0 0 128 128 128 255
2.64509 2.5325 2.91181 0 0 0 128 128 128 255
0.56776 2.37896 2.91181 0 0 0 128 128 128 255
0.528866 2.37608 2.91181 0 0 0 128 128 128 255
1.44339 2.44338 2.91277 0 0 0 128 128 128 255
1.51225 2.44788 2.91468 0 0 0 128 128 128 255
0.597744 2.38028 2.91468 0 0 0 128 128 128 255
0.56982 2.37822 2.91468 0 0 0 128 128 128 255
0.545885 2.37645 2.91468 0 0 0 128 128 128 255
0.578817 2.37859 2.91563 0 0 0 128 128 128 255
0.561885 2.37704 2.91659 0 0 0 128 128 128 255
0.375437 2.36267 2.9185 0 0 0 128 128 128 255
1.47349 2.44324 2.92041 0 0 0 128 128 128 255
2.99037 2.55507 2.92137 0 0 0 128 128 128 255
2.18257 2.49536 2.92137 0 0 0 128 128 128 255
0.9629 2.4052 2.92137 0 0 0 128 128 128 255
0.644768 2.38169 2.92137 0 0 0 128 128 128 255
1.28806 2.42865 2.92328 0 0 0 128 128 128 255
2.76904 2.53782 2.92423 0 0 0 128 128 128 255
0.613961 2.37793 2.92614 0 0 0 128 128 128 255
2.85288 2.54313 2.9271 0 0 0 128 128 128 255
0.631934 2.37896 2.9271 0 0 0 128 128 128 255
0.619967 2.37808 2.9271 0 0 0 128 128 128 255
1.5694 2.44796 2.92806 0 0 0 128 128 128 255
1.47665 2.44111 2.92806 0 0 0 128 128 128 255
0.602059 2.37616 2.92901 0 0 0 128 128 128 255
2.89483 2.54534 2.92997 0 0 0 128 128 128 255
1.32912 2.42931 2.93092 0 0 0 128 128 128 255
0.857406 2.39445 2.93092 0 0 0 128 128 128 255
0.663934 2.38015 2.93092 0 0 0 128 128 128 255
1.52361 2.44339 2.93188 0 0 0 128 128 128 255
2.6735 2.52809 2.93283 0 0 0 128 128 128 255
2.79219 2.53657 2.93379 0 0 0 128 128 128 255
2.25965 2.49721 2.93379 0 0 0 128 128 128 255
0.375807 2.35766 2.93474 0 0 0 128 128 128 255
2.78625 2.53554 2.9357 0 0 0 128 128 128 255
1.49378 2.44 2.9357 0 0 0 128 128 128 255
1.24745 2.4218 2.9357 0 0 0 128 128 128 255
1.24548 2.42136 2.93665 0 0 0 128 128 128 255
1.053 2.40713 2.93665 0 0 0 128 128 128 255
0.598244 2.37351 2.93665 0 0 0 128 128 128 255
3.00071 2.5508 2.93761 0 0 0 128 128 128 255
2.7923 2.5351 2.93857 0 0 0 128 128 128 255
1.58161 2.44561 2.93857 0 0 0 128 128 128 255
1.50581 2.44001 2.93857 0 0 0 128 128 128 255
2.8751 2.54092 2.93952 0 0 0 128 128 128 255
1.46601 2.43588 2.94239 0 0 0 128 128 128 255
1.50098 2.43758 2.94525 0 0 0 128 128 128 255
2.79447 2.53289 2.94621 0 0 0 128 128 128 255
1.19284 2.4145 2.94621 0 0 0 128 128 128 255
0.710157 2.37883 2.94621 0 0 0 128 128 128 255
0.416957 2.35715 2.94621 0 0 0 128 128 128 255
0.326248 2.34986 2.94812 0 0 0 128 128 128 255
0.326291 2.34927 2.95003 0 0 0 128 128 128 255
3.01697 2.54786 2.95099 0 0 0 128 128 128 255
1.34662 2.42321 2.95481 0 0 0 128 128 128 255
2.8725 2.5354 2.95672 0 0 0 128 128 128 255
2.69897 2.52258 2.95672 0 0 0 128 128 128 255
0.455093 2.35672 2.95672 0 0 0 128 128 128 255
0.3424 2.34839 2.95672 0 0 0 128 128 128 255
1.42846 2.42837 2.95767 0 0 0 128 128 128 255
1.27986 2.41739 2.95767 0 0 0 128 128 128 255
1.03852 2.39955 2.95767 0 0 0 128 128 128 255
0.303528 2.34522 2.95767 0 0 0 128 128 128 255
0.283582 2.34374 2.95767 0 0 0 128 128 128 255
1.53918 2.43626 2.95863 0 0 0 128 128 128 255
2.15452 2.48144 2.95959 0 0 0 128 128 128 255
0.642647 2.36969 2.95959 0 0 0 128 128 128 255
0.303572 2.34463 2.95959 0 0 0 128 128 128 255
0.933874 2.39092 2.96054 0 0 0 128 128 128 255
3.01921 2.54477 2.9615 0 0 0 128 128 128 255
3.00327 2.54329 2.96245 0 0 0 128 128 128 255
3.01927 2.54388 2.96436 0 0 0 128 128 128 255
2.99833 2.54234 2.96436 0 0 0 128 128 128 255
2.07288 2.47363 2.96532 0 0 0 128 128 128 255
1.2561 2.41326 2.96532 0 0 0 128 128 128 255
1.02872 2.39645 2.96532 0 0 0 128 128 128 255
0.282759 2.34132 2.96532 0 0 0 128 128 128 255
1.25615 2.41267 2.96723 0 0 0 128 128 128 255
0.399484 2.34935 2.96723 0 0 0 128 128 128 255
2.97747 2.53961 2.96818 0 0 0 128 128 128 255
2.89669 2.53364 2.96818 0 0 0 128 128 128 255
2.84982 2.53017 2.96818 0 0 0 128 128 128 255
2.13677 2.47747 2.96818 0 0 0 128 128 128 255
1.21129 2.40906 2.96818 0 0 0 128 128 128 255
1.23325 2.41039 2.96914 0 0 0 128 128 128 255
0.991912 2.39255 2.96914 0 0 0 128 128 128 255
2.17172 2.47946 2.9701 0 0 0 128 128 128 255
1.0059 2.39329 2.9701 0 0 0 128 128 128 255
0.602019 2.36314 2.97105 0 0 0 128 128 128 255
0.383637 2.3467 2.97201 0 0 0 128 128 128 255
3.00453 2.53983 2.97392 0 0 0 128 128 128 255
2.81208 2.52531 2.97487 0 0 0 128 128 128 255
0.342814 2.3428 2.97487 0 0 0 128 128 128 255
2.89687 2.53128 2.97583 0 0 0 128 128 128 255
2.11006 2.47253 2.97774 0 0 0 128 128 128 255
2.90996 2.53048 2.98156 0 0 0 128 128 128 255
2.904 2.52974 2.98252 0 0 0 128 128 128 255
1.17572 2.40199 2.98252 0 0 0 128 128 128 255
2.30568 2.48492 2.98443 0 0 0 128 128 128 255
1.00921 2.38909 2.98443 0 0 0 128 128 128 255
0.401914 2.34361 2.98634 0 0 0 128 128 128 255
0.936521 2.38224 2.9892 0 0 0 128 128 128 255
0.781965 2.37052 2.99016 0 0 0 128 128 128 255
2.33278 2.48456 2.99207 0 0 0 128 128 128 255
1.00742 2.3863 2.99303 0 0 0 128 128 128 255
0.975502 2.38394 2.99303 0 0 0 128 128 128 255
0.789054 2.36956 2.99494 0 0 0 128 128 128 255
3.05988 2.53712 2.99589 0 0 0 128 128 128 255
1.4034 2.41468 2.99589 0 0 0 128 128 128 255
1.59895 2.42795 2.99971 0 0 0 128 128 128 255
0.827082 2.3706 3.00067 0 0 0 128 128 128 255
1.07644 2.38844 3.00258 0 0 0 128 128 128 255
0.774269 2.3661 3.00258 0 0 0 128 128 128 255
1.36368 2.40937 3.00354 0 0 0 128 128 128 255
0.959785 2.37952 3.00354 0 0 0 128 128 128 255
0.747386 2.36352 3.00449 0 0 0 128 128 128 255
0.957856 2.37849 3.0064 0 0 0 128 128 128 255
2.31418 2.47845 3.00736 0 0 0 128 128 128 255
0.743462 2.36235 3.00736 0 0 0 128 128 128 255
0.166038 2.31967 3.00736 0 0 0 128 128 128 255
3.07315 2.53396 3.00927 0 0 0 128 128 128 255
2.10585 2.46157 3.01213 0 0 0 128 128 128 255
0.144206 2.31657 3.01213 0 0 0 128 128 128 255
0.110321 2.31377 3.01309 0 0 0 128 128 128 255
0.921152 2.37311 3.015 0 0 0 128 128 128 255
0.542208 2.34481 3.01596 0 0 0 128 128 128 255
3.07532 2.53175 3.01691 0 0 0 128 128 128 255
1.63527 2.42501 3.01787 0 0 0 128 128 128 255
0.682868 2.35461 3.01787 0 0 0 128 128 128 255
0.854422 2.367 3.01882 0 0 0 128 128 128 255
1.26632 2.39715 3.01978 0 0 0 128 128 128 255
1.017 2.37872 3.01978 0 0 0 128 128 128 255
3.07142 2.53028 3.02073 0 0 0 128 128 128 255
0.679941 2.35351 3.02073 0 0 0 128 128 128 255
0.752808 2.35801 3.0236 0 0 0 128 128 128 255
2.12309 2.459 3.02456 0 0 0 128 128 128 255
2.90704 2.51576 3.02838 0 0 0 128 128 128 255
0.754955 2.35609 3.03029 0 0 0 128 128 128 255
2.92206 2.51598 3.03124 0 0 0 128 128 128 255
0.859691 2.36354 3.03124 0 0 0 128 128 128 255
3.08666 2.52755 3.03315 0 0 0 128 128 128 255
1.36436 2.40025 3.03315 0 0 0 128 128 128 255
3.07671 2.52652 3.03411 0 0 0 128 128 128 255
2.12431 2.45613 3.03411 0 0 0 128 128 128 255
1.12902 2.38256 3.03411 0 0 0 128 128 128 255
0.717145 2.35211 3.03411 0 0 0 128 128 128 255
2.02659 2.44861 3.03507 0 0 0 128 128 128 255
0.5297 2.33767 3.03602 0 0 0 128 128 128 255
2.93317 2.51503 3.03698 0 0 0 128 128 128 255
1.11114 2.38035 3.03698 0 0 0 128 128 128 255
2.94815 2.51584 3.03793 0 0 0 128 128 128 255
0.496833 2.33465 3.03793 0 0 0 128 128 128 255
1.40338 2.40136 3.03889 0 0 0 128 128 128 255
2.05166 2.44868 3.0408 0 0 0 128 128 128 255
2.01675 2.4461 3.0408 0 0 0 128 128 128 255
1.37949 2.399 3.0408 0 0 0 128 128 128 255
2.00979 2.44529 3.04175 0 0 0 128 128 128 255
2.3439 2.46969 3.04271 0 0 0 128 128 128 255
2.05469 2.44832 3.04271 0 0 0 128 128 128 255
2.04771 2.4478 3.04271 0 0 0 128 128 128 255
1.0245 2.37217 3.04271 0 0 0 128 128 128 255
1.38957 2.39827 3.04558 0 0 0 128 128 128 255
1.33073 2.39392 3.04558 0 0 0 128 128 128 255
0.493062 2.33141 3.04749 0 0 0 128 128 128 255
2.90665 2.50744 3.05513 0 0 0 128 128 128 255
2.82689 2.50125 3.05609 0 0 0 128 128 128 255
2.20062 2.45466 3.05704 0 0 0 128 128 128 255
0.695727 2.34343 3.05704 0 0 0 128 128 128 255
0.226052 2.30812 3.05895 0 0 0 128 128 128 255
2.03514 2.44154 3.05991 0 0 0 128 128 128 255
1.51057 2.40277 3.05991 0 0 0 128 128 128 255
1.44577 2.39768 3.06086 0 0 0 128 128 128 255
0.757645 2.34682 3.06086 0 0 0 128 128 128 255
0.435524 2.32301 3.06086 0 0 0 128 128 128 255
1.55649 2.40557 3.06182 0 0 0 128 128 128 255
1.43083 2.39628 3.06182 0 0 0 128 128 128 255
1.08178 2.37048 3.06182 0 0 0 128 128 128 255
1.40293 2.39393 3.06277 0 0 0 128 128 128 255
1.1197 2.37299 3.06277 0 0 0 128 128 128 255
0.663945 2.3393 3.06277 0 0 0 128 128 128 255
1.06786 2.36886 3.06373 0 0 0 128 128 128 255
1.0998 2.37093 3.06468 0 0 0 128 128 128 255
1.41698 2.39378 3.0666 0 0 0 128 128 128 255
1.14674 2.37351 3.06755 0 0 0 128 128 128 255
0.401769 2.31844 3.06755 0 0 0 128 128 128 255
2.1949 2.45069 3.06851 0 0 0 128 128 128 255
0.512489 2.32633 3.06851 0 0 0 128 128 128 255
1.46292 2.39629 3.06946 0 0 0 128 128 128 255
1.08196 2.36813 3.06946 0 0 0 128 128 128 255
0.243245 2.30613 3.06946 0 0 0 128 128 128 255
2.05632 2.43985 3.07042 0 0 0 128 128 128 255
1.4769 2.39703 3.07042 0 0 0 128 128 128 255
1.21661 2.37779 3.07042 0 0 0 128 128 128 255
1.19268 2.37602 3.07042 0 0 0 128 128 128 255
0.493584 2.32434 3.07042 0 0 0 128 128 128 255
2.06634 2.44 3.07233 0 0 0 128 128 128 255
2.91207 2.50192 3.07424 0 0 0 128 128 128 255
0.461758 2.32081 3.07424 0 0 0 128 128 128 255
2.97592 2.50635 3.07519 0 0 0 128 128 128 255
2.0684 2.43927 3.07519 0 0 0 128 128 128 255
2.91212 2.50133 3.07615 0 0 0 128 128 128 255
0.246389 2.3043 3.07615 0 0 0 128 128 128 255
2.96901 2.50495 3.07806 0 0 0 128 128 128 255
1.12603 2.36872 3.07806 0 0 0 128 128 128 255
2.13231 2.44281 3.07902 0 0 0 128 128 128 255
0.683263 2.3357 3.07902 0 0 0 128 128 128 255
1.15003 2.36961 3.08093 0 0 0 128 128 128 255
1.34554 2.38347 3.08284 0 0 0 128 128 128 255
1.23489 2.3747 3.08475 0 0 0 128 128 128 255
1.13416 2.36725 3.08475 0 0 0 128 128 128 255
0.446041 2.31639 3.08475 0 0 0 128 128 128 255
0.435071 2.31558 3.08475 0 0 0 128 128 128 255
1.50418 2.39431 3.0857 0 0 0 128 128 128 255
0.829018 2.3444 3.0857 0 0 0 128 128 128 255
0.486951 2.31912 3.0857 0 0 0 128 128 128 255
1.5411 2.39674 3.08666 0 0 0 128 128 128 255
0.557801 2.32376 3.08762 0 0 0 128 128 128 255
1.17319 2.36836 3.09048 0 0 0 128 128 128 255
1.20913 2.37043 3.09239 0 0 0 128 128 128 255
2.35505 2.45454 3.0943 0 0 0 128 128 128 255
2.36505 2.45498 3.09526 0 0 0 128 128 128 255
0.880097 2.34522 3.09526 0 0 0 128 128 128 255
0.871121 2.34455 3.09526 0 0 0 128 128 128 255
2.81684 2.48808 3.09621 0 0 0 128 128 128 255
1.15938 2.36527 3.09717 0 0 0 128 128 128 255
2.20854 2.44252 3.09812 0 0 0 128 128 128 255
0.819328 2.33984 3.09812 0 0 0 128 128 128 255
1.37488 2.38001 3.10099 0 0 0 128 128 128 255
1.53048 2.39122 3.10195 0 0 0 128 128 128 255
2.21463 2.44149 3.1029 0 0 0 128 128 128 255
1.55842 2.39299 3.1029 0 0 0 128 128 128 255
1.22533 2.36837 3.1029 0 0 0 128 128 128 255
1.15851 2.36343 3.1029 0 0 0 128 128 128 255
1.95536 2.42203 3.10386 0 0 0 128 128 128 255
1.97834 2.42314 3.10577 0 0 0 128 128 128 255
0.899284 2.34338 3.10577 0 0 0 128 128 128 255
2.1838 2.43803 3.10672 0 0 0 128 128 128 255
1.51961 2.38894 3.10672 0 0 0 128 128 128 255
0.845453 2.3391 3.10672 0 0 0 128 128 128 255
2.1928 2.4384 3.10768 0 0 0 128 128 128 255
2.83806 2.4858 3.10863 0 0 0 128 128 128 255
0.894385 2.34183 3.10959 0 0 0 128 128 128 255
1.18165 2.36247 3.1115 0 0 0 128 128 128 255
0.523462 2.31353 3.11246 0 0 0 128 128 128 255
0.927404 2.34279 3.11437 0 0 0 128 128 128 255
0.879535 2.33926 3.11437 0 0 0 128 128 128 255
0.864575 2.33815 3.11437 0 0 0 128 128 128 255
2.89705 2.48809 3.11532 0 0 0 128 128 128 255
1.14483 2.35857 3.11532 0 0 0 128 128 128 255
2.88411 2.48683 3.11628 0 0 0 128 128 128 255
2.18402 2.43509 3.11628 0 0 0 128 128 128 255
1.54875 2.38813 3.11628 0 0 0 128 128 128 255
1.54179 2.38732 3.11723 0 0 0 128 128 128 255
0.913507 2.34088 3.11723 0 0 0 128 128 128 255
1.94571 2.41688 3.11819 0 0 0 128 128 128 255
1.55185 2.38688 3.12106 0 0 0 128 128 128 255
1.12801 2.35555 3.12106 0 0 0 128 128 128 255
0.913594 2.3397 3.12106 0 0 0 128 128 128 255
0.900652 2.33845 3.12201 0 0 0 128 128 128 255
2.37966 2.44718 3.12392 0 0 0 128 128 128 255
1.55196 2.38541 3.12583 0 0 0 128 128 128 255
0.945703 2.33941 3.12965 0 0 0 128 128 128 255
1.98988 2.4163 3.13061 0 0 0 128 128 128 255
0.641642 2.31546 3.13443 0 0 0 128 128 128 255
2.36995 2.44291 3.13539 0 0 0 128 128 128 255
2.17348 2.42839 3.13539 0 0 0 128 128 128 255
0.570879 2.30963 3.13634 0 0 0 128 128 128 255
0.937921 2.33617 3.13825 0 0 0 128 128 128 255
2.79787 2.47336 3.13921 0 0 0 128 128 128 255
0.917 2.33433 3.13921 0 0 0 128 128 128 255
0.596873 2.31067 3.13921 0 0 0 128 128 128 255
2.86172 2.47778 3.14016 0 0 0 128 128 128 255
2.85276 2.47682 3.14112 0 0 0 128 128 128 255
0.968924 2.33728 3.14208 0 0 0 128 128 128 255
0.641816 2.3131 3.14208 0 0 0 128 128 128 255
1.96622 2.4107 3.14303 0 0 0 128 128 128 255
0.64084 2.31273 3.14303 0 0 0 128 128 128 255
2.35319 2.43901 3.14399 0 0 0 128 128 128 255
2.16869 2.42537 3.14399 0 0 0 128 128 128 255
0.375586 2.29283 3.14399 0 0 0 128 128 128 255
2.21661 2.42832 3.1459 0 0 0 128 128 128 255
0.624971 2.31038 3.14685 0 0 0 128 128 128 255
0.614001 2.30957 3.14685 0 0 0 128 128 128 255
0.626987 2.31023 3.14781 0 0 0 128 128 128 255
2.01024 2.41218 3.14876 0 0 0 128 128 128 255
1.33415 2.36132 3.15163 0 0 0 128 128 128 255
0.896383 2.32837 3.15354 0 0 0 128 128 128 255
2.36939 2.43695 3.1545 0 0 0 128 128 128 255
2.35844 2.43584 3.15545 0 0 0 128 128 128 255
2.52002 2.44749 3.15641 0 0 0 128 128 128 255
1.35221 2.36117 3.15641 0 0 0 128 128 128 255
2.38641 2.43732 3.15736 0 0 0 128 128 128 255
2.30263 2.43113 3.15736 0 0 0 128 128 128 255
2.78835 2.46644 3.15927 0 0 0 128 128 128 255
2.21392 2.42398 3.15927 0 0 0 128 128 128 255
0.876568 2.32513 3.15927 0 0 0 128 128 128 255
1.25256 2.35262 3.16023 0 0 0 128 128 128 255
2.49919 2.44447 3.16118 0 0 0 128 128 128 255
0.650229 2.3078 3.16118 0 0 0 128 128 128 255
0.568452 2.30176 3.16118 0 0 0 128 128 128 255
2.39152 2.43592 3.1631 0 0 0 128 128 128 255
2.30077 2.42921 3.1631 0 0 0 128 128 128 255
0.69515 2.31053 3.1631 0 0 0 128 128 128 255
2.36262 2.43349 3.16405 0 0 0 128 128 128 255
0.664278 2.30766 3.16501 0 0 0 128 128 128 255
2.47636 2.4413 3.16596 0 0 0 128 128 128 255
2.90421 2.47263 3.16692 0 0 0 128 128 128 255
2.90122 2.47241 3.16692 0 0 0 128 128 128 255
0.676311 2.30766 3.16787 0 0 0 128 128 128 255
2.1563 2.41676 3.16883 0 0 0 128 128 128 255
1.98279 2.40364 3.16978 0 0 0 128 128 128 255
0.647477 2.30435 3.17169 0 0 0 128 128 128 255
0.613569 2.30184 3.17169 0 0 0 128 128 128 255
1.2718 2.3502 3.17265 0 0 0 128 128 128 255
2.4147 2.43438 3.17361 0 0 0 128 128 128 255
0.415154 2.28658 3.17361 0 0 0 128 128 128 255
2.49851 2.43998 3.17552 0 0 0 128 128 128 255
2.39679 2.43246 3.17552 0 0 0 128 128 128 255
1.9919 2.40254 3.17552 0 0 0 128 128 128 255
1.36261 2.35602 3.17552 0 0 0 128 128 128 255
1.2559 2.34813 3.17552 0 0 0 128 128 128 255
1.00758 2.32978 3.17552 0 0 0 128 128 128 255
0.717373 2.30833 3.17552 0 0 0 128 128 128 255
2.4916 2.43858 3.17838 0 0 0 128 128 128 255
2.49162 2.43829 3.17934 0 0 0 128 128 128 255
0.617733 2.29978 3.17934 0 0 0 128 128 128 255
2.47274 2.43601 3.1822 0 0 0 128 128 128 255
1.30193 2.34946 3.1822 0 0 0 128 128 128 255
2.34313 2.42583 3.18412 0 0 0 128 128 128 255
1.32392 2.3505 3.18412 0 0 0 128 128 128 255
1.30497 2.3491 3.18412 0 0 0 128 128 128 255
1.27409 2.34622 3.18603 0 0 0 128 128 128 255
2.92362 2.46785 3.18698 0 0 0 128 128 128 255
2.87178 2.46373 3.18794 0 0 0 128 128 128 255
1.29309 2.34703 3.18794 0 0 0 128 128 128 255
1.11061 2.33325 3.18889 0 0 0 128 128 128 255
2.87683 2.46321 3.1908 0 0 0 128 128 128 255
2.41509 2.42908 3.1908 0 0 0 128 128 128 255
1.32506 2.34851 3.1908 0 0 0 128 128 128 255
2.9337 2.46712 3.19176 0 0 0 128 128 128 255
2.87289 2.46233 3.19271 0 0 0 128 128 128 255
1.34007 2.34903 3.19271 0 0 0 128 128 128 255
1.3281 2.34814 3.19271 0 0 0 128 128 128 255
0.702806 2.30192 3.19271 0 0 0 128 128 128 255
1.08479 2.32986 3.19367 0 0 0 128 128 128 255
1.30525 2.34527 3.19654 0 0 0 128 128 128 255
2.84407 2.45872 3.19749 0 0 0 128 128 128 255
2.89795 2.4624 3.19845 0 0 0 128 128 128 255
2.41628 2.42651 3.1994 0 0 0 128 128 128 255
2.26569 2.41537 3.1994 0 0 0 128 128 128 255
1.04303 2.325 3.1994 0 0 0 128 128 128 255
0.435687 2.28011 3.1994 0 0 0 128 128 128 255
1.07397 2.32699 3.20036 0 0 0 128 128 128 255
1.27743 2.34173 3.20131 0 0 0 128 128 128 255
0.506538 2.28475 3.20131 0 0 0 128 128 128 255
2.88507 2.46027 3.20227 0 0 0 128 128 128 255
1.28344 2.34188 3.20227 0 0 0 128 128 128 255
1.26748 2.3407 3.20227 0 0 0 128 128 128 255
2.49418 2.43078 3.20418 0 0 0 128 128 128 255
2.03842 2.3971 3.20418 0 0 0 128 128 128 255
1.38423 2.34844 3.20514 0 0 0 128 128 128 255
1.2476 2.33835 3.20514 0 0 0 128 128 128 255
0.431829 2.27805 3.20514 0 0 0 128 128 128 255
1.09309 2.32604 3.208 0 0 0 128 128 128 255
1.07414 2.32464 3.208 0 0 0 128 128 128 255
1.04023 2.32213 3.208 0 0 0 128 128 128 255
2.4923 2.42916 3.20896 0 0 0 128 128 128 255
1.22475 2.33547 3.20896 0 0 0 128 128 128 255
1.05123 2.32265 3.20896 0 0 0 128 128 128 255
0.518679 2.28328 3.20896 0 0 0 128 128 128 255
0.829852 2.30599 3.20991 0 0 0 128 128 128 255
1.30263 2.34004 3.21278 0 0 0 128 128 128 255
0.840887 2.30592 3.21278 0 0 0 128 128 128 255
2.83347 2.4529 3.21373 0 0 0 128 128 128 255
2.82849 2.45253 3.21373 0 0 0 128 128 128 255
1.27574 2.33747 3.21469 0 0 0 128 128 128 255
1.21092 2.33267 3.21469 0 0 0 128 128 128 255
1.0713 2.32235 3.21469 0 0 0 128 128 128 255
2.92826 2.45932 3.21565 0 0 0 128 128 128 255
1.06833 2.32184 3.21565 0 0 0 128 128 128 255
2.83555 2.45187 3.21756 0 0 0 128 128 128 255
2.82857 2.45136 3.21756 0 0 0 128 128 128 255
0.806091 2.30186 3.21756 0 0 0 128 128 128 255
2.91538 2.45718 3.21947 0 0 0 128 128 128 255
1.04648 2.31904 3.21947 0 0 0 128 128 128 255
0.772292 2.29789 3.22233 0 0 0 128 128 128 255
2.90851 2.45519 3.22424 0 0 0 128 128 128 255
1.05858 2.31816 3.2252 0 0 0 128 128 128 255
1.03169 2.31558 3.22711 0 0 0 128 128 128 255
2.88865 2.45254 3.22807 0 0 0 128 128 128 255
2.49971 2.42379 3.22807 0 0 0 128 128 128 255
1.32591 2.33703 3.22807 0 0 0 128 128 128 255
1.29899 2.33504 3.22807 0 0 0 128 128 128 255
1.04169 2.31602 3.22807 0 0 0 128 128 128 255
1.02077 2.31418 3.22902 0 0 0 128 128 128 255
0.787426 2.29664 3.22998 0 0 0 128 128 128 255
0.75651 2.29435 3.22998 0 0 0 128 128 128 255
0.963012 2.30873 3.23284 0 0 0 128 128 128 255
0.730646 2.29155 3.23284 0 0 0 128 128 128 255
2.89377 2.45114 3.2338 0 0 0 128 128 128 255
2.21462 2.40094 3.2338 0 0 0 128 128 128 255
2.51784 2.42276 3.23571 0 0 0 128 128 128 255
2.73028 2.43817 3.23667 0 0 0 128 128 128 255
1.05485 2.31433 3.23667 0 0 0 128 128 128 255
1.01695 2.31153 3.23667 0 0 0 128 128 128 255
0.793562 2.29502 3.23667 0 0 0 128 128 128 255
0.790592 2.2945 3.23762 0 0 0 128 128 128 255
2.96072 2.45432 3.23953 0 0 0 128 128 128 255
1.09383 2.31603 3.24049 0 0 0 128 128 128 255
0.76772 2.29192 3.24049 0 0 0 128 128 128 255
2.48406 2.41849 3.24144 0 0 0 128 128 128 255
1.40101 2.33844 3.24144 0 0 0 128 128 128 255
2.55094 2.42255 3.24431 0 0 0 128 128 128 255
1.3941 2.33704 3.24431 0 0 0 128 128 128 255
0.56137 2.27549 3.24431 0 0 0 128 128 128 255
0.529479 2.27283 3.24526 0 0 0 128 128 128 255
2.48716 2.41724 3.24622 0 0 0 128 128 128 255
2.52408 2.41967 3.24717 0 0 0 128 128 128 255
1.15581 2.31854 3.24717 0 0 0 128 128 128 255
1.05808 2.31131 3.24717 0 0 0 128 128 128 255
0.542487 2.2732 3.24717 0 0 0 128 128 128 255
2.87913 2.44562 3.24813 0 0 0 128 128 128 255
0.729 2.28669 3.24813 0 0 0 128 128 128 255
2.73657 2.43449 3.25004 0 0 0 128 128 128 255
1.43115 2.33771 3.251 0 0 0 128 128 128 255
1.01728 2.30711 3.251 0 0 0 128 128 128 255
2.94704 2.44946 3.25195 0 0 0 128 128 128 255
2.55214 2.41997 3.25291 0 0 0 128 128 128 255
0.774983 2.28861 3.25291 0 0 0 128 128 128 255
0.55259 2.27217 3.25291 0 0 0 128 128 128 255
2.96705 2.45005 3.25482 0 0 0 128 128 128 255
0.755081 2.28655 3.25482 0 0 0 128 128 128 255
0.803992 2.28957 3.25673 0 0 0 128 128 128 255
0.992499 2.30321 3.25768 0 0 0 128 128 128 255
2.50641 2.41452 3.2596 0 0 0 128 128 128 255
1.16806 2.3156 3.2596 0 0 0 128 128 128 255
2.59519 2.42079 3.26055 0 0 0 128 128 128 255
0.793109 2.28759 3.26055 0 0 0 128 128 128 255
2.55136 2.41696 3.26246 0 0 0 128 128 128 255
0.794171 2.28678 3.26342 0 0 0 128 128 128 255
2.5873 2.41902 3.26437 0 0 0 128 128 128 255
0.994646 2.3013 3.26437 0 0 0 128 128 128 255
0.791223 2.28597 3.26533 0 0 0 128 128 128 255
2.72297 2.42846 3.26628 0 0 0 128 128 128 255
2.71001 2.4275 3.26628 0 0 0 128 128 128 255
1.85836 2.36425 3.26724 0 0 0 128 128 128 255
1.13533 2.31081 3.26724 0 0 0 128 128 128 255
3.05312 2.45227 3.26819 0 0 0 128 128 128 255
2.93344 2.44342 3.26819 0 0 0 128 128 128 255
2.88657 2.43996 3.26819 0 0 0 128 128 128 255
1.8594 2.36374 3.26915 0 0 0 128 128 128 255
2.5994 2.41814 3.27011 0 0 0 128 128 128 255
1.85643 2.36322 3.27011 0 0 0 128 128 128 255
0.817261 2.28641 3.27011 0 0 0 128 128 128 255
2.69715 2.42507 3.27106 0 0 0 128 128 128 255
1.86547 2.363 3.27297 0 0 0 128 128 128 255
0.824307 2.28604 3.27297 0 0 0 128 128 128 255
0.762476 2.28147 3.27297 0 0 0 128 128 128 255
3.05524 2.45065 3.27393 0 0 0 128 128 128 255
1.85554 2.36168 3.27488 0 0 0 128 128 128 255
1.13557 2.30757 3.27775 0 0 0 128 128 128 255
0.856329 2.28693 3.27775 0 0 0 128 128 128 255
2.58862 2.41468 3.2787 0 0 0 128 128 128 255
2.9736 2.44284 3.27966 0 0 0 128 128 128 255
1.84273 2.35866 3.28157 0 0 0 128 128 128 255
2.98962 2.44313 3.28253 0 0 0 128 128 128 255
1.39796 2.32549 3.28253 0 0 0 128 128 128 255
2.76027 2.42589 3.28348 0 0 0 128 128 128 255
2.72538 2.42301 3.28444 0 0 0 128 128 128 255
0.716905 2.27396 3.28635 0 0 0 128 128 128 255
2.83315 2.43009 3.2873 0 0 0 128 128 128 255
2.34449 2.39397 3.2873 0 0 0 128 128 128 255
1.78402 2.35254 3.2873 0 0 0 128 128 128 255
1.41903 2.32527 3.28826 0 0 0 128 128 128 255
2.83623 2.42913 3.29113 0 0 0 128 128 128 255
2.72952 2.42125 3.29113 0 0 0 128 128 128 255
1.12191 2.30242 3.29113 0 0 0 128 128 128 255
2.83925 2.42906 3.29208 0 0 0 128 128 128 255
2.43734 2.39935 3.29208 0 0 0 128 128 128 255
2.3426 2.39235 3.29208 0 0 0 128 128 128 255
2.75253 2.42206 3.29399 0 0 0 128 128 128 255
1.43018 2.32372 3.2959 0 0 0 128 128 128 255
1.7952 2.35041 3.29686 0 0 0 128 128 128 255
2.76963 2.42125 3.30068 0 0 0 128 128 128 255
3.31118 2.46098 3.30164 0 0 0 128 128 128 255
1.22992 2.30626 3.3045 0 0 0 128 128 128 255
3.01009 2.43754 3.30546 0 0 0 128 128 128 255
2.45261 2.39634 3.30546 0 0 0 128 128 128 255
3.06795 2.44153 3.30641 0 0 0 128 128 128 255
2.99116 2.43585 3.30641 0 0 0 128 128 128 255
2.59925 2.40659 3.30737 0 0 0 128 128 128 255
2.5823 2.40533 3.30737 0 0 0 128 128 128 255
1.19608 2.30287 3.30737 0 0 0 128 128 128 255
2.33799 2.38698 3.30832 0 0 0 128 128 128 255
1.21704 2.30412 3.30832 0 0 0 128 128 128 255
1.17117 2.30073 3.30832 0 0 0 128 128 128 255
2.80276 2.42074 3.31023 0 0 0 128 128 128 255
2.55743 2.40261 3.31023 0 0 0 128 128 128 255
1.21908 2.30368 3.31023 0 0 0 128 128 128 255
2.59136 2.40482 3.31119 0 0 0 128 128 128 255
0.901968 2.27995 3.31119 0 0 0 128 128 128 255
0.931908 2.28186 3.31215 0 0 0 128 128 128 255
3.34834 2.46018 3.3131 0 0 0 128 128 128 255
1.25008 2.30479 3.31406 0 0 0 128 128 128 255
1.15933 2.29808 3.31406 0 0 0 128 128 128 255
2.63632 2.40696 3.31501 0 0 0 128 128 128 255
2.58351 2.40246 3.31692 0 0 0 128 128 128 255
1.1963 2.29993 3.31692 0 0 0 128 128 128 255
2.32823 2.3833 3.31788 0 0 0 128 128 128 255
1.28607 2.30626 3.31788 0 0 0 128 128 128 255
1.19432 2.29948 3.31788 0 0 0 128 128 128 255
2.77104 2.41573 3.31883 0 0 0 128 128 128 255
1.94634 2.35418 3.32074 0 0 0 128 128 128 255
0.925123 2.2787 3.32074 0 0 0 128 128 128 255
0.692757 2.26152 3.32074 0 0 0 128 128 128 255
2.77911 2.41514 3.32266 0 0 0 128 128 128 255
1.17453 2.29595 3.32457 0 0 0 128 128 128 255
2.77519 2.41397 3.32552 0 0 0 128 128 128 255
0.914262 2.27641 3.32552 0 0 0 128 128 128 255
1.7151 2.33531 3.32648 0 0 0 128 128 128 255
1.20451 2.29728 3.32743 0 0 0 128 128 128 255
2.77926 2.41308 3.32934 0 0 0 128 128 128 255
1.27937 2.30192 3.3303 0 0 0 128 128 128 255
1.21455 2.29713 3.3303 0 0 0 128 128 128 255
2.58982 2.39849 3.33125 0 0 0 128 128 128 255
0.945308 2.27693 3.33125 0 0 0 128 128 128 255
0.930349 2.27583 3.33125 0 0 0 128 128 128 255
1.25648 2.29964 3.33221 0 0 0 128 128 128 255
1.23354 2.29794 3.33221 0 0 0 128 128 128 255
2.64272 2.40181 3.33317 0 0 0 128 128 128 255
1.73919 2.33502 3.33317 0 0 0 128 128 128 255
1.23356 2.29765 3.33317 0 0 0 128 128 128 255
1.19367 2.2947 3.33317 0 0 0 128 128 128 255
0.969308 2.27782 3.33412 0 0 0 128 128 128 255
1.20269 2.29477 3.33508 0 0 0 128 128 128 255
1.18175 2.29323 3.33508 0 0 0 128 128 128 255
0.962349 2.27701 3.33508 0 0 0 128 128 128 255
0.945395 2.27576 3.33508 0 0 0 128 128 128 255
0.883564 2.27119 3.33508 0 0 0 128 128 128 255
2.60389 2.39805 3.33603 0 0 0 128 128 128 255
1.19174 2.29367 3.33603 0 0 0 128 128 128 255
1.00725 2.28003 3.33603 0 0 0 128 128 128 255
0.974359 2.27731 3.33699 0 0 0 128 128 128 255
0.971389 2.27679 3.33794 0 0 0 128 128 128 255
2.5591 2.39355 3.33985 0 0 0 128 128 128 255
1.20779 2.29367 3.33985 0 0 0 128 128 128 255
2.63192 2.39864 3.34081 0 0 0 128 128 128 255
1.42522 2.30945 3.34081 0 0 0 128 128 128 255
1.66658 2.32699 3.34176 0 0 0 128 128 128 255
1.65364 2.32574 3.34272 0 0 0 128 128 128 255
2.85542 2.41368 3.34559 0 0 0 128 128 128 255
3.38101 2.45224 3.34654 0 0 0 128 128 128 255
0.941667 2.27193 3.34654 0 0 0 128 128 128 255
0.871857 2.26677 3.34654 0 0 0 128 128 128 255
1.65574 2.32441 3.3475 0 0 0 128 128 128 255
1.16308 2.288 3.3475 0 0 0 128 128 128 255
0.921743 2.27016 3.3475 0 0 0 128 128 128 255
2.61315 2.39489 3.34845 0 0 0 128 128 128 255
2.65309 2.39725 3.35036 0 0 0 128 128 128 255
2.37385 2.37661 3.35036 0 0 0 128 128 128 255
2.38883 2.37742 3.35132 0 0 0 128 128 128 255
2.8187 2.4086 3.35323 0 0 0 128 128 128 255
2.40682 2.37816 3.35323 0 0 0 128 128 128 255
1.34173 2.29943 3.35323 0 0 0 128 128 128 255
0.982708 2.27289 3.35323 0 0 0 128 128 128 255
0.939868 2.26913 3.35514 0 0 0 128 128 128 255
1.61405 2.31867 3.3561 0 0 0 128 128 128 255
0.942882 2.26906 3.3561 0 0 0 128 128 128 255
0.923933 2.26766 3.3561 0 0 0 128 128 128 255
0.922004 2.26663 3.35896 0 0 0 128 128 128 255
0.907045 2.26552 3.35896 0 0 0 128 128 128 255
0.914069 2.26545 3.36087 0 0 0 128 128 128 255
2.64138 2.39283 3.36183 0 0 0 128 128 128 255
1.60521 2.31624 3.36183 0 0 0 128 128 128 255
0.943012 2.26729 3.36183 0 0 0 128 128 128 255
1.1764 2.28425 3.36278 0 0 0 128 128 128 255
0.910124 2.26457 3.36278 0 0 0 128 128 128 255
0.96699 2.26847 3.36374 0 0 0 128 128 128 255
3.12014 2.42733 3.3647 0 0 0 128 128 128 255
0.811436 2.25668 3.3647 0 0 0 128 128 128 255
1.71699 2.32332 3.36565 0 0 0 128 128 128 255
0.931175 2.26464 3.36756 0 0 0 128 128 128 255
2.60463 2.38804 3.36852 0 0 0 128 128 128 255
2.42412 2.3747 3.36852 0 0 0 128 128 128 255
1.32413 2.29339 3.36852 0 0 0 128 128 128 255
0.994026 2.26899 3.36852 0 0 0 128 128 128 255
2.6256 2.38929 3.36947 0 0 0 128 128 128 255
1.02895 2.27128 3.36947 0 0 0 128 128 128 255
0.94917 2.26538 3.36947 0 0 0 128 128 128 255
0.858418 2.25867 3.36947 0 0 0 128 128 128 255
0.94323 2.26435 3.37138 0 0 0 128 128 128 255
3.1233 2.4252 3.37234 0 0 0 128 128 128 255
0.94026 2.26383 3.37234 0 0 0 128 128 128 255
0.901366 2.26096 3.37234 0 0 0 128 128 128 255
3.12333 2.4249 3.37329 0 0 0 128 128 128 255
2.64064 2.38922 3.37329 0 0 0 128 128 128 255
2.49905 2.37846 3.37425 0 0 0 128 128 128 255
2.45717 2.37537 3.37425 0 0 0 128 128 128 255
1.01213 2.26826 3.37521 0 0 0 128 128 128 255
2.61179 2.3862 3.37616 0 0 0 128 128 128 255
3.04563 2.41797 3.37712 0 0 0 128 128 128 255
1.18975 2.27991 3.37998 0 0 0 128 128 128 255
2.83429 2.40117 3.38094 0 0 0 128 128 128 255
1.69041 2.31662 3.38094 0 0 0 128 128 128 255
0.948434 2.26177 3.38094 0 0 0 128 128 128 255
0.943447 2.26141 3.38094 0 0 0 128 128 128 255
2.63485 2.38613 3.38189 0 0 0 128 128 128 255
1.59773 2.30888 3.3838 0 0 0 128 128 128 255
1.60972 2.30947 3.38476 0 0 0 128 128 128 255
0.320278 2.21357 3.38667 0 0 0 128 128 128 255
0.728187 2.24342 3.38763 0 0 0 128 128 128 255
2.37472 2.36483 3.38858 0 0 0 128 128 128 255
2.84745 2.39948 3.38954 0 0 0 128 128 128 255
2.63006 2.38311 3.39049 0 0 0 128 128 128 255
1.61384 2.308 3.39049 0 0 0 128 128 128 255
1.57694 2.30527 3.39049 0 0 0 128 128 128 255
2.83854 2.39793 3.3924 0 0 0 128 128 128 255
2.84454 2.39808 3.39336 0 0 0 128 128 128 255
1.6977 2.31301 3.39431 0 0 0 128 128 128 255
2.81567 2.39535 3.39527 0 0 0 128 128 128 255
2.84062 2.3969 3.39622 0 0 0 128 128 128 255
1.34869 2.28662 3.39622 0 0 0 128 128 128 255
2.5983 2.37869 3.39718 0 0 0 128 128 128 255
1.34472 2.28604 3.39718 0 0 0 128 128 128 255
3.17675 2.42115 3.39814 0 0 0 128 128 128 255
1.33776 2.28522 3.39814 0 0 0 128 128 128 255
1.3408 2.28486 3.40005 0 0 0 128 128 128 255
0.740437 2.24048 3.40005 0 0 0 128 128 128 255
2.6413 2.38039 3.40196 0 0 0 128 128 128 255
1.62008 2.30491 3.40196 0 0 0 128 128 128 255
0.708568 2.23753 3.40196 0 0 0 128 128 128 255
1.33894 2.28294 3.40578 0 0 0 128 128 128 255
0.711647 2.23658 3.40578 0 0 0 128 128 128 255
1.69503 2.30838 3.40865 0 0 0 128 128 128 255
2.65044 2.3787 3.4096 0 0 0 128 128 128 255
0.726715 2.23621 3.41056 0 0 0 128 128 128 255
3.22093 2.42028 3.41151 0 0 0 128 128 128 255
1.33911 2.28059 3.41342 0 0 0 128 128 128 255
3.24394 2.42109 3.41438 0 0 0 128 128 128 255
2.60071 2.37325 3.41533 0 0 0 128 128 128 255
0.708894 2.23312 3.41629 0 0 0 128 128 128 255
3.14028 2.41254 3.41724 0 0 0 128 128 128 255
3.09241 2.409 3.41724 0 0 0 128 128 128 255
1.03004 2.25656 3.41724 0 0 0 128 128 128 255
0.382806 2.20872 3.41724 0 0 0 128 128 128 255
2.55302 2.36736 3.42298 0 0 0 128 128 128 255
1.15284 2.26386 3.42298 0 0 0 128 128 128 255
3.22321 2.4166 3.42393 0 0 0 128 128 128 255
2.49721 2.36264 3.42489 0 0 0 128 128 128 255
1.5837 2.29512 3.42489 0 0 0 128 128 128 255
1.12797 2.26113 3.42584 0 0 0 128 128 128 255
0.400953 2.2074 3.42584 0 0 0 128 128 128 255
1.09209 2.25819 3.4268 0 0 0 128 128 128 255
2.606 2.3695 3.42871 0 0 0 128 128 128 255
1.67157 2.30013 3.42967 0 0 0 128 128 128 255
1.5978 2.29438 3.43062 0 0 0 128 128 128 255
1.33152 2.2747 3.43062 0 0 0 128 128 128 255
1.11217 2.25789 3.43253 0 0 0 128 128 128 255
3.42488 2.42854 3.43349 0 0 0 128 128 128 255
2.62805 2.36965 3.43349 0 0 0 128 128 128 255
3.42689 2.4284 3.43444 0 0 0 128 128 128 255
3.28329 2.41778 3.43444 0 0 0 128 128 128 255
0.835962 2.23689 3.43444 0 0 0 128 128 128 255
2.6271 2.36898 3.4354 0 0 0 128 128 128 255
1.13523 2.25782 3.43826 0 0 0 128 128 128 255
1.02354 2.24957 3.43826 0 0 0 128 128 128 255
1.1203 2.25642 3.43922 0 0 0 128 128 128 255
0.552844 2.21448 3.43922 0 0 0 128 128 128 255
1.0884 2.25377 3.44018 0 0 0 128 128 128 255
3.443 2.42752 3.44113 0 0 0 128 128 128 255
2.56839 2.36287 3.44113 0 0 0 128 128 128 255
2.47066 2.35564 3.44113 0 0 0 128 128 128 255
0.803204 2.23239 3.44113 0 0 0 128 128 128 255
1.09244 2.25348 3.44209 0 0 0 128 128 128 255
3.25259 2.41255 3.444 0 0 0 128 128 128 255
1.57217 2.28834 3.444 0 0 0 128 128 128 255
1.08351 2.25222 3.444 0 0 0 128 128 128 255
2.5964 2.36376 3.44495 0 0 0 128 128 128 255
2.59349 2.36236 3.44877 0 0 0 128 128 128 255
3.23379 2.40909 3.45069 0 0 0 128 128 128 255
1.06972 2.24884 3.45164 0 0 0 128 128 128 255
2.60156 2.36177 3.4526 0 0 0 128 128 128 255
