ply
format ascii 1.0
comment VCGLIB generated
element vertex 1004
property float x
property float y
property float z
property float nx
property float ny
property float nz
property uchar red
property uchar green
property uchar blue
property uchar alpha
element face 0
property list uchar int vertex_indices
end_header
0.987499 0.227269 3.64792 0 0 0 128 128 128 255
0.984599 0.909073 3.66403 0 0 0 128 128 128 255
0.983791 0.866085 3.66285 0 0 0 128 128 128 255
0.981751 1.11401 3.66855 0 0 0 128 128 128 255
0.979731 1.58888 3.67977 0 0 0 128 128 128 255
0.984516 0.232267 3.64755 0 0 0 128 128 128 255
0.98407 0.337236 3.65003 0 0 0 128 128 128 255
0.982173 0.783108 3.66057 0 0 0 128 128 128 255
0.981407 0.963056 3.66482 0 0 0 128 128 128 255
0.982199 0.545176 3.65479 0 0 0 128 128 128 255
0.982148 0.557173 3.65507 0 0 0 128 128 128 255
0.981148 0.792105 3.66062 0 0 0 128 128 128 255
0.980132 1.03104 3.66627 0 0 0 128 128 128 255
0.982259 0.299247 3.64882 0 0 0 128 128 128 255
0.978861 1.09802 3.66769 0 0 0 128 128 128 255
0.978135 0.8051 3.66045 0 0 0 128 128 128 255
0.976859 1.10501 3.66754 0 0 0 128 128 128 255
0.976596 1.167 3.669 0 0 0 128 128 128 255
0.979663 0.21327 3.6463 0 0 0 128 128 128 255
0.976142 0.809098 3.66022 0 0 0 128 128 128 255
0.974717 1.144 3.66814 0 0 0 128 128 128 255
0.975134 0.814096 3.66018 0 0 0 128 128 128 255
0.975326 0.537175 3.65348 0 0 0 128 128 128 255
0.973244 0.562167 3.65375 0 0 0 128 128 128 255
0.970721 0.922063 3.66209 0 0 0 128 128 128 255
0.969394 1.23397 3.66946 0 0 0 128 128 128 255
0.971313 0.55117 3.65317 0 0 0 128 128 128 255
0.96939 1.00304 3.66385 0 0 0 128 128 128 255
0.968323 1.02203 3.66414 0 0 0 128 128 128 255
0.968307 0.794099 3.65859 0 0 0 128 128 128 255
0.965006 1.56988 3.67692 0 0 0 128 128 128 255
0.967362 0.784101 3.65819 0 0 0 128 128 128 255
0.965793 1.153 3.66691 0 0 0 128 128 128 255
0.965759 1.16099 3.6671 0 0 0 128 128 128 255
0.965653 0.954052 3.66205 0 0 0 128 128 128 255
0.965411 0.779102 3.65776 0 0 0 128 128 128 255
0.963052 1.10101 3.66521 0 0 0 128 128 128 255
0.962984 1.117 3.66559 0 0 0 128 128 128 255
0.962652 0.963048 3.66179 0 0 0 128 128 128 255
0.962176 1.07502 3.66444 0 0 0 128 128 128 255
0.960786 0.938054 3.66088 0 0 0 128 128 128 255
0.959336 1.04702 3.6633 0 0 0 128 128 128 255
0.960756 0.480185 3.64974 0 0 0 128 128 128 255
0.959854 0.692124 3.65475 0 0 0 128 128 128 255
0.957414 1.03403 3.66267 0 0 0 128 128 128 255
0.956512 1.01303 3.66202 0 0 0 128 128 128 255
0.954994 1.13799 3.66482 0 0 0 128 128 128 255
0.954675 0.981039 3.66095 0 0 0 128 128 128 255
0.953243 1.08601 3.66327 0 0 0 128 128 128 255
0.95255 1.24896 3.66712 0 0 0 128 128 128 255
0.949955 0.930051 3.65895 0 0 0 128 128 128 255
0.950036 0.679123 3.65287 0 0 0 128 128 128 255
0.947885 0.953044 3.65919 0 0 0 128 128 128 255
0.945256 1.57087 3.67379 0 0 0 128 128 128 255
0.947267 0.866068 3.65697 0 0 0 128 128 128 255
0.945753 0.989032 3.65972 0 0 0 128 128 128 255
0.945438 1.06301 3.66147 0 0 0 128 128 128 255
0.942466 1.06501 3.66105 0 0 0 128 128 128 255
0.941981 1.17898 3.66374 0 0 0 128 128 128 255
0.94119 0.669122 3.65122 0 0 0 128 128 128 255
0.939059 1.16998 3.66306 0 0 0 128 128 128 255
0.936393 1.56486 3.67223 0 0 0 128 128 128 255
0.936983 0.729102 3.65201 0 0 0 128 128 128 255
0.933453 1.095 3.66035 0 0 0 128 128 128 255
0.931279 1.14098 3.66112 0 0 0 128 128 128 255
0.930833 1.01402 3.65797 0 0 0 128 128 128 255
0.930761 1.03101 3.65837 0 0 0 128 128 128 255
0.930646 1.058 3.65901 0 0 0 128 128 128 255
0.931207 0.694109 3.65025 0 0 0 128 128 128 255
0.930025 0.972029 3.65682 0 0 0 128 128 128 255
0.926826 0.795078 3.65202 0 0 0 128 128 128 255
0.926754 0.812073 3.65242 0 0 0 128 128 128 255
0.922637 1.54786 3.66965 0 0 0 128 128 128 255
0.922282 0.934036 3.65468 0 0 0 128 128 128 255
0.921826 0.809071 3.65157 0 0 0 128 128 128 255
0.920448 1.13298 3.65923 0 0 0 128 128 128 255
0.920615 0.861056 3.65265 0 0 0 128 128 128 255
0.919543 1.11298 3.6586 0 0 0 128 128 128 255
0.920287 0.7061 3.64883 0 0 0 128 128 128 255
0.919207 0.960027 3.65483 0 0 0 128 128 128 255
0.918436 0.677107 3.64784 0 0 0 128 128 128 255
0.915066 1.00401 3.65525 0 0 0 128 128 128 255
0.912994 1.027 3.65549 0 0 0 128 128 128 255
0.912344 1.17996 3.6591 0 0 0 128 128 128 255
0.912327 1.18396 3.6592 0 0 0 128 128 128 255
0.913011 0.791071 3.64976 0 0 0 128 128 128 255
0.911862 1.06099 3.65614 0 0 0 128 128 128 255
0.912003 0.796069 3.64973 0 0 0 128 128 128 255
0.91196 0.806067 3.64996 0 0 0 128 128 128 255
0.910994 0.801067 3.64969 0 0 0 128 128 128 255
0.909387 1.17896 3.65862 0 0 0 128 128 128 255
0.908501 1.15496 3.6579 0 0 0 128 128 128 255
0.906981 0.814061 3.64939 0 0 0 128 128 128 255
0.905425 1.17996 3.65803 0 0 0 128 128 128 255
0.905408 1.18395 3.65813 0 0 0 128 128 128 255
0.903808 1.55985 3.66701 0 0 0 128 128 128 255
0.90547 0.937025 3.65214 0 0 0 128 128 128 255
0.903658 1.13097 3.65657 0 0 0 128 128 128 255
0.904516 0.697093 3.64616 0 0 0 128 128 128 255
0.899837 1.56484 3.66652 0 0 0 128 128 128 255
0.900352 1.21094 3.658 0 0 0 128 128 128 255
0.898833 1.56784 3.66643 0 0 0 128 128 128 255
0.902745 0.184239 3.63343 0 0 0 128 128 128 255
0.900473 0.486151 3.64042 0 0 0 128 128 128 255
0.897945 0.848046 3.64882 0 0 0 128 128 128 255
0.897786 0.188234 3.63277 0 0 0 128 128 128 255
0.895808 0.6531 3.64375 0 0 0 128 128 128 255
0.892851 1.11497 3.65452 0 0 0 128 128 128 255
0.892518 0.497143 3.63946 0 0 0 128 128 128 255
0.890604 0.947013 3.65009 0 0 0 128 128 128 255
0.891398 0.528133 3.64004 0 0 0 128 128 128 255
0.890671 0.699084 3.64408 0 0 0 128 128 128 255
0.889965 0.865036 3.648 0 0 0 128 128 128 255
0.889169 0.587115 3.64113 0 0 0 128 128 128 255
0.888807 0.672091 3.64314 0 0 0 128 128 128 255
0.887995 0.863036 3.64765 0 0 0 128 128 128 255
0.888252 0.570119 3.64058 0 0 0 128 128 128 255
0.886673 0.477145 3.63808 0 0 0 128 128 128 255
0.886401 0.541126 3.63959 0 0 0 128 128 128 255
0.886286 0.568119 3.64023 0 0 0 128 128 128 255
0.885848 0.439155 3.63703 0 0 0 128 128 128 255
0.882636 1.19394 3.65487 0 0 0 128 128 128 255
0.884629 0.492139 3.63813 0 0 0 128 128 128 255
0.883774 0.461148 3.63725 0 0 0 128 128 128 255
0.881133 0.849035 3.64627 0 0 0 128 128 128 255
0.881404 0.55312 3.63912 0 0 0 128 128 128 255
0.881998 0.181226 3.63018 0 0 0 128 128 128 255
0.877264 1.29391 3.65648 0 0 0 128 128 128 255
0.877293 1.05497 3.65068 0 0 0 128 128 128 255
0.876187 1.08296 3.65119 0 0 0 128 128 128 255
0.87609 1.10596 3.65174 0 0 0 128 128 128 255
0.876836 0.698075 3.64195 0 0 0 128 128 128 255
0.877124 0.398161 3.63471 0 0 0 128 128 128 255
0.87357 0.999987 3.64878 0 0 0 128 128 128 255
0.873413 1.03698 3.64966 0 0 0 128 128 128 255
0.873362 1.04897 3.64994 0 0 0 128 128 128 255
0.874744 0.492133 3.63663 0 0 0 128 128 128 255
0.874442 0.563112 3.63831 0 0 0 128 128 128 255
0.873443 0.798045 3.64386 0 0 0 128 128 128 255
0.873379 0.81304 3.64422 0 0 0 128 128 128 255
0.872231 1.08296 3.65059 0 0 0 128 128 128 255
0.871397 1.04697 3.64959 0 0 0 128 128 128 255
0.870908 1.16194 3.65231 0 0 0 128 128 128 255
0.872972 0.211212 3.62954 0 0 0 128 128 128 255
0.868906 1.16694 3.65213 0 0 0 128 128 128 255
0.867239 1.55882 3.66139 0 0 0 128 128 128 255
0.872044 0.197215 3.62907 0 0 0 128 128 128 255
0.870844 0.479134 3.63573 0 0 0 128 128 128 255
0.865276 1.55582 3.66102 0 0 0 128 128 128 255
0.86525 1.56182 3.66116 0 0 0 128 128 128 255
0.868557 0.551112 3.63713 0 0 0 128 128 128 255
0.866281 1.08596 3.64977 0 0 0 128 128 128 255
0.867634 0.536115 3.63663 0 0 0 128 128 128 255
0.866774 0.506123 3.63577 0 0 0 128 128 128 255
0.866155 0.187214 3.62794 0 0 0 128 128 128 255
0.865232 0.404151 3.63306 0 0 0 128 128 128 255
0.864295 0.392154 3.63263 0 0 0 128 128 128 255
0.862566 0.565103 3.63657 0 0 0 128 128 128 255
0.860747 0.528113 3.6354 0 0 0 128 128 128 255
0.86065 0.319172 3.63031 0 0 0 128 128 128 255
0.8586 0.801033 3.6417 0 0 0 128 128 128 255
0.857621 1.03097 3.64713 0 0 0 128 128 128 255
0.857707 0.545106 3.63535 0 0 0 128 128 128 255
0.855113 1.15493 3.64977 0 0 0 128 128 128 255
0.857456 0.372155 3.63112 0 0 0 128 128 128 255
0.857264 0.417142 3.63218 0 0 0 128 128 128 255
0.856941 0.49312 3.63398 0 0 0 128 128 128 255
0.854933 0.964984 3.64513 0 0 0 128 128 128 255
0.852688 1.02696 3.6463 0 0 0 128 128 128 255
0.851846 0.992974 3.64535 0 0 0 128 128 128 255
0.854261 0.193204 3.6263 0 0 0 128 128 128 255
0.851037 0.950985 3.64421 0 0 0 128 128 128 255
0.850603 1.05296 3.64662 0 0 0 128 128 128 255
0.850152 1.15893 3.64912 0 0 0 128 128 128 255
0.85328 0.191203 3.62611 0 0 0 128 128 128 255
0.84736 1.5828 3.65899 0 0 0 128 128 128 255
0.852187 0.216195 3.62655 0 0 0 128 128 128 255
0.850905 0.285175 3.62803 0 0 0 128 128 128 255
0.848757 0.790029 3.63996 0 0 0 128 128 128 255
0.849813 0.308167 3.62843 0 0 0 128 128 128 255
0.845955 1.21491 3.64986 0 0 0 128 128 128 255
0.8449 1.2309 3.65009 0 0 0 128 128 128 255
0.845698 0.811021 3.64002 0 0 0 128 128 128 255
0.846675 0.348154 3.62893 0 0 0 128 128 128 255
0.84482 0.784028 3.63923 0 0 0 128 128 128 255
0.842381 1.12493 3.64714 0 0 0 128 128 128 255
0.843921 0.531099 3.63296 0 0 0 128 128 128 255
0.842637 0.367145 3.62879 0 0 0 128 128 128 255
0.837563 1.5598 3.65698 0 0 0 128 128 128 255
0.842321 0.20919 3.62492 0 0 0 128 128 128 255
0.83905 0.977968 3.64308 0 0 0 128 128 128 255
0.839363 0.672056 3.63571 0 0 0 128 128 128 255
0.837322 1.15192 3.64705 0 0 0 128 128 128 255
0.837995 0.529096 3.63204 0 0 0 128 128 128 255
0.836226 0.944976 3.64187 0 0 0 128 128 128 255
0.838321 0.220184 3.62459 0 0 0 128 128 128 255
0.837781 0.347147 3.62759 0 0 0 128 128 128 255
0.833881 0.798016 3.63796 0 0 0 128 128 128 255
0.832607 0.864996 3.63939 0 0 0 128 128 128 255
0.831084 0.990959 3.64222 0 0 0 128 128 128 255
0.830897 1.03495 3.64326 0 0 0 128 128 128 255
0.833327 0.230177 3.6241 0 0 0 128 128 128 255
0.831136 0.745029 3.63627 0 0 0 128 128 128 255
0.830242 0.723034 3.6356 0 0 0 128 128 128 255
0.827317 1.1779 3.64621 0 0 0 128 128 128 255
0.826681 0.861992 3.63845 0 0 0 128 128 128 255
0.826366 0.935971 3.6402 0 0 0 128 128 128 255
0.822724 1.55979 3.6548 0 0 0 128 128 128 255
0.82513 0.297152 3.62452 0 0 0 128 128 128 255
0.824884 0.355135 3.62589 0 0 0 128 128 128 255
0.823059 0.784011 3.63603 0 0 0 128 128 128 255
0.820501 1.1529 3.6446 0 0 0 128 128 128 255
0.816419 1.18089 3.64469 0 0 0 128 128 128 255
0.816024 0.808998 3.63561 0 0 0 128 128 128 255
0.816971 0.354129 3.62472 0 0 0 128 128 128 255
0.813342 0.741015 3.63357 0 0 0 128 128 128 255
0.809254 1.00494 3.63938 0 0 0 128 128 128 255
0.807159 0.798994 3.63408 0 0 0 128 128 128 255
0.804913 0.860974 3.63526 0 0 0 128 128 128 255
0.803941 0.392107 3.62376 0 0 0 128 128 128 255
0.801175 0.809986 3.63349 0 0 0 128 128 128 255
0.798693 1.16088 3.64164 0 0 0 128 128 128 255
0.795934 1.57576 3.6513 0 0 0 128 128 128 255
0.79654 1.20087 3.6423 0 0 0 128 128 128 255
0.797479 0.748 3.63146 0 0 0 128 128 128 255
0.796324 0.786988 3.63224 0 0 0 128 128 128 255
0.793321 1.02692 3.63762 0 0 0 128 128 128 255
0.794934 0.415093 3.62302 0 0 0 128 128 128 255
0.792578 0.968933 3.63611 0 0 0 128 128 128 255
0.792157 1.0679 3.63845 0 0 0 128 128 128 255
0.79229 0.80298 3.63205 0 0 0 128 128 128 255
0.7891 1.55276 3.64977 0 0 0 128 128 128 255
0.790523 0.985926 3.63623 0 0 0 128 128 128 255
0.789719 1.17487 3.64069 0 0 0 128 128 128 255
0.792172 0.366104 3.62144 0 0 0 128 128 128 255
0.78818 1.0719 3.63798 0 0 0 128 128 128 255
0.789059 0.400092 3.62182 0 0 0 128 128 128 255
0.785614 0.743991 3.62967 0 0 0 128 128 128 255
0.785616 0.511057 3.62402 0 0 0 128 128 128 255
0.780401 0.805969 3.63043 0 0 0 128 128 128 255
0.779935 0.683003 3.62738 0 0 0 128 128 128 255
0.779497 0.785973 3.62981 0 0 0 128 128 128 255
0.778178 1.09588 3.63714 0 0 0 128 128 128 255
0.775953 1.15287 3.6382 0 0 0 128 128 128 255
0.775108 0.654007 3.626 0 0 0 128 128 128 255
0.773242 0.859947 3.63072 0 0 0 128 128 128 255
0.772607 0.776969 3.62862 0 0 0 128 128 128 255
0.77359 0.312103 3.6175 0 0 0 128 128 128 255
0.770652 1.0029 3.63382 0 0 0 128 128 128 255
0.770869 0.718984 3.62698 0 0 0 128 128 128 255
0.770597 0.782966 3.62849 0 0 0 128 128 128 255
0.769351 1.07588 3.63541 0 0 0 128 128 128 255
0.765314 1.55974 3.64657 0 0 0 128 128 128 255
0.769543 0.332093 3.61741 0 0 0 128 128 128 255
0.767431 0.596016 3.62351 0 0 0 128 128 128 255
0.766516 0.810954 3.62859 0 0 0 128 128 128 255
0.764883 0.728976 3.62638 0 0 0 128 128 128 255
0.764589 0.797956 3.62801 0 0 0 128 128 128 255
0.762609 1.03089 3.63337 0 0 0 128 128 128 255
0.762101 0.684986 3.62492 0 0 0 128 128 128 255
0.762204 0.428059 3.61871 0 0 0 128 128 128 255
0.759507 1.06188 3.63369 0 0 0 128 128 128 255
0.758707 1.01789 3.63251 0 0 0 128 128 128 255
0.759108 0.690981 3.62465 0 0 0 128 128 128 255
0.757649 1.03388 3.63275 0 0 0 128 128 128 255
0.759373 0.395066 3.61752 0 0 0 128 128 128 255
0.756672 1.02988 3.63252 0 0 0 128 128 128 255
0.756455 1.08087 3.63373 0 0 0 128 128 128 255
0.757712 0.320085 3.61547 0 0 0 128 128 128 255
0.756446 0.384066 3.61685 0 0 0 128 128 128 255
0.754919 0.742962 3.62533 0 0 0 128 128 128 255
0.755747 0.316085 3.6151 0 0 0 128 128 128 255
0.754238 0.438048 3.61785 0 0 0 128 128 128 255
0.752855 0.762955 3.62552 0 0 0 128 128 128 255
0.751725 0.794945 3.62614 0 0 0 128 128 128 255
0.750731 0.331075 3.61477 0 0 0 128 128 128 255
0.748702 0.807938 3.62604 0 0 0 128 128 128 255
0.748609 0.596998 3.62092 0 0 0 128 128 128 255
0.746708 1.04387 3.63148 0 0 0 128 128 128 255
0.747263 0.680973 3.62276 0 0 0 128 128 128 255
0.745553 1.08286 3.63226 0 0 0 128 128 128 255
0.744568 1.08186 3.6321 0 0 0 128 128 128 255
0.745087 0.726957 3.62358 0 0 0 128 128 128 255
0.745501 0.396052 3.61562 0 0 0 128 128 128 255
0.744076 0.730955 3.62354 0 0 0 128 128 128 255
0.743561 0.85192 3.62639 0 0 0 128 128 128 255
0.742804 1.02987 3.6306 0 0 0 128 128 128 255
0.740635 1.53972 3.64265 0 0 0 128 128 128 255
0.74287 0.781939 3.6246 0 0 0 128 128 128 255
0.739443 0.422038 3.61542 0 0 0 128 128 128 255
0.73809 0.739947 3.62293 0 0 0 128 128 128 255
0.735861 0.798927 3.62405 0 0 0 128 128 128 255
0.736789 0.348057 3.61326 0 0 0 128 128 128 255
0.736772 0.352055 3.61336 0 0 0 128 128 128 255
0.735923 0.319064 3.61244 0 0 0 128 128 128 255
0.733086 0.985872 3.6282 0 0 0 128 128 128 255
0.734575 0.403039 3.61429 0 0 0 128 128 128 255
0.734003 0.305066 3.61184 0 0 0 128 128 128 255
0.732302 0.704951 3.62129 0 0 0 128 128 128 255
0.731983 0.779929 3.62306 0 0 0 128 128 128 255
0.731515 0.655964 3.62 0 0 0 128 128 128 255
0.729809 1.05685 3.62947 0 0 0 128 128 128 255
0.729847 0.349049 3.61234 0 0 0 128 128 128 255
0.728227 0.729939 3.62134 0 0 0 128 128 128 255
0.726034 1.01286 3.62789 0 0 0 128 128 128 255
0.725302 1.18481 3.63196 0 0 0 128 128 128 255
0.723771 1.5447 3.64046 0 0 0 128 128 128 255
0.723677 1.5667 3.64098 0 0 0 128 128 128 255
0.726204 0.739934 3.62131 0 0 0 128 128 128 255
0.725949 0.799917 3.62273 0 0 0 128 128 128 255
0.725525 0.666954 3.61945 0 0 0 128 128 128 255
0.723939 1.03985 3.62826 0 0 0 128 128 128 255
0.721812 1.5397 3.64007 0 0 0 128 128 128 255
0.720689 1.56969 3.64065 0 0 0 128 128 128 255
0.72506 0.310055 3.61074 0 0 0 128 128 128 255
0.72332 0.718937 3.62041 0 0 0 128 128 128 255
0.719799 1.5467 3.63997 0 0 0 128 128 128 255
0.722038 0.322049 3.61063 0 0 0 128 128 128 255
0.719078 0.784914 3.62143 0 0 0 128 128 128 255
0.719628 0.423017 3.61274 0 0 0 128 128 128 255
0.71851 0.685942 3.61896 0 0 0 128 128 128 255
0.71754 0.913876 3.62434 0 0 0 128 128 128 255
0.717382 0.950865 3.62522 0 0 0 128 128 128 255
0.718724 0.402022 3.61211 0 0 0 128 128 128 255
0.718358 0.487998 3.61415 0 0 0 128 128 128 255
0.717461 0.698937 3.61913 0 0 0 128 128 128 255
0.715861 1.07483 3.62801 0 0 0 128 128 128 255
0.717559 0.44201 3.61293 0 0 0 128 128 128 255
0.715045 1.03284 3.62689 0 0 0 128 128 128 255
0.713461 0.939864 3.62442 0 0 0 128 128 128 255
0.714984 0.349033 3.61033 0 0 0 128 128 128 255
0.71266 0.430008 3.61198 0 0 0 128 128 128 255
0.711507 0.70093 3.61838 0 0 0 128 128 128 255
0.709848 0.856884 3.62193 0 0 0 128 128 128 255
0.708575 0.457996 3.6121 0 0 0 128 128 128 255
0.703528 1.17879 3.62887 0 0 0 128 128 128 255
0.704682 0.440996 3.61117 0 0 0 128 128 128 255
0.70416 0.330027 3.60842 0 0 0 128 128 128 255
0.701217 1.02183 3.62477 0 0 0 128 128 128 255
0.701089 1.05182 3.62547 0 0 0 128 128 128 255
0.700711 0.907859 3.62194 0 0 0 128 128 128 255
0.701945 0.385009 3.60945 0 0 0 128 128 128 255
0.700891 0.400004 3.60967 0 0 0 128 128 128 255
0.700414 0.511971 3.61232 0 0 0 128 128 128 255
0.699215 0.79389 3.61898 0 0 0 128 128 128 255
0.69796 1.08881 3.62595 0 0 0 128 128 128 255
0.699922 0.395004 3.60943 0 0 0 128 128 128 255
0.69951 0.491976 3.61172 0 0 0 128 128 128 255
0.694378 0.998827 3.6233 0 0 0 128 128 128 255
0.694199 1.04081 3.62429 0 0 0 128 128 128 255
0.692797 0.904851 3.62082 0 0 0 128 128 128 255
0.692189 1.04781 3.62419 0 0 0 128 128 128 255
0.692569 0.725902 3.61646 0 0 0 128 128 128 255
0.691199 1.04781 3.62406 0 0 0 128 128 128 255
0.691987 0.628929 3.61403 0 0 0 128 128 128 255
0.68958 1.19477 3.6274 0 0 0 128 128 128 255
0.690613 0.718902 3.61603 0 0 0 128 128 128 255
0.690363 0.777885 3.61742 0 0 0 128 128 128 255
0.689562 0.731897 3.6162 0 0 0 128 128 128 255
0.685008 1.56965 3.63587 0 0 0 128 128 128 255
0.687568 0.734894 3.61601 0 0 0 128 128 128 255
0.685093 0.38599 3.60724 0 0 0 128 128 128 255
0.682357 0.794871 3.61678 0 0 0 128 128 128 255
0.682809 0.455967 3.60864 0 0 0 128 128 128 255
0.682652 0.492957 3.60951 0 0 0 128 128 128 255
0.681295 0.811865 3.61705 0 0 0 128 128 128 255
0.678143 1.55265 3.63455 0 0 0 128 128 128 255
0.682052 0.400982 3.60721 0 0 0 128 128 128 255
0.681487 0.533944 3.61035 0 0 0 128 128 128 255
0.680063 0.635913 3.61263 0 0 0 128 128 128 255
0.67612 1.56265 3.63453 0 0 0 128 128 128 255
0.679007 0.649908 3.61283 0 0 0 128 128 128 255
0.67416 0.856844 3.6172 0 0 0 128 128 128 255
0.673652 0.743875 3.6144 0 0 0 128 128 128 255
0.673587 0.525937 3.60912 0 0 0 128 128 128 255
0.672494 0.782863 3.61519 0 0 0 128 128 128 255
0.669658 1.21674 3.62532 0 0 0 128 128 128 255
0.669118 0.643898 3.61139 0 0 0 128 128 128 255
0.66747 0.798852 3.61493 0 0 0 128 128 128 255
0.668175 0.399966 3.60537 0 0 0 128 128 128 255
0.667954 0.451951 3.6066 0 0 0 128 128 128 255
0.664365 0.362972 3.60398 0 0 0 128 128 128 255
0.662979 0.454944 3.60603 0 0 0 128 128 128 255
0.661899 0.475937 3.6064 0 0 0 128 128 128 255
0.661605 0.544917 3.60803 0 0 0 128 128 128 255
0.659853 0.49093 3.6065 0 0 0 128 128 128 255
0.659206 0.642886 3.61009 0 0 0 128 128 128 255
0.659083 0.438944 3.60514 0 0 0 128 128 128 255
0.658028 0.686873 3.611 0 0 0 128 128 128 255
0.65796 0.702868 3.61138 0 0 0 128 128 128 255
0.656834 0.734858 3.61201 0 0 0 128 128 128 255
0.652908 1.19072 3.62252 0 0 0 128 128 128 255
0.652721 0.767843 3.61228 0 0 0 128 128 128 255
0.652708 0.770842 3.61235 0 0 0 128 128 128 255
0.653082 0.449934 3.60463 0 0 0 128 128 128 255
0.652253 0.644878 3.60924 0 0 0 128 128 128 255
0.652363 0.385951 3.603 0 0 0 128 128 128 255
0.648162 0.907798 3.61508 0 0 0 128 128 128 255
0.648115 0.918795 3.61534 0 0 0 128 128 128 255
0.64234 1.5766 3.6305 0 0 0 128 128 128 255
0.641914 1.2107 3.6216 0 0 0 128 128 128 255
0.642297 0.654862 3.60821 0 0 0 128 128 128 255
0.641778 0.776827 3.6111 0 0 0 128 128 128 255
0.638473 1.5536 3.62945 0 0 0 128 128 128 255
0.64259 0.351948 3.60093 0 0 0 128 128 128 255
0.639451 0.856802 3.61273 0 0 0 128 128 128 255
0.639178 0.686849 3.60859 0 0 0 128 128 128 255
0.638727 0.792819 3.61109 0 0 0 128 128 128 255
0.638349 0.415925 3.60194 0 0 0 128 128 128 255
0.632459 1.56759 3.62903 0 0 0 128 128 128 255
0.633036 1.1987 3.62018 0 0 0 128 128 128 255
0.632904 1.22969 3.62092 0 0 0 128 128 128 255
0.634056 0.491898 3.60323 0 0 0 128 128 128 255
0.631529 0.852793 3.61163 0 0 0 128 128 128 255
0.632118 0.481898 3.60274 0 0 0 128 128 128 255
0.630679 0.353933 3.59947 0 0 0 128 128 128 255
0.628931 0.764814 3.60918 0 0 0 128 128 128 255
0.629738 0.340935 3.59904 0 0 0 128 128 128 255
0.629415 0.416913 3.60083 0 0 0 128 128 128 255
0.627441 0.413912 3.60051 0 0 0 128 128 128 255
0.62705 0.505885 3.60268 0 0 0 128 128 128 255
0.625651 0.368922 3.5992 0 0 0 128 128 128 255
0.624218 0.705825 3.60716 0 0 0 128 128 128 255
0.622839 0.796797 3.60919 0 0 0 128 128 128 255
0.622852 0.560864 3.60349 0 0 0 128 128 128 255
0.622635 0.61185 3.60469 0 0 0 128 128 128 255
0.62189 0.786799 3.60883 0 0 0 128 128 128 255
0.618624 1.55458 3.62697 0 0 0 128 128 128 255
0.618573 1.56657 3.62725 0 0 0 128 128 128 255
0.621197 0.716818 3.60705 0 0 0 128 128 128 255
0.619078 1.21467 3.61881 0 0 0 128 128 128 255
0.620643 0.379912 3.59884 0 0 0 128 128 128 255
0.620214 0.480883 3.60122 0 0 0 128 128 128 255
0.618967 0.773799 3.60815 0 0 0 128 128 128 255
0.617959 0.777797 3.60812 0 0 0 128 128 128 255
0.618758 0.356916 3.59805 0 0 0 128 128 128 255
0.616908 0.791791 3.60833 0 0 0 128 128 128 255
0.613688 1.54857 3.62621 0 0 0 128 128 128 255
0.61658 0.635835 3.60452 0 0 0 128 128 128 255
0.61268 1.55257 3.62618 0 0 0 128 128 128 255
0.613077 0.524862 3.6014 0 0 0 128 128 128 255
0.612226 0.49187 3.6005 0 0 0 128 128 128 255
0.610571 0.647824 3.60406 0 0 0 128 128 128 255
0.609804 0.361903 3.59706 0 0 0 128 128 128 255
0.60575 0.614826 3.60267 0 0 0 128 128 128 255
0.60538 0.701801 3.60472 0 0 0 128 128 128 255
0.605367 0.7048 3.60479 0 0 0 128 128 128 255
0.603563 0.66281 3.60356 0 0 0 128 128 128 255
0.603316 0.720793 3.60493 0 0 0 128 128 128 255
0.603034 0.55284 3.60083 0 0 0 128 128 128 255
0.600758 0.854752 3.60785 0 0 0 128 128 128 255
0.600162 0.527843 3.59988 0 0 0 128 128 128 255
0.597501 0.453861 3.59776 0 0 0 128 128 128 255
0.590797 1.56354 3.62375 0 0 0 128 128 128 255
0.589814 1.56054 3.62355 0 0 0 128 128 128 255
0.592327 0.50384 3.59834 0 0 0 128 128 128 255
0.587891 1.54654 3.62298 0 0 0 128 128 128 255
0.590496 0.466847 3.59722 0 0 0 128 128 128 255
0.589207 0.536826 3.59876 0 0 0 128 128 128 255
0.588067 0.804749 3.60509 0 0 0 128 128 128 255
0.581936 1.54553 3.62223 0 0 0 128 128 128 255
0.582164 0.792744 3.60408 0 0 0 128 128 128 255
0.577901 1.56152 3.62213 0 0 0 128 128 128 255
0.579199 0.555807 3.598 0 0 0 128 128 128 255
0.572935 0.861712 3.60464 0 0 0 128 128 128 255
0.571048 0.837716 3.60383 0 0 0 128 128 128 255
0.568041 1.54451 3.62053 0 0 0 128 128 128 255
0.571442 0.511808 3.59601 0 0 0 128 128 128 255
0.570303 0.779731 3.60234 0 0 0 128 128 128 255
0.570375 0.529801 3.59632 0 0 0 128 128 128 255
0.569226 0.799724 3.60269 0 0 0 128 128 128 255
0.567241 0.799721 3.60246 0 0 0 128 128 128 255
0.561617 0.487801 3.59426 0 0 0 128 128 128 255
0.561464 0.52379 3.59511 0 0 0 128 128 128 255
0.559458 0.527786 3.59497 0 0 0 128 128 128 255
0.557109 0.846693 3.60238 0 0 0 128 128 128 255
0.554129 0.847688 3.60206 0 0 0 128 128 128 255
0.550107 1.55948 3.61876 0 0 0 128 128 128 255
0.551051 1.10461 3.60789 0 0 0 128 128 128 255
0.552543 0.519778 3.59396 0 0 0 128 128 128 255
0.549379 0.795696 3.60024 0 0 0 128 128 128 255
0.545433 0.790692 3.59966 0 0 0 128 128 128 255
0.543464 0.78569 3.59931 0 0 0 128 128 128 255
0.542695 0.966638 3.60358 0 0 0 128 128 128 255
0.54253 0.538758 3.59324 0 0 0 128 128 128 255
0.539816 0.94364 3.60269 0 0 0 128 128 128 255
0.536267 1.54447 3.61677 0 0 0 128 128 128 255
0.539078 0.649722 3.59551 0 0 0 128 128 128 255
0.539014 0.664718 3.59587 0 0 0 128 128 128 255
0.537873 0.699706 3.59658 0 0 0 128 128 128 255
0.537539 0.543749 3.59278 0 0 0 128 128 128 255
0.536701 0.740693 3.59743 0 0 0 128 128 128 255
0.535884 0.932637 3.60197 0 0 0 128 128 128 255
0.534719 0.506756 3.59156 0 0 0 128 128 128 255
0.534473 0.564739 3.59293 0 0 0 128 128 128 255
0.533166 0.638716 3.59456 0 0 0 128 128 128 255
0.532881 0.705697 3.59614 0 0 0 128 128 128 255
0.533024 0.438772 3.58972 0 0 0 128 128 128 255
0.53148 0.801668 3.5983 0 0 0 128 128 128 255
0.530795 0.962621 3.6021 0 0 0 128 128 128 255
0.530166 0.409776 3.58869 0 0 0 128 128 128 255
0.527489 0.80566 3.59793 0 0 0 128 128 128 255
0.528003 0.451761 3.58945 0 0 0 128 128 128 255
0.526965 0.695691 3.59522 0 0 0 128 128 128 255
0.526021 0.917627 3.60046 0 0 0 128 128 128 255
0.526921 0.471754 3.58981 0 0 0 128 128 128 255
0.525083 0.903629 3.60002 0 0 0 128 128 128 255
0.525392 0.597716 3.59267 0 0 0 128 128 128 255
0.525243 0.632706 3.5935 0 0 0 128 128 128 255
0.524826 0.730677 3.59582 0 0 0 128 128 128 255
0.524306 0.618708 3.59305 0 0 0 128 128 128 255
0.523504 0.57372 3.59188 0 0 0 128 128 128 255
0.519345 1.55144 3.61498 0 0 0 128 128 128 255
0.523162 0.420762 3.58815 0 0 0 128 128 128 255
0.51636 1.55343 3.61469 0 0 0 128 128 128 255
0.516335 1.55943 3.61483 0 0 0 128 128 128 255
0.515448 1.53444 3.61413 0 0 0 128 128 128 255
0.516955 0.71267 3.59448 0 0 0 128 128 128 255
0.515889 0.729664 3.59477 0 0 0 128 128 128 255
0.513717 0.773648 3.59558 0 0 0 128 128 128 255
0.514149 0.438743 3.58756 0 0 0 128 128 128 255
0.512618 0.798639 3.59606 0 0 0 128 128 128 255
0.507442 1.54742 3.61353 0 0 0 128 128 128 255
0.511025 0.470729 3.58797 0 0 0 128 128 128 255
0.509996 0.712659 3.59369 0 0 0 128 128 128 255
0.510268 0.415743 3.58656 0 0 0 128 128 128 255
0.509358 0.629682 3.59161 0 0 0 128 128 128 255
0.50889 0.73965 3.59421 0 0 0 128 128 128 255
0.504448 0.615678 3.59072 0 0 0 128 128 128 255
0.503453 0.849611 3.59625 0 0 0 128 128 128 255
0.499493 1.54741 3.61263 0 0 0 128 128 128 255
0.501661 0.80462 3.59496 0 0 0 128 128 128 255
0.500183 0.450718 3.58626 0 0 0 128 128 128 255
0.49909 0.707644 3.59233 0 0 0 128 128 128 255
0.499034 0.72064 3.59264 0 0 0 128 128 128 255
0.498347 0.648659 3.59083 0 0 0 128 128 128 255
0.497985 0.733635 3.59284 0 0 0 128 128 128 255
0.49744 0.628663 3.59025 0 0 0 128 128 128 255
0.496222 0.680647 3.59136 0 0 0 128 128 128 255
0.495391 0.642656 3.59035 0 0 0 128 128 128 255
0.493823 0.777615 3.59343 0 0 0 128 128 128 255
0.493491 0.855593 3.59527 0 0 0 128 128 128 255
0.492822 0.779613 3.59337 0 0 0 128 128 128 255
0.489424 1.57838 3.61224 0 0 0 128 128 128 255
0.491774 0.32474 3.58228 0 0 0 128 128 128 255
0.491149 0.471697 3.58576 0 0 0 128 128 128 255
0.491077 0.488692 3.58616 0 0 0 128 128 128 255
0.4904 0.414712 3.5843 0 0 0 128 128 128 255
0.488381 0.655641 3.58988 0 0 0 128 128 128 255
0.487739 0.806598 3.59345 0 0 0 128 128 128 255
0.482572 1.55338 3.61088 0 0 0 128 128 128 255
0.486499 0.396711 3.58343 0 0 0 128 128 128 255
0.485039 0.506677 3.58592 0 0 0 128 128 128 255
0.484094 0.728613 3.59117 0 0 0 128 128 128 255
0.481572 1.32144 3.60518 0 0 0 128 128 128 255
0.480619 1.54538 3.61047 0 0 0 128 128 128 255
0.482382 0.663629 3.58941 0 0 0 128 128 128 255
0.480757 1.04552 3.59843 0 0 0 128 128 128 255
0.480357 1.13949 3.60065 0 0 0 128 128 128 255
0.480835 0.326721 3.58112 0 0 0 128 128 128 255
0.475494 1.11549 3.59954 0 0 0 128 128 128 255
0.475226 1.17847 3.60103 0 0 0 128 128 128 255
0.475861 0.794581 3.59185 0 0 0 128 128 128 255
0.473771 1.05251 3.59783 0 0 0 128 128 128 255
0.475649 0.377698 3.58178 0 0 0 128 128 128 255
0.473922 0.783581 3.59137 0 0 0 128 128 128 255
0.472765 1.0555 3.59779 0 0 0 128 128 128 255
0.474344 0.449676 3.58337 0 0 0 128 128 128 255
0.47132 1.16047 3.60017 0 0 0 128 128 128 255
0.473808 0.342705 3.58073 0 0 0 128 128 128 255
0.473357 0.448674 3.58324 0 0 0 128 128 128 255
0.471864 0.799573 3.59153 0 0 0 128 128 128 255
0.470984 1.00651 3.59642 0 0 0 128 128 128 255
0.472946 0.311712 3.57989 0 0 0 128 128 128 255
0.471602 0.627621 3.58736 0 0 0 128 128 128 255
0.471507 0.41668 3.58226 0 0 0 128 128 128 255
0.468164 1.20245 3.60083 0 0 0 128 128 128 255
0.470871 0.332703 3.58017 0 0 0 128 128 128 255
0.468193 0.727587 3.58939 0 0 0 128 128 128 255
0.46779 0.355691 3.58039 0 0 0 128 128 128 255
0.46725 0.482655 3.58339 0 0 0 128 128 128 255
0.466369 0.689595 3.58828 0 0 0 128 128 128 255
0.46628 0.710589 3.58877 0 0 0 128 128 128 255
0.464351 0.463655 3.58261 0 0 0 128 128 128 255
0.461171 0.508637 3.58335 0 0 0 128 128 128 255
0.460061 0.769562 3.58952 0 0 0 128 128 128 255
0.461057 0.301695 3.57835 0 0 0 128 128 128 255
0.458986 0.788555 3.58986 0 0 0 128 128 128 255
0.457361 0.703576 3.58764 0 0 0 128 128 128 255
0.456649 0.637593 3.58597 0 0 0 128 128 128 255
0.456283 0.723568 3.588 0 0 0 128 128 128 255
0.455864 0.587606 3.58468 0 0 0 128 128 128 255
0.453844 1.06247 3.5959 0 0 0 128 128 128 255
0.453776 1.07846 3.59628 0 0 0 128 128 128 255
0.455096 0.53462 3.58332 0 0 0 128 128 128 255
0.454027 0.552613 3.58364 0 0 0 128 128 128 255
0.451355 0.713563 3.58723 0 0 0 128 128 128 255
0.450417 0.700565 3.58682 0 0 0 128 128 128 255
0.450085 0.778542 3.58866 0 0 0 128 128 128 255
0.449127 0.770543 3.58836 0 0 0 128 128 128 255
0.450161 0.292679 3.57696 0 0 0 128 128 128 255
0.448991 0.5676 3.58346 0 0 0 128 128 128 255
0.447294 0.966485 3.59289 0 0 0 128 128 128 255
0.447701 0.636578 3.58498 0 0 0 128 128 128 255
0.447982 0.336663 3.57779 0 0 0 128 128 128 255
0.447638 0.41764 3.5797 0 0 0 128 128 128 255
0.446275 0.504613 3.58165 0 0 0 128 128 128 255
0.444907 0.592586 3.58362 0 0 0 128 128 128 255
0.444865 0.602583 3.58386 0 0 0 128 128 128 255
0.441532 1.15242 3.59675 0 0 0 128 128 128 255
0.440493 1.16342 3.5969 0 0 0 128 128 128 255
0.443233 0.284669 3.57603 0 0 0 128 128 128 255
0.44029 0.97647 3.59238 0 0 0 128 128 128 255
0.438862 1.07844 3.59468 0 0 0 128 128 128 255
0.437475 0.937476 3.59114 0 0 0 128 128 128 255
0.439098 0.322651 3.57651 0 0 0 128 128 128 255
0.435437 0.949469 3.59121 0 0 0 128 128 128 255
0.436987 0.35064 3.57696 0 0 0 128 128 128 255
0.436175 0.541585 3.58147 0 0 0 128 128 128 255
0.432103 0.563572 3.58157 0 0 0 128 128 128 255
0.429029 0.58556 3.58177 0 0 0 128 128 128 255
0.427591 0.923463 3.58976 0 0 0 128 128 128 255
0.426562 1.16539 3.59548 0 0 0 128 128 128 255
0.426498 1.18039 3.59583 0 0 0 128 128 128 255
0.429175 0.316636 3.57531 0 0 0 128 128 128 255
0.428575 0.457595 3.57864 0 0 0 128 128 128 255
0.427478 0.715521 3.58474 0 0 0 128 128 128 255
0.425676 0.905464 3.58912 0 0 0 128 128 128 255
0.424686 0.904463 3.589 0 0 0 128 128 128 255
0.423361 0.982439 3.59074 0 0 0 128 128 128 255
0.415933 1.09139 3.59258 0 0 0 128 128 128 255
0.418415 0.274628 3.57318 0 0 0 128 128 128 255
0.41762 0.461574 3.5776 0 0 0 128 128 128 255
0.415344 0.99642 3.59024 0 0 0 128 128 128 255
0.415 1.0774 3.59215 0 0 0 128 128 128 255
0.414604 1.17037 3.59435 0 0 0 128 128 128 255
0.413457 1.20636 3.5951 0 0 0 128 128 128 255
0.416308 0.302617 3.57363 0 0 0 128 128 128 255
0.415232 0.555544 3.57961 0 0 0 128 128 128 255
0.412175 0.572533 3.5797 0 0 0 128 128 128 255
0.409474 1.20735 3.59471 0 0 0 128 128 128 255
0.409509 0.965418 3.58889 0 0 0 128 128 128 255
0.40667 1.16436 3.59338 0 0 0 128 128 128 255
0.406093 1.06638 3.59096 0 0 0 128 128 128 255
0.404335 1.0114 3.58946 0 0 0 128 128 128 255
0.404358 0.772463 3.58371 0 0 0 128 128 128 255
0.403448 0.986401 3.58877 0 0 0 128 128 128 255
0.403393 0.999398 3.58907 0 0 0 128 128 128 255
0.403525 0.267603 3.57147 0 0 0 128 128 128 255
0.399838 0.900419 3.58633 0 0 0 128 128 128 255
0.401256 0.332581 3.57281 0 0 0 128 128 128 255
0.400123 0.365569 3.57349 0 0 0 128 128 128 255
0.393825 0.910405 3.58595 0 0 0 128 128 128 255
0.391296 0.335561 3.57186 0 0 0 128 128 128 255
0.387289 1.27729 3.59412 0 0 0 128 128 128 255
0.386795 0.926387 3.58563 0 0 0 128 128 128 255
0.386615 0.266572 3.56973 0 0 0 128 128 128 255
0.384392 0.555487 3.57646 0 0 0 128 128 128 255
0.382716 0.949373 3.58577 0 0 0 128 128 128 255
0.382176 1.07634 3.58877 0 0 0 128 128 128 255
0.381509 0.998357 3.58683 0 0 0 128 128 128 255
0.381058 1.10433 3.58933 0 0 0 128 128 128 255
0.382677 0.256567 3.5691 0 0 0 128 128 128 255
0.381683 0.255566 3.56897 0 0 0 128 128 128 255
0.378503 0.769416 3.58102 0 0 0 128 128 128 255
0.378504 0.535481 3.57539 0 0 0 128 128 128 255
0.3776 0.280551 3.56917 0 0 0 128 128 128 255
0.374455 0.786403 3.58102 0 0 0 128 128 128 255
0.373396 0.801397 3.58128 0 0 0 128 128 128 255
0.371646 0.979344 3.58538 0 0 0 128 128 128 255
0.369074 1.1153 3.5884 0 0 0 128 128 128 255
0.370795 0.242549 3.56758 0 0 0 128 128 128 255
0.367563 0.768395 3.5799 0 0 0 128 128 128 255
0.36661 0.992331 3.5852 0 0 0 128 128 128 255
0.36554 1.01032 3.58552 0 0 0 128 128 128 255
0.365323 1.06131 3.58673 0 0 0 128 128 128 255
0.367688 0.270535 3.56794 0 0 0 128 128 128 255
0.36648 0.554453 3.57465 0 0 0 128 128 128 255
0.362859 0.938339 3.58353 0 0 0 128 128 128 255
0.360619 1.23125 3.59035 0 0 0 128 128 128 255
0.360059 1.12928 3.58785 0 0 0 128 128 128 255
0.36151 0.554444 3.57416 0 0 0 128 128 128 255
0.360299 0.605427 3.57527 0 0 0 128 128 128 255
0.357582 0.775374 3.57909 0 0 0 128 128 128 255
0.353544 1.0223 3.58464 0 0 0 128 128 128 255
0.352393 1.05928 3.58541 0 0 0 128 128 128 255
0.352487 0.803356 3.57927 0 0 0 128 128 128 255
0.353849 0.248514 3.56606 0 0 0 128 128 128 255
0.350072 1.13626 3.58704 0 0 0 128 128 128 255
0.348101 1.13226 3.58675 0 0 0 128 128 128 255
0.346915 0.241503 3.56522 0 0 0 128 128 128 255
0.332564 0.806316 3.57742 0 0 0 128 128 128 255
0.329648 1.02325 3.58236 0 0 0 128 128 128 255
0.3305 0.355438 3.56639 0 0 0 128 128 128 255
0.329973 0.245468 3.56369 0 0 0 128 128 128 255
0.329361 0.389426 3.5671 0 0 0 128 128 128 255
0.328469 0.365431 3.56643 0 0 0 128 128 128 255
0.32567 1.02324 3.58198 0 0 0 128 128 128 255
0.327492 0.36143 3.56625 0 0 0 128 128 128 255
0.325479 0.365425 3.56615 0 0 0 128 128 128 255
0.32005 1.40812 3.5907 0 0 0 128 128 128 255
0.31873 0.782295 3.57553 0 0 0 128 128 128 255
0.316812 0.764296 3.57492 0 0 0 128 128 128 255
0.315685 0.795285 3.57556 0 0 0 128 128 128 255
0.313984 1.19517 3.58501 0 0 0 128 128 128 255
0.313035 0.249432 3.5622 0 0 0 128 128 128 255
0.307638 1.0492 3.58091 0 0 0 128 128 128 255
0.309662 0.3394 3.56405 0 0 0 128 128 128 255
0.309535 0.369391 3.56476 0 0 0 128 128 128 255
0.302803 0.780263 3.574 0 0 0 128 128 128 255
0.300386 1.11516 3.58183 0 0 0 128 128 128 255
0.299106 0.246404 3.56084 0 0 0 128 128 128 255
0.297444 0.402357 3.56443 0 0 0 128 128 128 255
0.295773 0.795244 3.57372 0 0 0 128 128 128 255
0.294859 0.776247 3.57318 0 0 0 128 128 128 255
0.294336 0.430343 3.56482 0 0 0 128 128 128 255
0.293619 0.36536 3.56319 0 0 0 128 128 128 255
0.290429 1.11514 3.58091 0 0 0 128 128 128 255
0.28908 1.19812 3.58278 0 0 0 128 128 128 255
0.290617 0.368352 3.56299 0 0 0 128 128 128 255
0.290523 0.390346 3.56351 0 0 0 128 128 128 255
0.28667 1.06215 3.5793 0 0 0 128 128 128 255
0.286244 0.460317 3.56481 0 0 0 128 128 128 255
0.28348 1.11013 3.58016 0 0 0 128 128 128 255
0.28385 0.789221 3.57249 0 0 0 128 128 128 255
0.281567 1.09213 3.57956 0 0 0 128 128 128 255
0.280934 0.772219 3.57182 0 0 0 128 128 128 255
0.279518 1.10512 3.57968 0 0 0 128 128 128 255
0.281703 0.356337 3.5619 0 0 0 128 128 128 255
0.281478 0.409322 3.56315 0 0 0 128 128 128 255
0.280182 0.246364 3.55912 0 0 0 128 128 128 255
0.279191 0.245362 3.55901 0 0 0 128 128 128 255
0.276941 0.77421 3.57151 0 0 0 128 128 128 255
0.274458 0.655238 3.56843 0 0 0 128 128 128 255
0.274275 0.698225 3.56944 0 0 0 128 128 128 255
0.274891 0.319333 3.5604 0 0 0 128 128 128 255
0.273374 0.442295 3.56322 0 0 0 128 128 128 255
0.271932 0.781197 3.57123 0 0 0 128 128 128 255
0.273166 0.257346 3.55876 0 0 0 128 128 128 255
0.272438 0.428297 3.5628 0 0 0 128 128 128 255
0.269644 1.08511 3.57832 0 0 0 128 128 128 255
0.270766 0.352315 3.56083 0 0 0 128 128 128 255
0.266577 1.1031 3.57848 0 0 0 128 128 128 255
0.266377 0.681213 3.56833 0 0 0 128 128 128 255
0.265841 0.339307 3.56008 0 0 0 128 128 128 255
0.264395 0.67921 3.56811 0 0 0 128 128 128 255
0.263914 0.558242 3.56516 0 0 0 128 128 128 255
0.260882 0.802168 3.57075 0 0 0 128 128 128 255
0.261899 0.329302 3.55949 0 0 0 128 128 128 255
0.260241 0.25132 3.55747 0 0 0 128 128 128 255
0.258361 0.693192 3.56791 0 0 0 128 128 128 255
0.259041 0.299304 3.55852 0 0 0 128 128 128 255
0.258598 0.403274 3.56098 0 0 0 128 128 128 255
0.258547 0.41527 3.56126 0 0 0 128 128 128 255
0.25742 0.446259 3.5619 0 0 0 128 128 128 255
0.257038 0.301299 3.55839 0 0 0 128 128 128 255
0.256655 0.391273 3.56052 0 0 0 128 128 128 255
0.253563 1.11806 3.57769 0 0 0 128 128 128 255
0.254971 0.552224 3.56423 0 0 0 128 128 128 255
0.254672 0.388269 3.56027 0 0 0 128 128 128 255
0.254456 0.439255 3.56148 0 0 0 128 128 128 255
0.251614 1.10706 3.57726 0 0 0 128 128 128 255
0.25398 0.317288 3.55851 0 0 0 128 128 128 255
0.250985 0.553215 3.56391 0 0 0 128 128 128 255
0.250816 0.359269 3.55924 0 0 0 128 128 128 255
0.246844 1.05907 3.57569 0 0 0 128 128 128 255
0.247779 0.370259 3.55924 0 0 0 128 128 128 255
0.247647 0.40125 3.55997 0 0 0 128 128 128 255
0.244958 0.799133 3.56929 0 0 0 128 128 128 255
0.246013 0.31727 3.55782 0 0 0 128 128 128 255
0.244758 0.37825 3.55917 0 0 0 128 128 128 255
0.243065 0.307266 3.55732 0 0 0 128 128 128 255
0.241087 0.772132 3.56831 0 0 0 128 128 128 255
0.241555 0.42723 3.56007 0 0 0 128 128 128 255
0.240337 0.245278 3.5556 0 0 0 128 128 128 255
0.236777 1.08204 3.57538 0 0 0 128 128 128 255
0.239321 0.250274 3.55564 0 0 0 128 128 128 255
0.236574 0.428218 3.55967 0 0 0 128 128 128 255
0.233046 0.554175 3.56239 0 0 0 128 128 128 255
0.231622 0.655144 3.56469 0 0 0 128 128 128 255
0.231439 0.698131 3.56571 0 0 0 128 128 128 255
0.229653 1.11801 3.57563 0 0 0 128 128 128 255
0.228275 1.20798 3.57768 0 0 0 128 128 128 255
0.225879 1.06702 3.57409 0 0 0 128 128 128 255
0.225309 1.20098 3.57726 0 0 0 128 128 128 255
0.226091 0.783096 3.5673 0 0 0 128 128 128 255
0.225079 0.787092 3.56731 0 0 0 128 128 128 255
0.223501 1.15799 3.57607 0 0 0 128 128 128 255
0.222281 1.21097 3.57724 0 0 0 128 128 128 255
0.224917 0.357212 3.55698 0 0 0 128 128 128 255
0.223101 0.784089 3.56707 0 0 0 128 128 128 255
0.221195 0.76409 3.56643 0 0 0 128 128 128 255
0.219558 1.14898 3.57553 0 0 0 128 128 128 255
0.220824 0.382195 3.55724 0 0 0 128 128 128 255
0.219161 0.773083 3.56647 0 0 0 128 128 128 255
0.216873 1.07699 3.57357 0 0 0 128 128 128 255
0.219343 0.262226 3.55424 0 0 0 128 128 128 255
0.218561 0.446172 3.55858 0 0 0 128 128 128 255
0.213949 1.06099 3.57295 0 0 0 128 128 128 255
0.213532 1.15896 3.57526 0 0 0 128 128 128 255
0.214153 0.77907 3.5662 0 0 0 128 128 128 255
0.213076 0.797062 3.56654 0 0 0 128 128 128 255
0.209082 1.03399 3.57189 0 0 0 128 128 128 255
0.209089 0.330183 3.55501 0 0 0 128 128 128 255
0.206163 0.549115 3.56002 0 0 0 128 128 128 255
0.201179 0.783039 3.56522 0 0 0 128 128 128 255
0.201774 0.409144 3.55631 0 0 0 128 128 128 255
0.200209 0.777038 3.565 0 0 0 128 128 128 255
0.197256 0.534099 3.55894 0 0 0 128 128 128 255
0.195146 0.796021 3.56504 0 0 0 128 128 128 255
0.19093 1.08393 3.5716 0 0 0 128 128 128 255
0.188835 1.10692 3.57199 0 0 0 128 128 128 255
0.189994 0.366129 3.55432 0 0 0 128 128 128 255
0.186732 1.13291 3.57244 0 0 0 128 128 128 255
0.187269 0.773009 3.56386 0 0 0 128 128 128 255
0.185302 0.766006 3.56353 0 0 0 128 128 128 255
0.185192 0.791999 3.56414 0 0 0 128 128 128 255
0.184919 0.622045 3.56005 0 0 0 128 128 128 255
0.184765 0.4241 3.55529 0 0 0 128 128 128 255
0.183761 0.426097 3.55526 0 0 0 128 128 128 255
0.183196 0.559059 3.5584 0 0 0 128 128 128 255
0.182456 0.733009 3.56251 0 0 0 128 128 128 255
0.179877 1.1049 3.57122 0 0 0 128 128 128 255
0.181118 0.345113 3.55311 0 0 0 128 128 128 255
0.180586 0.470077 3.55606 0 0 0 128 128 128 255
0.179089 0.587041 3.55874 0 0 0 128 128 128 255
0.179021 0.603037 3.55912 0 0 0 128 128 128 255
0.178177 0.567045 3.55819 0 0 0 128 128 128 255
0.176281 1.01292 3.56873 0 0 0 128 128 128 255
0.17656 0.712001 3.56154 0 0 0 128 128 128 255
0.175029 1.0719 3.57004 0 0 0 128 128 128 255
0.176087 0.355099 3.55295 0 0 0 128 128 128 255
0.175998 0.376093 3.55344 0 0 0 128 128 128 255
0.175007 0.375091 3.55334 0 0 0 128 128 128 255
0.174568 0.478061 3.55577 0 0 0 128 128 128 255
0.174547 0.483059 3.55589 0 0 0 128 128 128 255
0.169638 1.40279 3.57755 0 0 0 128 128 128 255
0.172336 0.299105 3.55131 0 0 0 128 128 128 255
0.170104 0.356084 3.5525 0 0 0 128 128 128 255
0.168597 0.476047 3.55526 0 0 0 128 128 128 255
0.166623 0.705978 3.56061 0 0 0 128 128 128 255
0.164845 1.12386 3.57049 0 0 0 128 128 128 255
0.166288 0.315086 3.55122 0 0 0 128 128 128 255
0.164477 0.506029 3.55565 0 0 0 128 128 128 255
0.163532 0.727965 3.5609 0 0 0 128 128 128 255
0.161903 1.11085 3.56995 0 0 0 128 128 128 255
0.161461 1.21482 3.5724 0 0 0 128 128 128 255
0.162246 0.562008 3.55682 0 0 0 128 128 128 255
0.160964 0.628986 3.55832 0 0 0 128 128 128 255
0.159131 1.05986 3.56851 0 0 0 128 128 128 255
0.160224 0.569001 3.55683 0 0 0 128 128 128 255
0.158297 0.787936 3.56193 0 0 0 128 128 128 255
0.156927 1.10984 3.56953 0 0 0 128 128 128 255
0.154691 0.697952 3.55949 0 0 0 128 128 128 255
0.153011 1.09284 3.56882 0 0 0 128 128 128 255
0.152841 1.13283 3.56977 0 0 0 128 128 128 255
0.154362 0.30606 3.55008 0 0 0 128 128 128 255
0.152562 0.495003 3.55447 0 0 0 128 128 128 255
0.151593 0.722937 3.55985 0 0 0 128 128 128 255
0.14994 0.408021 3.55218 0 0 0 128 128 128 255
0.149395 0.535984 3.55521 0 0 0 128 128 128 255
0.149224 0.342037 3.55055 0 0 0 128 128 128 255
0.147663 0.708932 3.55922 0 0 0 128 128 128 255
0.147797 0.443006 3.55286 0 0 0 128 128 128 255
0.1463 0.794904 3.56117 0 0 0 128 128 128 255
0.146317 0.322036 3.54984 0 0 0 128 128 128 255
0.142842 1.1388 3.56915 0 0 0 128 128 128 255
0.144261 0.570962 3.55565 0 0 0 128 128 128 255
0.140862 1.1358 3.56892 0 0 0 128 128 128 255
0.138988 1.1078 3.56811 0 0 0 128 128 128 255
0.138646 0.718907 3.55877 0 0 0 128 128 128 255
0.139292 0.333015 3.54958 0 0 0 128 128 128 255
0.136013 1.10379 3.56779 0 0 0 128 128 128 255
0.137245 0.578942 3.55531 0 0 0 128 128 128 255
0.136598 0.730898 3.5589 0 0 0 128 128 128 255
0.136424 0.771886 3.55987 0 0 0 128 128 128 255
0.135061 0.389989 3.55062 0 0 0 128 128 128 255
0.134065 0.623922 3.55615 0 0 0 128 128 128 255
0.133496 0.757883 3.55932 0 0 0 128 128 128 255
0.13406 0.390986 3.55057 0 0 0 128 128 128 255
0.132013 0.637913 3.55633 0 0 0 128 128 128 255
0.129572 1.21175 3.56989 0 0 0 128 128 128 255
0.131216 0.355989 3.54952 0 0 0 128 128 128 255
0.131071 0.389979 3.55033 0 0 0 128 128 128 255
0.128901 0.665897 3.55677 0 0 0 128 128 128 255
0.127969 0.650899 3.55634 0 0 0 128 128 128 255
0.127486 0.528932 3.55339 0 0 0 128 128 128 255
0.126448 0.772861 3.55915 0 0 0 128 128 128 255
0.126397 0.784858 3.55944 0 0 0 128 128 128 255
0.126359 0.793855 3.55965 0 0 0 128 128 128 255
0.124755 1.17075 3.56856 0 0 0 128 128 128 255
0.127209 0.359978 3.54932 0 0 0 128 128 128 255
0.126174 0.368973 3.54946 0 0 0 128 128 128 255
0.125241 0.353975 3.54903 0 0 0 128 128 128 255
0.121901 0.669878 3.55635 0 0 0 128 128 128 255
0.119941 0.427941 3.55041 0 0 0 128 128 128 255
0.118703 0.718857 3.55729 0 0 0 128 128 128 255
0.11618 1.07775 3.56569 0 0 0 128 128 128 255
0.116167 1.08075 3.56577 0 0 0 128 128 128 255
0.115602 1.21371 3.56891 0 0 0 128 128 128 255
0.115872 0.914796 3.56177 0 0 0 128 128 128 255
0.115969 0.657867 3.55563 0 0 0 128 128 128 255
0.115798 0.46392 3.55097 0 0 0 128 128 128 255
0.115104 0.626873 3.55482 0 0 0 128 128 128 255
0.112117 1.09474 3.56581 0 0 0 128 128 128 255
0.112818 0.694849 3.55628 0 0 0 128 128 128 255
0.111786 0.468909 3.5508 0 0 0 128 128 128 255
0.111505 0.53489 3.55236 0 0 0 128 128 128 255
0.111203 0.605869 3.55403 0 0 0 128 128 128 255
0.108898 1.14771 3.56684 0 0 0 128 128 128 255
0.108604 1.21669 3.56847 0 0 0 128 128 128 255
0.111058 0.405924 3.54924 0 0 0 128 128 128 255
0.110901 0.442914 3.55011 0 0 0 128 128 128 255
0.110769 0.473905 3.55084 0 0 0 128 128 128 255
0.110118 0.626861 3.55446 0 0 0 128 128 128 255
0.110097 0.631859 3.55458 0 0 0 128 128 128 255
0.106769 1.1787 3.56743 0 0 0 128 128 128 255
0.107921 0.673842 3.55542 0 0 0 128 128 128 255
0.106781 0.70783 3.55615 0 0 0 128 128 128 255
0.106687 0.729824 3.55667 0 0 0 128 128 128 255
0.106073 0.639847 3.55448 0 0 0 128 128 128 255
0.102396 1.03573 3.56369 0 0 0 128 128 128 255
0.101992 1.1307 3.56593 0 0 0 128 128 128 255
0.101059 1.1147 3.56548 0 0 0 128 128 128 255
0.10102 0.889765 3.5601 0 0 0 128 128 128 255
0.0991223 1.1017 3.56503 0 0 0 128 128 128 255
0.0976052 1.22266 3.56782 0 0 0 128 128 128 255
0.0995702 0.526861 3.55131 0 0 0 128 128 128 255
0.097971 0.902753 3.56019 0 0 0 128 128 128 255
0.096447 1.02671 3.56305 0 0 0 128 128 128 255
0.0968054 0.472869 3.54982 0 0 0 128 128 128 255
0.0957761 0.7148 3.55553 0 0 0 128 128 128 255
0.0927002 0.500851 3.5502 0 0 0 128 128 128 255
0.0921856 0.621816 3.55305 0 0 0 128 128 128 255
0.0918751 0.694795 3.55478 0 0 0 128 128 128 255
0.0906204 0.98971 3.56175 0 0 0 128 128 128 255
0.0901993 1.08868 3.56409 0 0 0 128 128 128 255
0.0898888 1.16166 3.56581 0 0 0 128 128 128 255
0.0927295 0.259918 3.54443 0 0 0 128 128 128 255
0.0907263 0.730782 3.55556 0 0 0 128 128 128 255
0.0904498 0.795763 3.55709 0 0 0 128 128 128 255
0.0880882 1.11667 3.56461 0 0 0 128 128 128 255
0.0872394 1.08068 3.56369 0 0 0 128 128 128 255
0.0882552 0.60781 3.55244 0 0 0 128 128 128 255
0.0875491 0.773762 3.55636 0 0 0 128 128 128 255
0.0875449 0.774762 3.55639 0 0 0 128 128 128 255
0.0874981 0.785759 3.55665 0 0 0 128 128 128 255
0.0870543 0.654794 3.55348 0 0 0 128 128 128 255
0.0857868 0.952708 3.56052 0 0 0 128 128 128 255
0.0854891 1.02269 3.56218 0 0 0 128 128 128 255
0.0846469 1.22063 3.56686 0 0 0 128 128 128 255
0.0842306 0.615797 3.55235 0 0 0 128 128 128 255
0.0828179 0.243897 3.54335 0 0 0 128 128 128 255
0.0779303 1.15863 3.5649 0 0 0 128 128 128 255
0.0795965 0.532808 3.55004 0 0 0 128 128 128 255
0.076456 1.03666 3.56188 0 0 0 128 128 128 255
0.0759243 1.16162 3.56483 0 0 0 128 128 128 255
0.0788495 0.239887 3.54298 0 0 0 128 128 128 255
0.0751322 1.11364 3.56363 0 0 0 128 128 128 255
0.0742748 1.07964 3.56276 0 0 0 128 128 128 255
0.0769187 0.223887 3.54247 0 0 0 128 128 128 255
0.075966 0.447822 3.54776 0 0 0 128 128 128 255
0.0758672 0.235881 3.54268 0 0 0 128 128 128 255
0.0737449 0.734737 3.55447 0 0 0 128 128 128 255
0.0723584 1.06064 3.56217 0 0 0 128 128 128 255
0.0748151 0.248874 3.54292 0 0 0 128 128 128 255
0.0740027 0.439819 3.54743 0 0 0 128 128 128 255
0.0724759 0.798716 3.55591 0 0 0 128 128 128 255
0.0671973 0.632748 3.55158 0 0 0 128 128 128 255
0.0670558 0.431803 3.54677 0 0 0 128 128 128 255
0.0662222 0.627747 3.5514 0 0 0 128 128 128 255
0.0661414 0.646741 3.55185 0 0 0 128 128 128 255
0.0646001 0.774702 3.5548 0 0 0 128 128 128 255
0.0635113 1.03063 3.56085 0 0 0 128 128 128 255
0.0619408 1.16559 3.56397 0 0 0 128 128 128 255
0.0612963 1.08261 3.56194 0 0 0 128 128 128 255
0.0596355 0.533755 3.5487 0 0 0 128 128 128 255
0.0594271 0.582741 3.54986 0 0 0 128 128 128 255
0.0593803 0.593738 3.55012 0 0 0 128 128 128 255
0.0585296 0.79368 3.55484 0 0 0 128 128 128 255
0.059179 0.406789 3.54564 0 0 0 128 128 128 255
0.0575415 0.791678 3.55473 0 0 0 128 128 128 255
0.0572547 0.624724 3.55072 0 0 0 128 128 128 255
0.0554088 1.0586 3.56097 0 0 0 128 128 128 255
0.0568027 0.496758 3.54763 0 0 0 128 128 128 255
0.0563391 0.605726 3.5502 0 0 0 128 128 128 255
0.0561334 0.419777 3.54574 0 0 0 128 128 128 255
0.0556527 0.532745 3.54841 0 0 0 128 128 128 255
0.0530881 1.13557 3.56266 0 0 0 128 128 128 255
0.0546426 0.534742 3.54839 0 0 0 128 128 128 255
0.0540217 0.680699 3.55184 0 0 0 128 128 128 255
0.0533617 0.60172 3.54991 0 0 0 128 128 128 255
0.0510692 1.14056 3.56264 0 0 0 128 128 128 255
0.0526585 0.532737 3.54821 0 0 0 128 128 128 255
0.0516463 0.770668 3.55383 0 0 0 128 128 128 255
0.0515484 0.793662 3.55438 0 0 0 128 128 128 255
0.0485046 0.570715 3.54884 0 0 0 128 128 128 255
0.0482579 0.628698 3.55021 0 0 0 128 128 128 255
0.0481814 0.646693 3.55064 0 0 0 128 128 128 255
0.0475689 0.790652 3.55404 0 0 0 128 128 128 255
0.0472946 0.619698 3.54994 0 0 0 128 128 128 255
0.042706 0.526712 3.54741 0 0 0 128 128 128 255
0.0405326 1.03756 3.55948 0 0 0 128 128 128 255
0.0406112 0.784635 3.55344 0 0 0 128 128 128 255
