ply
format ascii 1.0
comment VCGLIB generated
element vertex 115
property float x
property float y
property float z
property float nx
property float ny
property float nz
property uchar red
property uchar green
property uchar blue
property uchar alpha
element face 0
property list uchar int vertex_indices
end_header
1.666 -0.497543 6.09803 0 0 0 0 128 0 255
1.74953 -0.544273 6.11116 0 0 0 0 128 0 255
1.78675 -0.584179 6.11508 0 0 0 0 128 0 255
1.78851 -0.583345 6.11554 0 0 0 0 128 0 255
1.79239 -0.589254 6.11577 0 0 0 0 128 0 255
1.75148 -0.482487 6.11784 0 0 0 0 128 0 255
1.69766 -0.312122 6.1236 0 0 0 0 128 0 255
1.6934 -0.300861 6.12383 0 0 0 0 128 0 255
1.79643 -0.493273 6.12637 0 0 0 0 128 0 255
1.83417 -0.568346 6.12683 0 0 0 0 128 0 255
1.77394 -0.382203 6.13282 0 0 0 0 128 0 255
1.78177 -0.387348 6.13397 0 0 0 0 128 0 255
1.89289 -0.601377 6.13605 0 0 0 0 128 0 255
1.76063 -0.315477 6.13674 0 0 0 0 128 0 255
1.85203 -0.490162 6.13858 0 0 0 0 128 0 255
1.80848 -0.384646 6.13996 0 0 0 0 128 0 255
1.76618 -0.286288 6.14088 0 0 0 0 128 0 255
1.80623 -0.348087 6.14319 0 0 0 0 128 0 255
1.90131 -0.505537 6.14757 0 0 0 0 128 0 255
1.79988 -0.284699 6.14826 0 0 0 0 128 0 255
1.93486 -0.562677 6.14895 0 0 0 0 128 0 255
1.96541 -0.570332 6.15471 0 0 0 0 128 0 255
1.8443 -0.305702 6.15563 0 0 0 0 128 0 255
1.85618 -0.298964 6.15886 0 0 0 0 128 0 255
1.88873 -0.367642 6.15886 0 0 0 0 128 0 255
1.88916 -0.368545 6.15886 0 0 0 0 128 0 255
1.96455 -0.525364 6.15909 0 0 0 0 128 0 255
1.98599 -0.568322 6.15932 0 0 0 0 128 0 255
1.90466 -0.392181 6.15978 0 0 0 0 128 0 255
1.88291 -0.337198 6.1607 0 0 0 0 128 0 255
1.98667 -0.544761 6.16185 0 0 0 0 128 0 255
1.89432 -0.334004 6.16346 0 0 0 0 128 0 255
1.88882 -0.315585 6.16416 0 0 0 0 128 0 255
2.02589 -0.602529 6.16439 0 0 0 0 128 0 255
2.03498 -0.61261 6.16531 0 0 0 0 128 0 255
1.96905 -0.471223 6.16554 0 0 0 0 128 0 255
2.0316 -0.600932 6.16577 0 0 0 0 128 0 255
1.96997 -0.466359 6.16623 0 0 0 0 128 0 255
1.88862 -0.292441 6.16646 0 0 0 0 128 0 255
1.96984 -0.393382 6.1736 0 0 0 0 128 0 255
2.0321 -0.508843 6.17521 0 0 0 0 128 0 255
2.07509 -0.540479 6.18121 0 0 0 0 128 0 255
1.97772 -0.307758 6.18397 0 0 0 0 128 0 255
2.01158 -0.376922 6.1842 0 0 0 0 128 0 255
2.09218 -0.537912 6.18512 0 0 0 0 128 0 255
2.09291 -0.509903 6.18812 0 0 0 0 128 0 255
2.11948 -0.563706 6.18835 0 0 0 0 128 0 255
2.12174 -0.557104 6.1895 0 0 0 0 128 0 255
2.10515 -0.510741 6.19065 0 0 0 0 128 0 255
2.07674 -0.380347 6.19779 0 0 0 0 128 0 255
2.09175 -0.409751 6.19803 0 0 0 0 128 0 255
2.10656 -0.416011 6.20056 0 0 0 0 128 0 255
2.11142 -0.326285 6.2107 0 0 0 0 128 0 255
2.11227 -0.328093 6.2107 0 0 0 0 128 0 255
2.11149 -0.319613 6.21139 0 0 0 0 128 0 255
1.9071 0.186629 6.21899 0 0 0 0 128 0 255
1.89697 0.307982 6.22913 0 0 0 0 128 0 255
2.19547 -0.321862 6.22913 0 0 0 0 128 0 255
1.86483 0.416693 6.23328 0 0 0 0 128 0 255
2.01089 0.110772 6.23351 0 0 0 0 128 0 255
2.27624 -0.424124 6.23604 0 0 0 0 128 0 255
1.96964 0.227339 6.2365 0 0 0 0 128 0 255
1.96897 0.290099 6.24272 0 0 0 0 128 0 255
2.12207 -0.0124882 6.2448 0 0 0 0 128 0 255
2.05635 0.148915 6.2471 0 0 0 0 128 0 255
2.12232 0.0119764 6.24733 0 0 0 0 128 0 255
1.92841 0.430226 6.24825 0 0 0 0 128 0 255
2.02459 0.252273 6.25079 0 0 0 0 128 0 255
2.30085 -0.328358 6.25102 0 0 0 0 128 0 255
1.94712 0.420282 6.25125 0 0 0 0 128 0 255
1.99509 0.319073 6.25125 0 0 0 0 128 0 255
2.30748 -0.321896 6.25309 0 0 0 0 128 0 255
2.05189 0.22648 6.25401 0 0 0 0 128 0 255
1.97289 0.415896 6.25632 0 0 0 0 128 0 255
2.04673 0.27826 6.25816 0 0 0 0 128 0 255
1.88965 0.618796 6.25908 0 0 0 0 128 0 255
2.27532 -0.172249 6.26139 0 0 0 0 128 0 255
1.83272 0.784366 6.26369 0 0 0 0 128 0 255
2.04778 0.337406 6.26438 0 0 0 0 128 0 255
2.15281 0.254389 6.27844 0 0 0 0 128 0 255
1.8368 0.968892 6.28328 0 0 0 0 128 0 255
1.82875 0.994958 6.2842 0 0 0 0 128 0 255
2.18866 0.25146 6.28581 0 0 0 0 128 0 255
2.14763 0.347106 6.28673 0 0 0 0 128 0 255
2.14809 0.348427 6.28696 0 0 0 0 128 0 255
2.20137 0.254166 6.28881 0 0 0 0 128 0 255
2.18607 0.297818 6.28996 0 0 0 0 128 0 255
2.19335 0.282456 6.28996 0 0 0 0 128 0 255
1.87972 0.973745 6.29295 0 0 0 0 128 0 255
2.00097 0.722459 6.29341 0 0 0 0 128 0 255
2.01236 0.723429 6.29595 0 0 0 0 128 0 255
2.08259 0.57523 6.29595 0 0 0 0 128 0 255
1.96705 0.828112 6.29687 0 0 0 0 128 0 255
2.28269 0.205282 6.30125 0 0 0 0 128 0 255
2.13293 0.534904 6.30263 0 0 0 0 128 0 255
2.28905 0.228216 6.30493 0 0 0 0 128 0 255
1.95892 0.931603 6.30563 0 0 0 0 128 0 255
2.35354 0.117133 6.30747 0 0 0 0 128 0 255
2.36572 0.109623 6.30931 0 0 0 0 128 0 255
2.13749 0.595717 6.30977 0 0 0 0 128 0 255
2.0176 0.850963 6.31 0 0 0 0 128 0 255
2.37268 0.106285 6.31046 0 0 0 0 128 0 255
2.24484 0.396493 6.31254 0 0 0 0 128 0 255
2.02906 0.858605 6.31323 0 0 0 0 128 0 255
2.29847 0.335593 6.31784 0 0 0 0 128 0 255
2.01714 0.93374 6.3183 0 0 0 0 128 0 255
2.30755 0.325513 6.31876 0 0 0 0 128 0 255
2.01211 0.955704 6.31945 0 0 0 0 128 0 255
2.18836 0.649705 6.32613 0 0 0 0 128 0 255
2.13341 0.922446 6.34203 0 0 0 0 128 0 255
2.24485 0.953132 6.36899 0 0 0 0 128 0 255
2.27019 0.94965 6.37406 0 0 0 0 128 0 255
2.31977 0.920027 6.38166 0 0 0 0 128 0 255
2.32153 0.92086 6.38212 0 0 0 0 128 0 255
2.31488 0.955335 6.38419 0 0 0 0 128 0 255
