ply
format ascii 1.0
comment VCGLIB generated
element vertex 989
property float x
property float y
property float z
property float nx
property float ny
property float nz
property uchar red
property uchar green
property uchar blue
property uchar alpha
element face 0
property list uchar int vertex_indices
end_header
0.576844 -0.163033 4.33324 0 0 0 128 128 128 255
0.466985 -0.0934151 4.33378 0 0 0 128 128 128 255
0.555627 -0.145871 4.33378 0 0 0 128 128 128 255
-0.184845 0.293473 4.33391 0 0 0 128 128 128 255
0.636167 -0.192382 4.33391 0 0 0 128 128 128 255
0.516188 -0.120229 4.33405 0 0 0 128 128 128 255
-0.182114 0.29416 4.33418 0 0 0 128 128 128 255
-0.333936 0.385156 4.33431 0 0 0 128 128 128 255
0.484999 -0.0983182 4.33445 0 0 0 128 128 128 255
-0.310551 0.373621 4.33458 0 0 0 128 128 128 255
-0.158225 0.283478 4.33458 0 0 0 128 128 128 255
0.133163 0.112193 4.33472 0 0 0 128 128 128 255
0.270859 0.030708 4.33472 0 0 0 128 128 128 255
0.535063 -0.125642 4.33472 0 0 0 128 128 128 255
0.558299 -0.139392 4.33472 0 0 0 128 128 128 255
-0.43691 0.4507 4.33485 0 0 0 128 128 128 255
0.652609 -0.194051 4.33485 0 0 0 128 128 128 255
0.248632 0.0461642 4.33499 0 0 0 128 128 128 255
-0.419549 0.442729 4.33512 0 0 0 128 128 128 255
-0.36913 0.414044 4.33525 0 0 0 128 128 128 255
0.143787 0.110512 4.33525 0 0 0 128 128 128 255
-0.438334 0.456148 4.33539 0 0 0 128 128 128 255
-0.41667 0.445631 4.33566 0 0 0 128 128 128 255
0.521384 -0.109486 4.33566 0 0 0 128 128 128 255
-0.325803 0.393009 4.33579 0 0 0 128 128 128 255
0.410871 -0.0429361 4.33579 0 0 0 128 128 128 255
0.508119 -0.100485 4.33579 0 0 0 128 128 128 255
-0.405185 0.44344 4.33619 0 0 0 128 128 128 255
-0.195199 0.319175 4.33619 0 0 0 128 128 128 255
0.495507 -0.088416 4.33633 0 0 0 128 128 128 255
-0.4102 0.448711 4.33646 0 0 0 128 128 128 255
-0.280249 0.371809 4.33646 0 0 0 128 128 128 255
-0.352035 0.415442 4.3366 0 0 0 128 128 128 255
0.165186 0.109363 4.3366 0 0 0 128 128 128 255
0.398052 -0.02729 4.33673 0 0 0 128 128 128 255
0.72508 -0.220817 4.33673 0 0 0 128 128 128 255
-0.363935 0.424787 4.33686 0 0 0 128 128 128 255
-0.351886 0.417657 4.33686 0 0 0 128 128 128 255
0.285818 0.0402786 4.33686 0 0 0 128 128 128 255
0.558628 -0.121164 4.33686 0 0 0 128 128 128 255
0.587889 -0.138479 4.33686 0 0 0 128 128 128 255
0.732974 -0.223186 4.337 0 0 0 128 128 128 255
-0.286688 0.382528 4.33727 0 0 0 128 128 128 255
0.15566 0.120757 4.33727 0 0 0 128 128 128 255
-0.331795 0.410373 4.3374 0 0 0 128 128 128 255
-0.0929041 0.270155 4.33754 0 0 0 128 128 128 255
0.243234 0.0723875 4.33767 0 0 0 128 128 128 255
0.580738 -0.125036 4.33794 0 0 0 128 128 128 255
0.607417 -0.140824 4.33794 0 0 0 128 128 128 255
0.222373 0.0881873 4.33807 0 0 0 128 128 128 255
-0.370076 0.439935 4.33821 0 0 0 128 128 128 255
0.689323 -0.186991 4.33821 0 0 0 128 128 128 255
0.198425 0.104662 4.33834 0 0 0 128 128 128 255
0.421825 -0.0263892 4.33848 0 0 0 128 128 128 255
0.720453 -0.20311 4.33848 0 0 0 128 128 128 255
0.25021 0.07632 4.33861 0 0 0 128 128 128 255
-0.107295 0.289034 4.33874 0 0 0 128 128 128 255
-0.333989 0.424337 4.33888 0 0 0 128 128 128 255
-0.349836 0.434867 4.33901 0 0 0 128 128 128 255
-0.183235 0.337428 4.33915 0 0 0 128 128 128 255
0.199732 0.110797 4.33915 0 0 0 128 128 128 255
0.625373 -0.139935 4.33928 0 0 0 128 128 128 255
-0.335264 0.432001 4.33968 0 0 0 128 128 128 255
0.741346 -0.205111 4.33968 0 0 0 128 128 128 255
-0.248194 0.382778 4.33995 0 0 0 128 128 128 255
0.600357 -0.119374 4.33995 0 0 0 128 128 128 255
-0.163202 0.335936 4.34036 0 0 0 128 128 128 255
-0.0280881 0.255979 4.34036 0 0 0 128 128 128 255
0.214601 0.112361 4.34036 0 0 0 128 128 128 255
0.389452 0.011192 4.34062 0 0 0 128 128 128 255
0.503051 -0.0560332 4.34062 0 0 0 128 128 128 255
0.588755 -0.105599 4.34076 0 0 0 128 128 128 255
-0.221426 0.374997 4.34089 0 0 0 128 128 128 255
-0.167208 0.342912 4.34089 0 0 0 128 128 128 255
-0.164626 0.341385 4.34089 0 0 0 128 128 128 255
0.2395 0.103384 4.34103 0 0 0 128 128 128 255
-0.198041 0.363461 4.34116 0 0 0 128 128 128 255
-0.179968 0.352767 4.34116 0 0 0 128 128 128 255
-0.201839 0.366861 4.34129 0 0 0 128 128 128 255
0.197479 0.130554 4.34129 0 0 0 128 128 128 255
-0.346776 0.453782 4.34143 0 0 0 128 128 128 255
-0.308049 0.430864 4.34143 0 0 0 128 128 128 255
0.233417 0.112741 4.3417 0 0 0 128 128 128 255
0.383162 0.024126 4.3417 0 0 0 128 128 128 255
-0.226499 0.38606 4.34183 0 0 0 128 128 128 255
-0.135275 0.332076 4.34183 0 0 0 128 128 128 255
-0.123227 0.324946 4.34183 0 0 0 128 128 128 255
0.586768 -0.0952118 4.34183 0 0 0 128 128 128 255
0.459043 -0.018476 4.34197 0 0 0 128 128 128 255
0.369185 0.0358514 4.3421 0 0 0 128 128 128 255
0.598965 -0.100127 4.3421 0 0 0 128 128 128 255
0.139049 0.173192 4.34223 0 0 0 128 128 128 255
0.562464 -0.077375 4.34223 0 0 0 128 128 128 255
0.914449 -0.285671 4.34223 0 0 0 128 128 128 255
-0.169402 0.356877 4.34237 0 0 0 128 128 128 255
-0.27941 0.42428 4.34264 0 0 0 128 128 128 255
-0.144296 0.344323 4.34264 0 0 0 128 128 128 255
0.514924 -0.0457875 4.34264 0 0 0 128 128 128 255
0.600123 -0.0962064 4.34264 0 0 0 128 128 128 255
0.611311 -0.102827 4.34264 0 0 0 128 128 128 255
-0.302141 0.438883 4.34277 0 0 0 128 128 128 255
0.468956 -0.0174334 4.34277 0 0 0 128 128 128 255
0.499938 -0.0357675 4.34277 0 0 0 128 128 128 255
0.57567 -0.0805844 4.34277 0 0 0 128 128 128 255
0.244993 0.118557 4.34317 0 0 0 128 128 128 255
0.454267 -0.00298372 4.34344 0 0 0 128 128 128 255
-0.288786 0.437889 4.34358 0 0 0 128 128 128 255
-0.186375 0.377284 4.34358 0 0 0 128 128 128 255
-0.100315 0.326356 4.34358 0 0 0 128 128 128 255
-0.12821 0.344015 4.34371 0 0 0 128 128 128 255
-0.113075 0.33621 4.34385 0 0 0 128 128 128 255
0.750967 -0.175109 4.34385 0 0 0 128 128 128 255
0.415838 0.0243637 4.34398 0 0 0 128 128 128 255
0.0264909 0.255921 4.34411 0 0 0 128 128 128 255
-0.304335 0.452848 4.34425 0 0 0 128 128 128 255
0.467623 -0.00397816 4.34425 0 0 0 128 128 128 255
-0.233973 0.414664 4.34465 0 0 0 128 128 128 255
0.38738 0.0469619 4.34465 0 0 0 128 128 128 255
-0.248099 0.424174 4.34479 0 0 0 128 128 128 255
-0.118148 0.347273 4.34479 0 0 0 128 128 128 255
0.428837 0.0247314 4.34492 0 0 0 128 128 128 255
0.627636 -0.0929128 4.34492 0 0 0 128 128 128 255
0.431063 0.0245656 4.34505 0 0 0 128 128 128 255
-0.290475 0.452706 4.34519 0 0 0 128 128 128 255
-0.278427 0.445576 4.34519 0 0 0 128 128 128 255
0.516916 -0.0227856 4.34546 0 0 0 128 128 128 255
0.367676 0.0666823 4.34559 0 0 0 128 128 128 255
0.56784 -0.0506184 4.34573 0 0 0 128 128 128 255
-0.266437 0.444238 4.34586 0 0 0 128 128 128 255
0.00465184 0.283814 4.34586 0 0 0 128 128 128 255
0.36919 0.0692407 4.34599 0 0 0 128 128 128 255
-0.228422 0.424044 4.34613 0 0 0 128 128 128 255
-0.191267 0.40436 4.3464 0 0 0 128 128 128 255
0.0161371 0.281623 4.3464 0 0 0 128 128 128 255
-0.097818 0.350211 4.34653 0 0 0 128 128 128 255
-0.253082 0.443243 4.34666 0 0 0 128 128 128 255
-0.0801013 0.340878 4.34666 0 0 0 128 128 128 255
0.363968 0.0780882 4.34666 0 0 0 128 128 128 255
0.635057 -0.0823356 4.34666 0 0 0 128 128 128 255
0.491842 0.00356734 4.3468 0 0 0 128 128 128 255
0.587368 -0.0529629 4.3468 0 0 0 128 128 128 255
0.770676 -0.16144 4.3468 0 0 0 128 128 128 255
-0.239164 0.43731 4.34693 0 0 0 128 128 128 255
-0.264477 0.453441 4.34707 0 0 0 128 128 128 255
-0.0226483 0.310333 4.34707 0 0 0 128 128 128 255
0.256186 0.145326 4.34707 0 0 0 128 128 128 255
0.359607 0.0864266 4.34734 0 0 0 128 128 128 255
0.520332 -0.00523216 4.34774 0 0 0 128 128 128 255
-0.198981 0.422743 4.34801 0 0 0 128 128 128 255
0.00168756 0.306295 4.34828 0 0 0 128 128 128 255
0.919947 -0.237109 4.34828 0 0 0 128 128 128 255
0.246602 0.162511 4.34841 0 0 0 128 128 128 255
0.564164 -0.0254137 4.34841 0 0 0 128 128 128 255
-0.176308 0.413931 4.34854 0 0 0 128 128 128 255
-0.0802766 0.358254 4.34868 0 0 0 128 128 128 255
-0.0792672 0.359959 4.34895 0 0 0 128 128 128 255
0.259809 0.159302 4.34895 0 0 0 128 128 128 255
-0.241416 0.457066 4.34908 0 0 0 128 128 128 255
0.769789 -0.14134 4.34908 0 0 0 128 128 128 255
-0.00854936 0.320413 4.34922 0 0 0 128 128 128 255
-0.181886 0.424141 4.34935 0 0 0 128 128 128 255
0.94636 -0.243528 4.34935 0 0 0 128 128 128 255
-0.22269 0.449439 4.34948 0 0 0 128 128 128 255
0.272155 0.156602 4.34948 0 0 0 128 128 128 255
-0.155919 0.411077 4.34962 0 0 0 128 128 128 255
0.35872 0.106526 4.34962 0 0 0 128 128 128 255
-0.217229 0.450813 4.35002 0 0 0 128 128 128 255
-0.164732 0.419747 4.35002 0 0 0 128 128 128 255
0.94286 -0.235699 4.35002 0 0 0 128 128 128 255
-0.119328 0.396332 4.35042 0 0 0 128 128 128 255
-0.132949 0.406695 4.35069 0 0 0 128 128 128 255
-0.197849 0.446254 4.35083 0 0 0 128 128 128 255
0.0379548 0.30671 4.35083 0 0 0 128 128 128 255
0.263432 0.173278 4.35083 0 0 0 128 128 128 255
0.536242 0.0118361 4.35083 0 0 0 128 128 128 255
0.569806 -0.00802594 4.35083 0 0 0 128 128 128 255
-0.0553458 0.363075 4.35096 0 0 0 128 128 128 255
0.774363 -0.119866 4.3519 0 0 0 128 128 128 255
0.354895 0.129516 4.35203 0 0 0 128 128 128 255
-0.148912 0.428808 4.35217 0 0 0 128 128 128 255
0.238358 0.199631 4.35217 0 0 0 128 128 128 255
0.314239 0.15703 4.35244 0 0 0 128 128 128 255
0.593074 -0.00797778 4.35244 0 0 0 128 128 128 255
0.951232 -0.217624 4.35271 0 0 0 128 128 128 255
-0.170841 0.448694 4.35297 0 0 0 128 128 128 255
-0.162235 0.443602 4.35297 0 0 0 128 128 128 255
-0.1755 0.452603 4.35311 0 0 0 128 128 128 255
0.22726 0.214259 4.35311 0 0 0 128 128 128 255
0.537581 0.0317702 4.35324 0 0 0 128 128 128 255
-0.148673 0.43903 4.35338 0 0 0 128 128 128 255
-0.130956 0.429697 4.35351 0 0 0 128 128 128 255
-0.0891429 0.406104 4.35365 0 0 0 128 128 128 255
-0.0705657 0.396262 4.35378 0 0 0 128 128 128 255
0.572807 0.0166815 4.35391 0 0 0 128 128 128 255
0.779351 -0.105546 4.35391 0 0 0 128 128 128 255
-0.153035 0.447368 4.35405 0 0 0 128 128 128 255
0.456775 0.0876496 4.35418 0 0 0 128 128 128 255
-0.38783 0.588617 4.35432 0 0 0 128 128 128 255
-0.385604 0.588452 4.35445 0 0 0 128 128 128 255
0.26587 0.202925 4.35445 0 0 0 128 128 128 255
0.282222 0.193249 4.35445 0 0 0 128 128 128 255
0.56171 0.031309 4.35485 0 0 0 128 128 128 255
0.959811 -0.203126 4.35499 0 0 0 128 128 128 255
0.283024 0.198531 4.35512 0 0 0 128 128 128 255
-0.0691685 0.410405 4.35552 0 0 0 128 128 128 255
0.550463 0.0437216 4.35552 0 0 0 128 128 128 255
-0.0987849 0.429082 4.35566 0 0 0 128 128 128 255
-0.128401 0.44776 4.35579 0 0 0 128 128 128 255
0.466273 0.0958461 4.35579 0 0 0 128 128 128 255
-0.361831 0.589352 4.3562 0 0 0 128 128 128 255
-0.0305 0.393279 4.3562 0 0 0 128 128 128 255
0.524587 0.0647919 4.3562 0 0 0 128 128 128 255
0.962781 -0.192218 4.35646 0 0 0 128 128 128 255
-0.0470585 0.406532 4.3566 0 0 0 128 128 128 255
0.800276 -0.0937485 4.35673 0 0 0 128 128 128 255
0.964295 -0.189659 4.35687 0 0 0 128 128 128 255
-0.0476217 0.411471 4.35714 0 0 0 128 128 128 255
-0.0275304 0.404188 4.35767 0 0 0 128 128 128 255
-0.375569 0.6113 4.35781 0 0 0 128 128 128 255
0.300507 0.212366 4.35794 0 0 0 128 128 128 255
0.351787 0.183171 4.35808 0 0 0 128 128 128 255
0.33508 0.19421 4.35821 0 0 0 128 128 128 255
-0.0198435 0.405396 4.35834 0 0 0 128 128 128 255
-0.374262 0.617435 4.35861 0 0 0 128 128 128 255
-0.0343249 0.416269 4.35861 0 0 0 128 128 128 255
0.292347 0.224104 4.35875 0 0 0 128 128 128 255
-0.0505275 0.42816 4.35888 0 0 0 128 128 128 255
-0.0706773 0.441235 4.35901 0 0 0 128 128 128 255
0.00105003 0.403395 4.35955 0 0 0 128 128 128 255
-0.0246193 0.420888 4.35982 0 0 0 128 128 128 255
0.34802 0.200369 4.35982 0 0 0 128 128 128 255
0.359357 0.195963 4.36009 0 0 0 128 128 128 255
-0.0153598 0.418863 4.36022 0 0 0 128 128 128 255
0.29962 0.232466 4.36022 0 0 0 128 128 128 255
0.809244 -0.0668142 4.36049 0 0 0 128 128 128 255
-0.0301972 0.431098 4.36063 0 0 0 128 128 128 255
-0.0207306 0.425496 4.36063 0 0 0 128 128 128 255
-0.0183559 0.427545 4.36103 0 0 0 128 128 128 255
-0.00200456 0.417869 4.36103 0 0 0 128 128 128 255
0.295407 0.243019 4.36116 0 0 0 128 128 128 255
-0.0258039 0.436558 4.36157 0 0 0 128 128 128 255
0.0344381 0.400909 4.36157 0 0 0 128 128 128 255
-0.0304628 0.440467 4.3617 0 0 0 128 128 128 255
0.00654298 0.418568 4.3617 0 0 0 128 128 128 255
0.771616 -0.034184 4.3617 0 0 0 128 128 128 255
0.0350915 0.403976 4.36197 0 0 0 128 128 128 255
0.0368127 0.402958 4.36197 0 0 0 128 128 128 255
0.50219 0.131013 4.36237 0 0 0 128 128 128 255
0.812866 -0.0528376 4.36237 0 0 0 128 128 128 255
0.049812 0.403325 4.36291 0 0 0 128 128 128 255
0.799039 -0.0388972 4.36304 0 0 0 128 128 128 255
0.959971 -0.134133 4.36304 0 0 0 128 128 128 255
0.00693077 0.431004 4.36318 0 0 0 128 128 128 255
0.0628113 0.403693 4.36385 0 0 0 128 128 128 255
-0.451323 0.709096 4.36398 0 0 0 128 128 128 255
0.470884 0.164508 4.36412 0 0 0 128 128 128 255
-0.43052 0.699088 4.36425 0 0 0 128 128 128 255
0.479995 0.160268 4.36425 0 0 0 128 128 128 255
0.274816 0.282839 4.36438 0 0 0 128 128 128 255
0.372064 0.22529 4.36438 0 0 0 128 128 128 255
0.791681 -0.0218772 4.36452 0 0 0 128 128 128 255
0.793046 -0.0215336 4.36465 0 0 0 128 128 128 255
0.815422 -0.0347749 4.36465 0 0 0 128 128 128 255
0.263421 0.293037 4.36479 0 0 0 128 128 128 255
0.0264005 0.434452 4.36492 0 0 0 128 128 128 255
0.23704 0.313255 4.36532 0 0 0 128 128 128 255
0.816224 -0.0294923 4.36532 0 0 0 128 128 128 255
0.0473524 0.426659 4.36546 0 0 0 128 128 128 255
0.0294285 0.439568 4.36573 0 0 0 128 128 128 255
0.0523088 0.42718 4.36586 0 0 0 128 128 128 255
0.0967041 0.402059 4.366 0 0 0 128 128 128 255
0.382067 0.23434 4.36613 0 0 0 128 128 128 255
0.378269 0.237739 4.36626 0 0 0 128 128 128 255
0.773284 0.00397855 4.36626 0 0 0 128 128 128 255
0.117151 0.393414 4.3664 0 0 0 128 128 128 255
-0.425738 0.716985 4.36667 0 0 0 128 128 128 255
0.26016 0.311088 4.36667 0 0 0 128 128 128 255
-0.187708 0.577276 4.3668 0 0 0 128 128 128 255
0.746903 0.0241961 4.3668 0 0 0 128 128 128 255
0.0683946 0.426872 4.36694 0 0 0 128 128 128 255
0.280102 0.301589 4.36694 0 0 0 128 128 128 255
0.825011 -0.0185715 4.3672 0 0 0 128 128 128 255
0.755451 0.0248952 4.36747 0 0 0 128 128 128 255
0.295534 0.298214 4.36761 0 0 0 128 128 128 255
-0.179012 0.58019 4.36774 0 0 0 128 128 128 255
-0.500727 0.772877 4.36801 0 0 0 128 128 128 255
0.315121 0.290077 4.36801 0 0 0 128 128 128 255
0.456259 0.206555 4.36801 0 0 0 128 128 128 255
0.467596 0.202149 4.36828 0 0 0 128 128 128 255
-0.416091 0.727397 4.36855 0 0 0 128 128 128 255
0.0787537 0.43456 4.36855 0 0 0 128 128 128 255
-0.469804 0.760334 4.36868 0 0 0 128 128 128 255
0.105076 0.420134 4.36868 0 0 0 128 128 128 255
-0.519214 0.790726 4.36881 0 0 0 128 128 128 255
0.0935326 0.428117 4.36881 0 0 0 128 128 128 255
-0.483425 0.770698 4.36895 0 0 0 128 128 128 255
0.147394 0.397394 4.36895 0 0 0 128 128 128 255
0.907304 -0.0523019 4.36895 0 0 0 128 128 128 255
0.906087 -0.0504304 4.36908 0 0 0 128 128 128 255
-0.183283 0.596535 4.36935 0 0 0 128 128 128 255
-0.494315 0.781748 4.36949 0 0 0 128 128 128 255
0.497095 0.195056 4.36949 0 0 0 128 128 128 255
0.165557 0.394706 4.36989 0 0 0 128 128 128 255
-0.528798 0.807912 4.37016 0 0 0 128 128 128 255
0.760381 0.0450071 4.37016 0 0 0 128 128 128 255
0.489796 0.206284 4.37029 0 0 0 128 128 128 255
0.96915 -0.0773863 4.37029 0 0 0 128 128 128 255
0.124546 0.423581 4.37043 0 0 0 128 128 128 255
0.375841 0.274871 4.37043 0 0 0 128 128 128 255
0.566034 0.16232 4.37043 0 0 0 128 128 128 255
0.125051 0.424434 4.37056 0 0 0 128 128 128 255
0.306637 0.316976 4.37056 0 0 0 128 128 128 255
0.456382 0.228361 4.37056 0 0 0 128 128 128 255
-0.512149 0.802665 4.37069 0 0 0 128 128 128 255
-0.163606 0.596406 4.37069 0 0 0 128 128 128 255
-0.493572 0.792823 4.37083 0 0 0 128 128 128 255
0.179922 0.395417 4.37096 0 0 0 128 128 128 255
0.641203 0.122442 4.37096 0 0 0 128 128 128 255
0.974256 -0.0746501 4.37096 0 0 0 128 128 128 255
0.193336 0.388631 4.3711 0 0 0 128 128 128 255
0.638266 0.125332 4.3711 0 0 0 128 128 128 255
0.788871 0.0362076 4.3711 0 0 0 128 128 128 255
0.344445 0.300359 4.37123 0 0 0 128 128 128 255
0.181436 0.397976 4.37137 0 0 0 128 128 128 255
0.555797 0.176438 4.37137 0 0 0 128 128 128 255
0.316194 0.31938 4.3715 0 0 0 128 128 128 255
0.458193 0.235349 4.3715 0 0 0 128 128 128 255
0.810178 0.0270526 4.3715 0 0 0 128 128 128 255
0.827035 0.018229 4.37163 0 0 0 128 128 128 255
0.647674 0.125522 4.37177 0 0 0 128 128 128 255
-0.409855 0.753644 4.37204 0 0 0 128 128 128 255
0.824245 0.0233338 4.37204 0 0 0 128 128 128 255
0.2077 0.389342 4.37217 0 0 0 128 128 128 255
0.366911 0.295125 4.37217 0 0 0 128 128 128 255
0.952119 -0.0511871 4.37217 0 0 0 128 128 128 255
0.771898 0.056615 4.3723 0 0 0 128 128 128 255
0.145886 0.428225 4.37244 0 0 0 128 128 128 255
0.552949 0.187335 4.37244 0 0 0 128 128 128 255
0.578767 0.172056 4.37244 0 0 0 128 128 128 255
0.330708 0.322306 4.37284 0 0 0 128 128 128 255
0.954642 -0.0469231 4.37284 0 0 0 128 128 128 255
-0.40374 0.758086 4.37298 0 0 0 128 128 128 255
-0.507724 0.821924 4.37324 0 0 0 128 128 128 255
0.171289 0.420101 4.37324 0 0 0 128 128 128 255
0.354597 0.311624 4.37324 0 0 0 128 128 128 255
-0.533037 0.838055 4.37338 0 0 0 128 128 128 255
0.796589 0.0512147 4.37338 0 0 0 128 128 128 255
0.825494 0.0352611 4.37351 0 0 0 128 128 128 255
0.805344 0.0483367 4.37365 0 0 0 128 128 128 255
0.20515 0.404668 4.37378 0 0 0 128 128 128 255
0.240079 0.38515 4.37392 0 0 0 128 128 128 255
-0.425877 0.781549 4.37418 0 0 0 128 128 128 255
0.783266 0.0660079 4.37418 0 0 0 128 128 128 255
0.808223 0.0512386 4.37418 0 0 0 128 128 128 255
0.35448 0.323207 4.37459 0 0 0 128 128 128 255
-0.395814 0.769516 4.37486 0 0 0 128 128 128 255
0.192836 0.421167 4.37486 0 0 0 128 128 128 255
0.266848 0.377369 4.37486 0 0 0 128 128 128 255
-0.182741 0.644576 4.37499 0 0 0 128 128 128 255
0.179571 0.430169 4.37499 0 0 0 128 128 128 255
0.196576 0.42356 4.37539 0 0 0 128 128 128 255
0.21637 0.411846 4.37539 0 0 0 128 128 128 255
0.975212 -0.0337633 4.37579 0 0 0 128 128 128 255
0.245067 0.39947 4.37593 0 0 0 128 128 128 255
0.370715 0.325115 4.37593 0 0 0 128 128 128 255
0.461938 0.271131 4.37593 0 0 0 128 128 128 255
-0.423975 0.796544 4.37606 0 0 0 128 128 128 255
0.225778 0.412036 4.37606 0 0 0 128 128 128 255
0.217677 0.417982 4.3762 0 0 0 128 128 128 255
0.3657 0.330385 4.3762 0 0 0 128 128 128 255
0.793418 0.0772721 4.3762 0 0 0 128 128 128 255
0.809769 0.0675958 4.3762 0 0 0 128 128 128 255
0.973283 -0.0291678 4.3762 0 0 0 128 128 128 255
-0.491813 0.838992 4.37633 0 0 0 128 128 128 255
-0.184935 0.658541 4.37647 0 0 0 128 128 128 255
0.208864 0.426652 4.3766 0 0 0 128 128 128 255
0.265307 0.394401 4.37673 0 0 0 128 128 128 255
0.610912 0.191032 4.37687 0 0 0 128 128 128 255
0.819178 0.0677856 4.37687 0 0 0 128 128 128 255
0.46648 0.278806 4.37714 0 0 0 128 128 128 255
-0.425457 0.807784 4.37727 0 0 0 128 128 128 255
0.355968 0.345356 4.37727 0 0 0 128 128 128 255
0.49037 0.268123 4.37754 0 0 0 128 128 128 255
0.520491 0.250298 4.37754 0 0 0 128 128 128 255
0.821701 0.0720496 4.37754 0 0 0 128 128 128 255
0.29086 0.388492 4.37781 0 0 0 128 128 128 255
0.530611 0.247764 4.37794 0 0 0 128 128 128 255
-0.463738 0.837347 4.37808 0 0 0 128 128 128 255
0.266051 0.405476 4.37808 0 0 0 128 128 128 255
0.243319 0.420079 4.37821 0 0 0 128 128 128 255
-0.510061 0.867063 4.37835 0 0 0 128 128 128 255
0.27531 0.403451 4.37848 0 0 0 128 128 128 255
0.383746 0.339281 4.37848 0 0 0 128 128 128 255
-0.178077 0.674057 4.37875 0 0 0 128 128 128 255
-0.224905 0.70292 4.37888 0 0 0 128 128 128 255
-0.425781 0.822945 4.37902 0 0 0 128 128 128 255
-0.451806 0.841801 4.37942 0 0 0 128 128 128 255
0.266795 0.41655 4.37942 0 0 0 128 128 128 255
0.28831 0.403818 4.37942 0 0 0 128 128 128 255
0.323594 0.382938 4.37942 0 0 0 128 128 128 255
0.485031 0.288555 4.37955 0 0 0 128 128 128 255
0.469689 0.299937 4.37982 0 0 0 128 128 128 255
0.32318 0.390092 4.38023 0 0 0 128 128 128 255
0.645044 0.19962 4.38023 0 0 0 128 128 128 255
0.303891 0.402658 4.38036 0 0 0 128 128 128 255
0.530228 0.268717 4.38036 0 0 0 128 128 128 255
0.937085 0.0314033 4.38076 0 0 0 128 128 128 255
0.975456 0.0098477 4.3809 0 0 0 128 128 128 255
-0.175522 0.69212 4.38103 0 0 0 128 128 128 255
0.278014 0.423728 4.38103 0 0 0 128 128 128 255
0.355112 0.379255 4.38116 0 0 0 128 128 128 255
0.971302 0.014609 4.38116 0 0 0 128 128 128 255
0.337544 0.390803 4.3813 0 0 0 128 128 128 255
0.283119 0.426464 4.3817 0 0 0 128 128 128 255
0.299471 0.416788 4.3817 0 0 0 128 128 128 255
-0.1811 0.70233 4.38184 0 0 0 128 128 128 255
0.972965 0.0193823 4.38184 0 0 0 128 128 128 255
-0.201813 0.720344 4.38251 0 0 0 128 128 128 255
-0.396011 0.839872 4.38304 0 0 0 128 128 128 255
0.60917 0.24503 4.38304 0 0 0 128 128 128 255
-0.392924 0.839197 4.38318 0 0 0 128 128 128 255
0.323095 0.415474 4.38318 0 0 0 128 128 128 255
0.336509 0.408688 4.38331 0 0 0 128 128 128 255
0.623949 0.238587 4.38331 0 0 0 128 128 128 255
-0.376424 0.831735 4.38345 0 0 0 128 128 128 255
0.352297 0.40395 4.38385 0 0 0 128 128 128 255
-0.559434 0.944642 4.38398 0 0 0 128 128 128 255
0.389807 0.382904 4.38398 0 0 0 128 128 128 255
0.639025 0.236574 4.38412 0 0 0 128 128 128 255
0.35209 0.407527 4.38425 0 0 0 128 128 128 255
-0.329357 0.813094 4.38452 0 0 0 128 128 128 255
-0.20457 0.739248 4.38452 0 0 0 128 128 128 255
0.60662 0.260357 4.38465 0 0 0 128 128 128 255
0.650511 0.234384 4.38465 0 0 0 128 128 128 255
0.956528 0.0544412 4.38479 0 0 0 128 128 128 255
-0.234749 0.762864 4.38519 0 0 0 128 128 128 255
0.664222 0.232027 4.38533 0 0 0 128 128 128 255
0.532699 0.312162 4.38559 0 0 0 128 128 128 255
-0.2016 0.750156 4.386 0 0 0 128 128 128 255
0.400969 0.395874 4.38627 0 0 0 128 128 128 255
0.425926 0.381105 4.38627 0 0 0 128 128 128 255
-0.269795 0.793967 4.3864 0 0 0 128 128 128 255
0.579617 0.291305 4.3864 0 0 0 128 128 128 255
-0.371197 0.856277 4.38667 0 0 0 128 128 128 255
-0.324724 0.828776 4.38667 0 0 0 128 128 128 255
-0.176701 0.741179 4.38667 0 0 0 128 128 128 255
0.629325 0.265344 4.3868 0 0 0 128 128 128 255
0.376813 0.415926 4.38694 0 0 0 128 128 128 255
0.388862 0.408796 4.38694 0 0 0 128 128 128 255
0.576977 0.298625 4.38707 0 0 0 128 128 128 255
-0.281397 0.807741 4.38721 0 0 0 128 128 128 255
-0.0920649 0.695699 4.38721 0 0 0 128 128 128 255
-0.242165 0.785676 4.38734 0 0 0 128 128 128 255
0.401563 0.404734 4.38734 0 0 0 128 128 128 255
-0.323417 0.834911 4.38747 0 0 0 128 128 128 255
0.498604 0.350762 4.38774 0 0 0 128 128 128 255
-0.393333 0.87974 4.38788 0 0 0 128 128 128 255
-0.174741 0.750382 4.38788 0 0 0 128 128 128 255
-0.404016 0.887213 4.38801 0 0 0 128 128 128 255
0.554692 0.319873 4.38801 0 0 0 128 128 128 255
0.621819 0.280149 4.38801 0 0 0 128 128 128 255
-0.388021 0.878899 4.38815 0 0 0 128 128 128 255
-0.188213 0.762961 4.38841 0 0 0 128 128 128 255
-0.315077 0.839187 4.38855 0 0 0 128 128 128 255
0.406106 0.412409 4.38855 0 0 0 128 128 128 255
-0.175155 0.757536 4.38868 0 0 0 128 128 128 255
-0.361252 0.871118 4.38908 0 0 0 128 128 128 255
0.397797 0.421931 4.38908 0 0 0 128 128 128 255
0.497627 0.362855 4.38908 0 0 0 128 128 128 255
0.620692 0.290027 4.38908 0 0 0 128 128 128 255
0.444774 0.395283 4.38922 0 0 0 128 128 128 255
-0.296914 0.836499 4.38949 0 0 0 128 128 128 255
-0.216878 0.789136 4.38949 0 0 0 128 128 128 255
0.493116 0.368978 4.38949 0 0 0 128 128 128 255
0.574013 0.321106 4.38949 0 0 0 128 128 128 255
-0.282996 0.830565 4.38976 0 0 0 128 128 128 255
0.580186 0.319756 4.38976 0 0 0 128 128 128 255
0.429225 0.410242 4.38989 0 0 0 128 128 128 255
0.488399 0.378679 4.39029 0 0 0 128 128 128 255
-0.0395045 0.692231 4.39043 0 0 0 128 128 128 255
-0.18272 0.778133 4.39056 0 0 0 128 128 128 255
-0.162926 0.76642 4.39056 0 0 0 128 128 128 255
-0.524734 0.98168 4.3907 0 0 0 128 128 128 255
0.488192 0.382256 4.3907 0 0 0 128 128 128 255
0.343255 0.469177 4.39083 0 0 0 128 128 128 255
0.528433 0.361896 4.3911 0 0 0 128 128 128 255
-0.243021 0.819575 4.39123 0 0 0 128 128 128 255
0.196746 0.559332 4.39123 0 0 0 128 128 128 255
0.220843 0.545072 4.39123 0 0 0 128 128 128 255
-0.513605 0.980852 4.39137 0 0 0 128 128 128 255
-0.288988 0.847929 4.39137 0 0 0 128 128 128 255
0.212742 0.551018 4.39137 0 0 0 128 128 128 255
0.507067 0.376843 4.39137 0 0 0 128 128 128 255
0.8427 0.178223 4.39137 0 0 0 128 128 128 255
-0.26869 0.837068 4.3915 0 0 0 128 128 128 255
0.451632 0.410799 4.3915 0 0 0 128 128 128 255
-0.191947 0.793957 4.39177 0 0 0 128 128 128 255
-0.369587 0.900231 4.3919 0 0 0 128 128 128 255
-0.262012 0.836571 4.3919 0 0 0 128 128 128 255
-0.235333 0.820783 4.3919 0 0 0 128 128 128 255
-0.352731 0.891408 4.39204 0 0 0 128 128 128 255
-0.104018 0.744225 4.39204 0 0 0 128 128 128 255
-0.0489393 0.711631 4.39204 0 0 0 128 128 128 255
0.513032 0.37907 4.39204 0 0 0 128 128 128 255
0.498046 0.38909 4.39217 0 0 0 128 128 128 255
0.51784 0.377377 4.39217 0 0 0 128 128 128 255
0.625415 0.313716 4.39217 0 0 0 128 128 128 255
0.650372 0.298947 4.39217 0 0 0 128 128 128 255
0.221438 0.553932 4.39231 0 0 0 128 128 128 255
0.349667 0.478049 4.39231 0 0 0 128 128 128 255
0.635386 0.308967 4.39231 0 0 0 128 128 128 255
-0.255393 0.841866 4.39298 0 0 0 128 128 128 255
0.56096 0.359919 4.39311 0 0 0 128 128 128 255
0.676785 0.292528 4.39325 0 0 0 128 128 128 255
0.183306 0.585709 4.39338 0 0 0 128 128 128 255
0.193633 0.579598 4.39338 0 0 0 128 128 128 255
0.500007 0.398293 4.39338 0 0 0 128 128 128 255
0.627375 0.322919 4.39338 0 0 0 128 128 128 255
0.499651 0.399655 4.39352 0 0 0 128 128 128 255
0.342665 0.493707 4.39365 0 0 0 128 128 128 255
0.354714 0.486577 4.39365 0 0 0 128 128 128 255
-0.21622 0.825593 4.39378 0 0 0 128 128 128 255
0.245922 0.552108 4.39378 0 0 0 128 128 128 255
0.249869 0.550924 4.39392 0 0 0 128 128 128 255
0.431605 0.44568 4.39419 0 0 0 128 128 128 255
-0.301122 0.880441 4.39432 0 0 0 128 128 128 255
0.518674 0.396458 4.39445 0 0 0 128 128 128 255
0.968768 0.130103 4.39445 0 0 0 128 128 128 255
0.560488 0.372865 4.39459 0 0 0 128 128 128 255
-0.371037 0.92527 4.39472 0 0 0 128 128 128 255
-0.184643 0.816118 4.39486 0 0 0 128 128 128 255
-0.195326 0.823592 4.39499 0 0 0 128 128 128 255
-0.00169119 0.709003 4.39499 0 0 0 128 128 128 255
-0.287766 0.879447 4.39513 0 0 0 128 128 128 255
0.583665 0.364906 4.39526 0 0 0 128 128 128 255
-0.154076 0.804938 4.39566 0 0 0 128 128 128 255
-0.164759 0.812412 4.3958 0 0 0 128 128 128 255
0.426473 0.462535 4.3958 0 0 0 128 128 128 255
0.434218 0.457951 4.3958 0 0 0 128 128 128 255
0.515115 0.410079 4.3958 0 0 0 128 128 128 255
-0.372015 0.937363 4.39607 0 0 0 128 128 128 255
-0.352221 0.92565 4.39607 0 0 0 128 128 128 255
0.411131 0.473917 4.39607 0 0 0 128 128 128 255
-0.296133 0.894762 4.39633 0 0 0 128 128 128 255
-0.0620501 0.756237 4.39633 0 0 0 128 128 128 255
0.556721 0.390063 4.39633 0 0 0 128 128 128 255
-0.289604 0.892049 4.39647 0 0 0 128 128 128 255
0.426919 0.46918 4.3966 0 0 0 128 128 128 255
0.592154 0.371397 4.3966 0 0 0 128 128 128 255
0.529835 0.409428 4.39674 0 0 0 128 128 128 255
0.574231 0.384307 4.39687 0 0 0 128 128 128 255
0.975063 0.150559 4.39727 0 0 0 128 128 128 255
-0.257672 0.881213 4.39741 0 0 0 128 128 128 255
-0.00551617 0.731993 4.39741 0 0 0 128 128 128 255
0.592601 0.378042 4.39741 0 0 0 128 128 128 255
0.899835 0.196228 4.39741 0 0 0 128 128 128 255
0.200672 0.611127 4.39754 0 0 0 128 128 128 255
0.904642 0.194535 4.39754 0 0 0 128 128 128 255
0.976072 0.152264 4.39754 0 0 0 128 128 128 255
0.418048 0.483641 4.39768 0 0 0 128 128 128 255
0.55058 0.405212 4.39768 0 0 0 128 128 128 255
0.619428 0.364469 4.39768 0 0 0 128 128 128 255
-0.128789 0.808397 4.39781 0 0 0 128 128 128 255
-0.0349837 0.752886 4.39781 0 0 0 128 128 128 255
0.432471 0.47856 4.39808 0 0 0 128 128 128 255
0.771547 0.277903 4.39808 0 0 0 128 128 128 255
0.716113 0.311859 4.39821 0 0 0 128 128 128 255
-0.26963 0.89635 4.39835 0 0 0 128 128 128 255
0.429177 0.482813 4.39835 0 0 0 128 128 128 255
-0.319901 0.92725 4.39848 0 0 0 128 128 128 255
-0.402874 0.977503 4.39862 0 0 0 128 128 128 255
0.672015 0.34141 4.39862 0 0 0 128 128 128 255
0.844135 0.239553 4.39862 0 0 0 128 128 128 255
-0.392903 0.972754 4.39875 0 0 0 128 128 128 255
-0.0796446 0.787375 4.39875 0 0 0 128 128 128 255
0.635514 0.364162 4.39875 0 0 0 128 128 128 255
-0.309781 0.924716 4.39888 0 0 0 128 128 128 255
-0.112703 0.80809 4.39888 0 0 0 128 128 128 255
-0.387591 0.971913 4.39902 0 0 0 128 128 128 255
0.57456 0.402536 4.39902 0 0 0 128 128 128 255
0.763031 0.291003 4.39902 0 0 0 128 128 128 255
0.743891 0.305784 4.39942 0 0 0 128 128 128 255
-0.127392 0.82254 4.39956 0 0 0 128 128 128 255
0.654033 0.360112 4.39956 0 0 0 128 128 128 255
0.725462 0.317841 4.39956 0 0 0 128 128 128 255
0.198419 0.630884 4.39969 0 0 0 128 128 128 255
0.439536 0.4905 4.39996 0 0 0 128 128 128 255
0.646585 0.369125 4.40009 0 0 0 128 128 128 255
0.918534 0.208192 4.40009 0 0 0 128 128 128 255
0.592011 0.402572 4.40023 0 0 0 128 128 128 255
-0.106291 0.816962 4.40036 0 0 0 128 128 128 255
-0.132465 0.833602 4.4005 0 0 0 128 128 128 255
0.474258 0.474558 4.4005 0 0 0 128 128 128 255
-0.401328 0.99386 4.40063 0 0 0 128 128 128 255
-0.256243 0.909154 4.40076 0 0 0 128 128 128 255
0.979578 0.177825 4.40076 0 0 0 128 128 128 255
0.984386 0.176131 4.4009 0 0 0 128 128 128 255
0.379028 0.535518 4.40103 0 0 0 128 128 128 255
0.61326 0.399209 4.4013 0 0 0 128 128 128 255
-0.0583633 0.797811 4.40144 0 0 0 128 128 128 255
0.3771 0.540114 4.40144 0 0 0 128 128 128 255
0.63528 0.387329 4.40144 0 0 0 128 128 128 255
-0.178343 0.869963 4.40157 0 0 0 128 128 128 255
0.0170135 0.754356 4.40157 0 0 0 128 128 128 255
-0.156323 0.858084 4.4017 0 0 0 128 128 128 255
0.26365 0.609554 4.4017 0 0 0 128 128 128 255
0.687925 0.358478 4.4017 0 0 0 128 128 128 255
-0.371829 0.986766 4.40184 0 0 0 128 128 128 255
-0.105904 0.829398 4.40184 0 0 0 128 128 128 255
0.189282 0.654715 4.40184 0 0 0 128 128 128 255
0.513728 0.462715 4.40184 0 0 0 128 128 128 255
0.637655 0.389379 4.40184 0 0 0 128 128 128 255
0.656588 0.378174 4.40184 0 0 0 128 128 128 255
0.634717 0.392268 4.40197 0 0 0 128 128 128 255
0.66742 0.372916 4.40197 0 0 0 128 128 128 255
-0.311438 0.953331 4.40211 0 0 0 128 128 128 255
0.615428 0.404835 4.40211 0 0 0 128 128 128 255
0.4834 0.484117 4.40224 0 0 0 128 128 128 255
0.681487 0.369197 4.40251 0 0 0 128 128 128 255
-0.206148 0.895629 4.40264 0 0 0 128 128 128 255
0.237061 0.633349 4.40264 0 0 0 128 128 128 255
0.701785 0.358336 4.40264 0 0 0 128 128 128 255
0.888535 0.247822 4.40264 0 0 0 128 128 128 255
0.93207 0.223211 4.40278 0 0 0 128 128 128 255
-0.362984 0.991895 4.40305 0 0 0 128 128 128 255
-0.0824283 0.825869 4.40305 0 0 0 128 128 128 255
-0.164541 0.875613 4.40318 0 0 0 128 128 128 255
0.155602 0.68616 4.40318 0 0 0 128 128 128 255
-0.214812 0.906514 4.40331 0 0 0 128 128 128 255
-0.102934 0.840307 4.40331 0 0 0 128 128 128 255
0.267985 0.620806 4.40331 0 0 0 128 128 128 255
-0.145815 0.867986 4.40358 0 0 0 128 128 128 255
0.513404 0.477876 4.40358 0 0 0 128 128 128 255
0.659706 0.391298 4.40358 0 0 0 128 128 128 255
-0.0910927 0.836754 4.40372 0 0 0 128 128 128 255
0.192045 0.6692 4.40372 0 0 0 128 128 128 255
0.386184 0.555465 4.40385 0 0 0 128 128 128 255
0.706476 0.368227 4.40412 0 0 0 128 128 128 255
0.179433 0.681269 4.40425 0 0 0 128 128 128 255
0.722116 0.361274 4.40439 0 0 0 128 128 128 255
0.661518 0.398286 4.40452 0 0 0 128 128 128 255
0.731226 0.357034 4.40452 0 0 0 128 128 128 255
-0.334552 0.988888 4.40466 0 0 0 128 128 128 255
0.530351 0.477059 4.40466 0 0 0 128 128 128 255
-0.0311164 0.810473 4.40479 0 0 0 128 128 128 255
0.17335 0.690626 4.40493 0 0 0 128 128 128 255
0.685407 0.387603 4.40493 0 0 0 128 128 128 255
0.707783 0.374362 4.40493 0 0 0 128 128 128 255
-0.36488 1.01029 4.40506 0 0 0 128 128 128 255
0.0297791 0.777891 4.40519 0 0 0 128 128 128 255
0.139729 0.71628 4.4056 0 0 0 128 128 128 255
0.676743 0.398488 4.4056 0 0 0 128 128 128 255
0.399274 0.563839 4.40573 0 0 0 128 128 128 255
0.564509 0.466057 4.40573 0 0 0 128 128 128 255
-0.000251651 0.803723 4.40613 0 0 0 128 128 128 255
0.253625 0.653485 4.40613 0 0 0 128 128 128 255
0.280304 0.637697 4.40613 0 0 0 128 128 128 255
0.758797 0.354536 4.40613 0 0 0 128 128 128 255
0.198191 0.687441 4.40627 0 0 0 128 128 128 255
-0.00218001 0.808318 4.40654 0 0 0 128 128 128 255
0.275794 0.64382 4.40654 0 0 0 128 128 128 255
0.713839 0.384596 4.40654 0 0 0 128 128 128 255
-0.0464266 0.835654 4.40667 0 0 0 128 128 128 255
0.557714 0.478138 4.40667 0 0 0 128 128 128 255
-0.321314 0.999477 4.40681 0 0 0 128 128 128 255
0.235494 0.669971 4.40681 0 0 0 128 128 128 255
-0.0591868 0.845508 4.40694 0 0 0 128 128 128 255
-0.0393929 0.833794 4.40694 0 0 0 128 128 128 255
0.57558 0.47102 4.40707 0 0 0 128 128 128 255
0.580743 0.467964 4.40707 0 0 0 128 128 128 255
0.909997 0.274271 4.40721 0 0 0 128 128 128 255
-0.367489 1.03141 4.40734 0 0 0 128 128 128 255
0.703097 0.397861 4.40734 0 0 0 128 128 128 255
0.742685 0.374434 4.40734 0 0 0 128 128 128 255
0.0228677 0.801556 4.40748 0 0 0 128 128 128 255
0.167597 0.718211 4.40774 0 0 0 128 128 128 255
0.173621 0.714646 4.40774 0 0 0 128 128 128 255
0.775181 0.358658 4.40774 0 0 0 128 128 128 255
-0.0745873 0.862682 4.40788 0 0 0 128 128 128 255
0.22232 0.68698 4.40788 0 0 0 128 128 128 255
0.489106 0.529102 4.40788 0 0 0 128 128 128 255
-0.210057 0.944001 4.40801 0 0 0 128 128 128 255
-0.17133 0.921084 4.40801 0 0 0 128 128 128 255
0.112668 0.753021 4.40801 0 0 0 128 128 128 255
-0.184951 0.931447 4.40828 0 0 0 128 128 128 255
-0.0871988 0.874751 4.40842 0 0 0 128 128 128 255
0.791978 0.355627 4.40855 0 0 0 128 128 128 255
-0.160201 0.920255 4.40868 0 0 0 128 128 128 255
0.733962 0.391111 4.40868 0 0 0 128 128 128 255
0.0855746 0.775962 4.40882 0 0 0 128 128 128 255
-0.110998 0.893441 4.40895 0 0 0 128 128 128 255
0.617574 0.463441 4.40909 0 0 0 128 128 128 255
-0.107407 0.893618 4.40922 0 0 0 128 128 128 255
-0.0931326 0.886323 4.40936 0 0 0 128 128 128 255
0.224933 0.69925 4.40949 0 0 0 128 128 128 255
0.394976 0.599775 4.40962 0 0 0 128 128 128 255
0.40839 0.592988 4.40976 0 0 0 128 128 128 255
0.774145 0.376543 4.40976 0 0 0 128 128 128 255
0.791357 0.366358 4.40976 0 0 0 128 128 128 255
-0.364785 1.05169 4.40989 0 0 0 128 128 128 255
0.383581 0.609972 4.41003 0 0 0 128 128 128 255
0.756221 0.389453 4.41003 0 0 0 128 128 128 255
-0.0677291 0.878198 4.41016 0 0 0 128 128 128 255
0.745182 0.398289 4.4103 0 0 0 128 128 128 255
-0.400632 1.07751 4.41043 0 0 0 128 128 128 255
0.626568 0.470785 4.41056 0 0 0 128 128 128 255
0.0685432 0.802161 4.4107 0 0 0 128 128 128 255
0.826376 0.354846 4.41083 0 0 0 128 128 128 255
0.0824616 0.796228 4.41097 0 0 0 128 128 128 255
0.803644 0.369449 4.41097 0 0 0 128 128 128 255
0.189325 0.735292 4.41123 0 0 0 128 128 128 255
0.543892 0.525468 4.41123 0 0 0 128 128 128 255
-0.0580234 0.882818 4.41137 0 0 0 128 128 128 255
-0.297626 1.02576 4.4115 0 0 0 128 128 128 255
0.661943 0.457911 4.4115 0 0 0 128 128 128 255
0.845755 0.350287 4.41164 0 0 0 128 128 128 255
0.041243 0.82868 4.41191 0 0 0 128 128 128 255
-0.390273 1.08519 4.41204 0 0 0 128 128 128 255
0.793051 0.38493 4.41204 0 0 0 128 128 128 255
0.826615 0.365068 4.41204 0 0 0 128 128 128 255
-0.0308986 0.873675 4.41217 0 0 0 128 128 128 255
-0.137108 0.937678 4.41231 0 0 0 128 128 128 255
0.0754599 0.811886 4.41231 0 0 0 128 128 128 255
0.166328 0.759264 4.41244 0 0 0 128 128 128 255
0.0127848 0.851278 4.41258 0 0 0 128 128 128 255
0.0559635 0.828029 4.41285 0 0 0 128 128 128 255
-0.119094 0.932775 4.41298 0 0 0 128 128 128 255
0.0122217 0.856218 4.41311 0 0 0 128 128 128 255
0.666278 0.469163 4.41311 0 0 0 128 128 128 255
-0.033746 0.884571 4.41325 0 0 0 128 128 128 255
0.545586 0.54404 4.41352 0 0 0 128 128 128 255
0.62304 0.498204 4.41352 0 0 0 128 128 128 255
0.84644 0.367153 4.41365 0 0 0 128 128 128 255
0.618026 0.503475 4.41379 0 0 0 128 128 128 255
0.87671 0.351543 4.41392 0 0 0 128 128 128 255
0.168941 0.771535 4.41405 0 0 0 128 128 128 255
0.875998 0.354267 4.41419 0 0 0 128 128 128 255
0.0461729 0.848792 4.41459 0 0 0 128 128 128 255
0.330171 0.680729 4.41459 0 0 0 128 128 128 255
0.707114 0.457663 4.41459 0 0 0 128 128 128 255
0.0850487 0.828089 4.41486 0 0 0 128 128 128 255
0.595384 0.526085 4.41486 0 0 0 128 128 128 255
0.829468 0.38756 4.41486 0 0 0 128 128 128 255
0.700882 0.464805 4.41499 0 0 0 128 128 128 255
0.86318 0.369913 4.41513 0 0 0 128 128 128 255
-0.536867 1.20073 4.4154 0 0 0 128 128 128 255
-0.546541 1.20991 4.4158 0 0 0 128 128 128 255
0.84763 0.384872 4.4158 0 0 0 128 128 128 255
-0.537431 1.20567 4.41593 0 0 0 128 128 128 255
0.740709 0.4516 4.4162 0 0 0 128 128 128 255
0.0914606 0.836961 4.41634 0 0 0 128 128 128 255
0.603517 0.533938 4.41634 0 0 0 128 128 128 255
0.876328 0.372496 4.41634 0 0 0 128 128 128 255
0.900424 0.358236 4.41634 0 0 0 128 128 128 255
0.158232 0.798599 4.41647 0 0 0 128 128 128 255
0.053743 0.861584 4.4166 0 0 0 128 128 128 255
0.858908 0.386258 4.41674 0 0 0 128 128 128 255
0.943752 0.337202 4.41687 0 0 0 128 128 128 255
0.109475 0.832058 4.41701 0 0 0 128 128 128 255
0.945117 0.337545 4.41701 0 0 0 128 128 128 255
0.293287 0.724434 4.41714 0 0 0 128 128 128 255
0.603103 0.541092 4.41714 0 0 0 128 128 128 255
0.888822 0.37201 4.41714 0 0 0 128 128 128 255
0.00721213 0.894877 4.41728 0 0 0 128 128 128 255
1.32479 0.115166 4.41728 0 0 0 128 128 128 255
-0.128258 0.976197 4.41741 0 0 0 128 128 128 255
0.740948 0.461822 4.41741 0 0 0 128 128 128 255
0.00133672 0.900657 4.41754 0 0 0 128 128 128 255
0.247261 0.75858 4.41795 0 0 0 128 128 128 255
0.614737 0.541116 4.41795 0 0 0 128 128 128 255
0.0997426 0.847029 4.41808 0 0 0 128 128 128 255
-0.176005 1.01136 4.41822 0 0 0 128 128 128 255
0.141556 0.823436 4.41822 0 0 0 128 128 128 255
0.207822 0.784221 4.41822 0 0 0 128 128 128 255
0.877874 0.388853 4.41835 0 0 0 128 128 128 255
1.32625 0.123517 4.41835 0 0 0 128 128 128 255
0.896451 0.379011 4.41848 0 0 0 128 128 128 255
-0.386199 1.1392 4.41862 0 0 0 128 128 128 255
-0.00186664 0.912916 4.41875 0 0 0 128 128 128 255
0.783861 0.447942 4.41875 0 0 0 128 128 128 255
0.784366 0.448794 4.41889 0 0 0 128 128 128 255
1.33171 0.124891 4.41889 0 0 0 128 128 128 255
-0.153539 1.00613 4.41916 0 0 0 128 128 128 255
0.238894 0.773894 4.41916 0 0 0 128 128 128 255
0.772466 0.458139 4.41916 0 0 0 128 128 128 255
0.775048 0.456611 4.41916 0 0 0 128 128 128 255
-0.112586 0.983043 4.41929 0 0 0 128 128 128 255
0.0345761 0.895956 4.41929 0 0 0 128 128 128 255
0.991563 0.329634 4.41929 0 0 0 128 128 128 255
0.245928 0.772035 4.41942 0 0 0 128 128 128 255
0.897402 0.386508 4.41942 0 0 0 128 128 128 255
0.613908 0.555424 4.41956 0 0 0 128 128 128 255
0.966754 0.346618 4.41956 0 0 0 128 128 128 255
-0.0997359 0.981196 4.41996 0 0 0 128 128 128 255
0.265158 0.76526 4.41996 0 0 0 128 128 128 255
0.284952 0.753547 4.41996 0 0 0 128 128 128 255
0.903723 0.387373 4.41996 0 0 0 128 128 128 255
0.314005 0.739808 4.42036 0 0 0 128 128 128 255
0.606253 0.568014 4.4205 0 0 0 128 128 128 255
1.33948 0.134106 4.4205 0 0 0 128 128 128 255
-0.116146 0.996664 4.42063 0 0 0 128 128 128 255
0.189367 0.815869 4.42063 0 0 0 128 128 128 255
0.334097 0.732525 4.4209 0 0 0 128 128 128 255
0.77695 0.471606 4.42103 0 0 0 128 128 128 255
0.185006 0.824207 4.4213 0 0 0 128 128 128 255
0.202722 0.814874 4.42144 0 0 0 128 128 128 255
1.34266 0.141438 4.42157 0 0 0 128 128 128 255
0.310951 0.754282 4.42184 0 0 0 128 128 128 255
1.34625 0.141616 4.42184 0 0 0 128 128 128 255
0.271007 0.779071 4.42197 0 0 0 128 128 128 255
0.332614 0.743765 4.42211 0 0 0 128 128 128 255
0.845176 0.441595 4.42224 0 0 0 128 128 128 255
0.964948 0.373019 4.42251 0 0 0 128 128 128 255
0.307094 0.763473 4.42265 0 0 0 128 128 128 255
0.967323 0.375069 4.42291 0 0 0 128 128 128 255
0.969044 0.37405 4.42291 0 0 0 128 128 128 255
0.351638 0.740567 4.42305 0 0 0 128 128 128 255
0.629612 0.576069 4.42305 0 0 0 128 128 128 255
1.02118 0.344346 4.42305 0 0 0 128 128 128 255
0.868147 0.437213 4.42332 0 0 0 128 128 128 255
0.193941 0.837343 4.42345 0 0 0 128 128 128 255
0.166343 0.859432 4.42412 0 0 0 128 128 128 255
0.854111 0.454731 4.42439 0 0 0 128 128 128 255
0.22258 0.830758 4.42466 0 0 0 128 128 128 255
0.172814 0.862512 4.42493 0 0 0 128 128 128 255
0.612224 0.603631 4.42506 0 0 0 128 128 128 255
1.04166 0.349499 4.42506 0 0 0 128 128 128 255
1.04181 0.351714 4.42533 0 0 0 128 128 128 255
1.06226 0.343068 4.42573 0 0 0 128 128 128 255
0.0420929 0.947929 4.42587 0 0 0 128 128 128 255
1.04175 0.357506 4.426 0 0 0 128 128 128 255
0.603857 0.618945 4.42627 0 0 0 128 128 128 255
1.01573 0.376361 4.4264 0 0 0 128 128 128 255
0.898331 0.446986 4.42654 0 0 0 128 128 128 255
0.729298 0.548167 4.42667 0 0 0 128 128 128 255
1.08351 0.339705 4.42681 0 0 0 128 128 128 255
0.0244082 0.971061 4.42734 0 0 0 128 128 128 255
0.0340235 0.967674 4.42761 0 0 0 128 128 128 255
0.142103 0.904866 4.42775 0 0 0 128 128 128 255
0.89857 0.457207 4.42775 0 0 0 128 128 128 255
1.04796 0.369954 4.42788 0 0 0 128 128 128 255
1.05743 0.364352 4.42788 0 0 0 128 128 128 255
-0.22558 1.12591 4.42815 0 0 0 128 128 128 255
0.279592 0.826958 4.42815 0 0 0 128 128 128 255
0.93071 0.442794 4.42828 0 0 0 128 128 128 255
1.03793 0.380496 4.42842 0 0 0 128 128 128 255
0.932017 0.448929 4.42909 0 0 0 128 128 128 255
1.05903 0.374917 4.42922 0 0 0 128 128 128 255
1.11081 0.346575 4.42949 0 0 0 128 128 128 255
0.624724 0.636535 4.42976 0 0 0 128 128 128 255
0.931958 0.454721 4.42976 0 0 0 128 128 128 255
0.69387 0.600222 4.4303 0 0 0 128 128 128 255
0.605377 0.654893 4.43057 0 0 0 128 128 128 255
0.780079 0.551509 4.43057 0 0 0 128 128 128 255
0.333932 0.816679 4.4307 0 0 0 128 128 128 255
1.10604 0.362068 4.43097 0 0 0 128 128 128 255
1.14097 0.342549 4.4311 0 0 0 128 128 128 255
0.122522 0.946392 4.43124 0 0 0 128 128 128 255
0.310133 0.835369 4.43124 0 0 0 128 128 128 255
1.08432 0.378377 4.43137 0 0 0 128 128 128 255
0.718206 0.596184 4.43151 0 0 0 128 128 128 255
0.975525 0.443908 4.43151 0 0 0 128 128 128 255
0.168787 0.922468 4.43164 0 0 0 128 128 128 255
1.17483 0.327117 4.43164 0 0 0 128 128 128 255
1.16501 0.334081 4.43177 0 0 0 128 128 128 255
0.977544 0.44732 4.43204 0 0 0 128 128 128 255
1.12212 0.36176 4.43204 0 0 0 128 128 128 255
0.799904 0.553594 4.43218 0 0 0 128 128 128 255
0.998347 0.437312 4.43231 0 0 0 128 128 128 255
1.13518 0.356336 4.43231 0 0 0 128 128 128 255
1.13569 0.357189 4.43245 0 0 0 128 128 128 255
0.666809 0.636962 4.43271 0 0 0 128 128 128 255
0.982649 0.450056 4.43271 0 0 0 128 128 128 255
1.11174 0.373663 4.43271 0 0 0 128 128 128 255
0.203955 0.913171 4.43298 0 0 0 128 128 128 255
0.194281 0.92235 4.43338 0 0 0 128 128 128 255
1.16246 0.349408 4.43338 0 0 0 128 128 128 255
1.14797 0.360281 4.43365 0 0 0 128 128 128 255
0.287167 0.87314 4.43406 0 0 0 128 128 128 255
1.17854 0.3491 4.43446 0 0 0 128 128 128 255
0.339961 0.846503 4.43459 0 0 0 128 128 128 255
0.621022 0.68133 4.43473 0 0 0 128 128 128 255
0.74839 0.605956 4.43473 0 0 0 128 128 128 255
1.18299 0.348769 4.43473 0 0 0 128 128 128 255
1.20451 0.336037 4.43473 0 0 0 128 128 128 255
1.03289 0.438746 4.43486 0 0 0 128 128 128 255
0.718923 0.626849 4.43513 0 0 0 128 128 128 255
0.740438 0.614117 4.43513 0 0 0 128 128 128 255
1.03648 0.438924 4.43513 0 0 0 128 128 128 255
0.813233 0.57219 4.43526 0 0 0 128 128 128 255
1.02545 0.447759 4.4354 0 0 0 128 128 128 255
0.658118 0.667438 4.43567 0 0 0 128 128 128 255
1.14091 0.38173 4.43567 0 0 0 128 128 128 255
0.261025 0.903579 4.4358 0 0 0 128 128 128 255
1.02625 0.453042 4.43607 0 0 0 128 128 128 255
0.711209 0.645231 4.43674 0 0 0 128 128 128 255
1.16991 0.373784 4.43674 0 0 0 128 128 128 255
0.286578 0.897669 4.43687 0 0 0 128 128 128 255
0.612745 0.704651 4.43687 0 0 0 128 128 128 255
0.741835 0.628259 4.43687 0 0 0 128 128 128 255
1.18211 0.368869 4.43701 0 0 0 128 128 128 255
0.298775 0.892754 4.43714 0 0 0 128 128 128 255
1.19896 0.360045 4.43714 0 0 0 128 128 128 255
0.597908 0.716886 4.43728 0 0 0 128 128 128 255
0.813206 0.59178 4.43755 0 0 0 128 128 128 255
1.06536 0.442561 4.43755 0 0 0 128 128 128 255
0.801663 0.599763 4.43768 0 0 0 128 128 128 255
0.25447 0.925882 4.43795 0 0 0 128 128 128 255
1.20027 0.366181 4.43795 0 0 0 128 128 128 255
0.345486 0.875475 4.43835 0 0 0 128 128 128 255
0.830806 0.594031 4.43902 0 0 0 128 128 128 255
1.08726 0.442265 4.43902 0 0 0 128 128 128 255
0.624767 0.717112 4.43916 0 0 0 128 128 128 255
0.813238 0.605579 4.43916 0 0 0 128 128 128 255
0.592569 0.737317 4.43929 0 0 0 128 128 128 255
0.60892 0.727641 4.43929 0 0 0 128 128 128 255
0.285127 0.922708 4.43969 0 0 0 128 128 128 255
0.657767 0.702189 4.43969 0 0 0 128 128 128 255
0.707682 0.672651 4.43969 0 0 0 128 128 128 255
0.767924 0.637001 4.43969 0 0 0 128 128 128 255
0.616963 0.727487 4.43983 0 0 0 128 128 128 255
0.59165 0.743619 4.43996 0 0 0 128 128 128 255
0.637261 0.716627 4.43996 0 0 0 128 128 128 255
0.670262 0.701704 4.4405 0 0 0 128 128 128 255
0.191917 0.98708 4.44077 0 0 0 128 128 128 255
0.330978 0.905938 4.4409 0 0 0 128 128 128 255
0.794842 0.631435 4.4409 0 0 0 128 128 128 255
1.01085 0.503605 4.4409 0 0 0 128 128 128 255
0.832352 0.610389 4.44104 0 0 0 128 128 128 255
0.709791 0.684069 4.44117 0 0 0 128 128 128 255
0.974856 0.52721 4.44117 0 0 0 128 128 128 255
1.00153 0.511422 4.44117 0 0 0 128 128 128 255
1.11341 0.445215 4.44117 0 0 0 128 128 128 255
1.11478 0.445559 4.44131 0 0 0 128 128 128 255
0.264149 0.950092 4.44144 0 0 0 128 128 128 255
0.856746 0.600559 4.44157 0 0 0 128 128 128 255
0.842621 0.610069 4.44171 0 0 0 128 128 128 255
1.16018 0.422144 4.44171 0 0 0 128 128 128 255
0.617648 0.744354 4.44184 0 0 0 128 128 128 255
0.487342 0.822617 4.44198 0 0 0 128 128 128 255
0.69991 0.696825 4.44198 0 0 0 128 128 128 255
0.276436 0.953183 4.44265 0 0 0 128 128 128 255
0.684361 0.711784 4.44265 0 0 0 128 128 128 255
0.940819 0.560018 4.44265 0 0 0 128 128 128 255
1.15425 0.433716 4.44265 0 0 0 128 128 128 255
0.909986 0.580567 4.44292 0 0 0 128 128 128 255
0.432858 0.864071 4.44305 0 0 0 128 128 128 255
0.66436 0.727074 4.44305 0 0 0 128 128 128 255
0.667802 0.725037 4.44305 0 0 0 128 128 128 255
0.632162 0.74728 4.44318 0 0 0 128 128 128 255
0.749203 0.678017 4.44318 0 0 0 128 128 128 255
1.15627 0.437127 4.44318 0 0 0 128 128 128 255
1.1509 0.44376 4.44359 0 0 0 128 128 128 255
1.04469 0.507764 4.44372 0 0 0 128 128 128 255
0.263766 0.971044 4.44386 0 0 0 128 128 128 255
0.954828 0.562091 4.44386 0 0 0 128 128 128 255
1.05122 0.505051 4.44386 0 0 0 128 128 128 255
0.821079 0.642392 4.44399 0 0 0 128 128 128 255
0.904557 0.592991 4.44399 0 0 0 128 128 128 255
1.16188 0.440716 4.44399 0 0 0 128 128 128 255
0.646021 0.747138 4.44412 0 0 0 128 128 128 255
1.16633 0.440385 4.44426 0 0 0 128 128 128 255
0.696085 0.719815 4.44439 0 0 0 128 128 128 255
0.475415 0.851553 4.44453 0 0 0 128 128 128 255
0.841319 0.637323 4.4448 0 0 0 128 128 128 255
0.920999 0.591322 4.44493 0 0 0 128 128 128 255
0.501175 0.842066 4.4452 0 0 0 128 128 128 255
0.629405 0.766183 4.4452 0 0 0 128 128 128 255
0.968125 0.566888 4.44533 0 0 0 128 128 128 255
1.06968 0.506793 4.44533 0 0 0 128 128 128 255
1.20357 0.428707 4.44547 0 0 0 128 128 128 255
0.794937 0.672831 4.44573 0 0 0 128 128 128 255
1.07721 0.505786 4.44573 0 0 0 128 128 128 255
1.20265 0.435008 4.44614 0 0 0 128 128 128 255
0.989167 0.567102 4.44681 0 0 0 128 128 128 255
0.985369 0.570501 4.44694 0 0 0 128 128 128 255
1.0938 0.506332 4.44694 0 0 0 128 128 128 255
0.827672 0.667277 4.44735 0 0 0 128 128 128 255
1.2077 0.443536 4.44748 0 0 0 128 128 128 255
0.749506 0.715837 4.44761 0 0 0 128 128 128 255
0.95691 0.5931 4.44761 0 0 0 128 128 128 255
0.825387 0.673235 4.44788 0 0 0 128 128 128 255
0.379745 0.939258 4.44815 0 0 0 128 128 128 255
0.654277 0.776797 4.44815 0 0 0 128 128 128 255
0.827257 0.674431 4.44815 0 0 0 128 128 128 255
0.687484 0.758297 4.44829 0 0 0 128 128 128 255
0.687633 0.760512 4.44855 0 0 0 128 128 128 255
0.947534 0.606708 4.44855 0 0 0 128 128 128 255
0.711879 0.748467 4.44882 0 0 0 128 128 128 255
