ply
format ascii 1.0
comment VCGLIB generated
element vertex 357
property float x
property float y
property float z
property float nx
property float ny
property float nz
property uchar red
property uchar green
property uchar blue
property uchar alpha
element face 0
property list uchar int vertex_indices
end_header
1.51626 0.965302 3.44454 0 0 0 128 128 0 255
1.51557 0.961292 3.44367 0 0 0 128 128 0 255
1.46293 1.12897 3.45586 0 0 0 128 128 0 255
1.41868 1.25617 3.54673 0 0 0 128 128 0 255
1.41029 1.28542 3.59133 0 0 0 128 128 0 255
1.35313 1.15775 3.41484 0 0 0 128 128 0 255
1.33931 1.2252 3.46365 0 0 0 128 128 0 255
1.33402 1.19382 3.4343 0 0 0 128 128 0 255
1.3471 1.12945 3.39652 0 0 0 128 128 0 255
1.35004 1.11632 3.39085 0 0 0 128 128 0 255
1.33072 1.17013 3.41602 0 0 0 128 128 0 255
1.31865 1.20234 3.43687 0 0 0 128 128 0 255
1.31699 1.19239 3.42853 0 0 0 128 128 0 255
1.31545 1.19654 3.43139 0 0 0 128 128 0 255
1.34529 1.09522 3.3801 0 0 0 128 128 0 255
1.32747 1.12843 3.39054 0 0 0 128 128 0 255
1.32294 1.12822 3.38935 0 0 0 128 128 0 255
1.305 1.10429 3.3745 0 0 0 128 128 0 255
1.28335 1.09625 3.368 0 0 0 128 128 0 255
1.31934 1.02972 3.35357 0 0 0 128 128 0 255
1.29227 1.07192 3.36034 0 0 0 128 128 0 255
1.29308 1.06707 3.3589 0 0 0 128 128 0 255
1.29355 1.06127 3.3572 0 0 0 128 128 0 255
1.26322 1.10583 3.37009 0 0 0 128 128 0 255
1.27152 1.08209 3.36149 0 0 0 128 128 0 255
1.27678 1.06751 3.35711 0 0 0 128 128 0 255
1.25149 1.09975 3.36699 0 0 0 128 128 0 255
1.2549 1.09315 3.36451 0 0 0 128 128 0 255
1.2755 1.05512 3.35332 0 0 0 128 128 0 255
1.23557 1.12726 3.37911 0 0 0 128 128 0 255
1.2524 1.09229 3.36408 0 0 0 128 128 0 255
1.28559 1.03294 3.34885 0 0 0 128 128 0 255
1.23026 1.11455 3.37319 0 0 0 128 128 0 255
1.23144 1.11 3.37114 0 0 0 128 128 0 255
1.27366 1.03681 3.3485 0 0 0 128 128 0 255
1.24957 1.07255 3.357 0 0 0 128 128 0 255
1.27027 1.02332 3.34535 0 0 0 128 128 0 255
1.34917 0.892063 3.35512 0 0 0 128 128 0 255
1.34354 0.882276 3.355 0 0 0 128 128 0 255
1.38436 0.804825 3.38928 0 0 0 128 128 0 255
1.38129 0.810021 3.38609 0 0 0 128 128 0 255
1.23334 0.997639 3.33998 0 0 0 128 128 0 255
1.36857 0.816625 3.379 0 0 0 128 128 0 255
1.35913 0.827373 3.37232 0 0 0 128 128 0 255
1.26248 0.948164 3.33724 0 0 0 128 128 0 255
1.38406 0.775475 3.40194 0 0 0 128 128 0 255
1.36558 0.810382 3.38017 0 0 0 128 128 0 255
1.36915 0.798604 3.38592 0 0 0 128 128 0 255
1.37249 0.786533 3.39223 0 0 0 128 128 0 255
1.28711 0.900896 3.34173 0 0 0 128 128 0 255
1.36381 0.795842 3.38516 0 0 0 128 128 0 255
1.29213 0.890199 3.34365 0 0 0 128 128 0 255
1.22934 0.934719 3.33674 0 0 0 128 128 0 255
1.34033 0.807389 3.3735 0 0 0 128 128 0 255
1.21697 0.942292 3.33709 0 0 0 128 128 0 255
1.17053 0.98694 3.34435 0 0 0 128 128 0 255
1.13831 1.01637 3.35531 0 0 0 128 128 0 255
1.16688 0.977365 3.34409 0 0 0 128 128 0 255
1.35467 0.764056 3.39666 0 0 0 128 128 0 255
1.34336 0.782978 3.38418 0 0 0 128 128 0 255
1.16797 0.972499 3.34353 0 0 0 128 128 0 255
1.19267 0.946466 3.33907 0 0 0 128 128 0 255
1.22048 0.914449 3.33801 0 0 0 128 128 0 255
1.35665 0.744285 3.40816 0 0 0 128 128 0 255
1.16202 0.964486 3.34413 0 0 0 128 128 0 255
1.33156 0.786892 3.37931 0 0 0 128 128 0 255
1.35156 0.643958 3.48968 0 0 0 128 128 0 255
1.34424 0.763208 3.39383 0 0 0 128 128 0 255
1.23914 0.878101 3.3419 0 0 0 128 128 0 255
1.31341 0.80104 3.36957 0 0 0 128 128 0 255
1.11295 1.00044 3.36001 0 0 0 128 128 0 255
1.18495 0.917389 3.3409 0 0 0 128 128 0 255
1.33793 0.756757 3.39535 0 0 0 128 128 0 255
1.35346 0.720694 3.42199 0 0 0 128 128 0 255
1.23504 0.86529 3.34421 0 0 0 128 128 0 255
1.32757 0.765823 3.38799 0 0 0 128 128 0 255
1.35439 0.697998 3.43904 0 0 0 128 128 0 255
1.16387 0.923229 3.34386 0 0 0 128 128 0 255
1.35136 0.697071 3.43866 0 0 0 128 128 0 255
1.30517 0.785549 3.37422 0 0 0 128 128 0 255
1.03485 1.05746 3.40829 0 0 0 128 128 0 255
1.10225 0.96668 3.36022 0 0 0 128 128 0 255
1.34494 0.669389 3.4604 0 0 0 128 128 0 255
1.12004 0.936696 3.35391 0 0 0 128 128 0 255
1.10064 0.954746 3.36029 0 0 0 128 128 0 255
1.3411 0.660297 3.4679 0 0 0 128 128 0 255
1.22193 0.846341 3.3487 0 0 0 128 128 0 255
1.29161 0.781165 3.37394 0 0 0 128 128 0 255
1.22491 0.838713 3.35054 0 0 0 128 128 0 255
1.29562 0.774476 3.37751 0 0 0 128 128 0 255
1.10922 0.935551 3.35733 0 0 0 128 128 0 255
1.26571 0.792908 3.36632 0 0 0 128 128 0 255
1.06425 0.964523 3.37553 0 0 0 128 128 0 255
1.09103 0.936769 3.36377 0 0 0 128 128 0 255
1.30124 0.754637 3.38816 0 0 0 128 128 0 255
0.975627 1.20211 3.56149 0 0 0 128 128 0 255
1.24129 0.806501 3.36027 0 0 0 128 128 0 255
0.972412 1.19966 3.56267 0 0 0 128 128 0 255
1.0615 0.955926 3.37646 0 0 0 128 128 0 255
1.2524 0.795829 3.36446 0 0 0 128 128 0 255
1.28995 0.758777 3.38424 0 0 0 128 128 0 255
1.08275 0.928322 3.36729 0 0 0 128 128 0 255
1.08582 0.92311 3.36631 0 0 0 128 128 0 255
1.29762 0.747139 3.39158 0 0 0 128 128 0 255
0.9633 1.18751 3.55971 0 0 0 128 128 0 255
1.25568 0.785389 3.36879 0 0 0 128 128 0 255
1.25931 0.782331 3.37027 0 0 0 128 128 0 255
1.24622 0.792354 3.36565 0 0 0 128 128 0 255
1.22231 0.806053 3.36075 0 0 0 128 128 0 255
1.293 0.744756 3.39216 0 0 0 128 128 0 255
0.955852 1.0868 3.4838 0 0 0 128 128 0 255
0.950678 1.10176 3.49814 0 0 0 128 128 0 255
1.19632 0.815822 3.35934 0 0 0 128 128 0 255
1.31901 0.658474 3.46261 0 0 0 128 128 0 255
1.20312 0.806184 3.36198 0 0 0 128 128 0 255
0.945891 1.09762 3.50113 0 0 0 128 128 0 255
1.24463 0.773976 3.37342 0 0 0 128 128 0 255
0.938891 1.16238 3.56625 0 0 0 128 128 0 255
1.04442 0.921663 3.38559 0 0 0 128 128 0 255
0.940887 1.09494 3.50546 0 0 0 128 128 0 255
1.31257 0.647997 3.47164 0 0 0 128 128 0 255
0.941395 1.18469 3.59178 0 0 0 128 128 0 255
0.937014 1.10397 3.51616 0 0 0 128 128 0 255
1.15476 0.82979 3.36169 0 0 0 128 128 0 255
1.21352 0.790341 3.36718 0 0 0 128 128 0 255
1.25846 0.755067 3.38306 0 0 0 128 128 0 255
1.30428 0.640935 3.47723 0 0 0 128 128 0 255
1.28881 0.717975 3.40785 0 0 0 128 128 0 255
1.14749 0.820512 3.3662 0 0 0 128 128 0 255
1.30094 0.638827 3.4788 0 0 0 128 128 0 255
1.30252 0.642236 3.47537 0 0 0 128 128 0 255
0.923206 1.1523 3.58145 0 0 0 128 128 0 255
1.19392 0.787663 3.37005 0 0 0 128 128 0 255
1.06408 0.874744 3.38164 0 0 0 128 128 0 255
0.917766 1.13046 3.56683 0 0 0 128 128 0 255
1.17682 0.792738 3.37038 0 0 0 128 128 0 255
1.07055 0.861203 3.38145 0 0 0 128 128 0 255
1.15224 0.803685 3.37094 0 0 0 128 128 0 255
1.16447 0.795378 3.37154 0 0 0 128 128 0 255
1.1465 0.803801 3.37225 0 0 0 128 128 0 255
1.14384 0.802859 3.37326 0 0 0 128 128 0 255
1.17927 0.781699 3.37459 0 0 0 128 128 0 255
1.17416 0.782328 3.37516 0 0 0 128 128 0 255
1.12427 0.808767 3.37652 0 0 0 128 128 0 255
1.14658 0.79357 3.3762 0 0 0 128 128 0 255
1.17132 0.777634 3.37773 0 0 0 128 128 0 255
0.900788 1.14418 3.61933 0 0 0 128 128 0 255
1.25823 0.714958 3.40673 0 0 0 128 128 0 255
0.902238 1.16091 3.6447 0 0 0 128 128 0 255
1.19334 0.750994 3.38744 0 0 0 128 128 0 255
1.06414 0.824764 3.39471 0 0 0 128 128 0 255
1.14493 0.775387 3.3845 0 0 0 128 128 0 255
1.16032 0.763136 3.38677 0 0 0 128 128 0 255
0.933567 0.948199 3.47072 0 0 0 128 128 0 255
0.94912 0.924401 3.4553 0 0 0 128 128 0 255
1.15795 0.761219 3.38825 0 0 0 128 128 0 255
0.936673 0.939197 3.46739 0 0 0 128 128 0 255
1.05905 0.817589 3.39977 0 0 0 128 128 0 255
1.1457 0.761144 3.39123 0 0 0 128 128 0 255
0.94245 0.920191 3.46233 0 0 0 128 128 0 255
0.941903 0.91962 3.46294 0 0 0 128 128 0 255
0.935582 0.923076 3.46933 0 0 0 128 128 0 255
1.17216 0.741825 3.3958 0 0 0 128 128 0 255
1.07022 0.782039 3.40905 0 0 0 128 128 0 255
1.27471 0.655786 3.45635 0 0 0 128 128 0 255
1.06806 0.781533 3.41036 0 0 0 128 128 0 255
1.05945 0.785989 3.41269 0 0 0 128 128 0 255
1.225 0.703253 3.41453 0 0 0 128 128 0 255
0.952841 0.874313 3.45938 0 0 0 128 128 0 255
0.948724 0.877851 3.46264 0 0 0 128 128 0 255
1.15497 0.73 3.40656 0 0 0 128 128 0 255
0.951237 0.868103 3.46255 0 0 0 128 128 0 255
0.978591 0.837043 3.44689 0 0 0 128 128 0 255
0.864939 1.09274 3.6527 0 0 0 128 128 0 255
0.942654 0.868772 3.47121 0 0 0 128 128 0 255
0.938676 0.872301 3.47454 0 0 0 128 128 0 255
0.863182 1.08955 3.65467 0 0 0 128 128 0 255
1.04674 0.77653 3.42446 0 0 0 128 128 0 255
1.07947 0.756937 3.41761 0 0 0 128 128 0 255
0.918792 0.894344 3.49259 0 0 0 128 128 0 255
1.02651 0.788309 3.4312 0 0 0 128 128 0 255
1.20862 0.697604 3.41974 0 0 0 128 128 0 255
0.94719 0.856932 3.46991 0 0 0 128 128 0 255
0.864051 1.10265 3.67407 0 0 0 128 128 0 255
0.899693 0.918573 3.51436 0 0 0 128 128 0 255
1.13214 0.726659 3.41508 0 0 0 128 128 0 255
1.04677 0.769177 3.42834 0 0 0 128 128 0 255
0.918485 0.885147 3.49494 0 0 0 128 128 0 255
1.1605 0.711727 3.41734 0 0 0 128 128 0 255
1.26031 0.654145 3.45654 0 0 0 128 128 0 255
0.919856 0.875145 3.49576 0 0 0 128 128 0 255
1.06024 0.751144 3.43095 0 0 0 128 128 0 255
0.946255 0.836503 3.47814 0 0 0 128 128 0 255
1.05474 0.749092 3.43535 0 0 0 128 128 0 255
0.856182 1.09608 3.70712 0 0 0 128 128 0 255
1.09524 0.716503 3.43626 0 0 0 128 128 0 255
1.09576 0.71215 3.43923 0 0 0 128 128 0 255
0.857164 1.10323 3.73089 0 0 0 128 128 0 255
0.902249 0.863234 3.52348 0 0 0 128 128 0 255
1.2286 0.661081 3.4492 0 0 0 128 128 0 255
1.03852 0.737157 3.4534 0 0 0 128 128 0 255
1.05815 0.725654 3.44912 0 0 0 128 128 0 255
1.10306 0.701506 3.44414 0 0 0 128 128 0 255
1.11606 0.695885 3.44319 0 0 0 128 128 0 255
0.848699 0.967 3.61386 0 0 0 128 128 0 255
0.985697 0.7688 3.47399 0 0 0 128 128 0 255
0.851161 0.955865 3.60569 0 0 0 128 128 0 255
1.10218 0.693934 3.45072 0 0 0 128 128 0 255
0.945 0.798374 3.49806 0 0 0 128 128 0 255
1.06859 0.706884 3.45741 0 0 0 128 128 0 255
1.10517 0.688698 3.45382 0 0 0 128 128 0 255
0.947102 0.789908 3.50069 0 0 0 128 128 0 255
1.20149 0.650914 3.4613 0 0 0 128 128 0 255
0.946728 0.784 3.5049 0 0 0 128 128 0 255
0.911801 0.820533 3.52893 0 0 0 128 128 0 255
0.870264 1.12491 3.80309 0 0 0 128 128 0 255
0.945154 0.781984 3.50813 0 0 0 128 128 0 255
0.945823 0.781344 3.50775 0 0 0 128 128 0 255
0.888101 1.14729 3.83398 0 0 0 128 128 0 255
0.933197 0.790348 3.51763 0 0 0 128 128 0 255
0.929822 0.792973 3.52038 0 0 0 128 128 0 255
1.07109 0.686907 3.47331 0 0 0 128 128 0 255
1.14212 0.656475 3.46951 0 0 0 128 128 0 255
0.925522 0.792276 3.52675 0 0 0 128 128 0 255
1.141 0.655443 3.47097 0 0 0 128 128 0 255
1.13036 0.657788 3.47247 0 0 0 128 128 0 255
1.12744 0.658152 3.47325 0 0 0 128 128 0 255
0.918736 0.790234 3.53806 0 0 0 128 128 0 255
0.916769 0.791579 3.54007 0 0 0 128 128 0 255
1.09689 0.664735 3.48055 0 0 0 128 128 0 255
1.15379 0.643148 3.47995 0 0 0 128 128 0 255
1.19497 0.632701 3.48206 0 0 0 128 128 0 255
1.08662 0.667874 3.48291 0 0 0 128 128 0 255
1.06835 0.675839 3.4858 0 0 0 128 128 0 255
1.14796 0.643657 3.48128 0 0 0 128 128 0 255
1.071 0.673824 3.48616 0 0 0 128 128 0 255
0.860999 0.867691 3.59977 0 0 0 128 128 0 255
1.14975 0.639288 3.48565 0 0 0 128 128 0 255
1.08368 0.663682 3.48904 0 0 0 128 128 0 255
0.949158 0.750252 3.5275 0 0 0 128 128 0 255
1.10924 0.65216 3.48779 0 0 0 128 128 0 255
1.18262 0.629586 3.48806 0 0 0 128 128 0 255
0.90794 0.790941 3.55477 0 0 0 128 128 0 255
1.11619 0.648177 3.48894 0 0 0 128 128 0 255
0.91076 0.786857 3.55328 0 0 0 128 128 0 255
0.912543 0.784822 3.55196 0 0 0 128 128 0 255
0.938392 0.75639 3.53667 0 0 0 128 128 0 255
1.0536 0.67364 3.49824 0 0 0 128 128 0 255
1.06809 0.666301 3.49604 0 0 0 128 128 0 255
1.17497 0.627406 3.49247 0 0 0 128 128 0 255
0.899517 0.793106 3.56797 0 0 0 128 128 0 255
1.10782 0.643823 3.49814 0 0 0 128 128 0 255
1.07727 0.654181 3.50374 0 0 0 128 128 0 255
0.958563 0.728026 3.53616 0 0 0 128 128 0 255
1.05501 0.664319 3.5076 0 0 0 128 128 0 255
0.952708 0.731601 3.54036 0 0 0 128 128 0 255
0.94699 0.735923 3.54392 0 0 0 128 128 0 255
0.957023 0.72721 3.53903 0 0 0 128 128 0 255
1.17785 0.618821 3.5027 0 0 0 128 128 0 255
0.895286 0.788437 3.58026 0 0 0 128 128 0 255
0.956973 0.725165 3.54123 0 0 0 128 128 0 255
1.13214 0.628956 3.50499 0 0 0 128 128 0 255
1.19379 0.615848 3.50325 0 0 0 128 128 0 255
0.942694 0.736991 3.54902 0 0 0 128 128 0 255
1.12067 0.632133 3.50616 0 0 0 128 128 0 255
0.953321 0.726892 3.5444 0 0 0 128 128 0 255
1.04116 0.666554 3.51604 0 0 0 128 128 0 255
0.941967 0.736264 3.55085 0 0 0 128 128 0 255
1.18612 0.6145 3.50658 0 0 0 128 128 0 255
1.182 0.614143 3.50798 0 0 0 128 128 0 255
1.03946 0.661934 3.52313 0 0 0 128 128 0 255
1.17847 0.611607 3.51235 0 0 0 128 128 0 255
1.04312 0.65642 3.52692 0 0 0 128 128 0 255
0.882577 0.790328 3.60679 0 0 0 128 128 0 255
1.17498 0.609143 3.51676 0 0 0 128 128 0 255
1.19362 0.606676 3.516 0 0 0 128 128 0 255
0.92935 0.734209 3.57349 0 0 0 128 128 0 255
0.933412 0.730304 3.57114 0 0 0 128 128 0 255
1.05007 0.64884 3.5309 0 0 0 128 128 0 255
1.20615 0.605857 3.51512 0 0 0 128 128 0 255
1.07907 0.634354 3.52794 0 0 0 128 128 0 255
1.08244 0.632425 3.52825 0 0 0 128 128 0 255
1.21451 0.605666 3.5144 0 0 0 128 128 0 255
1.1916 0.604895 3.51899 0 0 0 128 128 0 255
1.19925 0.604697 3.51786 0 0 0 128 128 0 255
0.925672 0.734063 3.58028 0 0 0 128 128 0 255
1.05145 0.64486 3.53517 0 0 0 128 128 0 255
1.07721 0.633047 3.53114 0 0 0 128 128 0 255
0.930652 0.726754 3.5804 0 0 0 128 128 0 255
1.12067 0.613564 3.53204 0 0 0 128 128 0 255
1.1514 0.606019 3.52922 0 0 0 128 128 0 255
1.12989 0.609251 3.53386 0 0 0 128 128 0 255
0.919481 0.732525 3.5943 0 0 0 128 128 0 255
1.09794 0.618623 3.53797 0 0 0 128 128 0 255
1.2053 0.599298 3.525 0 0 0 128 128 0 255
1.09573 0.614882 3.54536 0 0 0 128 128 0 255
1.0477 0.634484 3.55403 0 0 0 128 128 0 255
1.11472 0.608351 3.54363 0 0 0 128 128 0 255
1.12437 0.605662 3.54247 0 0 0 128 128 0 255
1.11395 0.607326 3.54578 0 0 0 128 128 0 255
0.947646 0.696306 3.5927 0 0 0 128 128 0 255
1.11375 0.605745 3.54854 0 0 0 128 128 0 255
1.19793 0.593458 3.5355 0 0 0 128 128 0 255
1.20796 0.593338 3.53404 0 0 0 128 128 0 255
0.924175 0.716338 3.60828 0 0 0 128 128 0 255
1.2191 0.594288 3.53123 0 0 0 128 128 0 255
1.11055 0.604672 3.55239 0 0 0 128 128 0 255
1.13685 0.596527 3.5513 0 0 0 128 128 0 255
1.24663 0.598375 3.52414 0 0 0 128 128 0 255
1.01257 0.643492 3.57891 0 0 0 128 128 0 255
1.03191 0.630242 3.5783 0 0 0 128 128 0 255
0.831829 0.946215 3.82459 0 0 0 128 128 0 255
1.03179 0.627407 3.58375 0 0 0 128 128 0 255
1.01179 0.6371 3.59179 0 0 0 128 128 0 255
1.16232 0.584815 3.56102 0 0 0 128 128 0 255
1.03024 0.625027 3.59037 0 0 0 128 128 0 255
0.96367 0.663621 3.62154 0 0 0 128 128 0 255
1.07123 0.602988 3.58784 0 0 0 128 128 0 255
1.01743 0.627702 3.60276 0 0 0 128 128 0 255
1.06842 0.602355 3.59215 0 0 0 128 128 0 255
1.07525 0.599774 3.59058 0 0 0 128 128 0 255
0.85157 0.975168 3.8924 0 0 0 128 128 0 255
1.07763 0.597584 3.59293 0 0 0 128 128 0 255
0.973273 0.65169 3.62819 0 0 0 128 128 0 255
0.955342 0.663997 3.64016 0 0 0 128 128 0 255
0.838797 0.925585 3.85401 0 0 0 128 128 0 255
0.905342 0.711958 3.67342 0 0 0 128 128 0 255
1.04526 0.604677 3.61553 0 0 0 128 128 0 255
1.03534 0.608415 3.62086 0 0 0 128 128 0 255
0.905416 0.70665 3.69158 0 0 0 128 128 0 255
1.03302 0.607489 3.62709 0 0 0 128 128 0 255
1.01957 0.612985 3.63566 0 0 0 128 128 0 255
0.923998 0.683749 3.68658 0 0 0 128 128 0 255
1.01583 0.613922 3.64026 0 0 0 128 128 0 255
1.01705 0.612188 3.64307 0 0 0 128 128 0 255
0.853149 0.901109 3.89334 0 0 0 128 128 0 255
0.979028 0.632217 3.67213 0 0 0 128 128 0 255
0.854149 0.899181 3.89541 0 0 0 128 128 0 255
0.990951 0.623892 3.66731 0 0 0 128 128 0 255
0.931768 0.670498 3.7081 0 0 0 128 128 0 255
0.851795 0.854919 3.86558 0 0 0 128 128 0 255
0.854265 0.874467 3.88558 0 0 0 128 128 0 255
0.854962 0.854191 3.87516 0 0 0 128 128 0 255
0.959058 0.642744 3.70799 0 0 0 128 128 0 255
0.8589 0.849342 3.8833 0 0 0 128 128 0 255
1.32357 0.616911 3.51268 0 0 0 128 128 0 255
0.880857 0.891964 3.9506 0 0 0 128 128 0 255
0.906455 0.876784 3.98676 0 0 0 128 128 0 255
0.91253 0.876907 3.99508 0 0 0 128 128 0 255
1.34706 0.630129 3.50453 0 0 0 128 128 0 255
0.934179 0.875963 4.02124 0 0 0 128 128 0 255
1.35358 0.630462 3.50709 0 0 0 128 128 0 255
1.06941 0.570456 3.7986 0 0 0 128 128 0 255
1.06018 0.57599 3.80712 0 0 0 128 128 0 255
1.1246 0.551032 3.80529 0 0 0 128 128 0 255
1.32799 0.546429 3.68397 0 0 0 128 128 0 255
1.35985 0.550615 3.78057 0 0 0 128 128 0 255
