ply
format ascii 1.0
comment VCGLIB generated
element vertex 525
property float x
property float y
property float z
property float nx
property float ny
property float nz
property uchar red
property uchar green
property uchar blue
property uchar alpha
element face 0
property list uchar int vertex_indices
end_header
0.381567 0.976765 4.4162 0 0 0 128 0 0 255
0.38335 1.00565 4.40307 0 0 0 128 0 0 255
0.389791 1.02726 4.36845 0 0 0 128 0 0 255
0.367991 1.27607 4.35681 0 0 0 128 0 0 255
0.366991 1.29194 4.35335 0 0 0 128 0 0 255
0.419747 0.716416 4.3642 0 0 0 128 0 0 255
0.436372 0.533226 4.36888 0 0 0 128 0 0 255
0.422652 0.686509 4.36314 0 0 0 128 0 0 255
0.382182 1.13937 4.34514 0 0 0 128 0 0 255
0.381446 1.14927 4.34284 0 0 0 128 0 0 255
0.396916 0.979968 4.34509 0 0 0 128 0 0 255
0.379891 1.17005 4.33721 0 0 0 128 0 0 255
0.379585 1.17401 4.33609 0 0 0 128 0 0 255
0.447585 0.4204 4.3584 0 0 0 128 0 0 255
0.435018 0.559769 4.35409 0 0 0 128 0 0 255
0.438653 0.519922 4.35432 0 0 0 128 0 0 255
0.394579 1.00871 4.3392 0 0 0 128 0 0 255
0.453036 0.362251 4.3462 0 0 0 128 0 0 255
0.453542 0.356214 4.34439 0 0 0 128 0 0 255
0.396044 0.993259 4.32268 0 0 0 128 0 0 255
0.390627 1.05295 4.31983 0 0 0 128 0 0 255
0.393335 1.02203 4.31879 0 0 0 128 0 0 255
0.448448 0.409731 4.33573 0 0 0 128 0 0 255
0.438645 0.517173 4.33041 0 0 0 128 0 0 255
0.444354 0.452393 4.33042 0 0 0 128 0 0 255
0.424733 0.668339 4.32174 0 0 0 128 0 0 255
0.419886 0.722095 4.32008 0 0 0 128 0 0 255
0.401036 0.931148 4.31361 0 0 0 128 0 0 255
0.391263 1.03345 4.30446 0 0 0 128 0 0 255
0.444031 0.447069 4.32161 0 0 0 128 0 0 255
0.366835 1.30319 4.29512 0 0 0 128 0 0 255
0.450657 0.372367 4.32293 0 0 0 128 0 0 255
0.391068 1.02926 4.29962 0 0 0 128 0 0 255
0.417747 0.727463 4.30499 0 0 0 128 0 0 255
0.437714 0.504431 4.3109 0 0 0 128 0 0 255
0.40217 0.893534 4.2959 0 0 0 128 0 0 255
0.400716 0.900276 4.29075 0 0 0 128 0 0 255
0.398384 0.924121 4.28903 0 0 0 128 0 0 255
0.399998 0.904164 4.28867 0 0 0 128 0 0 255
0.363432 1.30321 4.27337 0 0 0 128 0 0 255
0.417311 0.698806 4.28913 0 0 0 128 0 0 255
0.438554 0.460836 4.29552 0 0 0 128 0 0 255
0.439017 0.450781 4.29388 0 0 0 128 0 0 255
0.439106 0.444708 4.29212 0 0 0 128 0 0 255
0.395391 0.92951 4.27712 0 0 0 128 0 0 255
0.415356 0.697355 4.28041 0 0 0 128 0 0 255
0.360869 1.30162 4.26172 0 0 0 128 0 0 255
0.433707 0.488198 4.28495 0 0 0 128 0 0 255
0.385427 1.02073 4.2675 0 0 0 128 0 0 255
0.432747 0.49003 4.28199 0 0 0 128 0 0 255
0.403663 0.806486 4.27028 0 0 0 128 0 0 255
0.432354 0.478806 4.27753 0 0 0 128 0 0 255
0.43002 0.504689 4.27673 0 0 0 128 0 0 255
0.393307 0.911843 4.26414 0 0 0 128 0 0 255
0.437491 0.411941 4.27673 0 0 0 128 0 0 255
0.437011 0.413875 4.27572 0 0 0 128 0 0 255
0.407853 0.723242 4.26235 0 0 0 128 0 0 255
0.427974 0.489128 4.26675 0 0 0 128 0 0 255
0.406839 0.71598 4.25785 0 0 0 128 0 0 255
0.395529 0.841411 4.25397 0 0 0 128 0 0 255
0.394234 0.840175 4.25025 0 0 0 128 0 0 255
0.348353 1.3327 4.23129 0 0 0 128 0 0 255
0.393275 0.821823 4.24431 0 0 0 128 0 0 255
0.423908 0.417741 4.24404 0 0 0 128 0 0 255
0.417995 0.478399 4.24127 0 0 0 128 0 0 255
0.415751 0.503286 4.2405 0 0 0 128 0 0 255
0.418289 0.429003 4.23479 0 0 0 128 0 0 255
0.381845 0.83317 4.22229 0 0 0 128 0 0 255
0.414666 0.436543 4.22931 0 0 0 128 0 0 255
0.376452 0.843481 4.21413 0 0 0 128 0 0 255
0.337267 1.20694 4.1927 0 0 0 128 0 0 255
0.407158 0.394171 4.21288 0 0 0 128 0 0 255
0.381755 0.675894 4.20416 0 0 0 128 0 0 255
0.36341 0.872924 4.19725 0 0 0 128 0 0 255
0.365219 0.839918 4.19664 0 0 0 128 0 0 255
0.332994 1.1973 4.18558 0 0 0 128 0 0 255
0.391504 0.501901 4.20147 0 0 0 128 0 0 255
0.376107 0.659029 4.19502 0 0 0 128 0 0 255
0.342153 0.950734 4.1767 0 0 0 128 0 0 255
0.364932 0.668682 4.18242 0 0 0 128 0 0 255
0.339274 0.938293 4.17259 0 0 0 128 0 0 255
0.332928 0.947576 4.16646 0 0 0 128 0 0 255
0.374833 0.451484 4.17896 0 0 0 128 0 0 255
0.372971 0.42409 4.17562 0 0 0 128 0 0 255
0.370712 0.432876 4.17398 0 0 0 128 0 0 255
0.371134 0.411797 4.17327 0 0 0 128 0 0 255
0.32311 0.944383 4.1568 0 0 0 128 0 0 255
0.3695 0.421665 4.1723 0 0 0 128 0 0 255
0.367096 0.423394 4.17024 0 0 0 128 0 0 255
0.349496 0.593358 4.163 0 0 0 128 0 0 255
0.296356 1.18269 4.14477 0 0 0 128 0 0 255
0.363193 0.432997 4.16731 0 0 0 128 0 0 255
0.294484 1.18649 4.14335 0 0 0 128 0 0 255
0.345551 0.585859 4.15937 0 0 0 128 0 0 255
0.357616 0.443415 4.16315 0 0 0 128 0 0 255
0.337483 0.649302 4.15552 0 0 0 128 0 0 255
0.347142 0.524687 4.15814 0 0 0 128 0 0 255
0.342025 0.58143 4.15638 0 0 0 128 0 0 255
0.355602 0.422062 4.1607 0 0 0 128 0 0 255
0.336662 0.63211 4.1542 0 0 0 128 0 0 255
0.338388 0.604147 4.15445 0 0 0 128 0 0 255
0.351871 0.445774 4.15874 0 0 0 128 0 0 255
0.356195 0.388941 4.15989 0 0 0 128 0 0 255
0.346872 0.483422 4.15637 0 0 0 128 0 0 255
0.333964 0.608673 4.1513 0 0 0 128 0 0 255
0.334238 0.596636 4.15108 0 0 0 128 0 0 255
0.332712 0.61356 4.15055 0 0 0 128 0 0 255
0.327327 0.673289 4.14871 0 0 0 128 0 0 255
0.343218 0.478987 4.15354 0 0 0 128 0 0 255
0.335767 0.561613 4.15099 0 0 0 128 0 0 255
0.339171 0.505683 4.15156 0 0 0 128 0 0 255
0.277138 1.18451 4.12998 0 0 0 128 0 0 255
0.336013 0.522424 4.14989 0 0 0 128 0 0 255
0.296786 0.957452 4.13643 0 0 0 128 0 0 255
0.338155 0.489482 4.15034 0 0 0 128 0 0 255
0.329776 0.56396 4.14691 0 0 0 128 0 0 255
0.294211 0.949122 4.13444 0 0 0 128 0 0 255
0.272668 1.18804 4.12705 0 0 0 128 0 0 255
0.338443 0.449295 4.14935 0 0 0 128 0 0 255
0.29401 0.942061 4.1341 0 0 0 128 0 0 255
0.272826 1.177 4.12684 0 0 0 128 0 0 255
0.270801 1.18079 4.12562 0 0 0 128 0 0 255
0.269337 1.18767 4.12486 0 0 0 128 0 0 255
0.336955 0.41897 4.14757 0 0 0 128 0 0 255
0.323042 0.573271 4.1428 0 0 0 128 0 0 255
0.320545 0.582045 4.14146 0 0 0 128 0 0 255
0.335137 0.410729 4.14624 0 0 0 128 0 0 255
0.298424 0.817883 4.13364 0 0 0 128 0 0 255
0.265032 1.1882 4.12218 0 0 0 128 0 0 255
0.286623 0.92014 4.12892 0 0 0 128 0 0 255
0.331097 0.417326 4.14397 0 0 0 128 0 0 255
0.319428 0.546739 4.13996 0 0 0 128 0 0 255
0.317992 0.562667 4.13947 0 0 0 128 0 0 255
0.328803 0.433161 4.14297 0 0 0 128 0 0 255
0.261338 1.17172 4.11962 0 0 0 128 0 0 255
0.311404 0.597137 4.1364 0 0 0 128 0 0 255
0.32095 0.481567 4.13948 0 0 0 128 0 0 255
0.315923 0.537314 4.13775 0 0 0 128 0 0 255
0.316131 0.525275 4.13764 0 0 0 128 0 0 255
0.317415 0.50129 4.13789 0 0 0 128 0 0 255
0.305563 0.593495 4.13314 0 0 0 128 0 0 255
0.323981 0.379372 4.1393 0 0 0 128 0 0 255
0.307195 0.565528 4.13354 0 0 0 128 0 0 255
0.317007 0.436923 4.13659 0 0 0 128 0 0 255
0.270779 0.949598 4.12073 0 0 0 128 0 0 255
0.308939 0.516468 4.13368 0 0 0 128 0 0 255
0.301937 0.594115 4.13127 0 0 0 128 0 0 255
0.318732 0.397911 4.13689 0 0 0 128 0 0 255
0.310122 0.483428 4.1338 0 0 0 128 0 0 255
0.305544 0.534198 4.13223 0 0 0 128 0 0 255
0.29953 0.600896 4.13016 0 0 0 128 0 0 255
0.269644 0.922344 4.11978 0 0 0 128 0 0 255
0.304655 0.524055 4.13166 0 0 0 128 0 0 255
0.300167 0.573829 4.13012 0 0 0 128 0 0 255
0.266146 0.951119 4.11845 0 0 0 128 0 0 255
0.253849 1.0875 4.11423 0 0 0 128 0 0 255
0.312555 0.416354 4.13412 0 0 0 128 0 0 255
0.243706 1.17989 4.1105 0 0 0 128 0 0 255
0.304025 0.500876 4.13108 0 0 0 128 0 0 255
0.300076 0.544677 4.12972 0 0 0 128 0 0 255
0.263901 0.945859 4.11731 0 0 0 128 0 0 255
0.263362 0.951832 4.11713 0 0 0 128 0 0 255
0.242268 1.18577 4.10989 0 0 0 128 0 0 255
0.302572 0.486656 4.13025 0 0 0 128 0 0 255
0.306411 0.423751 4.13138 0 0 0 128 0 0 255
0.305232 0.426643 4.13088 0 0 0 128 0 0 255
0.307714 0.378671 4.13157 0 0 0 128 0 0 255
0.303406 0.426454 4.13009 0 0 0 128 0 0 255
0.297033 0.497134 4.1279 0 0 0 128 0 0 255
0.305004 0.398486 4.13056 0 0 0 128 0 0 255
0.304555 0.403463 4.1304 0 0 0 128 0 0 255
0.286782 0.60057 4.12431 0 0 0 128 0 0 255
0.233353 1.18283 4.1059 0 0 0 128 0 0 255
0.232793 1.17876 4.10564 0 0 0 128 0 0 255
0.231806 1.18971 4.1053 0 0 0 128 0 0 255
0.249891 0.968521 4.11138 0 0 0 128 0 0 255
0.229013 1.17937 4.10412 0 0 0 128 0 0 255
0.299328 0.378814 4.12815 0 0 0 128 0 0 255
0.280298 0.589857 4.12163 0 0 0 128 0 0 255
0.298005 0.372651 4.12763 0 0 0 128 0 0 255
0.246122 0.948042 4.10983 0 0 0 128 0 0 255
0.295906 0.385497 4.12688 0 0 0 128 0 0 255
0.293482 0.412375 4.12605 0 0 0 128 0 0 255
0.293392 0.413371 4.12602 0 0 0 128 0 0 255
0.278402 0.579617 4.12088 0 0 0 128 0 0 255
0.291083 0.397064 4.12516 0 0 0 128 0 0 255
0.239559 0.968473 4.10748 0 0 0 128 0 0 255
0.277038 0.54231 4.12034 0 0 0 128 0 0 255
0.275871 0.555251 4.11994 0 0 0 128 0 0 255
0.275826 0.524106 4.11993 0 0 0 128 0 0 255
0.269722 0.591799 4.11784 0 0 0 128 0 0 255
0.239873 0.912251 4.10761 0 0 0 128 0 0 255
0.269804 0.569709 4.1179 0 0 0 128 0 0 255
0.23735 0.91903 4.10678 0 0 0 128 0 0 255
0.235195 0.942922 4.10604 0 0 0 128 0 0 255
0.270331 0.542641 4.11812 0 0 0 128 0 0 255
0.220639 1.0831 4.1011 0 0 0 128 0 0 255
0.262931 0.582081 4.11573 0 0 0 128 0 0 255
0.219248 1.05584 4.10079 0 0 0 128 0 0 255
0.268319 0.490212 4.11774 0 0 0 128 0 0 255
0.24051 0.755628 4.10847 0 0 0 128 0 0 255
0.253909 0.596256 4.11315 0 0 0 128 0 0 255
0.266678 0.443852 4.11761 0 0 0 128 0 0 255
0.263088 0.483671 4.11638 0 0 0 128 0 0 255
0.257702 0.5434 4.11453 0 0 0 128 0 0 255
0.252808 0.576062 4.11303 0 0 0 128 0 0 255
0.255611 0.534157 4.11409 0 0 0 128 0 0 255
0.25737 0.482109 4.11502 0 0 0 128 0 0 255
0.255844 0.499032 4.11449 0 0 0 128 0 0 255
0.246509 0.602563 4.11129 0 0 0 128 0 0 255
0.250115 0.551698 4.11264 0 0 0 128 0 0 255
0.24814 0.573599 4.11196 0 0 0 128 0 0 255
0.253362 0.504816 4.11387 0 0 0 128 0 0 255
0.248604 0.557577 4.11224 0 0 0 128 0 0 255
0.211712 0.966722 4.09958 0 0 0 128 0 0 255
0.244426 0.571231 4.11119 0 0 0 128 0 0 255
0.233923 0.687703 4.10759 0 0 0 128 0 0 255
0.248117 0.519372 4.1126 0 0 0 128 0 0 255
0.246512 0.526246 4.11219 0 0 0 128 0 0 255
0.214018 0.886612 4.10104 0 0 0 128 0 0 255
0.24733 0.506243 4.11262 0 0 0 128 0 0 255
0.227223 0.729232 4.10572 0 0 0 128 0 0 255
0.248237 0.485243 4.11308 0 0 0 128 0 0 255
0.206587 0.947149 4.09879 0 0 0 128 0 0 255
0.220978 0.743695 4.10437 0 0 0 128 0 0 255
0.200612 0.947583 4.09773 0 0 0 128 0 0 255
0.234816 0.557258 4.10965 0 0 0 128 0 0 255
0.232482 0.583141 4.10885 0 0 0 128 0 0 255
0.220633 0.714545 4.10478 0 0 0 128 0 0 255
0.23446 0.550196 4.10971 0 0 0 128 0 0 255
0.270458 0.139962 4.12226 0 0 0 128 0 0 255
0.246583 0.393718 4.11426 0 0 0 128 0 0 255
0.235363 0.518154 4.11041 0 0 0 128 0 0 255
0.233657 0.537068 4.10982 0 0 0 128 0 0 255
0.230067 0.576888 4.10859 0 0 0 128 0 0 255
0.216063 0.732184 4.10379 0 0 0 128 0 0 255
0.23734 0.474166 4.11149 0 0 0 128 0 0 255
0.234647 0.504031 4.11057 0 0 0 128 0 0 255
0.235006 0.489006 4.1109 0 0 0 128 0 0 255
0.207987 0.788647 4.10163 0 0 0 128 0 0 255
0.205115 0.809459 4.10085 0 0 0 128 0 0 255
0.238236 0.420038 4.11266 0 0 0 128 0 0 255
0.169118 1.18656 4.08894 0 0 0 128 0 0 255
0.214806 0.668817 4.10484 0 0 0 128 0 0 255
0.192006 0.921671 4.09702 0 0 0 128 0 0 255
0.233917 0.42365 4.1121 0 0 0 128 0 0 255
0.23266 0.437587 4.11167 0 0 0 128 0 0 255
0.218208 0.59786 4.10671 0 0 0 128 0 0 255
0.219368 0.562834 4.1076 0 0 0 128 0 0 255
0.230853 0.424369 4.11179 0 0 0 128 0 0 255
0.203111 0.720932 4.10253 0 0 0 128 0 0 255
0.222854 0.490882 4.10957 0 0 0 128 0 0 255
0.214417 0.584458 4.10667 0 0 0 128 0 0 255
0.199965 0.744731 4.10171 0 0 0 128 0 0 255
0.199869 0.734685 4.10194 0 0 0 128 0 0 255
0.228319 0.408073 4.11197 0 0 0 128 0 0 255
0.226613 0.426987 4.11139 0 0 0 128 0 0 255
0.178141 0.96455 4.09476 0 0 0 128 0 0 255
0.251471 0.140196 4.12019 0 0 0 128 0 0 255
0.177231 0.952421 4.095 0 0 0 128 0 0 255
0.214655 0.526261 4.10812 0 0 0 128 0 0 255
0.207654 0.603909 4.10572 0 0 0 128 0 0 255
0.196427 0.717304 4.10215 0 0 0 128 0 0 255
0.221463 0.428521 4.11103 0 0 0 128 0 0 255
0.212749 0.514042 4.10834 0 0 0 128 0 0 255
0.174135 0.920019 4.09569 0 0 0 128 0 0 255
0.218201 0.420193 4.11112 0 0 0 128 0 0 255
0.183634 0.792415 4.09957 0 0 0 128 0 0 255
0.199506 0.594132 4.10565 0 0 0 128 0 0 255
0.216014 0.399922 4.11164 0 0 0 128 0 0 255
0.16249 0.960111 4.09428 0 0 0 128 0 0 255
0.197489 0.560831 4.10663 0 0 0 128 0 0 255
0.197382 0.539746 4.10729 0 0 0 128 0 0 255
0.192176 0.597484 4.1055 0 0 0 128 0 0 255
0.228791 0.180286 4.11842 0 0 0 128 0 0 255
0.17259 0.792421 4.09949 0 0 0 128 0 0 255
0.156604 0.958578 4.09437 0 0 0 128 0 0 255
0.19663 0.503552 4.10847 0 0 0 128 0 0 255
0.194476 0.527443 4.10773 0 0 0 128 0 0 255
0.15884 0.922652 4.09551 0 0 0 128 0 0 255
0.18971 0.569165 4.10647 0 0 0 128 0 0 255
0.186658 0.603012 4.10542 0 0 0 128 0 0 255
0.158562 0.914599 4.09578 0 0 0 128 0 0 255
0.203249 0.396769 4.11187 0 0 0 128 0 0 255
0.202253 0.39668 4.11191 0 0 0 128 0 0 255
0.13125 1.18411 4.08755 0 0 0 128 0 0 255
0.198296 0.429443 4.11094 0 0 0 128 0 0 255
0.187158 0.541845 4.10751 0 0 0 128 0 0 255
0.168757 0.74592 4.1012 0 0 0 128 0 0 255
0.150617 0.93597 4.09537 0 0 0 128 0 0 255
0.166581 0.736697 4.10165 0 0 0 128 0 0 255
0.180841 0.556339 4.10737 0 0 0 128 0 0 255
0.164762 0.712456 4.10269 0 0 0 128 0 0 255
0.137814 0.966954 4.09517 0 0 0 128 0 0 255
0.174703 0.546772 4.10827 0 0 0 128 0 0 255
0.185831 0.412296 4.11253 0 0 0 128 0 0 255
0.137897 0.943886 4.09609 0 0 0 128 0 0 255
0.181246 0.429957 4.11232 0 0 0 128 0 0 255
0.16464 0.614122 4.10662 0 0 0 128 0 0 255
0.178371 0.428706 4.11273 0 0 0 128 0 0 255
0.16329 0.595948 4.10756 0 0 0 128 0 0 255
0.151172 0.730339 4.1034 0 0 0 128 0 0 255
0.150814 0.723285 4.10375 0 0 0 128 0 0 255
0.150365 0.728263 4.1036 0 0 0 128 0 0 255
0.169397 0.49515 4.11108 0 0 0 128 0 0 255
0.165896 0.533974 4.10988 0 0 0 128 0 0 255
0.163652 0.558861 4.10911 0 0 0 128 0 0 255
0.148572 0.726103 4.10394 0 0 0 128 0 0 255
0.177567 0.393526 4.11437 0 0 0 128 0 0 255
0.159438 0.58358 4.10864 0 0 0 128 0 0 255
0.158278 0.574453 4.10924 0 0 0 128 0 0 255
0.144993 0.721785 4.10468 0 0 0 128 0 0 255
0.171747 0.414096 4.11436 0 0 0 128 0 0 255
0.165194 0.486766 4.11211 0 0 0 128 0 0 255
0.17265 0.393107 4.11518 0 0 0 128 0 0 255
0.162686 0.503606 4.11176 0 0 0 128 0 0 255
0.161519 0.516548 4.11136 0 0 0 128 0 0 255
0.159006 0.544421 4.11049 0 0 0 128 0 0 255
0.13829 0.741279 4.10493 0 0 0 128 0 0 255
0.168288 0.38672 4.11627 0 0 0 128 0 0 255
0.159133 0.48826 4.11312 0 0 0 128 0 0 255
0.119816 0.924283 4.09964 0 0 0 128 0 0 255
0.13734 0.708099 4.10671 0 0 0 128 0 0 255
0.162049 0.412276 4.11626 0 0 0 128 0 0 255
0.111871 0.968753 4.09905 0 0 0 128 0 0 255
0.147086 0.556459 4.11222 0 0 0 128 0 0 255
0.157546 0.407889 4.11748 0 0 0 128 0 0 255
0.184403 0.0992079 4.12726 0 0 0 128 0 0 255
0.15145 0.421427 4.11824 0 0 0 128 0 0 255
0.133185 0.602447 4.11314 0 0 0 128 0 0 255
0.10482 0.917021 4.10341 0 0 0 128 0 0 255
0.150983 0.394311 4.11984 0 0 0 128 0 0 255
0.13321 0.591418 4.11374 0 0 0 128 0 0 255
0.144721 0.420877 4.12009 0 0 0 128 0 0 255
0.146008 0.395912 4.12114 0 0 0 128 0 0 255
0.142956 0.429759 4.12009 0 0 0 128 0 0 255
0.123747 0.642793 4.1135 0 0 0 128 0 0 255
0.157632 0.22438 4.1276 0 0 0 128 0 0 255
0.124478 0.528544 4.12003 0 0 0 128 0 0 255
0.119811 0.580309 4.11843 0 0 0 128 0 0 255
0.134756 0.404033 4.12421 0 0 0 128 0 0 255
0.116534 0.606117 4.11795 0 0 0 128 0 0 255
0.117926 0.58016 4.11908 0 0 0 128 0 0 255
0.117533 0.553059 4.12092 0 0 0 128 0 0 255
0.116546 0.564009 4.12059 0 0 0 128 0 0 255
0.116097 0.568987 4.12043 0 0 0 128 0 0 255
0.127728 0.429545 4.12509 0 0 0 128 0 0 255
0.127781 0.418521 4.12577 0 0 0 128 0 0 255
0.139619 0.224961 4.13392 0 0 0 128 0 0 255
0.109587 0.5374 4.12501 0 0 0 128 0 0 255
0.120335 0.407916 4.12939 0 0 0 128 0 0 255
0.117711 0.426759 4.1292 0 0 0 128 0 0 255
0.116205 0.402587 4.13152 0 0 0 128 0 0 255
0.115833 0.396544 4.13212 0 0 0 128 0 0 255
0.111683 0.422289 4.13214 0 0 0 128 0 0 255
0.110508 0.425207 4.13247 0 0 0 128 0 0 255
0.0946194 0.601408 4.12702 0 0 0 128 0 0 255
0.111395 0.395205 4.13424 0 0 0 128 0 0 255
0.103136 0.48679 4.13141 0 0 0 128 0 0 255
0.0986485 0.496475 4.13284 0 0 0 128 0 0 255
0.0981996 0.501453 4.13269 0 0 0 128 0 0 255
0.104039 0.426724 4.13544 0 0 0 128 0 0 255
0.0857792 0.5797 4.13298 0 0 0 128 0 0 255
0.0861494 0.526617 4.13699 0 0 0 128 0 0 255
0.0850098 0.500482 4.13976 0 0 0 128 0 0 255
0.0819924 0.524311 4.13952 0 0 0 128 0 0 255
0.0419945 0.958282 4.1266 0 0 0 128 0 0 255
0.0783875 0.545093 4.13989 0 0 0 128 0 0 255
0.0776205 0.544036 4.14043 0 0 0 128 0 0 255
0.0722347 0.603765 4.13858 0 0 0 128 0 0 255
0.0791894 0.517097 4.14178 0 0 0 128 0 0 255
0.0724199 0.563703 4.1419 0 0 0 128 0 0 255
0.0752149 0.485759 4.14699 0 0 0 128 0 0 255
0.060108 0.643983 4.14264 0 0 0 128 0 0 255
0.0600099 0.598899 4.14682 0 0 0 128 0 0 255
0.067717 0.504272 4.15031 0 0 0 128 0 0 255
0.059439 0.532755 4.1535 0 0 0 128 0 0 255
0.0497878 0.604218 4.15369 0 0 0 128 0 0 255
0.0512413 0.579278 4.15507 0 0 0 128 0 0 255
0.0588012 0.486646 4.15854 0 0 0 128 0 0 255
0.0509918 0.573253 4.15586 0 0 0 128 0 0 255
0.0574771 0.492567 4.15898 0 0 0 128 0 0 255
0.0922405 0.0983025 4.17179 0 0 0 128 0 0 255
0.0530414 0.52432 4.15923 0 0 0 128 0 0 255
0.0535205 0.510332 4.16029 0 0 0 128 0 0 255
0.0534635 0.502318 4.16117 0 0 0 128 0 0 255
0.0481675 0.561052 4.15935 0 0 0 128 0 0 255
0.0458584 0.543882 4.16307 0 0 0 128 0 0 255
0.0407419 0.600624 4.16132 0 0 0 128 0 0 255
0.0406522 0.60162 4.16129 0 0 0 128 0 0 255
0.0470016 0.480881 4.16896 0 0 0 128 0 0 255
0.0323451 0.570071 4.17231 0 0 0 128 0 0 255
0.0380915 0.498353 4.17523 0 0 0 128 0 0 255
0.0301026 0.586952 4.17249 0 0 0 128 0 0 255
0.028312 0.598855 4.17282 0 0 0 128 0 0 255
0.039371 0.460398 4.1785 0 0 0 128 0 0 255
0.039012 0.46438 4.17838 0 0 0 128 0 0 255
0.0386664 0.460356 4.17921 0 0 0 128 0 0 255
0.0338192 0.514112 4.17755 0 0 0 128 0 0 255
0.0362788 0.471224 4.1803 0 0 0 128 0 0 255
0.00237066 0.839514 4.16962 0 0 0 128 0 0 255
0.0678623 0.0977963 4.19401 0 0 0 128 0 0 255
0.0621491 0.153504 4.19301 0 0 0 128 0 0 255
0.0650562 0.113646 4.19497 0 0 0 128 0 0 255
0.0603315 0.143395 4.19625 0 0 0 128 0 0 255
0.0612761 0.125439 4.19755 0 0 0 128 0 0 255
0.0158558 0.629155 4.18196 0 0 0 128 0 0 255
-0.0054377 0.843074 4.17758 0 0 0 128 0 0 255
0.0579706 0.0892456 4.20621 0 0 0 128 0 0 255
0.0471015 0.202698 4.20347 0 0 0 128 0 0 255
0.044764 0.207577 4.20565 0 0 0 128 0 0 255
0.03161 0.325914 4.20513 0 0 0 128 0 0 255
0.0308918 0.333878 4.20488 0 0 0 128 0 0 255
0.0028145 0.638466 4.19625 0 0 0 128 0 0 255
0.0329969 0.296984 4.20761 0 0 0 128 0 0 255
0.0315607 0.312912 4.20711 0 0 0 128 0 0 255
0.0270367 0.349686 4.20757 0 0 0 128 0 0 255
0.0170894 0.44019 4.20718 0 0 0 128 0 0 255
0.027634 0.316721 4.21181 0 0 0 128 0 0 255
-0.0197612 0.842339 4.19555 0 0 0 128 0 0 255
0.0493615 0.0628179 4.22129 0 0 0 128 0 0 255
0.0454002 0.0876263 4.22298 0 0 0 128 0 0 255
0.0372945 0.171222 4.22122 0 0 0 128 0 0 255
0.0352963 0.187124 4.22155 0 0 0 128 0 0 255
0.0351866 0.182122 4.22253 0 0 0 128 0 0 255
0.0416331 0.10445 4.22577 0 0 0 128 0 0 255
0.0299746 0.179906 4.23101 0 0 0 128 0 0 255
0.0134771 0.357082 4.22639 0 0 0 128 0 0 255
0.028337 0.180841 4.23355 0 0 0 128 0 0 255
-0.0193111 0.670494 4.22447 0 0 0 128 0 0 255
-0.00143091 0.435452 4.23791 0 0 0 128 0 0 255
0.00322856 0.378696 4.24055 0 0 0 128 0 0 255
-0.0228029 0.667387 4.23162 0 0 0 128 0 0 255
-0.00653554 0.32571 4.27726 0 0 0 128 0 0 255
-0.0135374 0.37154 4.28542 0 0 0 128 0 0 255
-0.0383064 0.621475 4.2864 0 0 0 128 0 0 255
0.0115986 0.0630265 4.30563 0 0 0 128 0 0 255
0.00190412 0.170539 4.3023 0 0 0 128 0 0 255
-0.0321931 0.543868 4.2927 0 0 0 128 0 0 255
-0.0393742 0.623507 4.29024 0 0 0 128 0 0 255
0.00867856 0.0859664 4.30883 0 0 0 128 0 0 255
-0.0649275 0.902266 4.28357 0 0 0 128 0 0 255
-0.0376634 0.597659 4.29398 0 0 0 128 0 0 255
-0.071953 0.977935 4.28221 0 0 0 128 0 0 255
0.00360793 0.137756 4.30918 0 0 0 128 0 0 255
0.00877933 0.0740842 4.3141 0 0 0 128 0 0 255
-0.0168066 0.355821 4.30637 0 0 0 128 0 0 255
0.00051856 0.161715 4.31336 0 0 0 128 0 0 255
0.004572 0.112966 4.31683 0 0 0 128 0 0 255
-0.0733427 0.977049 4.2901 0 0 0 128 0 0 255
-0.0225233 0.411628 4.30858 0 0 0 128 0 0 255
-0.0385735 0.587845 4.30412 0 0 0 128 0 0 255
0.00920223 0.0562713 4.32155 0 0 0 128 0 0 255
0.00663665 0.0752917 4.3269 0 0 0 128 0 0 255
-0.00485308 0.202714 4.32296 0 0 0 128 0 0 255
-0.031064 0.493396 4.31397 0 0 0 128 0 0 255
-0.0387329 0.577036 4.31237 0 0 0 128 0 0 255
-0.0398998 0.589977 4.31197 0 0 0 128 0 0 255
-0.0398448 0.588006 4.31302 0 0 0 128 0 0 255
-0.062914 0.843846 4.30511 0 0 0 128 0 0 255
-0.0631833 0.846833 4.30502 0 0 0 128 0 0 255
0.00617324 0.0763455 4.32985 0 0 0 128 0 0 255
0.00410834 0.093374 4.33429 0 0 0 128 0 0 255
-0.00423966 0.185954 4.33143 0 0 0 128 0 0 255
-0.0260576 0.426884 4.32497 0 0 0 128 0 0 255
-0.0379962 0.559284 4.32088 0 0 0 128 0 0 255
-0.015736 0.31143 4.32954 0 0 0 128 0 0 255
-0.033599 0.509532 4.32341 0 0 0 128 0 0 255
-0.0028969 0.168103 4.33497 0 0 0 128 0 0 255
-0.037007 0.546388 4.32327 0 0 0 128 0 0 255
-0.00351809 0.1741 4.33578 0 0 0 128 0 0 255
-0.0306267 0.474737 4.32648 0 0 0 128 0 0 255
-0.0324219 0.494646 4.32586 0 0 0 128 0 0 255
-0.0338582 0.510574 4.32537 0 0 0 128 0 0 255
0.0027767 0.103444 4.33897 0 0 0 128 0 0 255
-0.000688732 0.140325 4.33982 0 0 0 128 0 0 255
-0.0171812 0.322524 4.33518 0 0 0 128 0 0 255
-0.016794 0.317572 4.33633 0 0 0 128 0 0 255
-0.00742619 0.213072 4.34056 0 0 0 128 0 0 255
-0.0632591 0.832265 4.32141 0 0 0 128 0 0 255
-0.0167289 0.314691 4.34042 0 0 0 128 0 0 255
-0.0266797 0.424249 4.33903 0 0 0 128 0 0 255
-0.0217366 0.368587 4.34375 0 0 0 128 0 0 255
-0.0199607 0.348707 4.34537 0 0 0 128 0 0 255
-0.0207119 0.356761 4.34812 0 0 0 128 0 0 255
-0.074929 0.958035 4.32952 0 0 0 128 0 0 255
-0.00840932 0.220472 4.35534 0 0 0 128 0 0 255
-0.0329944 0.493267 4.3479 0 0 0 128 0 0 255
-0.0340716 0.505213 4.34753 0 0 0 128 0 0 255
-0.0104496 0.243432 4.35663 0 0 0 128 0 0 255
-0.0447392 0.623708 4.34486 0 0 0 128 0 0 255
-0.0222571 0.374902 4.35456 0 0 0 128 0 0 255
-0.0376964 0.546126 4.34926 0 0 0 128 0 0 255
-0.0294112 0.454574 4.3531 0 0 0 128 0 0 255
-0.0277289 0.436723 4.35565 0 0 0 128 0 0 255
-0.0339728 0.506442 4.35449 0 0 0 128 0 0 255
-0.0188487 0.339235 4.36066 0 0 0 128 0 0 255
-0.0210031 0.363127 4.35992 0 0 0 128 0 0 255
-0.0245039 0.401951 4.35872 0 0 0 128 0 0 255
-0.0280944 0.44177 4.35749 0 0 0 128 0 0 255
-0.032455 0.492683 4.35991 0 0 0 128 0 0 255
-0.0103455 0.249895 4.37042 0 0 0 128 0 0 255
-0.0616902 0.819314 4.3528 0 0 0 128 0 0 255
-0.0290286 0.45799 4.36498 0 0 0 128 0 0 255
-0.0162044 0.317703 4.37131 0 0 0 128 0 0 255
-0.0301178 0.472004 4.36654 0 0 0 128 0 0 255
-0.00974111 0.247062 4.37449 0 0 0 128 0 0 255
-0.0290271 0.463162 4.3698 0 0 0 128 0 0 255
-0.0395294 0.579634 4.36619 0 0 0 128 0 0 255
-0.0627781 0.837465 4.35822 0 0 0 128 0 0 255
-0.0288347 0.462207 4.37082 0 0 0 128 0 0 255
-0.0113305 0.282443 4.38631 0 0 0 128 0 0 255
-0.0130935 0.305428 4.38758 0 0 0 128 0 0 255
-0.0188766 0.389511 4.39482 0 0 0 128 0 0 255
-0.0111459 0.313054 4.4011 0 0 0 128 0 0 255
-0.0141979 0.3469 4.40006 0 0 0 128 0 0 255
-0.0375493 0.615882 4.39564 0 0 0 128 0 0 255
-0.0159302 0.401327 4.41099 0 0 0 128 0 0 255
-0.0556038 0.847414 4.39912 0 0 0 128 0 0 255
-0.0327516 0.606726 4.4104 0 0 0 128 0 0 255
-0.0519106 0.825845 4.40554 0 0 0 128 0 0 255
-0.0459867 0.807691 4.41839 0 0 0 128 0 0 255
-0.0477905 0.83973 4.4202 0 0 0 128 0 0 255
0.00590207 0.252516 4.44023 0 0 0 128 0 0 255
-0.0268194 0.833827 4.46052 0 0 0 128 0 0 255
