ply
format ascii 1.0
comment VCGLIB generated
element vertex 639
property float x
property float y
property float z
property float nx
property float ny
property float nz
property uchar red
property uchar green
property uchar blue
property uchar alpha
element face 0
property list uchar int vertex_indices
end_header
1.1586 1.87572 4.10485 0 0 0 128 0 0 255
1.15968 1.85458 4.10351 0 0 0 128 0 0 255
1.15711 1.91303 4.1218 0 0 0 128 0 0 255
1.16059 1.84904 4.11561 0 0 0 128 0 0 255
1.16099 1.84375 4.11654 0 0 0 128 0 0 255
1.18589 1.34028 4.02089 0 0 0 128 0 0 255
1.18156 1.44296 4.04733 0 0 0 128 0 0 255
1.20147 1.03457 3.96536 0 0 0 128 0 0 255
1.19918 1.08523 3.97692 0 0 0 128 0 0 255
1.15717 1.96988 4.16307 0 0 0 128 0 0 255
1.19458 1.19672 4.00517 0 0 0 128 0 0 255
1.16097 1.90632 4.15489 0 0 0 128 0 0 255
1.20609 0.972785 3.96359 0 0 0 128 0 0 255
1.20009 1.15025 4.01354 0 0 0 128 0 0 255
1.16706 1.92083 4.18976 0 0 0 128 0 0 255
1.20558 1.14343 4.03285 0 0 0 128 0 0 255
1.1773 1.79685 4.17859 0 0 0 128 0 0 255
1.17507 1.90479 4.20972 0 0 0 128 0 0 255
1.18534 1.71161 4.17238 0 0 0 128 0 0 255
1.22014 1.0519 4.0436 0 0 0 128 0 0 255
1.20849 1.46616 4.1484 0 0 0 128 0 0 255
1.1912 1.84626 4.22934 0 0 0 128 0 0 255
1.1901 1.87837 4.23693 0 0 0 128 0 0 255
1.21205 1.44759 4.14999 0 0 0 128 0 0 255
1.19363 1.86176 4.23891 0 0 0 128 0 0 255
1.19429 1.85769 4.23896 0 0 0 128 0 0 255
1.20351 1.81822 4.24404 0 0 0 128 0 0 255
1.20505 1.86216 4.25926 0 0 0 128 0 0 255
1.22745 1.41593 4.16809 0 0 0 128 0 0 255
1.23265 1.42231 4.1779 0 0 0 128 0 0 255
1.24282 1.41803 4.19098 0 0 0 128 0 0 255
1.28133 0.892176 4.09794 0 0 0 128 0 0 255
1.26881 1.26676 4.18191 0 0 0 128 0 0 255
1.75073 0.857658 4.067 0 0 0 128 0 0 255
1.76328 0.957593 4.06138 0 0 0 128 0 0 255
1.76745 0.975239 4.05616 0 0 0 128 0 0 255
1.72439 1.87593 4.24364 0 0 0 128 0 0 255
1.73758 1.66003 4.19329 0 0 0 128 0 0 255
1.7313 1.868 4.22927 0 0 0 128 0 0 255
1.77462 1.27047 4.06901 0 0 0 128 0 0 255
1.7905 0.991464 4.00316 0 0 0 128 0 0 255
1.74971 1.88774 4.18286 0 0 0 128 0 0 255
1.7504 1.8964 4.18073 0 0 0 128 0 0 255
1.75244 1.87572 4.17247 0 0 0 128 0 0 255
1.75284 1.88319 4.17105 0 0 0 128 0 0 255
1.75461 1.85623 4.16345 0 0 0 128 0 0 255
1.76745 1.63025 4.10744 0 0 0 128 0 0 255
1.75619 1.86593 4.1565 0 0 0 128 0 0 255
1.79594 1.07903 3.98166 0 0 0 128 0 0 255
1.79885 1.0288 3.96818 0 0 0 128 0 0 255
1.80223 0.961528 3.95317 0 0 0 128 0 0 255
1.79004 1.23877 4.0038 0 0 0 128 0 0 255
1.75892 1.90069 4.13752 0 0 0 128 0 0 255
1.759 1.92016 4.13243 0 0 0 128 0 0 255
1.76454 1.80811 4.10707 0 0 0 128 0 0 255
1.76158 1.88547 4.11298 0 0 0 128 0 0 255
1.76441 1.83055 4.09747 0 0 0 128 0 0 255
1.80113 1.06425 3.93592 0 0 0 128 0 0 255
1.80101 1.06739 3.93556 0 0 0 128 0 0 255
1.76139 1.89849 4.10446 0 0 0 128 0 0 255
1.80238 1.03686 3.90571 0 0 0 128 0 0 255
1.79928 1.09985 3.91679 0 0 0 128 0 0 255
1.79338 1.22307 3.94243 0 0 0 128 0 0 255
1.80293 1.01597 3.89321 0 0 0 128 0 0 255
1.80584 0.953577 3.87921 0 0 0 128 0 0 255
1.76435 1.8052 4.04732 0 0 0 128 0 0 255
1.80136 1.0117 3.87405 0 0 0 128 0 0 255
1.79814 1.0737 3.88493 0 0 0 128 0 0 255
1.79292 1.11276 3.87296 0 0 0 128 0 0 255
1.79368 1.08398 3.86398 0 0 0 128 0 0 255
1.76025 1.78322 4.00952 0 0 0 128 0 0 255
1.78545 1.21378 3.88206 0 0 0 128 0 0 255
1.75511 1.84847 4.01416 0 0 0 128 0 0 255
1.78172 1.28163 3.8942 0 0 0 128 0 0 255
1.78151 1.28084 3.89305 0 0 0 128 0 0 255
1.78833 1.12767 3.8592 0 0 0 128 0 0 255
1.78244 1.22345 3.87422 0 0 0 128 0 0 255
1.78267 1.21288 3.87104 0 0 0 128 0 0 255
1.75134 1.83869 3.99641 0 0 0 128 0 0 255
1.74641 1.84332 3.98288 0 0 0 128 0 0 255
1.77916 1.11482 3.82551 0 0 0 128 0 0 255
1.77181 1.26835 3.85747 0 0 0 128 0 0 255
1.74171 1.85224 3.97332 0 0 0 128 0 0 255
1.77567 1.12597 3.82027 0 0 0 128 0 0 255
1.76739 1.27512 3.8485 0 0 0 128 0 0 255
1.77791 1.03016 3.7947 0 0 0 128 0 0 255
1.77028 1.156 3.81718 0 0 0 128 0 0 255
1.77304 1.04551 3.78864 0 0 0 128 0 0 255
1.72181 1.94515 3.95962 0 0 0 128 0 0 255
1.72237 1.91319 3.95119 0 0 0 128 0 0 255
1.75711 1.14513 3.78779 0 0 0 128 0 0 255
1.7126 1.9575 3.94731 0 0 0 128 0 0 255
1.70489 2.0049 3.94866 0 0 0 128 0 0 255
1.74202 1.15689 3.76714 0 0 0 128 0 0 255
1.73667 1.15812 3.76 0 0 0 128 0 0 255
1.69603 1.95763 3.92319 0 0 0 128 0 0 255
1.73645 1.08655 3.74027 0 0 0 128 0 0 255
1.69517 1.95007 3.92001 0 0 0 128 0 0 255
1.68677 1.95369 3.91055 0 0 0 128 0 0 255
1.70766 1.39246 3.78688 0 0 0 128 0 0 255
1.6953 1.52259 3.80731 0 0 0 128 0 0 255
1.69352 1.55976 3.81504 0 0 0 128 0 0 255
1.69922 1.39678 3.77894 0 0 0 128 0 0 255
1.6988 1.39102 3.77702 0 0 0 128 0 0 255
1.67135 1.96508 3.89651 0 0 0 128 0 0 255
1.66892 1.95671 3.8919 0 0 0 128 0 0 255
1.69056 1.45926 3.78624 0 0 0 128 0 0 255
1.68462 1.55336 3.80442 0 0 0 128 0 0 255
1.70436 1.12513 3.71459 0 0 0 128 0 0 255
1.67912 1.65322 3.82451 0 0 0 128 0 0 255
1.69124 1.38439 3.76786 0 0 0 128 0 0 255
1.68052 1.56268 3.8029 0 0 0 128 0 0 255
1.67964 1.58126 3.80677 0 0 0 128 0 0 255
1.67853 1.57365 3.80382 0 0 0 128 0 0 255
1.68115 1.48779 3.78459 0 0 0 128 0 0 255
1.67614 1.59243 3.80637 0 0 0 128 0 0 255
1.69035 1.27959 3.74058 0 0 0 128 0 0 255
1.66782 1.75096 3.83869 0 0 0 128 0 0 255
1.67178 1.63674 3.81358 0 0 0 128 0 0 255
1.66761 1.70822 3.82779 0 0 0 128 0 0 255
1.65311 1.99584 3.88699 0 0 0 128 0 0 255
1.67334 1.55684 3.79495 0 0 0 128 0 0 255
1.67492 1.50804 3.78413 0 0 0 128 0 0 255
1.66748 1.66353 3.8165 0 0 0 128 0 0 255
1.67565 1.47684 3.77698 0 0 0 128 0 0 255
1.66218 1.75849 3.83561 0 0 0 128 0 0 255
1.67607 1.43595 3.76717 0 0 0 128 0 0 255
1.67439 1.47116 3.7745 0 0 0 128 0 0 255
1.67175 1.51037 3.78201 0 0 0 128 0 0 255
1.67107 1.50851 3.78098 0 0 0 128 0 0 255
1.66579 1.61902 3.80398 0 0 0 128 0 0 255
1.65477 1.83328 3.84793 0 0 0 128 0 0 255
1.66147 1.6769 3.81474 0 0 0 128 0 0 255
1.66897 1.5039 3.77809 0 0 0 128 0 0 255
1.67063 1.4366 3.76282 0 0 0 128 0 0 255
1.66988 1.45225 3.76607 0 0 0 128 0 0 255
1.65483 1.76715 3.83162 0 0 0 128 0 0 255
1.65165 1.83365 3.84546 0 0 0 128 0 0 255
1.66967 1.40753 3.75488 0 0 0 128 0 0 255
1.66598 1.43517 3.75878 0 0 0 128 0 0 255
1.66462 1.46353 3.76468 0 0 0 128 0 0 255
1.65835 1.57804 3.7879 0 0 0 128 0 0 255
1.66274 1.46957 3.76471 0 0 0 128 0 0 255
1.64867 1.76394 3.82598 0 0 0 128 0 0 255
1.66493 1.40707 3.75109 0 0 0 128 0 0 255
1.64412 1.82571 3.83763 0 0 0 128 0 0 255
1.65541 1.55597 3.78027 0 0 0 128 0 0 255
1.65 1.63534 3.7956 0 0 0 128 0 0 255
1.65054 1.60707 3.78912 0 0 0 128 0 0 255
1.6462 1.69801 3.80805 0 0 0 128 0 0 255
1.64837 1.63551 3.79445 0 0 0 128 0 0 255
1.64896 1.60625 3.78778 0 0 0 128 0 0 255
1.67195 1.09103 3.67937 0 0 0 128 0 0 255
1.65592 1.42646 3.74919 0 0 0 128 0 0 255
1.64554 1.64357 3.79438 0 0 0 128 0 0 255
1.67001 1.11458 3.68369 0 0 0 128 0 0 255
1.6466 1.587 3.78145 0 0 0 128 0 0 255
1.65391 1.41691 3.74548 0 0 0 128 0 0 255
1.63518 1.79154 3.82288 0 0 0 128 0 0 255
1.63972 1.67915 3.79892 0 0 0 128 0 0 255
1.62766 1.93147 3.85144 0 0 0 128 0 0 255
1.64918 1.44655 3.74938 0 0 0 128 0 0 255
1.65022 1.40751 3.74069 0 0 0 128 0 0 255
1.6469 1.47694 3.75515 0 0 0 128 0 0 255
1.6455 1.48875 3.75705 0 0 0 128 0 0 255
1.65691 1.2326 3.70318 0 0 0 128 0 0 255
1.64376 1.4548 3.74779 0 0 0 128 0 0 255
1.63496 1.60359 3.77768 0 0 0 128 0 0 255
1.65013 1.23315 3.69897 0 0 0 128 0 0 255
1.62089 1.82683 3.82202 0 0 0 128 0 0 255
1.62048 1.79958 3.8153 0 0 0 128 0 0 255
1.64506 1.26764 3.70406 0 0 0 128 0 0 255
1.6506 1.13372 3.67567 0 0 0 128 0 0 255
1.62725 1.60418 3.77308 0 0 0 128 0 0 255
1.62529 1.64525 3.78163 0 0 0 128 0 0 255
1.64242 1.26881 3.70276 0 0 0 128 0 0 255
1.62442 1.64531 3.78113 0 0 0 128 0 0 255
1.64646 1.16618 3.68089 0 0 0 128 0 0 255
1.61631 1.79696 3.81219 0 0 0 128 0 0 255
1.63358 1.41758 3.73272 0 0 0 128 0 0 255
1.64238 1.16061 3.67724 0 0 0 128 0 0 255
1.64202 1.14991 3.67453 0 0 0 128 0 0 255
1.61649 1.68387 3.78567 0 0 0 128 0 0 255
1.6403 1.16757 3.67772 0 0 0 128 0 0 255
1.63721 1.23212 3.69115 0 0 0 128 0 0 255
1.62549 1.45906 3.73791 0 0 0 128 0 0 255
1.60698 1.8278 3.81418 0 0 0 128 0 0 255
1.61535 1.63422 3.77341 0 0 0 128 0 0 255
1.63485 1.20789 3.68419 0 0 0 128 0 0 255
1.63312 1.22554 3.6874 0 0 0 128 0 0 255
1.62845 1.26775 3.69479 0 0 0 128 0 0 255
1.61947 1.45552 3.73387 0 0 0 128 0 0 255
1.63358 1.14165 3.66808 0 0 0 128 0 0 255
1.62633 1.25617 3.69101 0 0 0 128 0 0 255
1.59827 1.84293 3.81314 0 0 0 128 0 0 255
1.59756 1.82054 3.80758 0 0 0 128 0 0 255
1.62457 1.23675 3.68562 0 0 0 128 0 0 255
1.60796 1.56539 3.75359 0 0 0 128 0 0 255
1.60654 1.57619 3.7554 0 0 0 128 0 0 255
1.59218 1.81983 3.80482 0 0 0 128 0 0 255
1.61068 1.41403 3.71992 0 0 0 128 0 0 255
1.60682 1.43763 3.72358 0 0 0 128 0 0 255
1.59149 1.75839 3.79034 0 0 0 128 0 0 255
1.61818 1.16193 3.66537 0 0 0 128 0 0 255
1.61276 1.27537 3.68898 0 0 0 128 0 0 255
1.59775 1.58929 3.75432 0 0 0 128 0 0 255
1.59295 1.6705 3.77082 0 0 0 128 0 0 255
1.61041 1.2862 3.69042 0 0 0 128 0 0 255
1.60466 1.40649 3.71546 0 0 0 128 0 0 255
1.60148 1.47299 3.7293 0 0 0 128 0 0 255
1.58385 1.84168 3.80605 0 0 0 128 0 0 255
1.61538 1.16302 3.66438 0 0 0 128 0 0 255
1.60788 1.28143 3.68824 0 0 0 128 0 0 255
1.59962 1.435 3.71981 0 0 0 128 0 0 255
1.59682 1.47415 3.72757 0 0 0 128 0 0 255
1.59856 1.41844 3.71559 0 0 0 128 0 0 255
1.57968 1.81353 3.79783 0 0 0 128 0 0 255
1.59508 1.43321 3.71753 0 0 0 128 0 0 255
1.59111 1.51634 3.73483 0 0 0 128 0 0 255
1.57773 1.79603 3.79305 0 0 0 128 0 0 255
1.57372 1.84108 3.80168 0 0 0 128 0 0 255
1.59766 1.26225 3.67976 0 0 0 128 0 0 255
1.58069 1.61725 3.75365 0 0 0 128 0 0 255
1.59555 1.2672 3.68008 0 0 0 128 0 0 255
1.5674 1.81685 3.7938 0 0 0 128 0 0 255
1.59596 1.19979 3.66502 0 0 0 128 0 0 255
1.59647 1.1695 3.65838 0 0 0 128 0 0 255
1.59607 1.13825 3.65121 0 0 0 128 0 0 255
1.59537 1.15292 3.65426 0 0 0 128 0 0 255
1.5907 1.25072 3.67461 0 0 0 128 0 0 255
1.56601 1.68794 3.76433 0 0 0 128 0 0 255
1.59133 1.13836 3.64962 0 0 0 128 0 0 255
1.58437 1.28407 3.67995 0 0 0 128 0 0 255
1.5872 1.20488 3.66315 0 0 0 128 0 0 255
1.56962 1.57258 3.73969 0 0 0 128 0 0 255
1.55561 1.82591 3.7918 0 0 0 128 0 0 255
1.5631 1.58931 3.74137 0 0 0 128 0 0 255
1.58213 1.15121 3.6496 0 0 0 128 0 0 255
1.54721 1.88174 3.80166 0 0 0 128 0 0 255
1.55494 1.69985 3.76352 0 0 0 128 0 0 255
1.55059 1.7908 3.78245 0 0 0 128 0 0 255
1.56431 1.48374 3.71825 0 0 0 128 0 0 255
1.56221 1.52775 3.72741 0 0 0 128 0 0 255
1.55506 1.67737 3.75856 0 0 0 128 0 0 255
1.57428 1.21484 3.66146 0 0 0 128 0 0 255
1.57322 1.2168 3.66161 0 0 0 128 0 0 255
1.55593 1.57864 3.73692 0 0 0 128 0 0 255
1.57048 1.25397 3.66908 0 0 0 128 0 0 255
1.5409 1.85248 3.7934 0 0 0 128 0 0 255
1.55163 1.608 3.74225 0 0 0 128 0 0 255
1.56595 1.28822 3.67544 0 0 0 128 0 0 255
1.53683 1.87695 3.79773 0 0 0 128 0 0 255
1.55283 1.52196 3.72359 0 0 0 128 0 0 255
1.54493 1.68723 3.75799 0 0 0 128 0 0 255
1.53661 1.86131 3.79423 0 0 0 128 0 0 255
1.54653 1.63345 3.74656 0 0 0 128 0 0 255
1.53943 1.7821 3.7775 0 0 0 128 0 0 255
1.56225 1.28433 3.67365 0 0 0 128 0 0 255
1.55418 1.43298 3.70435 0 0 0 128 0 0 255
1.55282 1.46134 3.71025 0 0 0 128 0 0 255
1.55952 1.30096 3.67664 0 0 0 128 0 0 255
1.52855 1.86719 3.79359 0 0 0 128 0 0 255
1.51955 1.95323 3.81045 0 0 0 128 0 0 255
1.52558 1.80654 3.77972 0 0 0 128 0 0 255
1.55242 1.22465 3.6584 0 0 0 128 0 0 255
1.55204 1.23248 3.66003 0 0 0 128 0 0 255
1.54746 1.28723 3.67104 0 0 0 128 0 0 255
1.53765 1.47205 3.70932 0 0 0 128 0 0 255
1.5325 1.55908 3.72726 0 0 0 128 0 0 255
1.54685 1.23831 3.66031 0 0 0 128 0 0 255
1.51782 1.84561 3.78671 0 0 0 128 0 0 255
1.52076 1.76345 3.76944 0 0 0 128 0 0 255
1.51553 1.85244 3.78778 0 0 0 128 0 0 255
1.54039 1.31162 3.67504 0 0 0 128 0 0 255
1.53352 1.45538 3.70497 0 0 0 128 0 0 255
1.52338 1.66759 3.74914 0 0 0 128 0 0 255
1.51356 1.85241 3.78744 0 0 0 128 0 0 255
1.54759 1.11992 3.63481 0 0 0 128 0 0 255
1.51678 1.76439 3.76895 0 0 0 128 0 0 255
1.5063 1.9629 3.81011 0 0 0 128 0 0 255
1.52177 1.61865 3.7383 0 0 0 128 0 0 255
1.50788 1.88854 3.79433 0 0 0 128 0 0 255
1.53797 1.21764 3.65438 0 0 0 128 0 0 255
1.53713 1.21469 3.65362 0 0 0 128 0 0 255
1.53408 1.2577 3.66244 0 0 0 128 0 0 255
1.51622 1.63128 3.74019 0 0 0 128 0 0 255
1.51541 1.60679 3.73483 0 0 0 128 0 0 255
1.53306 1.19602 3.64907 0 0 0 128 0 0 255
1.52094 1.42875 3.69738 0 0 0 128 0 0 255
1.52062 1.43559 3.69881 0 0 0 128 0 0 255
1.50303 1.78274 3.77095 0 0 0 128 0 0 255
1.50811 1.65559 3.74436 0 0 0 128 0 0 255
1.498 1.84626 3.78394 0 0 0 128 0 0 255
1.49205 1.9499 3.8054 0 0 0 128 0 0 255
1.515 1.44917 3.70107 0 0 0 128 0 0 255
1.50906 1.57337 3.72692 0 0 0 128 0 0 255
1.5238 1.20265 3.64945 0 0 0 128 0 0 255
1.50351 1.62708 3.7378 0 0 0 128 0 0 255
1.48728 1.96643 3.80843 0 0 0 128 0 0 255
1.5219 1.20064 3.64885 0 0 0 128 0 0 255
1.50937 1.46273 3.70341 0 0 0 128 0 0 255
1.51561 1.29056 3.6674 0 0 0 128 0 0 255
1.51019 1.404 3.69101 0 0 0 128 0 0 255
1.50512 1.48905 3.70863 0 0 0 128 0 0 255
1.5166 1.20734 3.64985 0 0 0 128 0 0 255
1.51286 1.28557 3.66613 0 0 0 128 0 0 255
1.49953 1.56429 3.72414 0 0 0 128 0 0 255
1.48583 1.85083 3.78379 0 0 0 128 0 0 255
1.50516 1.40482 3.69081 0 0 0 128 0 0 255
1.483 1.86837 3.7873 0 0 0 128 0 0 255
1.49981 1.49574 3.70968 0 0 0 128 0 0 255
1.50877 1.2874 3.66625 0 0 0 128 0 0 255
1.49942 1.48299 3.70696 0 0 0 128 0 0 255
1.49356 1.58466 3.72807 0 0 0 128 0 0 255
1.48047 1.85849 3.78506 0 0 0 128 0 0 255
1.49271 1.58169 3.7274 0 0 0 128 0 0 255
1.48895 1.63935 3.73935 0 0 0 128 0 0 255
1.48072 1.81147 3.77518 0 0 0 128 0 0 255
1.49673 1.43489 3.6967 0 0 0 128 0 0 255
1.49266 1.51997 3.71441 0 0 0 128 0 0 255
1.48331 1.65286 3.74196 0 0 0 128 0 0 255
1.48025 1.69585 3.75088 0 0 0 128 0 0 255
1.50295 1.19999 3.64764 0 0 0 128 0 0 255
1.48167 1.62437 3.73596 0 0 0 128 0 0 255
1.50203 1.17741 3.6429 0 0 0 128 0 0 255
1.47175 1.76898 3.76601 0 0 0 128 0 0 255
1.48035 1.52632 3.71548 0 0 0 128 0 0 255
1.46927 1.75809 3.76373 0 0 0 128 0 0 255
1.46682 1.78836 3.77003 0 0 0 128 0 0 255
1.47456 1.60544 3.73196 0 0 0 128 0 0 255
1.46435 1.79805 3.77206 0 0 0 128 0 0 255
1.46211 1.84499 3.78183 0 0 0 128 0 0 255
1.48729 1.29729 3.66784 0 0 0 128 0 0 255
1.46032 1.86157 3.78529 0 0 0 128 0 0 255
1.46231 1.79893 3.77227 0 0 0 128 0 0 255
1.47211 1.57297 3.72525 0 0 0 128 0 0 255
1.4843 1.29714 3.66786 0 0 0 128 0 0 255
1.46022 1.80078 3.77269 0 0 0 128 0 0 255
1.46012 1.80274 3.7731 0 0 0 128 0 0 255
1.45693 1.84865 3.78268 0 0 0 128 0 0 255
1.48178 1.3078 3.67013 0 0 0 128 0 0 255
1.47229 1.44357 3.6985 0 0 0 128 0 0 255
1.44064 2.10564 3.83631 0 0 0 128 0 0 255
1.47798 1.30367 3.66942 0 0 0 128 0 0 255
1.46419 1.59217 3.72947 0 0 0 128 0 0 255
1.47748 1.27227 3.66298 0 0 0 128 0 0 255
1.46316 1.55093 3.72103 0 0 0 128 0 0 255
1.44682 1.87164 3.78784 0 0 0 128 0 0 255
1.45671 1.62312 3.73623 0 0 0 128 0 0 255
1.45357 1.68865 3.74987 0 0 0 128 0 0 255
1.47025 1.25615 3.66013 0 0 0 128 0 0 255
1.47117 1.216 3.65185 0 0 0 128 0 0 255
1.46005 1.44875 3.7003 0 0 0 128 0 0 255
1.45626 1.52796 3.71679 0 0 0 128 0 0 255
1.45289 1.59837 3.73144 0 0 0 128 0 0 255
1.46608 1.25982 3.66123 0 0 0 128 0 0 255
1.45224 1.54929 3.72148 0 0 0 128 0 0 255
1.4492 1.61286 3.73471 0 0 0 128 0 0 255
1.44753 1.58528 3.72926 0 0 0 128 0 0 255
1.43949 1.75349 3.76427 0 0 0 128 0 0 255
1.43439 1.86008 3.78646 0 0 0 128 0 0 255
1.44672 1.5813 3.72854 0 0 0 128 0 0 255
1.44723 1.54994 3.72212 0 0 0 128 0 0 255
1.4425 1.64871 3.74267 0 0 0 128 0 0 255
1.43249 1.83739 3.78206 0 0 0 128 0 0 255
1.45636 1.29645 3.66969 0 0 0 128 0 0 255
1.4419 1.57803 3.72842 0 0 0 128 0 0 255
1.45863 1.20732 3.65138 0 0 0 128 0 0 255
1.45456 1.2924 3.66909 0 0 0 128 0 0 255
1.446 1.47136 3.70634 0 0 0 128 0 0 255
1.45726 1.21507 3.65312 0 0 0 128 0 0 255
1.4549 1.20214 3.65083 0 0 0 128 0 0 255
1.43111 1.59588 3.73351 0 0 0 128 0 0 255
1.42279 1.76995 3.76975 0 0 0 128 0 0 255
1.44228 1.34154 3.68073 0 0 0 128 0 0 255
1.42891 1.60062 3.73482 0 0 0 128 0 0 255
1.42189 1.74731 3.76535 0 0 0 128 0 0 255
1.44241 1.29738 3.67186 0 0 0 128 0 0 255
1.44064 1.33454 3.67959 0 0 0 128 0 0 255
1.43362 1.48123 3.71013 0 0 0 128 0 0 255
1.4375 1.33821 3.68087 0 0 0 128 0 0 255
1.43516 1.36649 3.68693 0 0 0 128 0 0 255
1.41103 1.85049 3.78785 0 0 0 128 0 0 255
1.42945 1.44457 3.70354 0 0 0 128 0 0 255
1.41926 1.65776 3.74792 0 0 0 128 0 0 255
1.41977 1.62638 3.74158 0 0 0 128 0 0 255
1.40836 1.84438 3.78714 0 0 0 128 0 0 255
1.43431 1.281 3.67007 0 0 0 128 0 0 255
1.42557 1.46388 3.70813 0 0 0 128 0 0 255
1.42365 1.48335 3.71238 0 0 0 128 0 0 255
1.42211 1.51562 3.7191 0 0 0 128 0 0 255
1.41776 1.60657 3.73803 0 0 0 128 0 0 255
1.41734 1.61537 3.73986 0 0 0 128 0 0 255
1.41445 1.65538 3.74839 0 0 0 128 0 0 255
1.41058 1.65406 3.74895 0 0 0 128 0 0 255
1.40955 1.67558 3.75343 0 0 0 128 0 0 255
1.39626 1.85116 3.79109 0 0 0 128 0 0 255
1.39451 1.84707 3.7907 0 0 0 128 0 0 255
1.39413 1.85489 3.79233 0 0 0 128 0 0 255
1.4187 1.30021 3.67736 0 0 0 128 0 0 255
1.40622 1.56132 3.73171 0 0 0 128 0 0 255
1.41754 1.30403 3.6784 0 0 0 128 0 0 255
1.42176 1.19538 3.65603 0 0 0 128 0 0 255
1.40777 1.4475 3.70902 0 0 0 128 0 0 255
1.39143 1.74852 3.7722 0 0 0 128 0 0 255
1.39139 1.74949 3.7724 0 0 0 128 0 0 255
1.42058 1.11862 3.64135 0 0 0 128 0 0 255
1.40205 1.4656 3.71412 0 0 0 128 0 0 255
1.38482 1.80582 3.78521 0 0 0 128 0 0 255
1.40817 1.29719 3.67962 0 0 0 128 0 0 255
1.38503 1.78127 3.78038 0 0 0 128 0 0 255
1.38304 1.76239 3.7773 0 0 0 128 0 0 255
1.38206 1.78293 3.78158 0 0 0 128 0 0 255
1.39394 1.49423 3.72207 0 0 0 128 0 0 255
1.38697 1.63994 3.7524 0 0 0 128 0 0 255
1.38684 1.60257 3.74522 0 0 0 128 0 0 255
1.38453 1.63083 3.75141 0 0 0 128 0 0 255
1.37401 1.85087 3.79721 0 0 0 128 0 0 255
1.38721 1.53478 3.73203 0 0 0 128 0 0 255
1.38711 1.53674 3.73244 0 0 0 128 0 0 255
1.38995 1.45742 3.71625 0 0 0 128 0 0 255
1.38353 1.57173 3.74036 0 0 0 128 0 0 255
1.38667 1.44623 3.71521 0 0 0 128 0 0 255
1.39293 1.29552 3.68417 0 0 0 128 0 0 255
1.36939 1.74808 3.77904 0 0 0 128 0 0 255
1.37528 1.60519 3.74963 0 0 0 128 0 0 255
1.36114 1.84152 3.79986 0 0 0 128 0 0 255
1.35417 1.94789 3.82271 0 0 0 128 0 0 255
1.35866 1.83433 3.79944 0 0 0 128 0 0 255
1.3893 1.11508 3.65119 0 0 0 128 0 0 255
1.35682 1.7554 3.78523 0 0 0 128 0 0 255
1.38003 1.2113 3.67313 0 0 0 128 0 0 255
1.37587 1.29834 3.69124 0 0 0 128 0 0 255
1.36877 1.44699 3.72218 0 0 0 128 0 0 255
1.377 1.19713 3.67176 0 0 0 128 0 0 255
1.37571 1.20483 3.67376 0 0 0 128 0 0 255
1.34777 1.76996 3.7918 0 0 0 128 0 0 255
1.35789 1.53904 3.74414 0 0 0 128 0 0 255
1.34751 1.75614 3.78933 0 0 0 128 0 0 255
1.36584 1.3344 3.70238 0 0 0 128 0 0 255
1.34961 1.67375 3.77301 0 0 0 128 0 0 255
1.35399 1.56311 3.7504 0 0 0 128 0 0 255
1.36266 1.36251 3.70907 0 0 0 128 0 0 255
1.34244 1.76627 3.79353 0 0 0 128 0 0 255
1.34216 1.77214 3.79476 0 0 0 128 0 0 255
1.35199 1.52838 3.74488 0 0 0 128 0 0 255
1.34364 1.66504 3.77419 0 0 0 128 0 0 255
1.35094 1.45537 3.73188 0 0 0 128 0 0 255
1.37126 0.973822 3.633 0 0 0 128 0 0 255
1.33919 1.64469 3.77264 0 0 0 128 0 0 255
1.32726 1.83793 3.81425 0 0 0 128 0 0 255
1.3446 1.4564 3.7353 0 0 0 128 0 0 255
1.35854 1.10882 3.66437 0 0 0 128 0 0 255
1.34723 1.34548 3.71363 0 0 0 128 0 0 255
1.34578 1.3758 3.71994 0 0 0 128 0 0 255
1.34116 1.4539 3.73668 0 0 0 128 0 0 255
1.33372 1.60939 3.76905 0 0 0 128 0 0 255
1.3393 1.45558 3.738 0 0 0 128 0 0 255
1.33168 1.61499 3.77118 0 0 0 128 0 0 255
1.3438 1.34298 3.71505 0 0 0 128 0 0 255
1.34199 1.3624 3.71958 0 0 0 128 0 0 255
1.31908 1.84159 3.81932 0 0 0 128 0 0 255
1.33527 1.4845 3.74549 0 0 0 128 0 0 255
1.33283 1.49889 3.74948 0 0 0 128 0 0 255
1.32518 1.64056 3.77947 0 0 0 128 0 0 255
1.32221 1.64796 3.78254 0 0 0 128 0 0 255
1.3346 1.35233 3.72204 0 0 0 128 0 0 255
1.34426 1.13215 3.67673 0 0 0 128 0 0 255
1.34378 1.12418 3.6756 0 0 0 128 0 0 255
1.33873 1.2298 3.69758 0 0 0 128 0 0 255
1.30789 1.83877 3.82539 0 0 0 128 0 0 255
1.31134 1.74866 3.80717 0 0 0 128 0 0 255
1.32353 1.47566 3.75088 0 0 0 128 0 0 255
1.3096 1.76709 3.81154 0 0 0 128 0 0 255
1.32258 1.44197 3.74549 0 0 0 128 0 0 255
1.31608 1.57791 3.77378 0 0 0 128 0 0 255
1.30968 1.64088 3.7891 0 0 0 128 0 0 255
1.32301 1.34441 3.72794 0 0 0 128 0 0 255
1.31925 1.37037 3.73504 0 0 0 128 0 0 255
1.30906 1.58356 3.77941 0 0 0 128 0 0 255
1.30775 1.61094 3.78511 0 0 0 128 0 0 255
1.31113 1.52277 3.76733 0 0 0 128 0 0 255
1.30424 1.632 3.79121 0 0 0 128 0 0 255
1.30304 1.63967 3.79339 0 0 0 128 0 0 255
1.32391 1.18575 3.69948 0 0 0 128 0 0 255
1.30759 1.49252 3.76451 0 0 0 128 0 0 255
1.30608 1.47249 3.76211 0 0 0 128 0 0 255
1.29868 1.61023 3.79138 0 0 0 128 0 0 255
1.30306 1.50152 3.76935 0 0 0 128 0 0 255
1.31633 1.207 3.70865 0 0 0 128 0 0 255
1.29183 1.71944 3.81531 0 0 0 128 0 0 255
1.30374 1.45328 3.76052 0 0 0 128 0 0 255
1.28509 1.84348 3.84174 0 0 0 128 0 0 255
1.31055 1.26015 3.72215 0 0 0 128 0 0 255
1.28857 1.703 3.81495 0 0 0 128 0 0 255
1.29241 1.60603 3.79538 0 0 0 128 0 0 255
1.28095 1.84562 3.84525 0 0 0 128 0 0 255
1.31397 1.12162 3.6958 0 0 0 128 0 0 255
1.30163 1.36301 3.74667 0 0 0 128 0 0 255
1.29261 1.55176 3.78596 0 0 0 128 0 0 255
1.28354 1.74148 3.82545 0 0 0 128 0 0 255
1.28962 1.59756 3.79612 0 0 0 128 0 0 255
1.29375 1.49471 3.77535 0 0 0 128 0 0 255
1.29215 1.44598 3.7684 0 0 0 128 0 0 255
1.28644 1.56528 3.79324 0 0 0 128 0 0 255
1.2903 1.4683 3.7737 0 0 0 128 0 0 255
1.27611 1.74881 3.83273 0 0 0 128 0 0 255
1.27448 1.75043 3.83438 0 0 0 128 0 0 255
1.28077 1.58678 3.80164 0 0 0 128 0 0 255
1.29033 1.35468 3.75466 0 0 0 128 0 0 255
1.28238 1.50511 3.78664 0 0 0 128 0 0 255
1.29747 1.12597 3.71042 0 0 0 128 0 0 255
1.27078 1.68438 3.82665 0 0 0 128 0 0 255
1.2751 1.54695 3.8001 0 0 0 128 0 0 255
1.27534 1.52624 3.79648 0 0 0 128 0 0 255
1.27191 1.56697 3.80634 0 0 0 128 0 0 255
1.27332 1.49115 3.79266 0 0 0 128 0 0 255
1.28775 1.17413 3.72737 0 0 0 128 0 0 255
1.28679 1.17884 3.72906 0 0 0 128 0 0 255
1.27347 1.45756 3.78707 0 0 0 128 0 0 255
1.28532 1.19431 3.73299 0 0 0 128 0 0 255
1.27279 1.4564 3.78754 0 0 0 128 0 0 255
1.27876 1.31638 3.75911 0 0 0 128 0 0 255
1.27133 1.47188 3.79147 0 0 0 128 0 0 255
1.2824 1.22526 3.74085 0 0 0 128 0 0 255
1.26875 1.51082 3.80029 0 0 0 128 0 0 255
1.2707 1.4549 3.78937 0 0 0 128 0 0 255
1.25723 1.73655 3.84799 0 0 0 128 0 0 255
1.28536 1.11814 3.72071 0 0 0 128 0 0 255
1.25624 1.7274 3.84753 0 0 0 128 0 0 255
1.25511 1.75087 3.85241 0 0 0 128 0 0 255
1.25609 1.70064 3.84341 0 0 0 128 0 0 255
1.2524 1.76305 3.85713 0 0 0 128 0 0 255
1.27948 1.16712 3.73455 0 0 0 128 0 0 255
1.27363 1.28937 3.75999 0 0 0 128 0 0 255
1.27369 1.27354 3.75744 0 0 0 128 0 0 255
1.28178 1.08951 3.71987 0 0 0 128 0 0 255
1.26205 1.5022 3.80577 0 0 0 128 0 0 255
1.26211 1.48638 3.80321 0 0 0 128 0 0 255
1.23973 1.93996 3.89837 0 0 0 128 0 0 255
1.27787 1.11324 3.72778 0 0 0 128 0 0 255
1.24725 1.75379 3.86111 0 0 0 128 0 0 255
1.27304 1.17137 3.74213 0 0 0 128 0 0 255
1.26668 1.30437 3.76982 0 0 0 128 0 0 255
1.26325 1.36189 3.78255 0 0 0 128 0 0 255
1.23565 1.92501 3.90052 0 0 0 128 0 0 255
1.25397 1.52778 3.81859 0 0 0 128 0 0 255
1.25219 1.56494 3.82633 0 0 0 128 0 0 255
1.25205 1.56787 3.82694 0 0 0 128 0 0 255
1.26784 1.20958 3.75389 0 0 0 128 0 0 255
1.26737 1.21936 3.75592 0 0 0 128 0 0 255
1.25423 1.49416 3.81312 0 0 0 128 0 0 255
1.23239 1.93699 3.90606 0 0 0 128 0 0 255
1.26423 1.25713 3.76532 0 0 0 128 0 0 255
1.26371 1.26789 3.76756 0 0 0 128 0 0 255
1.26367 1.26887 3.76777 0 0 0 128 0 0 255
1.23875 1.77624 3.87415 0 0 0 128 0 0 255
1.26416 1.18971 3.75517 0 0 0 128 0 0 255
1.23692 1.74597 3.87174 0 0 0 128 0 0 255
1.23487 1.77513 3.87859 0 0 0 128 0 0 255
1.23267 1.79431 3.88416 0 0 0 128 0 0 255
1.24751 1.47043 3.81754 0 0 0 128 0 0 255
1.25951 1.20619 3.76333 0 0 0 128 0 0 255
1.26111 1.14616 3.75243 0 0 0 128 0 0 255
1.26108 1.12036 3.74866 0 0 0 128 0 0 255
1.24962 1.34706 3.79665 0 0 0 128 0 0 255
1.24948 1.34999 3.79726 0 0 0 128 0 0 255
1.25924 1.11979 3.75096 0 0 0 128 0 0 255
1.22497 1.83663 3.90017 0 0 0 128 0 0 255
1.23914 1.52741 3.83661 0 0 0 128 0 0 255
1.25826 1.11452 3.75149 0 0 0 128 0 0 255
1.24059 1.48419 3.82843 0 0 0 128 0 0 255
1.23014 1.66454 3.86842 0 0 0 128 0 0 255
1.22713 1.7023 3.87792 0 0 0 128 0 0 255
1.23647 1.48187 3.83369 0 0 0 128 0 0 255
1.221 1.78074 3.89756 0 0 0 128 0 0 255
1.23485 1.46643 3.8338 0 0 0 128 0 0 255
1.24461 1.25012 3.78961 0 0 0 128 0 0 255
1.24338 1.25168 3.79162 0 0 0 128 0 0 255
1.25067 1.0872 3.75822 0 0 0 128 0 0 255
1.24557 1.19379 3.78041 0 0 0 128 0 0 255
1.24291 1.24953 3.79201 0 0 0 128 0 0 255
1.24267 1.25442 3.79303 0 0 0 128 0 0 255
1.25085 1.07135 3.75577 0 0 0 128 0 0 255
1.22131 1.68942 3.88442 0 0 0 128 0 0 255
1.21074 1.91043 3.93042 0 0 0 128 0 0 255
1.24922 1.08172 3.75962 0 0 0 128 0 0 255
1.22402 1.60884 3.86934 0 0 0 128 0 0 255
1.21649 1.76629 3.90211 0 0 0 128 0 0 255
1.23967 1.18871 3.78874 0 0 0 128 0 0 255
1.21988 1.59143 3.87343 0 0 0 128 0 0 255
1.22117 1.55309 3.86631 0 0 0 128 0 0 255
1.20279 1.92647 3.9449 0 0 0 128 0 0 255
1.21796 1.57577 3.87452 0 0 0 128 0 0 255
1.23633 1.18048 3.79311 0 0 0 128 0 0 255
1.23288 1.23094 3.80537 0 0 0 128 0 0 255
1.20021 1.90356 3.94626 0 0 0 128 0 0 255
1.2189 1.45956 3.85827 0 0 0 128 0 0 255
1.21304 1.55088 3.87995 0 0 0 128 0 0 255
1.2262 1.24516 3.81901 0 0 0 128 0 0 255
1.21095 1.56397 3.88537 0 0 0 128 0 0 255
1.23503 1.05035 3.77936 0 0 0 128 0 0 255
1.22497 1.25063 3.82195 0 0 0 128 0 0 255
1.21572 1.44426 3.86225 0 0 0 128 0 0 255
1.21492 1.4509 3.86454 0 0 0 128 0 0 255
1.20611 1.60579 3.8995 0 0 0 128 0 0 255
1.22154 1.2541 3.82903 0 0 0 128 0 0 255
1.19067 1.79853 3.95248 0 0 0 128 0 0 255
1.18284 1.93581 3.98385 0 0 0 128 0 0 255
1.22543 1.02787 3.79674 0 0 0 128 0 0 255
1.206 1.42569 3.88048 0 0 0 128 0 0 255
1.2128 1.11211 3.83615 0 0 0 128 0 0 255
1.21843 0.9736 3.81021 0 0 0 128 0 0 255
1.21529 1.03912 3.82385 0 0 0 128 0 0 255
1.1964 1.43421 3.90609 0 0 0 128 0 0 255
1.17309 1.91515 4.00716 0 0 0 128 0 0 255
1.17423 1.84524 3.99942 0 0 0 128 0 0 255
1.17046 1.90525 4.01484 0 0 0 128 0 0 255
1.20794 1.04174 3.84891 0 0 0 128 0 0 255
1.16694 1.89939 4.02743 0 0 0 128 0 0 255
1.20854 1.01883 3.84612 0 0 0 128 0 0 255
1.16569 1.90031 4.03258 0 0 0 128 0 0 255
1.20536 1.04237 3.85999 0 0 0 128 0 0 255
1.16691 1.84212 4.02746 0 0 0 128 0 0 255
1.1639 1.86449 4.04215 0 0 0 128 0 0 255
1.16518 1.83396 4.03681 0 0 0 128 0 0 255
1.16383 1.85506 4.04321 0 0 0 128 0 0 255
1.16257 1.8416 4.05356 0 0 0 128 0 0 255
1.16491 1.78739 4.04431 0 0 0 128 0 0 255
1.18253 1.41654 3.96814 0 0 0 128 0 0 255
1.16063 1.86341 4.06623 0 0 0 128 0 0 255
1.16063 1.86124 4.0668 0 0 0 128 0 0 255
1.18108 1.42956 3.97898 0 0 0 128 0 0 255
1.16101 1.8355 4.07265 0 0 0 128 0 0 255
1.17938 1.44999 3.99343 0 0 0 128 0 0 255
1.15507 1.95733 4.10005 0 0 0 128 0 0 255
1.1623 1.80318 4.07103 0 0 0 128 0 0 255
1.17935 1.44346 4.00023 0 0 0 128 0 0 255
1.15795 1.88997 4.09522 0 0 0 128 0 0 255
