ply
format ascii 1.0
comment VCGLIB generated
element vertex 269
property float x
property float y
property float z
property float nx
property float ny
property float nz
property uchar red
property uchar green
property uchar blue
property uchar alpha
element face 0
property list uchar int vertex_indices
end_header
-1.59056 -0.585757 4.98107 0 0 0 128 128 0 255
-1.54835 -0.545149 5.00995 0 0 0 128 128 0 255
-1.5661 -0.508039 5.01183 0 0 0 128 128 0 255
-1.60506 -0.442601 5.01173 0 0 0 128 128 0 255
-1.56949 -0.463589 5.02146 0 0 0 128 128 0 255
-1.5267 -0.491423 5.03252 0 0 0 128 128 0 255
-1.6072 -0.428131 5.01439 0 0 0 128 128 0 255
-1.44494 -0.54755 5.05293 0 0 0 128 128 0 255
-1.42798 -0.546915 5.06012 0 0 0 128 128 0 255
-1.53802 -0.425407 5.04365 0 0 0 128 128 0 255
-1.4921 -0.455663 5.05536 0 0 0 128 128 0 255
-1.39174 -0.529893 5.07906 0 0 0 128 128 0 255
-1.39562 -0.519825 5.07982 0 0 0 128 128 0 255
-1.43974 -0.485136 5.06988 0 0 0 128 128 0 255
-1.51199 -0.427165 5.05387 0 0 0 128 128 0 255
-1.45369 -0.453097 5.07158 0 0 0 128 128 0 255
-1.31177 -0.55881 5.10489 0 0 0 128 128 0 255
-1.33445 -0.508128 5.10716 0 0 0 128 128 0 255
-1.56304 -0.316662 5.05825 0 0 0 128 128 0 255
-1.38034 -0.456765 5.10019 0 0 0 128 128 0 255
-1.24848 -0.558078 5.13042 0 0 0 128 128 0 255
-1.24021 -0.559874 5.13331 0 0 0 128 128 0 255
-1.38054 -0.437779 5.10425 0 0 0 128 128 0 255
-1.35189 -0.456773 5.11147 0 0 0 128 128 0 255
-1.35854 -0.438577 5.11275 0 0 0 128 128 0 255
-1.18281 -0.573199 5.15311 0 0 0 128 128 0 255
-1.19537 -0.547981 5.15353 0 0 0 128 128 0 255
-1.18324 -0.55634 5.15651 0 0 0 128 128 0 255
-1.20566 -0.535164 5.1522 0 0 0 128 128 0 255
-1.44242 -0.331301 5.10255 0 0 0 128 128 0 255
-1.11411 -0.575218 5.17945 0 0 0 128 128 0 255
-1.183 -0.521055 5.16392 0 0 0 128 128 0 255
-1.11148 -0.571363 5.18125 0 0 0 128 128 0 255
-1.20736 -0.481774 5.16253 0 0 0 128 128 0 255
-1.39828 -0.329305 5.11999 0 0 0 128 128 0 255
-1.22123 -0.463755 5.16083 0 0 0 128 128 0 255
-1.10315 -0.539972 5.19074 0 0 0 128 128 0 255
-1.04967 -0.574894 5.2042 0 0 0 128 128 0 255
-1.03461 -0.577232 5.20946 0 0 0 128 128 0 255
-1.26036 -0.397373 5.15905 0 0 0 128 128 0 255
-1.05209 -0.557544 5.20667 0 0 0 128 128 0 255
-1.18858 -0.449053 5.17615 0 0 0 128 128 0 255
-0.972486 -0.608235 5.22691 0 0 0 128 128 0 255
-1.26297 -0.375099 5.16237 0 0 0 128 128 0 255
-0.99147 -0.583789 5.22446 0 0 0 128 128 0 255
-0.971501 -0.591152 5.23054 0 0 0 128 128 0 255
-1.08211 -0.497046 5.20697 0 0 0 128 128 0 255
-1.11099 -0.473146 5.20069 0 0 0 128 128 0 255
-0.956659 -0.592096 5.23591 0 0 0 128 128 0 255
-0.993722 -0.555803 5.2289 0 0 0 128 128 0 255
-1.08371 -0.480284 5.20951 0 0 0 128 128 0 255
-1.32803 -0.285816 5.15491 0 0 0 128 128 0 255
-0.939392 -0.58778 5.24314 0 0 0 128 128 0 255
-1.23088 -0.352647 5.17856 0 0 0 128 128 0 255
-1.09667 -0.455771 5.20924 0 0 0 128 128 0 255
-0.956272 -0.563765 5.24131 0 0 0 128 128 0 255
-1.09353 -0.454663 5.21061 0 0 0 128 128 0 255
-1.09324 -0.452503 5.21111 0 0 0 128 128 0 255
-1.23121 -0.33925 5.1809 0 0 0 128 128 0 255
-1.23199 -0.338642 5.18072 0 0 0 128 128 0 255
-1.65096 -0.00447452 5.08719 0 0 0 128 128 0 255
-1.34663 -0.236557 5.15706 0 0 0 128 128 0 255
-1.34682 -0.231628 5.15788 0 0 0 128 128 0 255
-1.0201 -0.484902 5.23213 0 0 0 128 128 0 255
-1.32426 -0.242186 5.16424 0 0 0 128 128 0 255
-0.94758 -0.525155 5.25145 0 0 0 128 128 0 255
-1.60216 -0.00813854 5.10439 0 0 0 128 128 0 255
-1.28889 -0.253227 5.17518 0 0 0 128 128 0 255
-1.02362 -0.460583 5.23516 0 0 0 128 128 0 255
-1.65861 0.0398342 5.0923 0 0 0 128 128 0 255
-0.867907 -0.575812 5.2715 0 0 0 128 128 0 255
-1.62252 0.0246443 5.10273 0 0 0 128 128 0 255
-0.96115 -0.492916 5.25216 0 0 0 128 128 0 255
-0.959001 -0.489807 5.25348 0 0 0 128 128 0 255
-1.55916 -0.0167765 5.11846 0 0 0 128 128 0 255
-0.981924 -0.469387 5.24872 0 0 0 128 128 0 255
-1.23189 -0.269269 5.19302 0 0 0 128 128 0 255
-1.62823 0.0423214 5.10372 0 0 0 128 128 0 255
-1.39439 -0.137919 5.15703 0 0 0 128 128 0 255
-0.963926 -0.472737 5.25463 0 0 0 128 128 0 255
-0.891398 -0.528557 5.27117 0 0 0 128 128 0 255
-1.354 -0.162465 5.16735 0 0 0 128 128 0 255
-0.966352 -0.462424 5.25551 0 0 0 128 128 0 255
-1.57347 0.0160847 5.11892 0 0 0 128 128 0 255
-0.847075 -0.552594 5.28299 0 0 0 128 128 0 255
-1.33011 -0.172844 5.17416 0 0 0 128 128 0 255
-0.836169 -0.557563 5.28606 0 0 0 128 128 0 255
-0.947874 -0.468542 5.26109 0 0 0 128 128 0 255
-0.964904 -0.455154 5.25725 0 0 0 128 128 0 255
-0.885808 -0.510125 5.27628 0 0 0 128 128 0 255
-1.55331 0.0158527 5.12608 0 0 0 128 128 0 255
-1.34996 -0.142816 5.1721 0 0 0 128 128 0 255
-0.869483 -0.519354 5.28056 0 0 0 128 128 0 255
-0.899673 -0.495619 5.27376 0 0 0 128 128 0 255
-1.3022 -0.17916 5.18306 0 0 0 128 128 0 255
-1.34114 -0.147344 5.17449 0 0 0 128 128 0 255
-1.31529 -0.165262 5.18071 0 0 0 128 128 0 255
-1.30206 -0.172056 5.18429 0 0 0 128 128 0 255
-0.768637 -0.587811 5.30507 0 0 0 128 128 0 255
-1.52199 0.00927258 5.13612 0 0 0 128 128 0 255
-0.878953 -0.495066 5.2812 0 0 0 128 128 0 255
-1.15709 -0.2752 5.21873 0 0 0 128 128 0 255
-1.29124 -0.168529 5.1887 0 0 0 128 128 0 255
-1.28729 -0.168018 5.19018 0 0 0 128 128 0 255
-1.54832 0.0420128 5.13215 0 0 0 128 128 0 255
-1.55683 0.0487071 5.13023 0 0 0 128 128 0 255
-1.24201 -0.197595 5.20136 0 0 0 128 128 0 255
-1.15013 -0.268628 5.22225 0 0 0 128 128 0 255
-1.16329 -0.258282 5.21929 0 0 0 128 128 0 255
-1.54337 0.0405281 5.13365 0 0 0 128 128 0 255
-1.31029 -0.139098 5.18675 0 0 0 128 128 0 255
-1.12807 -0.279947 5.22819 0 0 0 128 128 0 255
-1.29048 -0.145036 5.19276 0 0 0 128 128 0 255
-0.886554 -0.457769 5.28454 0 0 0 128 128 0 255
-1.48438 0.0134399 5.15003 0 0 0 128 128 0 255
-1.13937 -0.256597 5.22796 0 0 0 128 128 0 255
-1.52177 0.0440394 5.1418 0 0 0 128 128 0 255
-1.17444 -0.227823 5.22025 0 0 0 128 128 0 255
-0.873548 -0.46317 5.28823 0 0 0 128 128 0 255
-0.842042 -0.486734 5.29552 0 0 0 128 128 0 255
-1.24999 -0.166015 5.2036 0 0 0 128 128 0 255
-1.18016 -0.213673 5.22048 0 0 0 128 128 0 255
-1.23767 -0.167251 5.20771 0 0 0 128 128 0 255
-1.42988 -0.0149349 5.16459 0 0 0 128 128 0 255
-1.45844 0.0111391 5.15872 0 0 0 128 128 0 255
-1.12991 -0.244728 5.23312 0 0 0 128 128 0 255
-0.807347 -0.497115 5.30598 0 0 0 128 128 0 255
-1.49551 0.043908 5.15093 0 0 0 128 128 0 255
-1.69259 0.201264 5.1069 0 0 0 128 128 0 255
-1.2495 -0.144672 5.20711 0 0 0 128 128 0 255
-1.4897 0.0453743 5.15318 0 0 0 128 128 0 255
-1.09575 -0.255885 5.24324 0 0 0 128 128 0 255
-1.43271 0.0102341 5.1675 0 0 0 128 128 0 255
-1.11138 -0.238766 5.24046 0 0 0 128 128 0 255
-1.22517 -0.149305 5.21482 0 0 0 128 128 0 255
-1.22927 -0.144873 5.21408 0 0 0 128 128 0 255
-1.16447 -0.194604 5.22886 0 0 0 128 128 0 255
-0.802571 -0.473079 5.31132 0 0 0 128 128 0 255
-1.02402 -0.290518 5.2627 0 0 0 128 128 0 255
-1.12278 -0.21045 5.24081 0 0 0 128 128 0 255
-1.38912 0.00741011 5.18206 0 0 0 128 128 0 255
-1.07584 -0.237673 5.25283 0 0 0 128 128 0 255
-1.62048 0.192936 5.13047 0 0 0 128 128 0 255
-1.02411 -0.273495 5.2652 0 0 0 128 128 0 255
-1.02489 -0.272887 5.26502 0 0 0 128 128 0 255
-1.62481 0.198759 5.12985 0 0 0 128 128 0 255
-1.42145 0.0400926 5.17585 0 0 0 128 128 0 255
-1.3613 -0.00598609 5.18958 0 0 0 128 128 0 255
-1.42345 0.04409 5.17576 0 0 0 128 128 0 255
-1.38265 0.0132261 5.18513 0 0 0 128 128 0 255
-1.12975 -0.184388 5.24229 0 0 0 128 128 0 255
-1.36753 0.00739646 5.18942 0 0 0 128 128 0 255
-1.32887 -0.0145178 5.19936 0 0 0 128 128 0 255
-1.3908 0.0341682 5.18541 0 0 0 128 128 0 255
-1.02401 -0.249343 5.26875 0 0 0 128 128 0 255
-1.07146 -0.210829 5.25823 0 0 0 128 128 0 255
-1.55781 0.172746 5.14883 0 0 0 128 128 0 255
-1.30782 -0.015306 5.20637 0 0 0 128 128 0 255
-1.0004 -0.253346 5.27615 0 0 0 128 128 0 255
-1.07894 -0.185535 5.25931 0 0 0 128 128 0 255
-1.33229 0.014861 5.2024 0 0 0 128 128 0 255
-1.1369 -0.136327 5.24676 0 0 0 128 128 0 255
-1.29349 -0.012004 5.21165 0 0 0 128 128 0 255
-1.35642 0.0386826 5.19764 0 0 0 128 128 0 255
-0.951794 -0.278212 5.28898 0 0 0 128 128 0 255
-1.10132 -0.155801 5.25597 0 0 0 128 128 0 255
-0.969398 -0.257084 5.28603 0 0 0 128 128 0 255
-1.01784 -0.21657 5.27545 0 0 0 128 128 0 255
-0.953714 -0.262125 5.29057 0 0 0 128 128 0 255
-0.979931 -0.237867 5.28516 0 0 0 128 128 0 255
-1.33237 0.0404259 5.20592 0 0 0 128 128 0 255
-0.946319 -0.261861 5.29307 0 0 0 128 128 0 255
-1.49904 0.181185 5.16969 0 0 0 128 128 0 255
-1.3137 0.0379115 5.21178 0 0 0 128 128 0 255
-1.29867 0.028524 5.21549 0 0 0 128 128 0 255
-0.943583 -0.249421 5.29566 0 0 0 128 128 0 255
-1.00994 -0.189948 5.28169 0 0 0 128 128 0 255
-1.22061 -0.0194563 5.23487 0 0 0 128 128 0 255
-1.49276 0.196938 5.17387 0 0 0 128 128 0 255
-1.00554 -0.175151 5.28509 0 0 0 128 128 0 255
-1.01704 -0.162453 5.28298 0 0 0 128 128 0 255
-1.01416 -0.163495 5.28378 0 0 0 128 128 0 255
-1.23832 0.0151685 5.2336 0 0 0 128 128 0 255
-1.17374 -0.0331668 5.24846 0 0 0 128 128 0 255
-1.23743 0.0181296 5.23427 0 0 0 128 128 0 255
-1.01085 -0.158791 5.28548 0 0 0 128 128 0 255
-1.43107 0.175236 5.19127 0 0 0 128 128 0 255
-1.42841 0.18412 5.19327 0 0 0 128 128 0 255
-1.20469 0.0167762 5.24475 0 0 0 128 128 0 255
-0.935965 -0.190828 5.30576 0 0 0 128 128 0 255
-1.14563 -0.022334 5.25898 0 0 0 128 128 0 255
-1.21762 0.0342635 5.24276 0 0 0 128 128 0 255
-1.16663 -0.000937402 5.25485 0 0 0 128 128 0 255
-1.17027 0.00924933 5.25493 0 0 0 128 128 0 255
-0.940029 -0.169319 5.30711 0 0 0 128 128 0 255
-1.14207 -0.0104811 5.26159 0 0 0 128 128 0 255
-0.954181 -0.156971 5.30407 0 0 0 128 128 0 255
-1.1957 0.0329044 5.24965 0 0 0 128 128 0 255
-1.11142 -0.0284645 5.26924 0 0 0 128 128 0 255
-1.17434 0.0222237 5.25521 0 0 0 128 128 0 255
-0.93868 -0.160604 5.3086 0 0 0 128 128 0 255
-1.37858 0.186461 5.20963 0 0 0 128 128 0 255
-1.3736 0.184988 5.21105 0 0 0 128 128 0 255
-1.17432 0.0307635 5.25625 0 0 0 128 128 0 255
-0.929249 -0.155793 5.3122 0 0 0 128 128 0 255
-1.35742 0.185716 5.2163 0 0 0 128 128 0 255
-1.08878 -0.0169171 5.27784 0 0 0 128 128 0 255
-1.08832 -0.0111629 5.27866 0 0 0 128 128 0 255
-1.06918 -0.0249828 5.28312 0 0 0 128 128 0 255
-1.12114 0.0207602 5.27198 0 0 0 128 128 0 255
-1.29961 0.163522 5.23205 0 0 0 128 128 0 255
-1.04645 -0.0269368 5.29007 0 0 0 128 128 0 255
-1.06701 0.0137408 5.28819 0 0 0 128 128 0 255
-1.06864 0.0199297 5.28836 0 0 0 128 128 0 255
-0.98998 -0.0357766 5.30675 0 0 0 128 128 0 255
-0.98886 -0.0342034 5.30727 0 0 0 128 128 0 255
-1.00928 -0.0120116 5.30333 0 0 0 128 128 0 255
-1.03437 0.0273587 5.29977 0 0 0 128 128 0 255
-0.987785 -0.00557768 5.31065 0 0 0 128 128 0 255
-1.00967 0.0128592 5.30584 0 0 0 128 128 0 255
-1.2191 0.179966 5.25891 0 0 0 128 128 0 255
-1.21931 0.181362 5.25899 0 0 0 128 128 0 255
-1.21207 0.183043 5.26138 0 0 0 128 128 0 255
-0.956833 -0.0163906 5.31902 0 0 0 128 128 0 255
-0.957891 -0.00940925 5.31941 0 0 0 128 128 0 255
-0.916233 -0.0323197 5.32978 0 0 0 128 128 0 255
-0.982101 0.0243859 5.31543 0 0 0 128 128 0 255
-0.987588 0.0336235 5.31468 0 0 0 128 128 0 255
-0.926426 -0.000917196 5.32979 0 0 0 128 128 0 255
-0.931765 0.0119026 5.32941 0 0 0 128 128 0 255
-0.848498 -0.042468 5.34923 0 0 0 128 128 0 255
-0.90078 0.00110036 5.33768 0 0 0 128 128 0 255
-1.14307 0.191584 5.28309 0 0 0 128 128 0 255
-0.843559 -0.0389552 5.35103 0 0 0 128 128 0 255
-0.867199 -0.0179036 5.34593 0 0 0 128 128 0 255
-0.915877 0.0289999 5.33576 0 0 0 128 128 0 255
-0.895658 0.0217413 5.3411 0 0 0 128 128 0 255
-0.866091 0.00219905 5.34809 0 0 0 128 128 0 255
-0.862636 0.00195134 5.34909 0 0 0 128 128 0 255
-0.807109 -0.0404688 5.36171 0 0 0 128 128 0 255
-0.846795 -0.00803381 5.35288 0 0 0 128 128 0 255
-1.05498 0.169221 5.30717 0 0 0 128 128 0 255
-0.806136 -0.0239452 5.36345 0 0 0 128 128 0 255
-0.85862 0.0210229 5.35194 0 0 0 128 128 0 255
-1.06091 0.186241 5.30689 0 0 0 128 128 0 255
-0.804947 -0.008816 5.36509 0 0 0 128 128 0 255
-0.8452 0.0228299 5.35602 0 0 0 128 128 0 255
-0.805976 -0.00182575 5.36538 0 0 0 128 128 0 255
-0.764427 -0.0283069 5.37525 0 0 0 128 128 0 255
-0.993491 0.165385 5.32475 0 0 0 128 128 0 255
-0.80714 0.0201169 5.36684 0 0 0 128 128 0 255
-0.771005 -0.00210238 5.37548 0 0 0 128 128 0 255
-0.970643 0.168467 5.33157 0 0 0 128 128 0 255
-0.992725 0.188304 5.32679 0 0 0 128 128 0 255
-0.76612 0.0113901 5.37794 0 0 0 128 128 0 255
-0.980011 0.185742 5.33023 0 0 0 128 128 0 255
-0.92022 0.166004 5.34573 0 0 0 128 128 0 255
-0.914868 0.17172 5.34765 0 0 0 128 128 0 255
-0.905641 0.174393 5.35043 0 0 0 128 128 0 255
-0.922299 0.189972 5.34685 0 0 0 128 128 0 255
-0.897959 0.178284 5.35285 0 0 0 128 128 0 255
-0.840434 0.160388 5.36763 0 0 0 128 128 0 255
-0.884756 0.196476 5.35772 0 0 0 128 128 0 255
-0.841495 0.182356 5.36873 0 0 0 128 128 0 255
-0.841714 0.188747 5.36906 0 0 0 128 128 0 255
-0.776562 0.156192 5.38486 0 0 0 128 128 0 255
-0.776803 0.172569 5.38573 0 0 0 128 128 0 255
-0.777601 0.183162 5.38611 0 0 0 128 128 0 255
-0.703131 0.143311 5.40389 0 0 0 128 128 0 255
