ply
format ascii 1.0
comment VCGLIB generated
element vertex 370
property float x
property float y
property float z
property float nx
property float ny
property float nz
property uchar red
property uchar green
property uchar blue
property uchar alpha
element face 0
property list uchar int vertex_indices
end_header
-2.6638 -0.689039 5.71753 0 0 0 255 255 255 255
-2.64564 -0.652905 5.65711 0 0 0 255 255 255 255
-2.63041 -0.677905 5.67472 0 0 0 255 255 255 255
-2.65458 -0.595587 5.69214 0 0 0 255 255 255 255
-2.64811 -0.70994 5.74948 0 0 0 255 255 255 255
-2.65641 -0.607221 5.6923 0 0 0 255 255 255 255
-2.67898 -0.731076 5.74528 0 0 0 255 255 255 255
-3.53697 -2.15826 6.35574 0 0 0 255 255 255 255
-3.53689 -2.16655 6.3541 0 0 0 255 255 255 255
-3.86227 -2.02496 6.0362 0 0 0 255 255 255 255
-3.504 -2.12001 6.4449 0 0 0 255 255 255 255
-3.60434 -2.6513 6.8533 0 0 0 255 255 255 255
-3.48299 -2.17422 6.39675 0 0 0 255 255 255 255
-3.77375 -1.79026 6.09955 0 0 0 255 255 255 255
-3.77158 -2.04084 7.41357 0 0 0 255 255 255 255
-3.69814 -2.06569 7.58595 0 0 0 255 255 255 255
-3.49662 -2.0527 7.45558 0 0 0 255 255 255 255
-3.57919 -2.16759 7.73172 0 0 0 255 255 255 255
-3.61959 -2.01196 7.43917 0 0 0 255 255 255 255
-3.91011 -2.81617 7.15403 0 0 0 255 255 255 255
-3.49411 -2.07853 7.4834 0 0 0 255 255 255 255
-3.47032 -0.865542 5.81826 0 0 0 255 255 255 255
-3.53468 -0.879039 5.94833 0 0 0 255 255 255 255
-3.45325 -0.872001 5.81351 0 0 0 255 255 255 255
-3.45506 -0.969721 5.81515 0 0 0 255 255 255 255
-3.4579 -1.00238 5.82062 0 0 0 255 255 255 255
-3.62114 -0.757639 5.97734 0 0 0 255 255 255 255
-3.63225 -0.607648 5.97993 0 0 0 255 255 255 255
-3.53449 -0.790466 5.89637 0 0 0 255 255 255 255
-3.62303 -0.755944 5.98428 0 0 0 255 255 255 255
-3.21293 -1.83445 6.90608 0 0 0 255 255 255 255
-3.33015 -2.25991 6.45697 0 0 0 255 255 255 255
-3.16843 -2.44133 6.50128 0 0 0 255 255 255 255
-3.4191 -2.20011 6.43676 0 0 0 255 255 255 255
-3.3585 -2.25328 6.42213 0 0 0 255 255 255 255
-3.34204 -2.21556 6.47461 0 0 0 255 255 255 255
-2.90834 -2.3104 7.93329 0 0 0 255 255 255 255
-2.9307 -2.36312 7.95603 0 0 0 255 255 255 255
-2.70847 -0.983681 6.52358 0 0 0 255 255 255 255
-2.79656 -1.02226 6.64414 0 0 0 255 255 255 255
-2.76097 -1.0064 6.59739 0 0 0 255 255 255 255
-2.52739 -0.899154 6.04 0 0 0 255 255 255 255
-2.89351 -1.03496 6.42171 0 0 0 255 255 255 255
-2.89221 -1.01585 6.39628 0 0 0 255 255 255 255
-3.01166 -0.995957 6.56743 0 0 0 255 255 255 255
-1.05953 -0.641724 5.75304 0 0 0 255 255 255 255
-0.727698 -0.824775 5.72702 0 0 0 255 255 255 255
-1.02257 -0.582512 5.55607 0 0 0 255 255 255 255
-0.691025 -0.865764 5.87984 0 0 0 255 255 255 255
-0.718738 -0.834267 5.83817 0 0 0 255 255 255 255
-0.73655 -0.846298 5.768 0 0 0 255 255 255 255
-0.699787 -0.86445 5.8639 0 0 0 255 255 255 255
-0.678247 -0.838691 5.90851 0 0 0 255 255 255 255
-0.724386 -0.834372 5.83583 0 0 0 255 255 255 255
-0.705668 -0.856028 5.85876 0 0 0 255 255 255 255
-0.736932 -0.8253 5.80505 0 0 0 255 255 255 255
-0.730733 -0.863685 5.80288 0 0 0 255 255 255 255
-0.921325 -0.82121 5.7894 0 0 0 255 255 255 255
-1.68155 -2.4854 8.24458 0 0 0 255 255 255 255
-3.04704 -2.39619 8.18307 0 0 0 255 255 255 255
-0.662821 -2.49847 8.18923 0 0 0 255 255 255 255
-2.35442 1.27017 5.5681 0 0 0 255 255 255 255
-2.29084 1.54778 5.59437 0 0 0 255 255 255 255
-2.35483 1.55136 5.07916 0 0 0 255 255 255 255
-2.22468 0.0363743 5.57307 0 0 0 255 255 255 255
-2.65094 -0.453884 5.72255 0 0 0 255 255 255 255
-2.3568 1.54908 5.07973 0 0 0 255 255 255 255
-2.36823 1.51763 5.10806 0 0 0 255 255 255 255
-2.22316 0.0364448 5.57669 0 0 0 255 255 255 255
-2.64217 -0.402084 5.73098 0 0 0 255 255 255 255
-2.217 0.0452327 5.6322 0 0 0 255 255 255 255
-2.34466 1.43849 5.57487 0 0 0 255 255 255 255
-2.3695 1.51806 5.1075 0 0 0 255 255 255 255
-2.35551 1.2523 5.56664 0 0 0 255 255 255 255
-2.2325 1.43508 5.57715 0 0 0 255 255 255 255
-2.29027 1.54151 5.58683 0 0 0 255 255 255 255
-3.47053 0.747857 5.85479 0 0 0 255 255 255 255
-3.42748 0.7468 5.9025 0 0 0 255 255 255 255
-3.22521 0.561158 6.09701 0 0 0 255 255 255 255
-3.11713 0.550758 6.09949 0 0 0 255 255 255 255
-3.41647 0.577992 6.01537 0 0 0 255 255 255 255
-3.28909 0.568847 6.06503 0 0 0 255 255 255 255
-3.40151 0.579806 6.02013 0 0 0 255 255 255 255
-3.31051 0.571635 6.03586 0 0 0 255 255 255 255
-3.1588 0.550214 6.12545 0 0 0 255 255 255 255
-2.66915 -0.182613 5.84208 0 0 0 255 255 255 255
-2.61955 -0.421094 5.77296 0 0 0 255 255 255 255
-2.31485 -0.023946 5.96144 0 0 0 255 255 255 255
-2.66406 0.561267 5.76064 0 0 0 255 255 255 255
-2.64057 0.430297 6.08497 0 0 0 255 255 255 255
-2.59181 0.0754186 5.87492 0 0 0 255 255 255 255
-2.59742 0.072286 5.87641 0 0 0 255 255 255 255
-2.62355 0.481364 6.01848 0 0 0 255 255 255 255
-2.78829 0.59754 5.87564 0 0 0 255 255 255 255
-2.54097 0.503158 5.84342 0 0 0 255 255 255 255
-2.33461 0.0749594 6.03482 0 0 0 255 255 255 255
-2.78946 0.59418 5.87139 0 0 0 255 255 255 255
-2.75634 0.602229 5.85983 0 0 0 255 255 255 255
-2.53608 0.481107 5.84588 0 0 0 255 255 255 255
-3.24756 0.729987 6.04225 0 0 0 255 255 255 255
-3.03465 0.730172 6.09092 0 0 0 255 255 255 255
-2.87265 0.651664 5.95206 0 0 0 255 255 255 255
-3.12601 0.728021 6.0899 0 0 0 255 255 255 255
-3.18222 0.702429 6.06861 0 0 0 255 255 255 255
-3.0839 0.69202 6.08586 0 0 0 255 255 255 255
-3.17714 0.681932 6.06319 0 0 0 255 255 255 255
-3.16726 0.743638 6.08414 0 0 0 255 255 255 255
-3.21495 0.724008 6.04448 0 0 0 255 255 255 255
-3.11529 0.742655 6.09823 0 0 0 255 255 255 255
-3.29679 0.730487 5.99372 0 0 0 255 255 255 255
-3.13224 0.691111 6.07628 0 0 0 255 255 255 255
-3.04137 0.681008 6.06293 0 0 0 255 255 255 255
-3.11534 0.747665 6.10221 0 0 0 255 255 255 255
-3.36792 0.737736 5.95171 0 0 0 255 255 255 255
-3.02788 1.09804 6.71503 0 0 0 255 255 255 255
-3.03742 1.08778 6.7252 0 0 0 255 255 255 255
-3.409 1.50677 6.23463 0 0 0 255 255 255 255
-2.59005 1.2337 6.08158 0 0 0 255 255 255 255
-2.60959 1.13631 6.11594 0 0 0 255 255 255 255
-2.61342 1.13083 6.12397 0 0 0 255 255 255 255
-2.4188 1.17612 6.19548 0 0 0 255 255 255 255
-2.64967 1.59108 6.02464 0 0 0 255 255 255 255
-2.30846 1.30528 6.21163 0 0 0 255 255 255 255
-2.71785 1.45365 6.10588 0 0 0 255 255 255 255
-2.70189 1.41246 6.1427 0 0 0 255 255 255 255
-2.7252 1.44857 6.08214 0 0 0 255 255 255 255
-2.46748 1.5429 5.90665 0 0 0 255 255 255 255
-2.65116 1.59279 6.01644 0 0 0 255 255 255 255
-2.71913 1.42322 6.09854 0 0 0 255 255 255 255
-2.71522 1.44477 6.15651 0 0 0 255 255 255 255
-2.65331 1.58884 6.03883 0 0 0 255 255 255 255
-2.65683 1.55087 6.04162 0 0 0 255 255 255 255
-2.67256 1.52338 6.0702 0 0 0 255 255 255 255
-2.70489 1.40875 6.14121 0 0 0 255 255 255 255
-2.54361 1.59081 6.08487 0 0 0 255 255 255 255
-2.56658 1.68969 6.04889 0 0 0 255 255 255 255
-2.2144 0.0343724 5.63672 0 0 0 255 255 255 255
-1.94217 -0.0846512 5.6606 0 0 0 255 255 255 255
-1.89024 -0.0487366 5.55699 0 0 0 255 255 255 255
-1.82421 -0.0867418 5.63059 0 0 0 255 255 255 255
-1.89586 -0.081617 5.57438 0 0 0 255 255 255 255
-1.86348 -0.0471931 5.56387 0 0 0 255 255 255 255
-1.85392 -0.0789202 5.62708 0 0 0 255 255 255 255
-1.85577 -0.0861026 5.63369 0 0 0 255 255 255 255
-1.85219 -0.0511393 5.62731 0 0 0 255 255 255 255
-1.7417 -0.0587947 5.52735 0 0 0 255 255 255 255
-1.73735 -0.101409 5.61746 0 0 0 255 255 255 255
-2.16921 0.0422415 5.45138 0 0 0 255 255 255 255
-2.19398 0.100478 5.67288 0 0 0 255 255 255 255
-2.19609 0.0682005 5.63372 0 0 0 255 255 255 255
-1.92252 0.196658 5.59751 0 0 0 255 255 255 255
-2.01552 0.108663 5.66228 0 0 0 255 255 255 255
-2.21543 0.0528027 5.61937 0 0 0 255 255 255 255
-2.20894 0.0510633 5.61254 0 0 0 255 255 255 255
-2.1648 0.111651 5.58751 0 0 0 255 255 255 255
-1.92204 0.194515 5.59815 0 0 0 255 255 255 255
-2.18101 0.0812089 5.58189 0 0 0 255 255 255 255
-1.93869 0.352422 5.66359 0 0 0 255 255 255 255
-2.04799 0.58576 5.5018 0 0 0 255 255 255 255
-1.92694 0.351238 5.68589 0 0 0 255 255 255 255
-1.91631 0.346421 5.63072 0 0 0 255 255 255 255
-1.95317 0.353064 5.65837 0 0 0 255 255 255 255
-1.9028 0.269646 5.65814 0 0 0 255 255 255 255
-1.90346 0.26967 5.65715 0 0 0 255 255 255 255
-1.9073 0.288189 5.64513 0 0 0 255 255 255 255
-1.89492 0.352147 5.60988 0 0 0 255 255 255 255
-1.65819 0.4757 5.6943 0 0 0 255 255 255 255
-1.01788 -0.453978 4.88922 0 0 0 255 255 255 255
-1.08037 -0.534506 5.42024 0 0 0 255 255 255 255
-1.03844 -0.531959 5.60878 0 0 0 255 255 255 255
-1.45903 0.126438 5.48795 0 0 0 255 255 255 255
-1.49221 0.0573766 5.4949 0 0 0 255 255 255 255
-1.45889 0.127969 5.48242 0 0 0 255 255 255 255
-1.16169 0.239736 5.45171 0 0 0 255 255 255 255
-1.21133 0.0647741 5.25575 0 0 0 255 255 255 255
-1.11048 0.503365 5.46985 0 0 0 255 255 255 255
-1.30538 1.41999 5.54584 0 0 0 255 255 255 255
-1.02402 1.2447 5.55949 0 0 0 255 255 255 255
-1.66281 1.36416 5.53912 0 0 0 255 255 255 255
-1.53281 0.659071 5.69571 0 0 0 255 255 255 255
-1.38437 1.47859 5.61882 0 0 0 255 255 255 255
-1.41992 1.51393 5.72617 0 0 0 255 255 255 255
-1.43007 1.47598 5.73283 0 0 0 255 255 255 255
-0.40395 0.243694 4.45981 0 0 0 255 255 255 255
-0.413814 0.253544 4.46853 0 0 0 255 255 255 255
-0.709682 -0.384384 4.61506 0 0 0 255 255 255 255
-0.859405 -0.462088 5.0613 0 0 0 255 255 255 255
-0.844145 -0.478076 4.98556 0 0 0 255 255 255 255
-0.98101 -0.182 4.91779 0 0 0 255 255 255 255
-0.705223 -0.400984 4.5869 0 0 0 255 255 255 255
-0.695947 -0.359479 4.57252 0 0 0 255 255 255 255
-0.752831 0.0648465 4.95342 0 0 0 255 255 255 255
-0.760438 0.511625 4.90074 0 0 0 255 255 255 255
-0.780455 0.52168 4.94335 0 0 0 255 255 255 255
-0.86016 0.5251 5.09885 0 0 0 255 255 255 255
-0.701097 0.519575 4.84256 0 0 0 255 255 255 255
-0.939423 0.539566 5.62569 0 0 0 255 255 255 255
-0.713338 1.00123 5.1205 0 0 0 255 255 255 255
-0.560067 0.985041 4.82228 0 0 0 255 255 255 255
-0.616676 1.19416 4.55873 0 0 0 255 255 255 255
-0.614142 1.18785 4.56198 0 0 0 255 255 255 255
-0.649139 1.14516 5.08531 0 0 0 255 255 255 255
-0.62763 1.12993 5.01472 0 0 0 255 255 255 255
-0.922441 1.12654 5.68115 0 0 0 255 255 255 255
-0.904814 1.22255 5.55322 0 0 0 255 255 255 255
-0.948013 0.961431 5.22371 0 0 0 255 255 255 255
-0.929213 0.922598 5.70065 0 0 0 255 255 255 255
-0.864958 1.29827 4.83152 0 0 0 255 255 255 255
-0.861798 1.33541 4.85955 0 0 0 255 255 255 255
-0.959912 1.32705 4.94686 0 0 0 255 255 255 255
-0.76721 1.33013 5.27539 0 0 0 255 255 255 255
-0.678313 1.31638 5.18865 0 0 0 255 255 255 255
-2.09577 0.494738 5.94208 0 0 0 255 255 255 255
-2.04811 0.56543 5.8873 0 0 0 255 255 255 255
-2.19834 0.100909 5.8757 0 0 0 255 255 255 255
-1.29475 1.66942 6.80868 0 0 0 255 255 255 255
-1.19121 1.30455 6.4484 0 0 0 255 255 255 255
-1.67838 1.67887 6.62453 0 0 0 255 255 255 255
-1.27156 1.66818 6.66808 0 0 0 255 255 255 255
-1.30113 1.67206 6.80435 0 0 0 255 255 255 255
-1.18526 1.54217 6.11669 0 0 0 255 255 255 255
-1.5408 1.56741 6.04454 0 0 0 255 255 255 255
-2.20117 1.3408 6.18914 0 0 0 255 255 255 255
-0.975145 0.576195 5.92531 0 0 0 255 255 255 255
-0.753162 1.5563 6.15339 0 0 0 255 255 255 255
-0.893713 1.12195 6.01081 0 0 0 255 255 255 255
-0.971181 0.733233 5.9821 0 0 0 255 255 255 255
-0.961441 0.762367 5.98135 0 0 0 255 255 255 255
-0.762511 1.56471 6.15715 0 0 0 255 255 255 255
-0.74855 1.55339 6.15369 0 0 0 255 255 255 255
-0.750133 1.54287 6.15171 0 0 0 255 255 255 255
-0.923054 0.740524 5.98834 0 0 0 255 255 255 255
-0.983969 0.872905 5.99 0 0 0 255 255 255 255
0.714541 -0.719284 4.56127 0 0 0 255 255 255 255
0.890043 -0.886629 5.66546 0 0 0 255 255 255 255
0.723821 -0.746843 4.94182 0 0 0 255 255 255 255
0.798567 -0.873366 5.56481 0 0 0 255 255 255 255
0.822744 -0.872438 5.5964 0 0 0 255 255 255 255
1.48206 -0.843086 5.14644 0 0 0 255 255 255 255
2.49637 -0.804172 7.55929 0 0 0 255 255 255 255
2.65843 -0.859178 7.77353 0 0 0 255 255 255 255
2.72753 -0.581266 7.54726 0 0 0 255 255 255 255
2.69698 -0.844357 7.88533 0 0 0 255 255 255 255
2.64766 -0.856141 7.74139 0 0 0 255 255 255 255
1.89328 -2.64651 8.35715 0 0 0 255 255 255 255
1.96929 -2.50372 8.46636 0 0 0 255 255 255 255
1.89153 -2.57716 8.19812 0 0 0 255 255 255 255
1.97579 -2.4811 8.26656 0 0 0 255 255 255 255
1.93979 -2.44403 8.25969 0 0 0 255 255 255 255
2.44477 -2.38728 8.21979 0 0 0 255 255 255 255
2.43609 -2.6552 8.25 0 0 0 255 255 255 255
2.17673 -2.53903 8.48613 0 0 0 255 255 255 255
2.46223 -2.42292 8.40048 0 0 0 255 255 255 255
2.49282 -2.61776 8.5755 0 0 0 255 255 255 255
2.45449 -2.54187 8.3905 0 0 0 255 255 255 255
2.42716 -2.63169 8.19024 0 0 0 255 255 255 255
2.14507 -2.48025 8.33231 0 0 0 255 255 255 255
2.46172 -2.55155 8.41558 0 0 0 255 255 255 255
2.48565 -2.27647 8.46943 0 0 0 255 255 255 255
2.51991 -2.22059 8.58019 0 0 0 255 255 255 255
2.49424 -2.16985 8.49481 0 0 0 255 255 255 255
2.51509 -1.77688 8.47887 0 0 0 255 255 255 255
2.45699 -2.13959 8.32774 0 0 0 255 255 255 255
2.46651 -2.13135 8.32565 0 0 0 255 255 255 255
2.46821 -2.27001 8.40279 0 0 0 255 255 255 255
2.57739 -1.71374 8.48784 0 0 0 255 255 255 255
2.52963 -1.76023 8.48809 0 0 0 255 255 255 255
2.43251 -1.74649 8.34355 0 0 0 255 255 255 255
3.09971 -0.9698 8.72007 0 0 0 255 255 255 255
2.89179 -0.618263 8.57894 0 0 0 255 255 255 255
3.0937 -0.884157 8.51857 0 0 0 255 255 255 255
2.64396 -1.81306 8.63155 0 0 0 255 255 255 255
2.92882 -0.730911 8.68974 0 0 0 255 255 255 255
2.65114 -0.958794 8.24539 0 0 0 255 255 255 255
2.99904 -0.991265 8.41158 0 0 0 255 255 255 255
3.1858 -0.925796 8.71066 0 0 0 255 255 255 255
2.64331 -1.77208 8.62434 0 0 0 255 255 255 255
4.31232 -1.53051 13.0123 0 0 0 255 255 255 255
3.94695 -1.11296 12.0017 0 0 0 255 255 255 255
3.72589 -0.929861 11.4493 0 0 0 255 255 255 255
0.228325 0.41711 4.33692 0 0 0 255 255 255 255
0.792942 -0.389349 4.19754 0 0 0 255 255 255 255
0.567323 -0.525351 3.79287 0 0 0 255 255 255 255
0.791855 -0.0604758 4.29208 0 0 0 255 255 255 255
0.645217 0.606637 4.53673 0 0 0 255 255 255 255
0.356668 0.185398 4.60846 0 0 0 255 255 255 255
1.36592 -0.17262 4.72074 0 0 0 255 255 255 255
1.40524 -0.187148 4.73735 0 0 0 255 255 255 255
1.38497 -0.176303 4.69545 0 0 0 255 255 255 255
1.36532 -0.301309 4.63986 0 0 0 255 255 255 255
1.36707 -0.298386 4.64552 0 0 0 255 255 255 255
1.13932 0.471904 5.64802 0 0 0 255 255 255 255
1.18195 0.1045 5.61609 0 0 0 255 255 255 255
1.2248 0.0944066 5.30121 0 0 0 255 255 255 255
1.18784 0.073413 5.64106 0 0 0 255 255 255 255
1.11349 0.0717404 5.63883 0 0 0 255 255 255 255
1.13277 0.465579 5.74696 0 0 0 255 255 255 255
1.39719 0.304396 5.27609 0 0 0 255 255 255 255
1.14 0.469076 5.7089 0 0 0 255 255 255 255
0.598465 1.19342 3.81573 0 0 0 255 255 255 255
1.148 0.706162 5.531 0 0 0 255 255 255 255
1.25958 1.199 5.54695 0 0 0 255 255 255 255
1.2334 0.882474 5.6704 0 0 0 255 255 255 255
1.45624 -0.107142 3.3418 0 0 0 255 255 255 255
1.70334 -0.121083 4.05497 0 0 0 255 255 255 255
1.77349 -0.0801864 4.31918 0 0 0 255 255 255 255
1.47847 -0.0582196 3.46785 0 0 0 255 255 255 255
1.9927 -0.249725 5.09492 0 0 0 255 255 255 255
1.96692 -0.345042 5.01862 0 0 0 255 255 255 255
1.94434 -0.348057 5.00531 0 0 0 255 255 255 255
1.4405 -0.367286 5.00406 0 0 0 255 255 255 255
1.43862 -0.363515 4.99609 0 0 0 255 255 255 255
1.764 -0.308453 4.72999 0 0 0 255 255 255 255
1.91107 -0.352339 4.76867 0 0 0 255 255 255 255
1.51765 -0.21126 5.06759 0 0 0 255 255 255 255
1.71555 -0.449111 5.49322 0 0 0 255 255 255 255
1.75893 -0.335708 5.58709 0 0 0 255 255 255 255
1.69157 -0.279303 5.58523 0 0 0 255 255 255 255
1.5996 -0.29483 5.37159 0 0 0 255 255 255 255
1.70652 -0.301289 5.62229 0 0 0 255 255 255 255
1.71303 -0.26807 5.66129 0 0 0 255 255 255 255
1.68749 -0.501723 5.53476 0 0 0 255 255 255 255
1.70238 -0.420693 5.56841 0 0 0 255 255 255 255
1.70431 -0.300348 5.64922 0 0 0 255 255 255 255
1.6033 -0.408867 5.65601 0 0 0 255 255 255 255
1.70704 -0.462701 5.58469 0 0 0 255 255 255 255
1.59535 -0.291915 5.36011 0 0 0 255 255 255 255
1.44126 0.379006 5.59858 0 0 0 255 255 255 255
2.11697 1.47809 5.64766 0 0 0 255 255 255 255
1.7444 0.855774 5.67884 0 0 0 255 255 255 255
1.61037 0.810473 5.27813 0 0 0 255 255 255 255
1.95464 1.37373 5.14962 0 0 0 255 255 255 255
1.51432 0.863846 5.25578 0 0 0 255 255 255 255
1.53903 0.841583 5.20321 0 0 0 255 255 255 255
1.08747 0.274197 5.79854 0 0 0 255 255 255 255
1.0889 0.460701 5.95781 0 0 0 255 255 255 255
1.09293 0.268413 5.76996 0 0 0 255 255 255 255
1.08648 0.456034 5.97135 0 0 0 255 255 255 255
1.09007 0.0711523 5.78453 0 0 0 255 255 255 255
1.13401 0.478313 5.76183 0 0 0 255 255 255 255
0.816723 0.0893853 6.82078 0 0 0 255 255 255 255
2.03142 -0.167552 6.79261 0 0 0 255 255 255 255
1.98606 -0.164494 5.85811 0 0 0 255 255 255 255
1.74333 -0.262384 5.76577 0 0 0 255 255 255 255
1.49574 -0.515967 5.7752 0 0 0 255 255 255 255
2.27845 -0.41678 7.08267 0 0 0 255 255 255 255
2.26654 -0.409243 7.06153 0 0 0 255 255 255 255
1.92725 -0.398381 7.74103 0 0 0 255 255 255 255
2.25572 -0.501828 7.03074 0 0 0 255 255 255 255
2.27263 -0.404686 7.07174 0 0 0 255 255 255 255
1.52386 0.943663 6.03338 0 0 0 255 255 255 255
1.97159 0.906274 5.97434 0 0 0 255 255 255 255
1.9624 0.916322 6.04515 0 0 0 255 255 255 255
1.99895 0.934 6.09002 0 0 0 255 255 255 255
2.11482 0.942138 6.09357 0 0 0 255 255 255 255
1.98313 0.913006 6.06307 0 0 0 255 255 255 255
1.95719 0.940571 6.09148 0 0 0 255 255 255 255
1.95379 0.839706 6.005 0 0 0 255 255 255 255
1.52501 0.977255 6.03471 0 0 0 255 255 255 255
1.97064 0.917234 5.97324 0 0 0 255 255 255 255
1.97582 0.834559 5.96229 0 0 0 255 255 255 255
1.89198 0.824116 6.04604 0 0 0 255 255 255 255
1.49687 0.955029 6.04508 0 0 0 255 255 255 255
1.96612 0.933441 5.9755 0 0 0 255 255 255 255
3.43012 0.648185 8.1549 0 0 0 255 255 255 255
3.42189 0.647855 8.16469 0 0 0 255 255 255 255
2.69299 1.22882 6.18351 0 0 0 255 255 255 255
3.38949 0.64489 8.19284 0 0 0 255 255 255 255
3.39262 0.630617 8.19501 0 0 0 255 255 255 255
3.38803 0.644365 8.19225 0 0 0 255 255 255 255
