ply
format ascii 1.0
comment VCGLIB generated
element vertex 749
property float x
property float y
property float z
property float nx
property float ny
property float nz
property uchar red
property uchar green
property uchar blue
property uchar alpha
element face 0
property list uchar int vertex_indices
end_header
1.85287 1.87007 4.26722 0 0 0 0 128 128 255
1.84948 1.65429 4.21958 0 0 0 0 128 128 255
1.83668 0.955938 4.08062 0 0 0 0 128 128 255
1.83663 0.979714 4.08891 0 0 0 0 128 128 255
1.83563 0.974545 4.09384 0 0 0 0 128 128 255
1.84928 1.91722 4.30904 0 0 0 0 128 128 255
1.83123 0.969744 4.1159 0 0 0 0 128 128 255
1.83047 0.963265 4.11746 0 0 0 0 128 128 255
1.82661 0.851083 4.10165 0 0 0 0 128 128 255
1.84236 1.88367 4.33162 0 0 0 0 128 128 255
1.8261 1.57998 4.30268 0 0 0 0 128 128 255
1.81554 0.97404 4.17178 0 0 0 0 128 128 255
1.81358 0.961343 4.17376 0 0 0 0 128 128 255
1.82445 1.67487 4.33226 0 0 0 0 128 128 255
1.80922 1.29728 4.27151 0 0 0 0 128 128 255
1.80273 0.964743 4.20088 0 0 0 0 128 128 255
1.80772 1.90382 4.42836 0 0 0 0 128 128 255
1.80273 1.76799 4.40377 0 0 0 0 128 128 255
1.79498 1.27492 4.2949 0 0 0 0 128 128 255
1.798 1.909 4.44733 0 0 0 0 128 128 255
1.79679 1.92995 4.45458 0 0 0 0 128 128 255
1.79327 1.77241 4.42154 0 0 0 0 128 128 255
1.77632 0.761517 4.20008 0 0 0 0 128 128 255
1.79061 1.90753 4.45917 0 0 0 0 128 128 255
1.77368 0.899574 4.23833 0 0 0 0 128 128 255
1.78432 1.92891 4.47411 0 0 0 0 128 128 255
1.77936 1.75835 4.43981 0 0 0 0 128 128 255
1.78126 1.91538 4.47532 0 0 0 0 128 128 255
1.76972 1.85969 4.47784 0 0 0 0 128 128 255
1.7621 1.72938 4.45629 0 0 0 0 128 128 255
1.75394 1.73907 4.46864 0 0 0 0 128 128 255
1.04605 1.84832 4.31649 0 0 0 0 128 128 255
1.0381 1.83564 4.27245 0 0 0 0 128 128 255
1.03321 1.77123 4.18877 0 0 0 0 128 128 255
1.04417 1.9121 4.14373 0 0 0 0 128 128 255
1.04925 1.84129 4.10226 0 0 0 0 128 128 255
1.05264 1.87846 4.10065 0 0 0 0 128 128 255
1.05374 1.85408 4.09038 0 0 0 0 128 128 255
1.05431 1.85156 4.08788 0 0 0 0 128 128 255
1.0554 1.86094 4.08704 0 0 0 0 128 128 255
1.0573 1.85921 4.08084 0 0 0 0 128 128 255
1.0586 1.87835 4.08218 0 0 0 0 128 128 255
1.0579 1.81216 4.0666 0 0 0 0 128 128 255
1.05869 1.84067 4.07193 0 0 0 0 128 128 255
1.06004 1.88305 4.07937 0 0 0 0 128 128 255
1.06336 1.89067 4.07244 0 0 0 0 128 128 255
1.06699 1.80726 4.04173 0 0 0 0 128 128 255
1.07373 1.84331 4.03572 0 0 0 0 128 128 255
1.08079 1.86758 4.02734 0 0 0 0 128 128 255
1.08185 1.84665 4.02 0 0 0 0 128 128 255
1.08318 1.87142 4.02367 0 0 0 0 128 128 255
1.0839 1.796 4.00342 0 0 0 0 128 128 255
1.0902 1.88469 4.0141 0 0 0 0 128 128 255
1.09308 1.84102 3.9983 0 0 0 0 128 128 255
1.0952 1.77666 3.97886 0 0 0 0 128 128 255
1.10257 1.86741 3.98944 0 0 0 0 128 128 255
1.10551 1.87705 3.98732 0 0 0 0 128 128 255
1.10883 1.90816 3.98998 0 0 0 0 128 128 255
1.11 1.90947 3.9886 0 0 0 0 128 128 255
1.11264 1.85579 3.97176 0 0 0 0 128 128 255
1.12137 1.91454 3.97411 0 0 0 0 128 128 255
1.12877 1.90863 3.96323 0 0 0 0 128 128 255
1.12796 1.85689 3.95181 0 0 0 0 128 128 255
1.14281 1.71047 3.89953 0 0 0 0 128 128 255
1.1481 1.91594 3.94267 0 0 0 0 128 128 255
1.1529 1.73298 3.89424 0 0 0 0 128 128 255
1.15247 1.70565 3.8882 0 0 0 0 128 128 255
1.15984 1.94751 3.93802 0 0 0 0 128 128 255
1.15627 1.58374 3.85557 0 0 0 0 128 128 255
1.16129 1.81053 3.90424 0 0 0 0 128 128 255
1.15749 1.56937 3.85099 0 0 0 0 128 128 255
1.15717 1.54887 3.84647 0 0 0 0 128 128 255
1.16704 1.6159 3.85296 0 0 0 0 128 128 255
1.16647 1.57977 3.84499 0 0 0 0 128 128 255
1.17074 1.75578 3.88249 0 0 0 0 128 128 255
1.17252 1.72591 3.87387 0 0 0 0 128 128 255
1.17004 1.56871 3.83916 0 0 0 0 128 128 255
1.17315 1.71823 3.8715 0 0 0 0 128 128 255
1.17695 1.91168 3.91355 0 0 0 0 128 128 255
1.17218 1.56031 3.8353 0 0 0 0 128 128 255
1.18334 1.88158 3.90097 0 0 0 0 128 128 255
1.1812 1.69619 3.85939 0 0 0 0 128 128 255
1.18178 1.58526 3.83296 0 0 0 0 128 128 255
1.18487 1.5838 3.83008 0 0 0 0 128 128 255
1.18462 1.56818 3.82663 0 0 0 0 128 128 255
1.18452 1.56134 3.82512 0 0 0 0 128 128 255
1.18799 1.73233 3.86224 0 0 0 0 128 128 255
1.19168 1.91698 3.90238 0 0 0 0 128 128 255
1.19408 1.71766 3.854 0 0 0 0 128 128 255
1.1886 1.2678 3.75344 0 0 0 0 128 128 255
1.19745 1.72887 3.85402 0 0 0 0 128 128 255
1.19793 1.70849 3.84891 0 0 0 0 128 128 255
1.19093 1.26326 3.75061 0 0 0 0 128 128 255
1.19983 1.67563 3.83985 0 0 0 0 128 128 255
1.19968 1.61424 3.82569 0 0 0 0 128 128 255
1.20176 1.69539 3.84301 0 0 0 0 128 128 255
1.20486 1.78935 3.86256 0 0 0 0 128 128 255
1.20176 1.59212 3.81902 0 0 0 0 128 128 255
1.21019 1.92063 3.88919 0 0 0 0 128 128 255
1.20683 1.7068 3.84198 0 0 0 0 128 128 255
1.20915 1.74998 3.85035 0 0 0 0 128 128 255
1.20207 1.24726 3.73877 0 0 0 0 128 128 255
1.21224 1.84198 3.86951 0 0 0 0 128 128 255
1.20781 1.55981 3.8072 0 0 0 0 128 128 255
1.21322 1.79924 3.85892 0 0 0 0 128 128 255
1.2119 1.71527 3.84038 0 0 0 0 128 128 255
1.2171 1.94005 3.88887 0 0 0 0 128 128 255
1.21349 1.65799 3.82602 0 0 0 0 128 128 255
1.2162 1.77721 3.85178 0 0 0 0 128 128 255
1.20813 1.26462 3.7386 0 0 0 0 128 128 255
1.21673 1.75779 3.84693 0 0 0 0 128 128 255
1.20845 1.23153 3.73073 0 0 0 0 128 128 255
1.21475 1.57922 3.80694 0 0 0 0 128 128 255
1.21066 1.26591 3.73721 0 0 0 0 128 128 255
1.2206 1.7914 3.85212 0 0 0 0 128 128 255
1.22037 1.72316 3.8365 0 0 0 0 128 128 255
1.21301 1.25548 3.73324 0 0 0 0 128 128 255
1.22222 1.78771 3.8502 0 0 0 0 128 128 255
1.22535 1.77152 3.84445 0 0 0 0 128 128 255
1.21914 1.26889 3.73239 0 0 0 0 128 128 255
1.2275 1.74643 3.83729 0 0 0 0 128 128 255
1.22249 1.26538 3.72948 0 0 0 0 128 128 255
1.23197 1.75864 3.83734 0 0 0 0 128 128 255
1.22539 1.28618 3.7325 0 0 0 0 128 128 255
1.22419 1.21002 3.71569 0 0 0 0 128 128 255
1.23662 1.94532 3.87752 0 0 0 0 128 128 255
1.23727 1.93175 3.874 0 0 0 0 128 128 255
1.23466 1.76577 3.83735 0 0 0 0 128 128 255
1.22627 1.23267 3.71965 0 0 0 0 128 128 255
1.22918 1.36262 3.74782 0 0 0 0 128 128 255
1.22913 1.35969 3.74718 0 0 0 0 128 128 255
1.23643 1.76889 3.83701 0 0 0 0 128 128 255
1.23606 1.74545 3.83184 0 0 0 0 128 128 255
1.23204 1.48965 3.77536 0 0 0 0 128 128 255
1.22858 1.26996 3.72685 0 0 0 0 128 128 255
1.23091 1.14253 3.69617 0 0 0 0 128 128 255
1.23499 1.29112 3.72798 0 0 0 0 128 128 255
1.24368 1.73262 3.82447 0 0 0 0 128 128 255
1.23614 1.25323 3.71862 0 0 0 0 128 128 255
1.23746 1.28163 3.7244 0 0 0 0 128 128 255
1.23656 1.22403 3.71168 0 0 0 0 128 128 255
1.24465 1.68301 3.81253 0 0 0 0 128 128 255
1.23959 1.36081 3.74139 0 0 0 0 128 128 255
1.23834 1.28172 3.72393 0 0 0 0 128 128 255
1.24661 1.75144 3.82716 0 0 0 0 128 128 255
1.2467 1.70174 3.8157 0 0 0 0 128 128 255
1.24643 1.68416 3.81181 0 0 0 0 128 128 255
1.2377 1.12959 3.68937 0 0 0 0 128 128 255
1.24825 1.74381 3.8245 0 0 0 0 128 128 255
1.2405 1.19518 3.70288 0 0 0 0 128 128 255
1.24041 1.18932 3.70159 0 0 0 0 128 128 255
1.23876 1.08485 3.67852 0 0 0 0 128 128 255
1.24967 1.72251 3.81884 0 0 0 0 128 128 255
1.24153 1.20503 3.70458 0 0 0 0 128 128 255
1.24124 1.18648 3.70048 0 0 0 0 128 128 255
1.24511 1.26387 3.71615 0 0 0 0 128 128 255
1.24858 1.37145 3.73896 0 0 0 0 128 128 255
1.24718 1.22605 3.70639 0 0 0 0 128 128 255
1.24506 1.09131 3.67664 0 0 0 0 128 128 255
1.25695 1.73393 3.8176 0 0 0 0 128 128 255
1.25714 1.6891 3.80724 0 0 0 0 128 128 255
1.24978 1.22142 3.70398 0 0 0 0 128 128 255
1.25305 1.31532 3.7238 0 0 0 0 128 128 255
1.25234 1.2704 3.71389 0 0 0 0 128 128 255
1.26078 1.74988 3.8193 0 0 0 0 128 128 255
1.25483 1.37203 3.73587 0 0 0 0 128 128 255
1.25453 1.29595 3.71862 0 0 0 0 128 128 255
1.25429 1.28033 3.71517 0 0 0 0 128 128 255
1.25251 1.16707 3.69017 0 0 0 0 128 128 255
1.25145 1.0997 3.67529 0 0 0 0 128 128 255
1.25687 1.33029 3.72531 0 0 0 0 128 128 255
1.25416 1.10092 3.67422 0 0 0 0 128 128 255
1.25815 1.29725 3.71713 0 0 0 0 128 128 255
1.26624 1.75427 3.8176 0 0 0 0 128 128 255
1.26856 1.78665 3.82388 0 0 0 0 128 128 255
1.26802 1.75247 3.81633 0 0 0 0 128 128 255
1.25987 1.23402 3.70186 0 0 0 0 128 128 255
1.26182 1.30049 3.7161 0 0 0 0 128 128 255
1.26248 1.28495 3.71224 0 0 0 0 128 128 255
1.26093 1.18633 3.69047 0 0 0 0 128 128 255
1.27222 1.84643 3.83579 0 0 0 0 128 128 255
1.27141 1.73716 3.81123 0 0 0 0 128 128 255
1.27124 1.72642 3.80886 0 0 0 0 128 128 255
1.27312 1.788 3.82204 0 0 0 0 128 128 255
1.27184 1.70697 3.80414 0 0 0 0 128 128 255
1.26615 1.2872 3.71104 0 0 0 0 128 128 255
1.26742 1.30973 3.7156 0 0 0 0 128 128 255
1.2649 1.14961 3.68024 0 0 0 0 128 128 255
1.27673 1.84388 3.83312 0 0 0 0 128 128 255
1.26728 1.18491 3.6872 0 0 0 0 128 128 255
1.26631 1.1234 3.67362 0 0 0 0 128 128 255
1.27699 1.74444 3.81033 0 0 0 0 128 128 255
1.27941 1.84019 3.83107 0 0 0 0 128 128 255
1.27401 1.49651 3.75518 0 0 0 0 128 128 255
1.26951 1.21044 3.69202 0 0 0 0 128 128 255
1.26918 1.13142 3.67417 0 0 0 0 128 128 255
1.27392 1.37461 3.72745 0 0 0 0 128 128 255
1.27059 1.16274 3.68067 0 0 0 0 128 128 255
1.26979 1.11197 3.66946 0 0 0 0 128 128 255
1.27166 1.17257 3.68244 0 0 0 0 128 128 255
1.27278 1.18534 3.68486 0 0 0 0 128 128 255
1.27599 1.33089 3.7166 0 0 0 0 128 128 255
1.27407 1.20884 3.68965 0 0 0 0 128 128 255
1.28335 1.74005 3.80655 0 0 0 0 128 128 255
1.27543 1.11922 3.66868 0 0 0 0 128 128 255
1.28648 1.7042 3.79707 0 0 0 0 128 128 255
1.28007 1.23756 3.69365 0 0 0 0 128 128 255
1.29033 1.83126 3.82436 0 0 0 0 128 128 255
1.29161 1.79429 3.81544 0 0 0 0 128 128 255
1.29064 1.73278 3.80186 0 0 0 0 128 128 255
1.28593 1.37452 3.72238 0 0 0 0 128 128 255
1.29227 1.71826 3.7979 0 0 0 0 128 128 255
1.29411 1.77593 3.81026 0 0 0 0 128 128 255
1.28777 1.19519 3.68094 0 0 0 0 128 128 255
1.288 1.15033 3.67068 0 0 0 0 128 128 255
1.30073 1.84075 3.8224 0 0 0 0 128 128 255
1.29361 1.38771 3.72237 0 0 0 0 128 128 255
1.29034 1.12025 3.66296 0 0 0 0 128 128 255
1.30204 1.74524 3.80026 0 0 0 0 128 128 255
1.29346 1.13996 3.66627 0 0 0 0 128 128 255
1.29328 1.12824 3.66368 0 0 0 0 128 128 255
1.30399 1.74927 3.80046 0 0 0 0 128 128 255
1.29436 1.13709 3.66529 0 0 0 0 128 128 255
1.30624 1.83232 3.81845 0 0 0 0 128 128 255
1.29779 1.17534 3.67271 0 0 0 0 128 128 255
1.30801 1.76512 3.8026 0 0 0 0 128 128 255
1.29798 1.12755 3.66183 0 0 0 0 128 128 255
1.30147 1.28968 3.69729 0 0 0 0 128 128 255
1.3036 1.36492 3.71357 0 0 0 0 128 128 255
1.30062 1.11502 3.65807 0 0 0 0 128 128 255
1.31215 1.78779 3.80629 0 0 0 0 128 128 255
1.31787 1.84957 3.81833 0 0 0 0 128 128 255
1.31134 1.37413 3.71305 0 0 0 0 128 128 255
1.32048 1.8341 3.81399 0 0 0 0 128 128 255
1.31159 1.26878 3.68917 0 0 0 0 128 128 255
1.32242 1.83615 3.81384 0 0 0 0 128 128 255
1.31692 1.36466 3.70914 0 0 0 0 128 128 255
1.32266 1.36397 3.70725 0 0 0 0 128 128 255
1.33129 1.79073 3.80092 0 0 0 0 128 128 255
1.33271 1.75859 3.79327 0 0 0 0 128 128 255
1.32419 1.21671 3.67363 0 0 0 0 128 128 255
1.33481 1.76942 3.79512 0 0 0 0 128 128 255
1.32874 1.38375 3.70997 0 0 0 0 128 128 255
1.33676 1.77048 3.79483 0 0 0 0 128 128 255
1.32768 1.19345 3.66742 0 0 0 0 128 128 255
1.32664 1.12705 3.65276 0 0 0 0 128 128 255
1.33432 1.36935 3.70523 0 0 0 0 128 128 255
1.34279 1.84683 3.81041 0 0 0 0 128 128 255
1.33761 1.45535 3.72372 0 0 0 0 128 128 255
1.34349 1.76782 3.79246 0 0 0 0 128 128 255
1.3384 1.38219 3.70707 0 0 0 0 128 128 255
1.34648 1.83429 3.80665 0 0 0 0 128 128 255
1.34917 1.94368 3.83057 0 0 0 0 128 128 255
1.33621 1.11962 3.64862 0 0 0 0 128 128 255
1.34079 1.3491 3.69905 0 0 0 0 128 128 255
1.34344 1.45556 3.72232 0 0 0 0 128 128 255
1.34934 1.76901 3.7913 0 0 0 0 128 128 255
1.34624 1.44785 3.71993 0 0 0 0 128 128 255
1.34472 1.35119 3.69859 0 0 0 0 128 128 255
1.35237 1.77595 3.79215 0 0 0 0 128 128 255
1.35439 1.84237 3.80659 0 0 0 0 128 128 255
1.35566 1.86095 3.81047 0 0 0 0 128 128 255
1.34583 1.23608 3.6725 0 0 0 0 128 128 255
1.35622 1.83462 3.80444 0 0 0 0 128 128 255
1.3551 1.76335 3.7887 0 0 0 0 128 128 255
1.34515 1.13066 3.64901 0 0 0 0 128 128 255
1.34624 1.13753 3.65031 0 0 0 0 128 128 255
1.35225 1.45781 3.72081 0 0 0 0 128 128 255
1.34882 1.11516 3.64474 0 0 0 0 128 128 255
1.35805 1.32817 3.69058 0 0 0 0 128 128 255
1.36703 1.77442 3.78873 0 0 0 0 128 128 255
1.36063 1.36728 3.69883 0 0 0 0 128 128 255
1.3702 1.85063 3.80518 0 0 0 0 128 128 255
1.37212 1.84774 3.80419 0 0 0 0 128 128 255
1.37243 1.80481 3.79453 0 0 0 0 128 128 255
1.36878 1.4475 3.71529 0 0 0 0 128 128 255
1.37001 1.33723 3.69045 0 0 0 0 128 128 255
1.37043 1.30112 3.68232 0 0 0 0 128 128 255
1.36749 1.11464 3.64114 0 0 0 0 128 128 255
1.38096 1.845 3.80209 0 0 0 0 128 128 255
1.38274 1.89578 3.81315 0 0 0 0 128 128 255
1.38326 1.80306 3.79237 0 0 0 0 128 128 255
1.37226 0.978065 3.60993 0 0 0 0 128 128 255
1.37737 1.11382 3.63948 0 0 0 0 128 128 255
1.38388 1.46435 3.71675 0 0 0 0 128 128 255
1.3813 1.30032 3.68053 0 0 0 0 128 128 255
1.39197 1.85297 3.80229 0 0 0 0 128 128 255
1.39122 1.80513 3.79173 0 0 0 0 128 128 255
1.38439 1.30817 3.68187 0 0 0 0 128 128 255
1.39379 1.84225 3.79967 0 0 0 0 128 128 255
1.39487 1.84812 3.80085 0 0 0 0 128 128 255
1.38954 1.44587 3.71191 0 0 0 0 128 128 255
1.39072 1.4576 3.71439 0 0 0 0 128 128 255
1.38629 1.11295 3.63817 0 0 0 0 128 128 255
1.39334 1.43517 3.7091 0 0 0 0 128 128 255
1.38967 1.20181 3.65757 0 0 0 0 128 128 255
1.38864 1.1364 3.64313 0 0 0 0 128 128 255
1.39033 1.11688 3.63861 0 0 0 0 128 128 255
1.40685 1.9146 3.81435 0 0 0 0 128 128 255
1.39873 1.3981 3.70031 0 0 0 0 128 128 255
1.40785 1.85114 3.80016 0 0 0 0 128 128 255
1.40183 1.46841 3.71565 0 0 0 0 128 128 255
1.40869 1.84138 3.79792 0 0 0 0 128 128 255
1.39885 1.21553 3.65973 0 0 0 0 128 128 255
1.40176 1.21066 3.65841 0 0 0 0 128 128 255
1.41363 1.83846 3.79688 0 0 0 0 128 128 255
1.40755 1.45182 3.71151 0 0 0 0 128 128 255
1.40638 1.31415 3.68104 0 0 0 0 128 128 255
1.40612 1.29756 3.67737 0 0 0 0 128 128 255
1.41274 1.21064 3.6577 0 0 0 0 128 128 255
1.42376 1.8482 3.79842 0 0 0 0 128 128 255
1.41791 1.34927 3.68817 0 0 0 0 128 128 255
1.41713 1.29948 3.67717 0 0 0 0 128 128 255
1.41818 1.3024 3.67777 0 0 0 0 128 128 255
1.42189 1.47521 3.71589 0 0 0 0 128 128 255
1.41947 1.32094 3.68183 0 0 0 0 128 128 255
1.41839 1.18913 3.65269 0 0 0 0 128 128 255
1.41955 1.19888 3.65481 0 0 0 0 128 128 255
1.42503 1.48397 3.71772 0 0 0 0 128 128 255
1.43154 1.83448 3.79508 0 0 0 0 128 128 255
1.43286 1.85497 3.79958 0 0 0 0 128 128 255
1.42677 1.46736 3.714 0 0 0 0 128 128 255
1.42459 1.20177 3.65531 0 0 0 0 128 128 255
1.4233 1.11975 3.6372 0 0 0 0 128 128 255
1.42924 1.43413 3.70659 0 0 0 0 128 128 255
1.44049 1.9584 3.82231 0 0 0 0 128 128 255
1.43918 1.87541 3.80398 0 0 0 0 128 128 255
1.43243 1.44581 3.70913 0 0 0 0 128 128 255
1.43392 1.47704 3.71602 0 0 0 0 128 128 255
1.43198 1.35402 3.68885 0 0 0 0 128 128 255
1.43189 1.34816 3.68756 0 0 0 0 128 128 255
1.43209 1.29738 3.67634 0 0 0 0 128 128 255
1.43371 1.33642 3.68495 0 0 0 0 128 128 255
1.43687 1.47407 3.71535 0 0 0 0 128 128 255
1.43415 1.30125 3.67719 0 0 0 0 128 128 255
1.43786 1.4096 3.70111 0 0 0 0 128 128 255
1.44597 1.86164 3.80093 0 0 0 0 128 128 255
1.43817 1.36565 3.69142 0 0 0 0 128 128 255
1.43777 1.34026 3.68581 0 0 0 0 128 128 255
1.43527 1.18111 3.65067 0 0 0 0 128 128 255
1.44095 1.35193 3.68842 0 0 0 0 128 128 255
1.44015 1.30115 3.67721 0 0 0 0 128 128 255
1.44106 1.29528 3.67592 0 0 0 0 128 128 255
1.44272 1.33724 3.68521 0 0 0 0 128 128 255
1.44171 1.20932 3.65698 0 0 0 0 128 128 255
1.44872 1.46409 3.71331 0 0 0 0 128 128 255
1.4557 1.84485 3.79741 0 0 0 0 128 128 255
1.4576 1.83797 3.79596 0 0 0 0 128 128 255
1.45175 1.46598 3.71383 0 0 0 0 128 128 255
1.4589 1.85748 3.80031 0 0 0 0 128 128 255
1.44801 1.16523 3.64746 0 0 0 0 128 128 255
1.45563 1.52254 3.72644 0 0 0 0 128 128 255
1.45588 1.2842 3.67401 0 0 0 0 128 128 255
1.45545 1.25686 3.66797 0 0 0 0 128 128 255
1.45901 1.29291 3.67611 0 0 0 0 128 128 255
1.46238 1.44324 3.70936 0 0 0 0 128 128 255
1.46013 1.30069 3.67789 0 0 0 0 128 128 255
1.45886 1.21965 3.65999 0 0 0 0 128 128 255
1.45865 1.20598 3.65698 0 0 0 0 128 128 255
1.4582 1.17767 3.65072 0 0 0 0 128 128 255
1.46083 1.28113 3.67363 0 0 0 0 128 128 255
1.45967 1.20791 3.65747 0 0 0 0 128 128 255
1.46238 1.25276 3.66751 0 0 0 0 128 128 255
1.47719 1.87748 3.80583 0 0 0 0 128 128 255
1.47782 1.85401 3.80074 0 0 0 0 128 128 255
1.48005 1.86957 3.80435 0 0 0 0 128 128 255
1.47331 1.44094 3.70971 0 0 0 0 128 128 255
1.47406 1.42529 3.70634 0 0 0 0 128 128 255
1.47181 1.28176 3.67465 0 0 0 0 128 128 255
1.47075 1.21439 3.65978 0 0 0 0 128 128 255
1.47862 1.52477 3.7286 0 0 0 0 128 128 255
1.48652 1.9641 3.82571 0 0 0 0 128 128 255
1.48505 1.87037 3.80501 0 0 0 0 128 128 255
1.48575 1.85178 3.80101 0 0 0 0 128 128 255
1.47805 1.29912 3.6791 0 0 0 0 128 128 255
1.47761 1.2708 3.67284 0 0 0 0 128 128 255
1.49022 1.94637 3.82223 0 0 0 0 128 128 255
1.48015 1.30588 3.68081 0 0 0 0 128 128 255
1.48195 1.29408 3.67844 0 0 0 0 128 128 255
1.49162 1.84569 3.80035 0 0 0 0 128 128 255
1.48493 1.29396 3.67878 0 0 0 0 128 128 255
1.48531 1.25486 3.67027 0 0 0 0 128 128 255
1.49725 1.95097 3.8241 0 0 0 0 128 128 255
1.49553 1.84162 3.79996 0 0 0 0 128 128 255
1.49038 1.51453 3.72774 0 0 0 0 128 128 255
1.49881 1.92452 3.81853 0 0 0 0 128 128 255
1.49209 1.49687 3.72411 0 0 0 0 128 128 255
1.50342 1.96535 3.82811 0 0 0 0 128 128 255
1.49628 1.51134 3.72786 0 0 0 0 128 128 255
1.4918 1.22624 3.66492 0 0 0 0 128 128 255
1.5043 1.95847 3.82674 0 0 0 0 128 128 255
1.49604 1.43318 3.71076 0 0 0 0 128 128 255
1.49354 1.27404 3.67562 0 0 0 0 128 128 255
1.49792 1.48977 3.7234 0 0 0 0 128 128 255
1.49769 1.47512 3.72016 0 0 0 0 128 128 255
1.50513 1.88515 3.81085 0 0 0 0 128 128 255
1.50047 1.46326 3.71801 0 0 0 0 128 128 255
1.49775 1.29045 3.67985 0 0 0 0 128 128 255
1.5102 1.95623 3.82718 0 0 0 0 128 128 255
1.50277 1.48367 3.72284 0 0 0 0 128 128 255
1.51049 1.84873 3.80377 0 0 0 0 128 128 255
1.51132 1.83892 3.80178 0 0 0 0 128 128 255
1.51246 1.84863 3.80409 0 0 0 0 128 128 255
1.50728 1.45706 3.71781 0 0 0 0 128 128 255
1.50457 1.28424 3.67965 0 0 0 0 128 128 255
1.50452 1.28131 3.679 0 0 0 0 128 128 255
1.51807 1.95484 3.82826 0 0 0 0 128 128 255
1.50847 1.28207 3.67989 0 0 0 0 128 128 255
1.51204 1.44605 3.71629 0 0 0 0 128 128 255
1.51454 1.54266 3.73781 0 0 0 0 128 128 255
1.51079 1.30442 3.6852 0 0 0 0 128 128 255
1.50873 1.17359 3.65632 0 0 0 0 128 128 255
1.51251 1.28869 3.68212 0 0 0 0 128 128 255
1.51099 1.19203 3.66077 0 0 0 0 128 128 255
1.5155 1.41654 3.71054 0 0 0 0 128 128 255
1.51199 1.19295 3.66117 0 0 0 0 128 128 255
1.52255 1.80215 3.79588 0 0 0 0 128 128 255
1.52548 1.86354 3.80984 0 0 0 0 128 128 255
1.51874 1.43492 3.7152 0 0 0 0 128 128 255
1.51864 1.42906 3.71391 0 0 0 0 128 128 255
1.51837 1.41149 3.71003 0 0 0 0 128 128 255
1.53041 1.99029 3.83846 0 0 0 0 128 128 255
1.5295 1.87014 3.81214 0 0 0 0 128 128 255
1.51892 1.19743 3.66361 0 0 0 0 128 128 255
1.52097 1.26571 3.6789 0 0 0 0 128 128 255
1.53142 1.86807 3.81212 0 0 0 0 128 128 255
1.52113 1.2139 3.66768 0 0 0 0 128 128 255
1.53619 1.86092 3.81167 0 0 0 0 128 128 255
1.52976 1.45183 3.72134 0 0 0 0 128 128 255
1.53887 1.96924 3.83582 0 0 0 0 128 128 255
1.53701 1.8511 3.80973 0 0 0 0 128 128 255
1.53389 1.46719 3.72568 0 0 0 0 128 128 255
1.531 1.22108 3.67158 0 0 0 0 128 128 255
1.54834 2.26182 3.90162 0 0 0 0 128 128 255
1.54226 1.87518 3.81625 0 0 0 0 128 128 255
1.53249 1.19263 3.66579 0 0 0 0 128 128 255
1.54372 1.84478 3.81004 0 0 0 0 128 128 255
1.53617 1.30283 3.69063 0 0 0 0 128 128 255
1.53472 1.21105 3.67036 0 0 0 0 128 128 255
1.53517 1.1162 3.64993 0 0 0 0 128 128 255
1.53764 1.21182 3.6713 0 0 0 0 128 128 255
1.54922 1.82484 3.80718 0 0 0 0 128 128 255
1.53874 1.15896 3.66016 0 0 0 0 128 128 255
1.54063 1.21747 3.67334 0 0 0 0 128 128 255
1.54334 1.26712 3.68485 0 0 0 0 128 128 255
1.54391 1.24166 3.6795 0 0 0 0 128 128 255
1.54825 1.45639 3.72719 0 0 0 0 128 128 255
1.55021 1.51978 3.74147 0 0 0 0 128 128 255
1.54875 1.42702 3.72099 0 0 0 0 128 128 255
1.54659 1.22875 3.67749 0 0 0 0 128 128 255
1.54754 1.2277 3.67754 0 0 0 0 128 128 255
1.54743 1.22086 3.67603 0 0 0 0 128 128 255
1.54948 1.29011 3.69161 0 0 0 0 128 128 255
1.54845 1.22469 3.67716 0 0 0 0 128 128 255
1.54844 1.22372 3.67695 0 0 0 0 128 128 255
1.54839 1.22079 3.6763 0 0 0 0 128 128 255
1.5496 1.23634 3.68002 0 0 0 0 128 128 255
1.55148 1.29484 3.69323 0 0 0 0 128 128 255
1.54967 1.11902 3.6547 0 0 0 0 128 128 255
1.55702 1.52511 3.74466 0 0 0 0 128 128 255
1.5557 1.44114 3.72612 0 0 0 0 128 128 255
1.56514 1.981 3.84562 0 0 0 0 128 128 255
1.55495 1.27208 3.68939 0 0 0 0 128 128 255
1.55913 1.47704 3.73495 0 0 0 0 128 128 255
1.55603 1.27981 3.6914 0 0 0 0 128 128 255
1.5679 1.91331 3.83189 0 0 0 0 128 128 255
1.56654 1.82642 3.81271 0 0 0 0 128 128 255
1.57004 1.98841 3.84878 0 0 0 0 128 128 255
1.56767 1.83805 3.81558 0 0 0 0 128 128 255
1.55989 1.28242 3.69321 0 0 0 0 128 128 255
1.56981 1.85254 3.81941 0 0 0 0 128 128 255
1.56049 1.25988 3.68855 0 0 0 0 128 128 255
1.56413 1.24979 3.68761 0 0 0 0 128 128 255
1.56586 1.23889 3.68586 0 0 0 0 128 128 255
1.56639 1.21244 3.68035 0 0 0 0 128 128 255
1.57812 1.83812 3.81917 0 0 0 0 128 128 255
1.56973 1.24441 3.68841 0 0 0 0 128 128 255
1.57108 1.21006 3.68152 0 0 0 0 128 128 255
1.57493 1.27522 3.69695 0 0 0 0 128 128 255
1.58141 1.5083 3.74947 0 0 0 0 128 128 255
1.58098 1.48096 3.74344 0 0 0 0 128 128 255
1.5772 1.24078 3.69041 0 0 0 0 128 128 255
1.57936 1.1995 3.68238 0 0 0 0 128 128 255
1.59063 1.8565 3.82781 0 0 0 0 128 128 255
1.59225 1.8407 3.82506 0 0 0 0 128 128 255
1.58113 1.13381 3.66898 0 0 0 0 128 128 255
1.58669 1.4276 3.73422 0 0 0 0 128 128 255
1.58383 1.246 3.69412 0 0 0 0 128 128 255
1.58826 1.46852 3.74363 0 0 0 0 128 128 255
1.58785 1.44215 3.73781 0 0 0 0 128 128 255
1.5895 1.42927 3.73573 0 0 0 0 128 128 255
1.58685 1.26036 3.69843 0 0 0 0 128 128 255
1.59169 1.50924 3.75377 0 0 0 0 128 128 255
1.59105 1.46823 3.74471 0 0 0 0 128 128 255
1.5902 1.41453 3.73285 0 0 0 0 128 128 255
1.58708 1.21633 3.68909 0 0 0 0 128 128 255
1.58602 1.14896 3.67422 0 0 0 0 128 128 255
1.59784 1.84111 3.82743 0 0 0 0 128 128 255
1.5896 1.25812 3.69909 0 0 0 0 128 128 255
1.59954 1.83116 3.82601 0 0 0 0 128 128 255
1.60223 1.82598 3.82605 0 0 0 0 128 128 255
1.60441 1.84727 3.83155 0 0 0 0 128 128 255
1.59883 1.43417 3.74074 0 0 0 0 128 128 255
1.59573 1.23694 3.69719 0 0 0 0 128 128 255
1.59715 1.26906 3.70469 0 0 0 0 128 128 255
1.61459 2.26085 3.92449 0 0 0 0 128 128 255
1.59912 1.27765 3.70741 0 0 0 0 128 128 255
1.60911 1.7959 3.82266 0 0 0 0 128 128 255
1.60398 1.41208 3.73833 0 0 0 0 128 128 255
1.61174 1.84744 3.83488 0 0 0 0 128 128 255
1.60301 1.29189 3.71221 0 0 0 0 128 128 255
1.60381 1.28495 3.7111 0 0 0 0 128 128 255
1.60798 1.43413 3.74489 0 0 0 0 128 128 255
1.61529 1.84117 3.8352 0 0 0 0 128 128 255
1.60913 1.44965 3.74875 0 0 0 0 128 128 255
1.60801 1.37837 3.73301 0 0 0 0 128 128 255
1.61592 1.82349 3.83172 0 0 0 0 128 128 255
1.61111 1.51789 3.76425 0 0 0 0 128 128 255
1.6093 1.28726 3.71419 0 0 0 0 128 128 255
1.621 1.97353 3.86616 0 0 0 0 128 128 255
1.60845 1.17584 3.69003 0 0 0 0 128 128 255
1.6083 1.16608 3.68788 0 0 0 0 128 128 255
1.60816 1.15729 3.68594 0 0 0 0 128 128 255
1.62213 1.93036 3.85751 0 0 0 0 128 128 255
1.62195 1.91865 3.85492 0 0 0 0 128 128 255
1.61462 1.45292 3.75209 0 0 0 0 128 128 255
1.61381 1.40117 3.74067 0 0 0 0 128 128 255
1.61532 1.38241 3.73741 0 0 0 0 128 128 255
1.61637 1.27761 3.71563 0 0 0 0 128 128 255
1.61597 1.25222 3.71002 0 0 0 0 128 128 255
1.62839 1.98536 3.87235 0 0 0 0 128 128 255
1.62049 1.48254 3.76133 0 0 0 0 128 128 255
1.62055 1.4297 3.75012 0 0 0 0 128 128 255
1.6202 1.40725 3.74517 0 0 0 0 128 128 255
1.62709 1.7889 3.82989 0 0 0 0 128 128 255
1.62254 1.44217 3.7538 0 0 0 0 128 128 255
1.62387 1.41364 3.74843 0 0 0 0 128 128 255
1.61999 1.16662 3.69389 0 0 0 0 128 128 255
1.61997 1.16564 3.69367 0 0 0 0 128 128 255
1.62232 1.25828 3.7146 0 0 0 0 128 128 255
1.62261 1.22009 3.70664 0 0 0 0 128 128 255
1.6357 1.99619 3.87847 0 0 0 0 128 128 255
1.62664 1.42013 3.75128 0 0 0 0 128 128 255
1.6276 1.4249 3.75281 0 0 0 0 128 128 255
1.62412 1.20327 3.70387 0 0 0 0 128 128 255
1.62423 1.15434 3.69355 0 0 0 0 128 128 255
1.62717 1.22831 3.71084 0 0 0 0 128 128 255
1.6401 1.99464 3.88053 0 0 0 0 128 128 255
1.63152 1.44885 3.76002 0 0 0 0 128 128 255
1.6384 1.8305 3.84477 0 0 0 0 128 128 255
1.63292 1.48193 3.76781 0 0 0 0 128 128 255
1.63919 1.82452 3.84394 0 0 0 0 128 128 255
1.63492 1.44155 3.76037 0 0 0 0 128 128 255
1.63214 1.26483 3.72135 0 0 0 0 128 128 255
1.63027 1.14571 3.69505 0 0 0 0 128 128 255
1.63133 1.15731 3.69811 0 0 0 0 128 128 255
1.63194 1.1406 3.69491 0 0 0 0 128 128 255
1.63475 1.2635 3.72255 0 0 0 0 128 128 255
1.63894 1.47428 3.76959 0 0 0 0 128 128 255
1.63577 1.27315 3.72518 0 0 0 0 128 128 255
1.63525 1.23995 3.71785 0 0 0 0 128 128 255
1.64663 1.90766 3.86579 0 0 0 0 128 128 255
1.64171 1.48466 3.7734 0 0 0 0 128 128 255
1.6413 1.4583 3.76758 0 0 0 0 128 128 255
1.64045 1.4046 3.75572 0 0 0 0 128 128 255
1.64809 1.83505 3.85128 0 0 0 0 128 128 255
1.63857 1.22971 3.71762 0 0 0 0 128 128 255
1.63908 1.20713 3.71315 0 0 0 0 128 128 255
1.64279 1.38764 3.75352 0 0 0 0 128 128 255
1.63872 1.1289 3.69639 0 0 0 0 128 128 255
1.64127 1.23618 3.72059 0 0 0 0 128 128 255
1.64106 1.22251 3.71758 0 0 0 0 128 128 255
1.64594 1.42339 3.76297 0 0 0 0 128 128 255
1.64593 1.42242 3.76276 0 0 0 0 128 128 255
1.64192 1.16759 3.70649 0 0 0 0 128 128 255
1.64746 1.41045 3.76116 0 0 0 0 128 128 255
1.64301 1.12731 3.69865 0 0 0 0 128 128 255
1.64915 1.46305 3.77331 0 0 0 0 128 128 255
1.64419 1.14769 3.70367 0 0 0 0 128 128 255
1.6463 1.22763 3.72185 0 0 0 0 128 128 255
1.64529 1.16319 3.70763 0 0 0 0 128 128 255
1.645 1.14463 3.70353 0 0 0 0 128 128 255
1.65575 1.77427 3.84308 0 0 0 0 128 128 255
1.65081 1.45988 3.77367 0 0 0 0 128 128 255
1.64812 1.28901 3.73594 0 0 0 0 128 128 255
1.65983 1.97918 3.88886 0 0 0 0 128 128 255
1.65169 1.4069 3.76304 0 0 0 0 128 128 255
1.65167 1.40593 3.76283 0 0 0 0 128 128 255
1.65418 1.51125 3.78662 0 0 0 0 128 128 255
1.65399 1.49953 3.78403 0 0 0 0 128 128 255
1.65247 1.40287 3.76269 0 0 0 0 128 128 255
1.66203 1.95634 3.88544 0 0 0 0 128 128 255
1.64862 1.10398 3.69724 0 0 0 0 128 128 255
1.66302 1.965 3.88789 0 0 0 0 128 128 255
1.65571 1.44642 3.77394 0 0 0 0 128 128 255
1.66227 1.80951 3.85465 0 0 0 0 128 128 255
1.65318 1.2315 3.72703 0 0 0 0 128 128 255
1.65764 1.46179 3.77842 0 0 0 0 128 128 255
1.65718 1.4325 3.77196 0 0 0 0 128 128 255
1.65824 1.44604 3.7755 0 0 0 0 128 128 255
1.65899 1.44005 3.77473 0 0 0 0 128 128 255
1.66038 1.42124 3.77169 0 0 0 0 128 128 255
1.65718 1.21816 3.72685 0 0 0 0 128 128 255
1.66138 1.43185 3.77459 0 0 0 0 128 128 255
1.65633 1.11063 3.70367 0 0 0 0 128 128 255
1.66332 1.50202 3.79065 0 0 0 0 128 128 255
1.65902 1.22864 3.73028 0 0 0 0 128 128 255
1.65763 1.08693 3.69956 0 0 0 0 128 128 255
1.66505 1.50566 3.79258 0 0 0 0 128 128 255
1.66455 1.47344 3.78547 0 0 0 0 128 128 255
1.66593 1.50846 3.79377 0 0 0 0 128 128 255
1.66473 1.4323 3.77695 0 0 0 0 128 128 255
1.66886 1.48352 3.79055 0 0 0 0 128 128 255
1.67004 1.50584 3.79606 0 0 0 0 128 128 255
1.66944 1.46776 3.78765 0 0 0 0 128 128 255
1.66336 1.08112 3.70228 0 0 0 0 128 128 255
1.6667 1.24111 3.73819 0 0 0 0 128 128 255
1.67761 1.88245 3.88038 0 0 0 0 128 128 255
1.67107 1.46652 3.78854 0 0 0 0 128 128 255
1.68121 1.95429 3.898 0 0 0 0 128 128 255
1.67264 1.40948 3.77771 0 0 0 0 128 128 255
1.67215 1.27447 3.74908 0 0 0 0 128 128 255
1.68336 1.93533 3.89559 0 0 0 0 128 128 255
1.68511 1.99475 3.90931 0 0 0 0 128 128 255
1.6845 1.90381 3.88983 0 0 0 0 128 128 255
1.67767 1.36653 3.7724 0 0 0 0 128 128 255
1.68812 1.87675 3.88688 0 0 0 0 128 128 255
1.68938 1.9059 3.89392 0 0 0 0 128 128 255
1.68228 1.45482 3.79433 0 0 0 0 128 128 255
1.68079 1.36011 3.77341 0 0 0 0 128 128 255
1.68193 1.38145 3.77874 0 0 0 0 128 128 255
1.68109 1.27684 3.75626 0 0 0 0 128 128 255
1.69659 1.95846 3.91049 0 0 0 0 128 128 255
1.68912 1.38309 3.78471 0 0 0 0 128 128 255
1.69885 1.95119 3.91078 0 0 0 0 128 128 255
1.69079 1.38866 3.7872 0 0 0 0 128 128 255
1.69166 1.39437 3.7891 0 0 0 0 128 128 255
1.70209 2.00738 3.92509 0 0 0 0 128 128 255
1.70123 1.95271 3.91302 0 0 0 0 128 128 255
1.70258 1.88978 3.90105 0 0 0 0 128 128 255
1.69127 1.12123 3.73201 0 0 0 0 128 128 255
1.69578 1.1135 3.73422 0 0 0 0 128 128 255
1.70651 1.74701 3.87476 0 0 0 0 128 128 255
1.70641 1.74018 3.87325 0 0 0 0 128 128 255
1.70089 1.38966 3.79585 0 0 0 0 128 128 255
1.71431 1.90412 3.91412 0 0 0 0 128 128 255
1.72088 2.27401 3.99646 0 0 0 0 128 128 255
1.7025 1.1053 3.73841 0 0 0 0 128 128 255
1.72303 1.79649 3.89997 0 0 0 0 128 128 255
1.72761 1.94833 3.93561 0 0 0 0 128 128 255
1.71585 1.15439 3.76101 0 0 0 0 128 128 255
1.72999 1.91547 3.93119 0 0 0 0 128 128 255
1.71934 1.10167 3.75365 0 0 0 0 128 128 255
1.73516 1.97113 3.94778 0 0 0 0 128 128 255
1.73178 1.75633 3.90036 0 0 0 0 128 128 255
1.73628 1.95225 3.94507 0 0 0 0 128 128 255
1.72756 1.08604 3.75894 0 0 0 0 128 128 255
1.73416 1.46177 3.84264 0 0 0 0 128 128 255
1.72932 1.15422 3.77473 0 0 0 0 128 128 255
1.74657 1.14392 3.79229 0 0 0 0 128 128 255
1.7459 1.10096 3.7828 0 0 0 0 128 128 255
1.75969 1.85517 3.95169 0 0 0 0 128 128 255
1.75976 1.77866 3.93638 0 0 0 0 128 128 255
1.75038 1.14189 3.79657 0 0 0 0 128 128 255
1.75141 1.12689 3.79485 0 0 0 0 128 128 255
1.7665 1.84736 3.95874 0 0 0 0 128 128 255
1.75764 1.0888 3.7953 0 0 0 0 128 128 255
1.75902 1.09918 3.79922 0 0 0 0 128 128 255
1.76979 1.74535 3.94271 0 0 0 0 128 128 255
1.76088 1.10254 3.80242 0 0 0 0 128 128 255
1.76192 1.09241 3.80183 0 0 0 0 128 128 255
1.76349 1.15472 3.81641 0 0 0 0 128 128 255
1.77491 1.84287 3.96918 0 0 0 0 128 128 255
1.76235 1.04421 3.79284 0 0 0 0 128 128 255
1.77535 1.79564 3.96041 0 0 0 0 128 128 255
1.76446 1.02883 3.79276 0 0 0 0 128 128 255
1.76532 1.04622 3.79744 0 0 0 0 128 128 255
1.77173 1.41705 3.88015 0 0 0 0 128 128 255
1.7695 1.27548 3.84889 0 0 0 0 128 128 255
1.76661 1.05463 3.80097 0 0 0 0 128 128 255
1.77396 1.41241 3.88248 0 0 0 0 128 128 255
1.77 1.12419 3.81969 0 0 0 0 128 128 255
1.76971 1.06933 3.80842 0 0 0 0 128 128 255
1.7684 0.986337 3.79009 0 0 0 0 128 128 255
1.77568 1.41282 3.8851 0 0 0 0 128 128 255
1.76955 1.02325 3.79909 0 0 0 0 128 128 255
1.77255 1.142 3.827 0 0 0 0 128 128 255
1.7751 1.26874 3.85583 0 0 0 0 128 128 255
1.77171 1.05296 3.80819 0 0 0 0 128 128 255
1.77437 1.11586 3.82464 0 0 0 0 128 128 255
1.77434 1.11391 3.82421 0 0 0 0 128 128 255
1.78705 1.85166 3.98881 0 0 0 0 128 128 255
1.77338 0.982697 3.79695 0 0 0 0 128 128 255
1.77931 1.11806 3.83287 0 0 0 0 128 128 255
1.77852 1.0339 3.81515 0 0 0 0 128 128 255
1.78596 1.40533 3.89977 0 0 0 0 128 128 255
1.78227 1.13761 3.84153 0 0 0 0 128 128 255
1.7808 1.04388 3.82084 0 0 0 0 128 128 255
1.78425 1.09759 3.83708 0 0 0 0 128 128 255
1.7956 1.78672 3.99011 0 0 0 0 128 128 255
1.79652 1.81288 3.99677 0 0 0 0 128 128 255
1.7857 1.09213 3.83852 0 0 0 0 128 128 255
1.78626 1.09585 3.84022 0 0 0 0 128 128 255
1.7897 1.28214 3.88224 0 0 0 0 128 128 255
1.78968 1.28116 3.88202 0 0 0 0 128 128 255
1.79078 1.22375 3.8729 0 0 0 0 128 128 255
1.78897 1.10854 3.84746 0 0 0 0 128 128 255
1.79112 1.21379 3.87159 0 0 0 0 128 128 255
1.7886 1.02223 3.83019 0 0 0 0 128 128 255
1.79117 1.12338 3.85431 0 0 0 0 128 128 255
1.79172 1.12709 3.85603 0 0 0 0 128 128 255
1.80527 1.86639 4.02286 0 0 0 0 128 128 255
1.79207 1.02672 3.83746 0 0 0 0 128 128 255
1.79597 1.21476 3.88079 0 0 0 0 128 128 255
1.79492 1.02846 3.84328 0 0 0 0 128 128 255
1.79666 1.08079 3.85665 0 0 0 0 128 128 255
1.79764 1.0843 3.85925 0 0 0 0 128 128 255
1.80079 1.11336 3.87117 0 0 0 0 128 128 255
1.80061 1.01806 3.85289 0 0 0 0 128 128 255
1.81392 1.80949 4.02948 0 0 0 0 128 128 255
1.80476 1.01213 3.86086 0 0 0 0 128 128 255
1.80669 0.954079 3.85461 0 0 0 0 128 128 255
1.80899 1.07494 3.88224 0 0 0 0 128 128 255
1.81063 1.05537 3.88263 0 0 0 0 128 128 255
1.82981 2.13009 4.12563 0 0 0 0 128 128 255
1.82574 1.80141 4.05592 0 0 0 0 128 128 255
1.81375 1.03887 3.88755 0 0 0 0 128 128 255
1.81447 1.0158 3.88532 0 0 0 0 128 128 255
1.81722 1.10089 3.90795 0 0 0 0 128 128 255
1.82054 1.22503 3.93921 0 0 0 0 128 128 255
1.82183 1.15913 3.93143 0 0 0 0 128 128 255
1.83726 1.90451 4.10771 0 0 0 0 128 128 255
1.82498 1.06811 3.92597 0 0 0 0 128 128 255
1.82494 1.06518 3.92533 0 0 0 0 128 128 255
1.83773 1.82416 4.09586 0 0 0 0 128 128 255
1.82735 1.04256 3.93018 0 0 0 0 128 128 255
1.83049 0.963549 3.93063 0 0 0 0 128 128 255
1.83218 1.0293 3.94815 0 0 0 0 128 128 255
1.83231 0.970624 3.9402 0 0 0 0 128 128 255
1.83251 0.97041 3.94116 0 0 0 0 128 128 255
1.84426 1.63186 4.09424 0 0 0 0 128 128 255
1.83809 1.23936 4.00758 0 0 0 0 128 128 255
1.83425 0.972384 3.95065 0 0 0 0 128 128 255
1.83414 0.965549 3.94914 0 0 0 0 128 128 255
1.83878 1.07981 3.99258 0 0 0 0 128 128 255
1.85287 1.8696 4.1812 0 0 0 0 128 128 255
1.83921 0.982412 3.98837 0 0 0 0 128 128 255
1.83963 0.991528 3.99345 0 0 0 0 128 128 255
1.84131 1.00425 4.02386 0 0 0 0 128 128 255
