ply
format ascii 1.0
comment VCGLIB generated
element vertex 1034
property float x
property float y
property float z
property float nx
property float ny
property float nz
property uchar red
property uchar green
property uchar blue
property uchar alpha
element face 0
property list uchar int vertex_indices
end_header
0.733172 0.130539 4.29029 0 0 0 255 255 0 255
0.728539 0.133745 4.29079 0 0 0 255 255 0 255
0.542865 0.109792 4.29192 0 0 0 255 255 0 255
0.717767 0.142914 4.29217 0 0 0 255 255 0 255
0.727265 0.146619 4.29242 0 0 0 255 255 0 255
0.533772 0.115229 4.2928 0 0 0 255 255 0 255
0.712729 0.15411 4.29368 0 0 0 255 255 0 255
0.716493 0.155788 4.2938 0 0 0 255 255 0 255
0.579873 0.141566 4.29505 0 0 0 255 255 0 255
0.57524 0.144773 4.29556 0 0 0 255 255 0 255
0.704505 0.171794 4.29606 0 0 0 255 255 0 255
1.71529 0.353579 4.29631 0 0 0 255 255 0 255
0.689216 0.172098 4.29643 0 0 0 255 255 0 255
1.71297 0.355183 4.29656 0 0 0 255 255 0 255
1.63288 0.342953 4.29681 0 0 0 255 255 0 255
1.69832 0.357615 4.29718 0 0 0 255 255 0 255
1.61921 0.34556 4.29744 0 0 0 255 255 0 255
1.71668 0.362896 4.29744 0 0 0 255 255 0 255
1.5452 0.333404 4.29756 0 0 0 255 255 0 255
1.68599 0.358444 4.29756 0 0 0 255 255 0 255
1.60016 0.344187 4.29769 0 0 0 255 255 0 255
1.70846 0.363448 4.29769 0 0 0 255 255 0 255
1.73272 0.36978 4.29794 0 0 0 255 255 0 255
1.54236 0.337938 4.29819 0 0 0 255 255 0 255
1.5463 0.338639 4.29819 0 0 0 255 255 0 255
1.56796 0.342491 4.29819 0 0 0 255 255 0 255
1.67411 0.362379 4.29831 0 0 0 255 255 0 255
1.69757 0.367558 4.29844 0 0 0 255 255 0 255
1.68853 0.366959 4.29856 0 0 0 255 255 0 255
1.71019 0.370811 4.29856 0 0 0 255 255 0 255
1.53182 0.340094 4.29869 0 0 0 255 255 0 255
1.7 0.371014 4.29881 0 0 0 255 255 0 255
1.70081 0.372166 4.29894 0 0 0 255 255 0 255
1.63352 0.362212 4.29919 0 0 0 255 255 0 255
1.56344 0.350757 4.29931 0 0 0 255 255 0 255
1.62448 0.361613 4.29931 0 0 0 255 255 0 255
1.55157 0.354691 4.30007 0 0 0 255 255 0 255
1.48937 0.344636 4.30019 0 0 0 255 255 0 255
1.55713 0.357695 4.30032 0 0 0 255 255 0 255
1.49 0.346765 4.30044 0 0 0 255 255 0 255
1.65049 0.375307 4.30044 0 0 0 255 255 0 255
1.7194 0.387564 4.30044 0 0 0 255 255 0 255
1.55481 0.359299 4.30057 0 0 0 255 255 0 255
1.03578 0.267996 4.30069 0 0 0 255 255 0 255
1.65703 0.378486 4.30069 0 0 0 255 255 0 255
1.01198 0.26477 4.30082 0 0 0 255 255 0 255
1.70411 0.387868 4.30082 0 0 0 255 255 0 255
1.43614 0.341217 4.30094 0 0 0 255 255 0 255
1.38182 0.332563 4.30107 0 0 0 255 255 0 255
1.57427 0.369814 4.30145 0 0 0 255 255 0 255
1.4351 0.347077 4.3017 0 0 0 255 255 0 255
1.48137 0.355307 4.3017 0 0 0 255 255 0 255
1.55423 0.368265 4.3017 0 0 0 255 255 0 255
1.03618 0.277137 4.30182 0 0 0 255 255 0 255
1.38471 0.339124 4.30182 0 0 0 255 255 0 255
1.04684 0.28004 4.30195 0 0 0 255 255 0 255
1.44263 0.350432 4.30195 0 0 0 255 255 0 255
1.34892 0.334774 4.30207 0 0 0 255 255 0 255
1.39995 0.344856 4.3022 0 0 0 255 255 0 255
1.50628 0.363767 4.3022 0 0 0 255 255 0 255
1.33166 0.334727 4.30245 0 0 0 255 255 0 255
1.37991 0.343307 4.30245 0 0 0 255 255 0 255
0.478697 0.185041 4.3027 0 0 0 255 255 0 255
0.523986 0.193096 4.3027 0 0 0 255 255 0 255
1.02315 0.281873 4.3027 0 0 0 255 255 0 255
1.34707 0.339483 4.3027 0 0 0 255 255 0 255
1.4534 0.358394 4.3027 0 0 0 255 255 0 255
1.71628 0.405147 4.3027 0 0 0 255 255 0 255
1.04956 0.287578 4.30282 0 0 0 255 255 0 255
1.38431 0.347113 4.30282 0 0 0 255 255 0 255
1.24138 0.3227 4.30295 0 0 0 255 255 0 255
1.2591 0.325852 4.30295 0 0 0 255 255 0 255
1.28174 0.329879 4.30295 0 0 0 255 255 0 255
1.05611 0.290757 4.30307 0 0 0 255 255 0 255
1.05709 0.290932 4.30307 0 0 0 255 255 0 255
1.28255 0.331031 4.30307 0 0 0 255 255 0 255
1.36033 0.344864 4.30307 0 0 0 255 255 0 255
1.3769 0.348818 4.3032 0 0 0 255 255 0 255
0.512288 0.196054 4.30332 0 0 0 255 255 0 255
1.22215 0.322303 4.30332 0 0 0 255 255 0 255
1.34719 0.344542 4.30332 0 0 0 255 255 0 255
1.45253 0.363278 4.30332 0 0 0 255 255 0 255
1.28794 0.335012 4.30345 0 0 0 255 255 0 255
1.60103 0.390695 4.30345 0 0 0 255 255 0 255
1.61973 0.394022 4.30345 0 0 0 255 255 0 255
1.36948 0.350523 4.30358 0 0 0 255 255 0 255
1.57607 0.388271 4.3037 0 0 0 255 255 0 255
0.519296 0.202338 4.30395 0 0 0 255 255 0 255
0.531747 0.206568 4.3042 0 0 0 255 255 0 255
1.6246 0.400934 4.3042 0 0 0 255 255 0 255
1.11032 0.311483 4.30445 0 0 0 255 255 0 255
1.36531 0.356835 4.30445 0 0 0 255 255 0 255
1.37811 0.359111 4.30445 0 0 0 255 255 0 255
1.35118 0.356337 4.3047 0 0 0 255 255 0 255
1.37875 0.36124 4.3047 0 0 0 255 255 0 255
1.58747 0.398362 4.3047 0 0 0 255 255 0 255
1.68888 0.416398 4.3047 0 0 0 255 255 0 255
1.39317 0.36582 4.30495 0 0 0 255 255 0 255
0.491149 0.206402 4.30508 0 0 0 255 255 0 255
1.10927 0.317344 4.3052 0 0 0 255 255 0 255
1.17031 0.3282 4.3052 0 0 0 255 255 0 255
1.17228 0.32855 4.3052 0 0 0 255 255 0 255
1.26877 0.34571 4.3052 0 0 0 255 255 0 255
1.45288 0.378455 4.3052 0 0 0 255 255 0 255
0.946475 0.290405 4.30545 0 0 0 255 255 0 255
1.60908 0.40825 4.30545 0 0 0 255 255 0 255
1.11663 0.321675 4.30558 0 0 0 255 255 0 255
1.09873 0.3195 4.30571 0 0 0 255 255 0 255
1.46203 0.384113 4.30571 0 0 0 255 255 0 255
1.67551 0.423087 4.30583 0 0 0 255 255 0 255
1.67829 0.42459 4.30596 0 0 0 255 255 0 255
1.21242 0.342742 4.30608 0 0 0 255 255 0 255
1.24983 0.349396 4.30608 0 0 0 255 255 0 255
1.55174 0.405107 4.30633 0 0 0 255 255 0 255
1.56553 0.407558 4.30633 0 0 0 255 255 0 255
1.63838 0.420516 4.30633 0 0 0 255 255 0 255
1.67383 0.42682 4.30633 0 0 0 255 255 0 255
1.67661 0.428322 4.30646 0 0 0 255 255 0 255
1.68744 0.430248 4.30646 0 0 0 255 255 0 255
1.26194 0.35558 4.30658 0 0 0 255 255 0 255
1.26784 0.35663 4.30658 0 0 0 255 255 0 255
1.47165 0.392877 4.30658 0 0 0 255 255 0 255
1.68037 0.429999 4.30658 0 0 0 255 255 0 255
0.482983 0.218049 4.30671 0 0 0 255 255 0 255
1.19284 0.344299 4.30671 0 0 0 255 255 0 255
1.36711 0.375293 4.30671 0 0 0 255 255 0 255
1.68217 0.431326 4.30671 0 0 0 255 255 0 255
1.21827 0.349829 4.30683 0 0 0 255 255 0 255
1.27734 0.360335 4.30683 0 0 0 255 255 0 255
1.37777 0.378196 4.30683 0 0 0 255 255 0 255
1.45636 0.393181 4.30696 0 0 0 255 255 0 255
1.0791 0.327093 4.30708 0 0 0 255 255 0 255
1.09978 0.33077 4.30708 0 0 0 255 255 0 255
1.10962 0.332521 4.30708 0 0 0 255 255 0 255
1.10748 0.333147 4.30721 0 0 0 255 255 0 255
1.47831 0.401115 4.30746 0 0 0 255 255 0 255
1.61498 0.426431 4.30758 0 0 0 255 255 0 255
1.61597 0.426607 4.30758 0 0 0 255 255 0 255
1.20327 0.354215 4.30771 0 0 0 255 255 0 255
1.56854 0.419178 4.30771 0 0 0 255 255 0 255
1.59692 0.425233 4.30784 0 0 0 255 255 0 255
1.21671 0.35862 4.30796 0 0 0 255 255 0 255
1.47744 0.405999 4.30809 0 0 0 255 255 0 255
1.48908 0.409077 4.30821 0 0 0 255 255 0 255
0.942479 0.312871 4.30834 0 0 0 255 255 0 255
1.45051 0.403225 4.30834 0 0 0 255 255 0 255
1.09277 0.341616 4.30859 0 0 0 255 255 0 255
1.54861 0.422689 4.30859 0 0 0 255 255 0 255
1.10539 0.344869 4.30871 0 0 0 255 255 0 255
1.53761 0.42174 4.30871 0 0 0 255 255 0 255
1.4695 0.410634 4.30884 0 0 0 255 255 0 255
1.3758 0.394976 4.30896 0 0 0 255 255 0 255
1.06647 0.34097 4.30909 0 0 0 255 255 0 255
1.21891 0.369088 4.30921 0 0 0 255 255 0 255
1.35084 0.392552 4.30921 0 0 0 255 255 0 255
1.38118 0.398957 4.30934 0 0 0 255 255 0 255
1.06891 0.344426 4.30946 0 0 0 255 255 0 255
1.15161 0.359135 4.30946 0 0 0 255 255 0 255
1.47454 0.416569 4.30946 0 0 0 255 255 0 255
1.49423 0.420071 4.30946 0 0 0 255 255 0 255
1.64782 0.447387 4.30946 0 0 0 255 255 0 255
1.07366 0.346278 4.30959 0 0 0 255 255 0 255
1.37394 0.399685 4.30959 0 0 0 255 255 0 255
0.486343 0.244847 4.30997 0 0 0 255 255 0 255
1.48763 0.422927 4.30997 0 0 0 255 255 0 255
1.09937 0.35589 4.31022 0 0 0 255 255 0 255
1.35124 0.401693 4.31034 0 0 0 255 255 0 255
1.36896 0.404845 4.31034 0 0 0 255 255 0 255
1.11379 0.36047 4.31047 0 0 0 255 255 0 255
1.28313 0.390588 4.31047 0 0 0 255 255 0 255
1.43968 0.418429 4.31047 0 0 0 255 255 0 255
1.14512 0.36705 4.31059 0 0 0 255 255 0 255
0.943116 0.332131 4.31072 0 0 0 255 255 0 255
1.38304 0.411379 4.31084 0 0 0 255 255 0 255
0.99495 0.343365 4.31097 0 0 0 255 255 0 255
0.995935 0.34354 4.31097 0 0 0 255 255 0 255
1.37203 0.41043 4.31097 0 0 0 255 255 0 255
1.45358 0.42594 4.31109 0 0 0 255 255 0 255
1.29142 0.40113 4.31159 0 0 0 255 255 0 255
1.0707 0.362884 4.31172 0 0 0 255 255 0 255
1.243 0.393527 4.31172 0 0 0 255 255 0 255
1.40151 0.421719 4.31172 0 0 0 255 255 0 255
1.22806 0.391877 4.31185 0 0 0 255 255 0 255
1.10661 0.372293 4.3121 0 0 0 255 255 0 255
1.15254 0.382476 4.31235 0 0 0 255 255 0 255
1.2331 0.397812 4.31247 0 0 0 255 255 0 255
0.47366 0.26476 4.31272 0 0 0 255 255 0 255
1.05356 0.367896 4.31272 0 0 0 255 255 0 255
1.17842 0.391111 4.31285 0 0 0 255 255 0 255
0.45756 0.263912 4.31297 0 0 0 255 255 0 255
1.29541 0.412925 4.31297 0 0 0 255 255 0 255
1.06288 0.372578 4.3131 0 0 0 255 255 0 255
1.18497 0.394291 4.3131 0 0 0 255 255 0 255
1.29032 0.413027 4.3131 0 0 0 255 255 0 255
1.23008 0.403322 4.31322 0 0 0 255 255 0 255
1.28423 0.412953 4.31322 0 0 0 255 255 0 255
0.949314 0.354394 4.31335 0 0 0 255 255 0 255
2.52737 0.636063 4.31347 0 0 0 255 255 0 255
1.07482 0.379738 4.31372 0 0 0 255 255 0 255
1.21954 0.405478 4.31372 0 0 0 255 255 0 255
1.0963 0.384567 4.31385 0 0 0 255 255 0 255
1.17999 0.399451 4.31385 0 0 0 255 255 0 255
1.23692 0.410584 4.31398 0 0 0 255 255 0 255
1.1314 0.392824 4.3141 0 0 0 255 255 0 255
1.21902 0.408409 4.3141 0 0 0 255 255 0 255
1.2346 0.412187 4.31423 0 0 0 255 255 0 255
1.34273 0.432425 4.31435 0 0 0 255 255 0 255
2.53206 0.643951 4.31435 0 0 0 255 255 0 255
1.34255 0.433402 4.31448 0 0 0 255 255 0 255
1.17796 0.405137 4.3146 0 0 0 255 255 0 255
0.484664 0.28284 4.31473 0 0 0 255 255 0 255
1.16105 0.403137 4.31473 0 0 0 255 255 0 255
1.34221 0.435356 4.31473 0 0 0 255 255 0 255
1.04175 0.382926 4.31485 0 0 0 255 255 0 255
2.52743 0.647158 4.31485 0 0 0 255 255 0 255
1.0908 0.392658 4.31498 0 0 0 255 255 0 255
1.11327 0.397662 4.3151 0 0 0 255 255 0 255
1.33068 0.437337 4.31523 0 0 0 255 255 0 255
0.949488 0.370548 4.31535 0 0 0 255 255 0 255
1.36005 0.443567 4.31535 0 0 0 255 255 0 255
2.52083 0.650014 4.31535 0 0 0 255 255 0 255
1.09682 0.398767 4.3156 0 0 0 255 255 0 255
1.12271 0.407402 4.31611 0 0 0 255 255 0 255
2.43512 0.640816 4.31611 0 0 0 255 255 0 255
2.44496 0.642567 4.31611 0 0 0 255 255 0 255
1.17275 0.41731 4.31623 0 0 0 255 255 0 255
0.410186 0.284709 4.31661 0 0 0 255 255 0 255
2.56044 0.667136 4.31661 0 0 0 255 255 0 255
1.32171 0.447832 4.31673 0 0 0 255 255 0 255
1.32663 0.448708 4.31673 0 0 0 255 255 0 255
1.10296 0.409936 4.31686 0 0 0 255 255 0 255
1.32252 0.448984 4.31686 0 0 0 255 255 0 255
2.38485 0.637922 4.31686 0 0 0 255 255 0 255
2.42817 0.645626 4.31686 0 0 0 255 255 0 255
0.478584 0.299897 4.31698 0 0 0 255 255 0 255
1.04765 0.401107 4.31698 0 0 0 255 255 0 255
1.02976 0.398932 4.31711 0 0 0 255 255 0 255
1.33005 0.452339 4.31711 0 0 0 255 255 0 255
2.43865 0.649506 4.31711 0 0 0 255 255 0 255
1.08866 0.410415 4.31723 0 0 0 255 255 0 255
2.55923 0.673974 4.31748 0 0 0 255 255 0 255
1.36283 0.462199 4.31761 0 0 0 255 255 0 255
2.41629 0.649561 4.31761 0 0 0 255 255 0 255
1.3469 0.460375 4.31773 0 0 0 255 255 0 255
2.3856 0.645109 4.31773 0 0 0 255 255 0 255
1.32507 0.457499 4.31786 0 0 0 255 255 0 255
1.34279 0.460651 4.31786 0 0 0 255 255 0 255
2.43465 0.654841 4.31786 0 0 0 255 255 0 255
1.32489 0.458476 4.31799 0 0 0 255 255 0 255
1.34458 0.461978 4.31799 0 0 0 255 255 0 255
1.04592 0.410875 4.31824 0 0 0 255 255 0 255
2.38983 0.649892 4.31824 0 0 0 255 255 0 255
1.31534 0.460807 4.31849 0 0 0 255 255 0 255
2.55784 0.681788 4.31849 0 0 0 255 255 0 255
0.983368 0.402774 4.31861 0 0 0 255 255 0 255
2.49662 0.671909 4.31861 0 0 0 255 255 0 255
0.974334 0.402175 4.31874 0 0 0 255 255 0 255
2.46147 0.669687 4.31911 0 0 0 255 255 0 255
2.39319 0.659559 4.31936 0 0 0 255 255 0 255
2.48261 0.67647 4.31949 0 0 0 255 255 0 255
0.974102 0.409187 4.31961 0 0 0 255 255 0 255
2.38097 0.665447 4.32037 0 0 0 255 255 0 255
2.44873 0.678506 4.32049 0 0 0 255 255 0 255
2.37599 0.670607 4.32112 0 0 0 255 255 0 255
2.41519 0.678588 4.32124 0 0 0 255 255 0 255
2.40124 0.677113 4.32137 0 0 0 255 255 0 255
1.33068 0.488729 4.32162 0 0 0 255 255 0 255
2.47241 0.693803 4.32187 0 0 0 255 255 0 255
1.34099 0.493585 4.32199 0 0 0 255 255 0 255
2.46043 0.692679 4.32199 0 0 0 255 255 0 255
2.36359 0.677472 4.32225 0 0 0 255 255 0 255
2.49089 0.704143 4.32275 0 0 0 255 255 0 255
1.19846 0.478313 4.32325 0 0 0 255 255 0 255
2.52268 0.713828 4.32325 0 0 0 255 255 0 255
1.19632 0.47894 4.32337 0 0 0 255 255 0 255
2.5678 0.72286 4.32337 0 0 0 255 255 0 255
1.21451 0.485197 4.32375 0 0 0 255 255 0 255
2.42452 0.7004 4.32375 0 0 0 255 255 0 255
2.36214 0.691322 4.324 0 0 0 255 255 0 255
1.52904 0.544161 4.32412 0 0 0 255 255 0 255
2.34228 0.688797 4.32412 0 0 0 255 255 0 255
2.56577 0.728545 4.32412 0 0 0 255 255 0 255
1.16557 0.480525 4.32425 0 0 0 255 255 0 255
2.34703 0.690649 4.32425 0 0 0 255 255 0 255
2.36377 0.693626 4.32425 0 0 0 255 255 0 255
0.495901 0.362431 4.32438 0 0 0 255 255 0 255
2.48058 0.716417 4.3245 0 0 0 255 255 0 255
2.51209 0.72202 4.3245 0 0 0 255 255 0 255
1.16209 0.48293 4.32463 0 0 0 255 255 0 255
1.15798 0.483206 4.32475 0 0 0 255 255 0 255
2.43477 0.711293 4.32488 0 0 0 255 255 0 255
2.46431 0.716546 4.32488 0 0 0 255 255 0 255
1.17142 0.487611 4.325 0 0 0 255 255 0 255
2.40604 0.707191 4.325 0 0 0 255 255 0 255
2.44033 0.714297 4.32513 0 0 0 255 255 0 255
1.4003 0.531341 4.32538 0 0 0 255 255 0 255
1.48972 0.548252 4.3255 0 0 0 255 255 0 255
2.37975 0.706546 4.3255 0 0 0 255 255 0 255
1.54746 0.560537 4.32575 0 0 0 255 255 0 255
1.05304 0.473611 4.32588 0 0 0 255 255 0 255
1.42897 0.541478 4.326 0 0 0 255 255 0 255
1.0714 0.478892 4.32613 0 0 0 255 255 0 255
1.15706 0.494126 4.32613 0 0 0 255 255 0 255
1.15902 0.494476 4.32613 0 0 0 255 255 0 255
1.53101 0.561642 4.32626 0 0 0 255 255 0 255
1.42352 0.543532 4.32638 0 0 0 255 255 0 255
1.51312 0.559467 4.32638 0 0 0 255 255 0 255
1.07134 0.484928 4.32688 0 0 0 255 255 0 255
0.443836 0.37534 4.32713 0 0 0 255 255 0 255
1.39294 0.54414 4.32713 0 0 0 255 255 0 255
1.07968 0.489434 4.32726 0 0 0 255 255 0 255
1.39949 0.547319 4.32738 0 0 0 255 255 0 255
1.56391 0.576562 4.32738 0 0 0 255 255 0 255
1.41686 0.552425 4.32763 0 0 0 255 255 0 255
1.51827 0.570461 4.32763 0 0 0 255 255 0 255
1.26014 0.52556 4.32776 0 0 0 255 255 0 255
0.454609 0.383302 4.32788 0 0 0 255 255 0 255
1.42636 0.556129 4.32788 0 0 0 255 255 0 255
0.506616 0.393559 4.32801 0 0 0 255 255 0 255
1.04812 0.489866 4.32801 0 0 0 255 255 0 255
1.05796 0.491617 4.32801 0 0 0 255 255 0 255
1.33167 0.540296 4.32801 0 0 0 255 255 0 255
1.15034 0.509054 4.32813 0 0 0 255 255 0 255
1.27636 0.531467 4.32813 0 0 0 255 255 0 255
1.33132 0.54225 4.32826 0 0 0 255 255 0 255
1.3392 0.543651 4.32826 0 0 0 255 255 0 255
1.41188 0.557585 4.32839 0 0 0 255 255 0 255
1.53987 0.580349 4.32839 0 0 0 255 255 0 255
1.07302 0.498326 4.32851 0 0 0 255 255 0 255
1.42352 0.560663 4.32851 0 0 0 255 255 0 255
1.52592 0.578874 4.32851 0 0 0 255 255 0 255
1.26484 0.533448 4.32864 0 0 0 255 255 0 255
1.2865 0.537301 4.32864 0 0 0 255 255 0 255
1.52476 0.579676 4.32864 0 0 0 255 255 0 255
1.5474 0.583703 4.32864 0 0 0 255 255 0 255
1.15011 0.516067 4.32901 0 0 0 255 255 0 255
1.2858 0.541208 4.32914 0 0 0 255 255 0 255
0.453682 0.394222 4.32926 0 0 0 255 255 0 255
1.29924 0.545613 4.32939 0 0 0 255 255 0 255
1.44987 0.572404 4.32939 0 0 0 255 255 0 255
1.37389 0.559897 4.32951 0 0 0 255 255 0 255
1.41032 0.566376 4.32951 0 0 0 255 255 0 255
1.32646 0.552469 4.32964 0 0 0 255 255 0 255
2.3622 0.736679 4.32964 0 0 0 255 255 0 255
1.19731 0.530507 4.32976 0 0 0 255 255 0 255
1.23947 0.539014 4.32989 0 0 0 255 255 0 255
1.42358 0.571758 4.32989 0 0 0 255 255 0 255
2.37466 0.740909 4.32989 0 0 0 255 255 0 255
1.24109 0.541317 4.33014 0 0 0 255 255 0 255
1.5335 0.593323 4.33014 0 0 0 255 255 0 255
1.34233 0.56033 4.33027 0 0 0 255 255 0 255
1.26009 0.548727 4.33064 0 0 0 255 255 0 255
1.08466 0.518535 4.33077 0 0 0 255 255 0 255
1.1969 0.538497 4.33077 0 0 0 255 255 0 255
0.525091 0.42103 4.33102 0 0 0 255 255 0 255
1.26449 0.552533 4.33102 0 0 0 255 255 0 255
1.3403 0.566016 4.33102 0 0 0 255 255 0 255
1.2013 0.542303 4.33114 0 0 0 255 255 0 255
1.24955 0.550883 4.33114 0 0 0 255 255 0 255
2.44184 0.762934 4.33114 0 0 0 255 255 0 255
2.44479 0.763459 4.33114 0 0 0 255 255 0 255
0.483393 0.415629 4.33127 0 0 0 255 255 0 255
1.27989 0.557288 4.33127 0 0 0 255 255 0 255
1.42132 0.584456 4.33152 0 0 0 255 255 0 255
2.4551 0.768316 4.33152 0 0 0 255 255 0 255
0.517331 0.424688 4.33164 0 0 0 255 255 0 255
1.23999 0.553214 4.33164 0 0 0 255 255 0 255
1.36978 0.577305 4.33177 0 0 0 255 255 0 255
2.42128 0.764316 4.33177 0 0 0 255 255 0 255
0.509107 0.42524 4.33189 0 0 0 255 255 0 255
2.4152 0.764242 4.33189 0 0 0 255 255 0 255
0.466598 0.418688 4.33202 0 0 0 255 255 0 255
1.38814 0.582585 4.33202 0 0 0 255 255 0 255
1.40684 0.585912 4.33202 0 0 0 255 255 0 255
1.24601 0.559324 4.33227 0 0 0 255 255 0 255
1.20941 0.553822 4.3324 0 0 0 255 255 0 255
1.25157 0.562328 4.33252 0 0 0 255 255 0 255
1.44634 0.597975 4.33265 0 0 0 255 255 0 255
1.55169 0.616711 4.33265 0 0 0 255 255 0 255
2.59236 0.801796 4.33265 0 0 0 255 255 0 255
2.47108 0.781235 4.33277 0 0 0 255 255 0 255
2.51846 0.794699 4.3334 0 0 0 255 255 0 255
1.4146 0.599385 4.33352 0 0 0 255 255 0 255
1.54555 0.622673 4.33352 0 0 0 255 255 0 255
1.40244 0.599237 4.33377 0 0 0 255 255 0 255
0.510266 0.44157 4.3339 0 0 0 255 255 0 255
1.48792 0.615448 4.3339 0 0 0 255 255 0 255
1.53518 0.623853 4.3339 0 0 0 255 255 0 255
1.5547 0.628332 4.33402 0 0 0 255 255 0 255
2.37385 0.774018 4.33402 0 0 0 255 255 0 255
1.11032 0.551313 4.33427 0 0 0 255 255 0 255
1.41634 0.606747 4.3344 0 0 0 255 255 0 255
1.48428 0.61883 4.3344 0 0 0 255 255 0 255
1.49707 0.621106 4.3344 0 0 0 255 255 0 255
2.35051 0.773898 4.33453 0 0 0 255 255 0 255
2.36921 0.777225 4.33453 0 0 0 255 255 0 255
1.27914 0.584362 4.33465 0 0 0 255 255 0 255
0.443085 0.436675 4.33478 0 0 0 255 255 0 255
1.11652 0.556446 4.33478 0 0 0 255 255 0 255
1.42468 0.611254 4.33478 0 0 0 255 255 0 255
1.41958 0.611355 4.3349 0 0 0 255 255 0 255
2.49176 0.802043 4.3349 0 0 0 255 255 0 255
2.56838 0.816678 4.33503 0 0 0 255 255 0 255
0.455189 0.442859 4.33528 0 0 0 255 255 0 255
0.516868 0.455844 4.33553 0 0 0 255 255 0 255
2.49384 0.807452 4.33553 0 0 0 255 255 0 255
0.446791 0.444388 4.33565 0 0 0 255 255 0 255
1.2876 0.593927 4.33565 0 0 0 255 255 0 255
1.27659 0.592978 4.33578 0 0 0 255 255 0 255
1.29513 0.597281 4.3359 0 0 0 255 255 0 255
2.65971 0.839975 4.3359 0 0 0 255 255 0 255
2.52744 0.818465 4.33615 0 0 0 255 255 0 255
0.45183 0.450323 4.33628 0 0 0 255 255 0 255
1.09671 0.565016 4.33628 0 0 0 255 255 0 255
1.10262 0.566066 4.33628 0 0 0 255 255 0 255
1.11113 0.569596 4.33653 0 0 0 255 255 0 255
0.448355 0.452728 4.33666 0 0 0 255 255 0 255
1.42306 0.626081 4.33666 0 0 0 255 255 0 255
2.44502 0.807839 4.33666 0 0 0 255 255 0 255
1.40516 0.623906 4.33678 0 0 0 255 255 0 255
1.26715 0.600368 4.33691 0 0 0 255 255 0 255
2.48504 0.816971 4.33691 0 0 0 255 255 0 255
1.28864 0.605197 4.33703 0 0 0 255 255 0 255
1.32999 0.612551 4.33703 0 0 0 255 255 0 255
2.50653 0.821801 4.33703 0 0 0 255 255 0 255
2.53688 0.828206 4.33716 0 0 0 255 255 0 255
1.32275 0.613279 4.33728 0 0 0 255 255 0 255
2.33487 0.793286 4.33728 0 0 0 255 255 0 255
1.25661 0.602524 4.33741 0 0 0 255 255 0 255
1.26252 0.603575 4.33741 0 0 0 255 255 0 255
1.40528 0.628965 4.33741 0 0 0 255 255 0 255
2.35815 0.799442 4.33753 0 0 0 255 255 0 255
1.31731 0.615334 4.33766 0 0 0 255 255 0 255
2.38554 0.805322 4.33766 0 0 0 255 255 0 255
2.44462 0.815828 4.33766 0 0 0 255 255 0 255
1.19899 0.595298 4.33778 0 0 0 255 255 0 255
1.28464 0.610532 4.33778 0 0 0 255 255 0 255
1.32403 0.617537 4.33778 0 0 0 255 255 0 255
1.33092 0.618762 4.33778 0 0 0 255 255 0 255
2.4346 0.815054 4.33778 0 0 0 255 255 0 255
2.56751 0.838693 4.33778 0 0 0 255 255 0 255
0.508645 0.473527 4.33791 0 0 0 255 255 0 255
1.10134 0.57894 4.33791 0 0 0 255 255 0 255
1.23426 0.602579 4.33791 0 0 0 255 255 0 255
1.33155 0.620891 4.33803 0 0 0 255 255 0 255
2.33776 0.799847 4.33803 0 0 0 255 255 0 255
1.25656 0.60856 4.33816 0 0 0 255 255 0 255
2.40356 0.812556 4.33816 0 0 0 255 255 0 255
2.33348 0.8011 4.33828 0 0 0 255 255 0 255
2.56583 0.842425 4.33828 0 0 0 255 255 0 255
2.35103 0.805229 4.33841 0 0 0 255 255 0 255
1.19795 0.601159 4.33853 0 0 0 255 255 0 255
2.40778 0.817339 4.33866 0 0 0 255 255 0 255
0.504938 0.482945 4.33916 0 0 0 255 255 0 255
1.10354 0.589408 4.33916 0 0 0 255 255 0 255
1.27978 0.620752 4.33916 0 0 0 255 255 0 255
2.37147 0.815919 4.33929 0 0 0 255 255 0 255
1.19262 0.608273 4.33954 0 0 0 255 255 0 255
1.21132 0.6116 4.33954 0 0 0 255 255 0 255
1.10876 0.594366 4.33966 0 0 0 255 255 0 255
2.37686 0.8199 4.33966 0 0 0 255 255 0 255
2.55309 0.851243 4.33966 0 0 0 255 255 0 255
1.19818 0.611277 4.33979 0 0 0 255 255 0 255
1.10349 0.595444 4.33991 0 0 0 255 255 0 255
2.40112 0.826231 4.33991 0 0 0 255 255 0 255
2.53485 0.851022 4.34004 0 0 0 255 255 0 255
1.25968 0.625239 4.34016 0 0 0 255 255 0 255
2.47856 0.842018 4.34016 0 0 0 255 255 0 255
1.1914 0.615111 4.34041 0 0 0 255 255 0 255
2.55303 0.857279 4.34041 0 0 0 255 255 0 255
1.25818 0.627994 4.34054 0 0 0 255 255 0 255
2.46917 0.843372 4.34054 0 0 0 255 255 0 255
0.517622 0.497293 4.34067 0 0 0 255 255 0 255
2.35282 0.823687 4.34067 0 0 0 255 255 0 255
1.09636 0.601231 4.34079 0 0 0 255 255 0 255
2.42255 0.837096 4.34079 0 0 0 255 255 0 255
2.35346 0.825815 4.34092 0 0 0 255 255 0 255
2.39267 0.833796 4.34104 0 0 0 255 255 0 255
2.39858 0.834847 4.34104 0 0 0 255 255 0 255
2.36325 0.833602 4.34167 0 0 0 255 255 0 255
2.42904 0.846311 4.34179 0 0 0 255 255 0 255
2.54209 0.867425 4.34192 0 0 0 255 255 0 255
2.5667 0.871802 4.34192 0 0 0 255 255 0 255
1.64088 0.709158 4.34217 0 0 0 255 255 0 255
2.35103 0.839491 4.34267 0 0 0 255 255 0 255
1.66248 0.719046 4.34292 0 0 0 255 255 0 255
2.49344 0.866834 4.34292 0 0 0 255 255 0 255
2.53954 0.876041 4.34305 0 0 0 255 255 0 255
1.61291 0.712245 4.34317 0 0 0 255 255 0 255
1.62159 0.714798 4.3433 0 0 0 255 255 0 255
2.41201 0.856383 4.34342 0 0 0 255 255 0 255
2.47896 0.86829 4.34342 0 0 0 255 255 0 255
1.61632 0.715876 4.34355 0 0 0 255 255 0 255
2.46975 0.868667 4.34367 0 0 0 255 255 0 255
1.6209 0.718705 4.3438 0 0 0 255 255 0 255
2.40639 0.859414 4.34392 0 0 0 255 255 0 255
2.41526 0.86099 4.34392 0 0 0 255 255 0 255
1.48567 0.696669 4.34405 0 0 0 255 255 0 255
2.42197 0.863193 4.34405 0 0 0 255 255 0 255
1.63613 0.724437 4.34417 0 0 0 255 255 0 255
2.37732 0.857267 4.3443 0 0 0 255 255 0 255
1.65513 0.731846 4.34468 0 0 0 255 255 0 255
1.513 0.708585 4.34493 0 0 0 255 255 0 255
2.36134 0.861478 4.34518 0 0 0 255 255 0 255
1.45422 0.702161 4.34543 0 0 0 255 255 0 255
1.54874 0.718971 4.34543 0 0 0 255 255 0 255
1.60584 0.729127 4.34543 0 0 0 255 255 0 255
1.6626 0.741236 4.34568 0 0 0 255 255 0 255
1.6685 0.742287 4.34568 0 0 0 255 255 0 255
1.60926 0.732757 4.3458 0 0 0 255 255 0 255
1.64945 0.740913 4.34593 0 0 0 255 255 0 255
1.66011 0.743816 4.34605 0 0 0 255 255 0 255
1.83142 0.774284 4.34605 0 0 0 255 255 0 255
1.41183 0.700667 4.34618 0 0 0 255 255 0 255
0.20471 0.492025 4.34693 0 0 0 255 255 0 255
0.476272 0.541331 4.34706 0 0 0 255 255 0 255
1.64887 0.74988 4.34706 0 0 0 255 255 0 255
1.37105 0.701477 4.34718 0 0 0 255 255 0 255
1.54416 0.733272 4.34731 0 0 0 255 255 0 255
1.64638 0.75246 4.34743 0 0 0 255 255 0 255
1.38432 0.706859 4.34756 0 0 0 255 255 0 255
1.51231 0.729622 4.34756 0 0 0 255 255 0 255
1.50113 0.72965 4.34781 0 0 0 255 255 0 255
1.61713 0.751289 4.34793 0 0 0 255 255 0 255
1.63254 0.756044 4.34818 0 0 0 255 255 0 255
1.60578 0.752293 4.34831 0 0 0 255 255 0 255
1.9041 0.80535 4.34831 0 0 0 255 255 0 255
1.44119 0.724028 4.34843 0 0 0 255 255 0 255
1.32959 0.706194 4.34868 0 0 0 255 255 0 255
1.34204 0.710424 4.34894 0 0 0 255 255 0 255
1.91586 0.813487 4.34906 0 0 0 255 255 0 255
1.37024 0.717456 4.34919 0 0 0 255 255 0 255
1.34841 0.71458 4.34931 0 0 0 255 255 0 255
1.29374 0.70788 4.34969 0 0 0 255 255 0 255
1.37134 0.72269 4.34981 0 0 0 255 255 0 255
1.21839 0.697503 4.35006 0 0 0 255 255 0 255
1.09121 0.675891 4.35019 0 0 0 255 255 0 255
1.26038 0.706986 4.35031 0 0 0 255 255 0 255
1.21984 0.700783 4.35044 0 0 0 255 255 0 255
1.39804 0.732477 4.35044 0 0 0 255 255 0 255
1.34337 0.725777 4.35081 0 0 0 255 255 0 255
1.18075 0.697861 4.35094 0 0 0 255 255 0 255
1.33022 0.725454 4.35107 0 0 0 255 255 0 255
1.34696 0.728431 4.35107 0 0 0 255 255 0 255
1.206 0.704368 4.35119 0 0 0 255 255 0 255
0.479863 0.578246 4.35157 0 0 0 255 255 0 255
1.33885 0.734042 4.35194 0 0 0 255 255 0 255
1.21492 0.717038 4.35257 0 0 0 255 255 0 255
1.26316 0.725618 4.35257 0 0 0 255 255 0 255
1.17831 0.711536 4.35269 0 0 0 255 255 0 255
1.3388 0.740078 4.35269 0 0 0 255 255 0 255
1.42938 0.756188 4.35269 0 0 0 255 255 0 255
1.21457 0.718992 4.35282 0 0 0 255 255 0 255
1.23032 0.721794 4.35282 0 0 0 255 255 0 255
1.33764 0.74088 4.35282 0 0 0 255 255 0 255
0.480906 0.589516 4.35294 0 0 0 255 255 0 255
1.15776 0.712918 4.35332 0 0 0 255 255 0 255
1.22123 0.72723 4.3537 0 0 0 255 255 0 255
1.27092 0.739091 4.35407 0 0 0 255 255 0 255
1.22053 0.731137 4.3542 0 0 0 255 255 0 255
1.24972 0.738344 4.35445 0 0 0 255 255 0 255
1.88117 0.865763 4.35633 0 0 0 255 255 0 255
1.65779 0.831073 4.35695 0 0 0 255 255 0 255
1.89704 0.873624 4.35695 0 0 0 255 255 0 255
1.72439 0.844934 4.35721 0 0 0 255 255 0 255
1.91047 0.878029 4.35721 0 0 0 255 255 0 255
1.0461 0.735382 4.35858 0 0 0 255 255 0 255
1.64175 0.84132 4.35858 0 0 0 255 255 0 255
0.136199 0.574563 4.35871 0 0 0 255 255 0 255
1.64059 0.842122 4.35871 0 0 0 255 255 0 255
1.92159 0.901168 4.35984 0 0 0 255 255 0 255
1.63885 0.85189 4.35996 0 0 0 255 255 0 255
0.430232 0.646003 4.36109 0 0 0 255 255 0 255
0.145987 0.599481 4.36159 0 0 0 255 255 0 255
0.148304 0.615008 4.36347 0 0 0 255 255 0 255
0.741524 0.734621 4.36522 0 0 0 255 255 0 255
0.747431 0.735672 4.36522 0 0 0 255 255 0 255
0.737702 0.73898 4.36585 0 0 0 255 255 0 255
0.730289 0.740684 4.36623 0 0 0 255 255 0 255
0.41587 0.68678 4.36648 0 0 0 255 255 0 255
0.730231 0.74672 4.36698 0 0 0 255 255 0 255
0.749227 0.754129 4.36748 0 0 0 255 255 0 255
0.715521 0.755189 4.36836 0 0 0 255 255 0 255
0.73666 0.761971 4.36873 0 0 0 255 255 0 255
0.677008 0.760431 4.36986 0 0 0 255 255 0 255
0.751255 0.782705 4.37099 0 0 0 255 255 0 255
0.0508922 0.66016 4.37124 0 0 0 255 255 0 255
0.711178 0.779608 4.37149 0 0 0 255 255 0 255
0.716217 0.785543 4.37212 0 0 0 255 255 0 255
0.106606 0.67813 4.37224 0 0 0 255 255 0 255
0.715695 0.788473 4.37249 0 0 0 255 255 0 255
0.876988 0.818167 4.37262 0 0 0 255 255 0 255
0.998088 0.839705 4.37262 0 0 0 255 255 0 255
0.972316 0.836129 4.37274 0 0 0 255 255 0 255
0.874324 0.821724 4.37312 0 0 0 255 255 0 255
0.704634 0.79356 4.37337 0 0 0 255 255 0 255
0.872007 0.823327 4.37337 0 0 0 255 255 0 255
0.0625334 0.680369 4.3735 0 0 0 255 255 0 255
0.917123 0.832359 4.3735 0 0 0 255 255 0 255
0.872644 0.825456 4.37362 0 0 0 255 255 0 255
0.986852 0.845768 4.37362 0 0 0 255 255 0 255
0.711004 0.797716 4.37375 0 0 0 255 255 0 255
0.727742 0.800693 4.37375 0 0 0 255 255 0 255
0.0854678 0.688478 4.374 0 0 0 255 255 0 255
0.716564 0.80072 4.374 0 0 0 255 255 0 255
0.714248 0.802323 4.37425 0 0 0 255 255 0 255
2.15152 1.05895 4.37437 0 0 0 255 255 0 255
0.0512981 0.686432 4.3745 0 0 0 255 255 0 255
0.936409 0.84385 4.3745 0 0 0 255 255 0 255
0.709441 0.806507 4.37487 0 0 0 255 255 0 255
0.697569 0.810441 4.37563 0 0 0 255 255 0 255
0.0928811 0.703904 4.37575 0 0 0 255 255 0 255
0.0553526 0.709322 4.37725 0 0 0 255 255 0 255
0.0530361 0.710926 4.3775 0 0 0 255 255 0 255
0.833148 0.864785 4.37938 0 0 0 255 255 0 255
0.834132 0.86496 4.37938 0 0 0 255 255 0 255
0.548091 0.81711 4.37976 0 0 0 255 255 0 255
0.534945 0.816788 4.38001 0 0 0 255 255 0 255
0.526721 0.81734 4.38026 0 0 0 255 255 0 255
0.881391 0.890496 4.38151 0 0 0 255 255 0 255
2.44156 1.16999 4.38176 0 0 0 255 255 0 255
0.871835 0.892827 4.38202 0 0 0 255 255 0 255
0.922047 0.901757 4.38202 0 0 0 255 255 0 255
0.878148 0.903019 4.38314 0 0 0 255 255 0 255
0.862858 0.903323 4.38352 0 0 0 255 255 0 255
0.896333 0.909276 4.38352 0 0 0 255 255 0 255
0.92865 0.916032 4.38364 0 0 0 255 255 0 255
0.537609 0.847492 4.38377 0 0 0 255 255 0 255
0.959982 0.922612 4.38377 0 0 0 255 255 0 255
2.59613 1.21461 4.3839 0 0 0 255 255 0 255
0.886777 0.911608 4.38402 0 0 0 255 255 0 255
0.955696 0.923865 4.38402 0 0 0 255 255 0 255
2.34391 1.17076 4.38402 0 0 0 255 255 0 255
0.0467825 0.763221 4.38415 0 0 0 255 255 0 255
0.9217 0.920842 4.3844 0 0 0 255 255 0 255
0.923437 0.928205 4.38527 0 0 0 255 255 0 255
0.862164 0.924361 4.38615 0 0 0 255 255 0 255
1.00967 0.968734 4.38841 0 0 0 255 255 0 255
0.930735 0.955702 4.38853 0 0 0 255 255 0 255
0.896218 0.95561 4.38928 0 0 0 255 255 0 255
-0.0760539 0.785712 4.38966 0 0 0 255 255 0 255
2.13652 1.18325 4.39016 0 0 0 255 255 0 255
0.932241 0.970078 4.39029 0 0 0 255 255 0 255
2.2282 1.2046 4.39079 0 0 0 255 255 0 255
0.938091 0.977164 4.39104 0 0 0 255 255 0 255
2.24459 1.20953 4.39104 0 0 0 255 255 0 255
0.933805 0.978418 4.39129 0 0 0 255 255 0 255
0.936238 0.981873 4.39166 0 0 0 255 255 0 255
2.27818 1.22054 4.39166 0 0 0 255 255 0 255
0.560545 0.924125 4.39279 0 0 0 255 255 0 255
0.93369 0.990489 4.39279 0 0 0 255 255 0 255
2.47984 1.27454 4.39392 0 0 0 255 255 0 255
2.4836 1.27622 4.39404 0 0 0 255 255 0 255
0.825911 0.985428 4.39455 0 0 0 255 255 0 255
0.895698 1.00993 4.39605 0 0 0 255 255 0 255
0.907513 1.01203 4.39605 0 0 0 255 255 0 255
2.0888 1.22313 4.39618 0 0 0 255 255 0 255
0.85678 1.00603 4.39643 0 0 0 255 255 0 255
2.12123 1.23495 4.39693 0 0 0 255 255 0 255
0.898478 1.02857 4.39831 0 0 0 255 255 0 255
0.891239 1.02929 4.39856 0 0 0 255 255 0 255
0.974578 1.04613 4.39881 0 0 0 255 255 0 255
0.881857 1.03065 4.39893 0 0 0 255 255 0 255
0.893498 1.03373 4.39906 0 0 0 255 255 0 255
1.09991 1.07245 4.39931 0 0 0 255 255 0 255
1.11664 1.07543 4.39931 0 0 0 255 255 0 255
0.93039 1.04331 4.39943 0 0 0 255 255 0 255
0.810101 1.02292 4.39956 0 0 0 255 255 0 255
1.17925 1.09462 4.40031 0 0 0 255 255 0 255
0.828518 1.0393 4.40119 0 0 0 255 255 0 255
0.821742 1.06026 4.40394 0 0 0 255 255 0 255
0.824696 1.06079 4.40394 0 0 0 255 255 0 255
0.789078 1.05546 4.40407 0 0 0 255 255 0 255
0.795275 1.06059 4.40457 0 0 0 255 255 0 255
0.82626 1.06913 4.40495 0 0 0 255 255 0 255
1.13442 1.12394 4.40495 0 0 0 255 255 0 255
2.09239 1.29431 4.40495 0 0 0 255 255 0 255
1.13506 1.12606 4.4052 0 0 0 255 255 0 255
1.25402 1.14823 4.40532 0 0 0 255 255 0 255
1.24203 1.1471 4.40545 0 0 0 255 255 0 255
0.799793 1.06946 4.40557 0 0 0 255 255 0 255
0.826376 1.07419 4.40557 0 0 0 255 255 0 255
0.830314 1.07489 4.40557 0 0 0 255 255 0 255
0.0996041 0.945937 4.4057 0 0 0 255 255 0 255
0.826028 1.07614 4.40582 0 0 0 255 255 0 255
1.86867 1.26158 4.40582 0 0 0 255 255 0 255
1.07987 1.12229 4.40595 0 0 0 255 255 0 255
1.92149 1.27299 4.40607 0 0 0 255 255 0 255
0.790874 1.07392 4.40632 0 0 0 255 255 0 255
0.827303 1.0804 4.40632 0 0 0 255 255 0 255
1.91129 1.27319 4.40632 0 0 0 255 255 0 255
1.068 1.12623 4.4067 0 0 0 255 255 0 255
-0.0813212 0.923836 4.40695 0 0 0 255 255 0 255
1.04894 1.12486 4.40695 0 0 0 255 255 0 255
0.833152 1.08748 4.40708 0 0 0 255 255 0 255
1.09041 1.13727 4.40758 0 0 0 255 255 0 255
0.405626 1.0185 4.40795 0 0 0 255 255 0 255
1.93643 1.29177 4.40808 0 0 0 255 255 0 255
2.42361 1.37942 4.4082 0 0 0 255 255 0 255
1.07031 1.14176 4.40858 0 0 0 255 255 0 255
1.94164 1.29672 4.40858 0 0 0 255 255 0 255
0.829735 1.10098 4.40883 0 0 0 255 255 0 255
1.05421 1.14091 4.40883 0 0 0 255 255 0 255
1.9293 1.29755 4.40896 0 0 0 255 255 0 255
0.965256 1.1271 4.40908 0 0 0 255 255 0 255
1.20004 1.17188 4.40946 0 0 0 255 255 0 255
0.526262 1.05407 4.40971 0 0 0 255 255 0 255
1.14734 1.16553 4.40983 0 0 0 255 255 0 255
2.40722 1.39162 4.41008 0 0 0 255 255 0 255
1.84979 1.29349 4.41021 0 0 0 255 255 0 255
0.102037 0.983654 4.41033 0 0 0 255 255 0 255
1.15058 1.17014 4.41033 0 0 0 255 255 0 255
0.156014 0.994262 4.41046 0 0 0 255 255 0 255
1.24788 1.18845 4.41046 0 0 0 255 255 0 255
1.01402 1.14988 4.41084 0 0 0 255 255 0 255
1.88581 1.30796 4.41121 0 0 0 255 255 0 255
2.42517 1.40489 4.41134 0 0 0 255 255 0 255
1.20219 1.18839 4.41146 0 0 0 255 255 0 255
2.4122 1.40359 4.41146 0 0 0 255 255 0 255
1.13831 1.18206 4.41209 0 0 0 255 255 0 255
1.91378 1.322 4.41234 0 0 0 255 255 0 255
1.13217 1.18803 4.41297 0 0 0 255 255 0 255
2.406 1.41559 4.41309 0 0 0 255 255 0 255
1.00719 1.17688 4.41434 0 0 0 255 255 0 255
1.05526 1.18644 4.41447 0 0 0 255 255 0 255
1.47908 1.26484 4.41485 0 0 0 255 255 0 255
0.840914 1.15235 4.41497 0 0 0 255 255 0 255
1.17074 1.21101 4.41497 0 0 0 255 255 0 255
1.26097 1.22907 4.41522 0 0 0 255 255 0 255
1.47132 1.2685 4.41547 0 0 0 255 255 0 255
0.728096 1.14135 4.4161 0 0 0 255 255 0 255
1.45273 1.27023 4.4161 0 0 0 255 255 0 255
1.169 1.22078 4.41622 0 0 0 255 255 0 255
0.192964 1.0492 4.41647 0 0 0 255 255 0 255
0.960856 1.19182 4.41723 0 0 0 255 255 0 255
1.22141 1.24018 4.41748 0 0 0 255 255 0 255
0.944871 1.19603 4.4181 0 0 0 255 255 0 255
1.2363 1.24786 4.4181 0 0 0 255 255 0 255
1.09435 1.22362 4.41823 0 0 0 255 255 0 255
0.903115 1.19667 4.41911 0 0 0 255 255 0 255
0.95825 1.20647 4.41911 0 0 0 255 255 0 255
1.20439 1.25025 4.41911 0 0 0 255 255 0 255
1.14022 1.23984 4.41923 0 0 0 255 255 0 255
0.74883 1.17326 4.41961 0 0 0 255 255 0 255
1.20862 1.25503 4.41961 0 0 0 255 255 0 255
2.67623 1.51806 4.41986 0 0 0 255 255 0 255
0.124104 1.06517 4.41998 0 0 0 255 255 0 255
0.755201 1.17741 4.41998 0 0 0 255 255 0 255
0.917652 1.2063 4.41998 0 0 0 255 255 0 255
0.728271 1.17464 4.42023 0 0 0 255 255 0 255
1.14178 1.24818 4.42023 0 0 0 255 255 0 255
2.67571 1.52099 4.42023 0 0 0 255 255 0 255
0.712344 1.17281 4.42036 0 0 0 255 255 0 255
0.738058 1.18243 4.42099 0 0 0 255 255 0 255
2.34681 1.46855 4.42099 0 0 0 255 255 0 255
2.46264 1.49116 4.42124 0 0 0 255 255 0 255
1.16906 1.26613 4.42186 0 0 0 255 255 0 255
0.740607 1.19094 4.42199 0 0 0 255 255 0 255
0.932594 1.22509 4.42199 0 0 0 255 255 0 255
0.00989687 1.06199 4.42211 0 0 0 255 255 0 255
0.902536 1.22276 4.42236 0 0 0 255 255 0 255
0.75468 1.19747 4.42249 0 0 0 255 255 0 255
-0.0500448 1.05637 4.42274 0 0 0 255 255 0 255
0.976841 1.239 4.42274 0 0 0 255 255 0 255
1.23856 1.28656 4.42286 0 0 0 255 255 0 255
1.15481 1.27771 4.42362 0 0 0 255 255 0 255
1.22669 1.29049 4.42362 0 0 0 255 255 0 255
1.16923 1.28229 4.42387 0 0 0 255 255 0 255
1.15921 1.28151 4.42399 0 0 0 255 255 0 255
1.26456 1.30025 4.42399 0 0 0 255 255 0 255
-0.0519557 1.06711 4.42412 0 0 0 255 255 0 255
2.65718 1.55095 4.42437 0 0 0 255 255 0 255
1.02543 1.26276 4.42462 0 0 0 255 255 0 255
-0.11126 1.06362 4.425 0 0 0 255 255 0 255
1.01553 1.26704 4.42537 0 0 0 255 255 0 255
1.00238 1.26672 4.42562 0 0 0 255 255 0 255
1.01385 1.27078 4.42587 0 0 0 255 255 0 255
1.15348 1.29662 4.426 0 0 0 255 255 0 255
1.32445 1.32904 4.42625 0 0 0 255 255 0 255
1.03186 1.27801 4.42637 0 0 0 255 255 0 255
1.19234 1.30655 4.42637 0 0 0 255 255 0 255
1.32427 1.33002 4.42637 0 0 0 255 255 0 255
2.30095 1.50372 4.42637 0 0 0 255 255 0 255
-0.0966076 1.07832 4.4265 0 0 0 255 255 0 255
1.01003 1.27513 4.4265 0 0 0 255 255 0 255
-0.0455847 1.0884 4.42662 0 0 0 255 255 0 255
1.04234 1.28189 4.42662 0 0 0 255 255 0 255
1.42927 1.3507 4.42662 0 0 0 255 255 0 255
2.6606 1.57171 4.42687 0 0 0 255 255 0 255
2.65058 1.57094 4.427 0 0 0 255 255 0 255
1.1913 1.31241 4.42713 0 0 0 255 255 0 255
-0.152785 1.07437 4.42725 0 0 0 255 255 0 255
0.998154 1.27907 4.42725 0 0 0 255 255 0 255
1.02769 1.28432 4.42725 0 0 0 255 255 0 255
1.33371 1.33976 4.42738 0 0 0 255 255 0 255
1.02931 1.28663 4.4275 0 0 0 255 255 0 255
1.09788 1.30084 4.42775 0 0 0 255 255 0 255
1.03273 1.29026 4.42788 0 0 0 255 255 0 255
1.01495 1.29314 4.42863 0 0 0 255 255 0 255
1.09667 1.30767 4.42863 0 0 0 255 255 0 255
2.43264 1.55133 4.42938 0 0 0 255 255 0 255
1.19767 1.3337 4.42963 0 0 0 255 255 0 255
1.30875 1.35446 4.42976 0 0 0 255 255 0 255
1.13825 1.32515 4.42988 0 0 0 255 255 0 255
1.04732 1.31099 4.43013 0 0 0 255 255 0 255
2.07421 1.49362 4.43013 0 0 0 255 255 0 255
1.13443 1.3295 4.43051 0 0 0 255 255 0 255
1.32931 1.37021 4.43126 0 0 0 255 255 0 255
2.45662 1.57071 4.43126 0 0 0 255 255 0 255
1.21933 1.35468 4.43176 0 0 0 255 255 0 255
2.05799 1.50485 4.43189 0 0 0 255 255 0 255
2.10653 1.51751 4.43239 0 0 0 255 255 0 255
2.05956 1.51319 4.43289 0 0 0 255 255 0 255
2.0763 1.51616 4.43289 0 0 0 255 255 0 255
1.11126 1.34554 4.43301 0 0 0 255 255 0 255
1.19871 1.3621 4.43314 0 0 0 255 255 0 255
1.19935 1.36423 4.43339 0 0 0 255 255 0 255
2.34044 1.56717 4.43339 0 0 0 255 255 0 255
2.369 1.57225 4.43339 0 0 0 255 255 0 255
2.67814 1.62723 4.43339 0 0 0 255 255 0 255
1.08595 1.34507 4.43352 0 0 0 255 255 0 255
1.31008 1.38695 4.43377 0 0 0 255 255 0 255
2.37027 1.57651 4.43389 0 0 0 255 255 0 255
2.41654 1.58474 4.43389 0 0 0 255 255 0 255
1.06343 1.3461 4.43414 0 0 0 255 255 0 255
1.28396 1.38532 4.43414 0 0 0 255 255 0 255
0.516826 1.24989 4.43427 0 0 0 255 255 0 255
2.06355 1.52498 4.43427 0 0 0 255 255 0 255
2.08799 1.53034 4.43439 0 0 0 255 255 0 255
2.45523 1.59565 4.43439 0 0 0 255 255 0 255
2.38614 1.58437 4.43452 0 0 0 255 255 0 255
1.10999 1.35841 4.43464 0 0 0 255 255 0 255
1.28327 1.38923 4.43464 0 0 0 255 255 0 255
2.40595 1.59293 4.43514 0 0 0 255 255 0 255
1.11879 1.36602 4.4354 0 0 0 255 255 0 255
0.499336 1.25686 4.43552 0 0 0 255 255 0 255
1.10761 1.36605 4.43565 0 0 0 255 255 0 255
1.34061 1.4095 4.4359 0 0 0 255 255 0 255
2.08099 1.54118 4.4359 0 0 0 255 255 0 255
2.08701 1.54729 4.43652 0 0 0 255 255 0 255
1.3179 1.41151 4.43665 0 0 0 255 255 0 255
2.43241 1.60973 4.43665 0 0 0 255 255 0 255
1.11474 1.37739 4.4369 0 0 0 255 255 0 255
1.17758 1.38958 4.43702 0 0 0 255 255 0 255
1.10402 1.38053 4.43753 0 0 0 255 255 0 255
1.11566 1.38361 4.43765 0 0 0 255 255 0 255
2.06245 1.55401 4.4379 0 0 0 255 255 0 255
2.52618 1.63648 4.4379 0 0 0 255 255 0 255
1.11317 1.38619 4.43803 0 0 0 255 255 0 255
2.5457 1.64096 4.43803 0 0 0 255 255 0 255
2.04537 1.55299 4.43815 0 0 0 255 255 0 255
0.183238 1.22382 4.4384 0 0 0 255 255 0 255
0.503217 1.28073 4.4384 0 0 0 255 255 0 255
1.22391 1.4089 4.4384 0 0 0 255 255 0 255
0.0796868 1.20641 4.43853 0 0 0 255 255 0 255
1.04831 1.37969 4.43865 0 0 0 255 255 0 255
1.20532 1.41064 4.43903 0 0 0 255 255 0 255
1.08207 1.38972 4.43915 0 0 0 255 255 0 255
1.13043 1.40336 4.43978 0 0 0 255 255 0 255
1.19443 1.41474 4.43978 0 0 0 255 255 0 255
1.15962 1.41057 4.44003 0 0 0 255 255 0 255
1.04426 1.39106 4.44016 0 0 0 255 255 0 255
2.40305 1.63776 4.44078 0 0 0 255 255 0 255
0.98611 1.38676 4.44091 0 0 0 255 255 0 255
2.43931 1.64522 4.44091 0 0 0 255 255 0 255
1.2191 1.43022 4.44116 0 0 0 255 255 0 255
1.09551 1.41126 4.44154 0 0 0 255 255 0 255
1.01681 1.40835 4.44291 0 0 0 255 255 0 255
2.44046 1.66155 4.44291 0 0 0 255 255 0 255
1.32873 1.46483 4.44304 0 0 0 255 255 0 255
1.21534 1.44567 4.44316 0 0 0 255 255 0 255
1.02804 1.41941 4.44404 0 0 0 255 255 0 255
1.21574 1.45481 4.44429 0 0 0 255 255 0 255
1.00273 1.41894 4.44454 0 0 0 255 255 0 255
1.0014 1.42072 4.44479 0 0 0 255 255 0 255
1.03962 1.42853 4.44492 0 0 0 255 255 0 255
1.21238 1.46228 4.44529 0 0 0 255 255 0 255
0.969026 1.42 4.44542 0 0 0 255 255 0 255
1.1997 1.46506 4.44592 0 0 0 255 255 0 255
0.505072 1.34454 4.4463 0 0 0 255 255 0 255
2.47991 1.69678 4.44642 0 0 0 255 255 0 255
1.43692 1.51329 4.44667 0 0 0 255 255 0 255
2.49201 1.70296 4.44692 0 0 0 255 255 0 255
0.959528 1.43343 4.4473 0 0 0 255 255 0 255
1.00215 1.44504 4.4478 0 0 0 255 255 0 255
1.20005 1.48024 4.4478 0 0 0 255 255 0 255
2.50539 1.7134 4.44793 0 0 0 255 255 0 255
0.957502 1.43911 4.44805 0 0 0 255 255 0 255
0.979972 1.44412 4.44818 0 0 0 255 255 0 255
1.2074 1.48457 4.44818 0 0 0 255 255 0 255
2.52259 1.71948 4.4483 0 0 0 255 255 0 255
1.04559 1.4578 4.44843 0 0 0 255 255 0 255
2.5106 1.71836 4.44843 0 0 0 255 255 0 255
2.53128 1.72204 4.44843 0 0 0 255 255 0 255
-0.204962 1.2364 4.44855 0 0 0 255 255 0 255
1.05474 1.46346 4.44893 0 0 0 255 255 0 255
1.32433 1.51242 4.44905 0 0 0 255 255 0 255
1.32219 1.51304 4.44918 0 0 0 255 255 0 255
0.957386 1.45119 4.44955 0 0 0 255 255 0 255
0.982 1.45556 4.44955 0 0 0 255 255 0 255
0.960166 1.45269 4.44968 0 0 0 255 255 0 255
1.15806 1.48788 4.44968 0 0 0 255 255 0 255
1.18957 1.49349 4.44968 0 0 0 255 255 0 255
0.974065 1.4602 4.45031 0 0 0 255 255 0 255
1.87377 1.62122 4.45043 0 0 0 255 255 0 255
0.971749 1.4618 4.45056 0 0 0 255 255 0 255
0.967463 1.46306 4.45081 0 0 0 255 255 0 255
0.980089 1.46631 4.45093 0 0 0 255 255 0 255
1.15123 1.49775 4.45106 0 0 0 255 255 0 255
1.17486 1.50196 4.45106 0 0 0 255 255 0 255
0.303355 1.34797 4.45118 0 0 0 255 255 0 255
0.986459 1.47046 4.45131 0 0 0 255 255 0 255
1.20306 1.50899 4.45131 0 0 0 255 255 0 255
1.04026 1.48205 4.45156 0 0 0 255 255 0 255
0.952464 1.46744 4.45168 0 0 0 255 255 0 255
0.980842 1.4735 4.45181 0 0 0 255 255 0 255
0.956054 1.4701 4.45194 0 0 0 255 255 0 255
0.987212 1.47765 4.45219 0 0 0 255 255 0 255
0.303587 1.35808 4.45244 0 0 0 255 255 0 255
1.32416 1.54766 4.45344 0 0 0 255 255 0 255
0.973313 1.48727 4.45369 0 0 0 255 255 0 255
1.31478 1.54901 4.45382 0 0 0 255 255 0 255
0.945225 1.4853 4.45407 0 0 0 255 255 0 255
1.32393 1.55467 4.45432 0 0 0 255 255 0 255
2.06234 1.686 4.45432 0 0 0 255 255 0 255
0.987039 1.49576 4.45444 0 0 0 255 255 0 255
2.18674 1.72324 4.4562 0 0 0 255 255 0 255
2.48373 1.77807 4.45645 0 0 0 255 255 0 255
1.17115 1.54563 4.45657 0 0 0 255 255 0 255
2.35556 1.75628 4.45657 0 0 0 255 255 0 255
2.22427 1.73495 4.45682 0 0 0 255 255 0 255
2.22821 1.73565 4.45682 0 0 0 255 255 0 255
2.35782 1.76072 4.45707 0 0 0 255 255 0 255
2.5252 1.79048 4.45707 0 0 0 255 255 0 255
0.996016 1.51953 4.4572 0 0 0 255 255 0 255
2.37242 1.76432 4.4572 0 0 0 255 255 0 255
2.43346 1.77518 4.4572 0 0 0 255 255 0 255
2.19699 1.73413 4.45732 0 0 0 255 255 0 255
2.22456 1.73903 4.45732 0 0 0 255 255 0 255
2.33483 1.75864 4.45732 0 0 0 255 255 0 255
2.37566 1.76893 4.4577 0 0 0 255 255 0 255
2.24946 1.74749 4.45783 0 0 0 255 255 0 255
2.35383 1.76605 4.45783 0 0 0 255 255 0 255
2.0514 1.71327 4.45795 0 0 0 255 255 0 255
2.21466 1.74332 4.45808 0 0 0 255 255 0 255
2.24715 1.74909 4.45808 0 0 0 255 255 0 255
1.16756 1.56011 4.45845 0 0 0 255 255 0 255
2.20394 1.74645 4.4587 0 0 0 255 255 0 255
2.19219 1.75544 4.46008 0 0 0 255 255 0 255
1.7913 1.68515 4.46021 0 0 0 255 255 0 255
2.49207 1.81684 4.46108 0 0 0 255 255 0 255
2.42576 1.80706 4.46133 0 0 0 255 255 0 255
0.797717 1.52658 4.46246 0 0 0 255 255 0 255
2.53064 1.83982 4.46309 0 0 0 255 255 0 255
1.87736 1.72666 4.46346 0 0 0 255 255 0 255
0.773162 1.5333 4.46384 0 0 0 255 255 0 255
2.38829 1.82357 4.46422 0 0 0 255 255 0 255
0.75793 1.5447 4.46559 0 0 0 255 255 0 255
0.696193 1.53775 4.46609 0 0 0 255 255 0 255
0.719475 1.5439 4.46635 0 0 0 255 255 0 255
0.664977 1.53623 4.4666 0 0 0 255 255 0 255
0.656753 1.53678 4.46685 0 0 0 255 255 0 255
0.761927 1.55649 4.46697 0 0 0 255 255 0 255
0.736155 1.55292 4.4671 0 0 0 255 255 0 255
0.679861 1.54391 4.46722 0 0 0 255 255 0 255
0.770093 1.56197 4.46747 0 0 0 255 255 0 255
0.413338 1.50054 4.46772 0 0 0 255 255 0 255
0.775305 1.56693 4.46797 0 0 0 255 255 0 255
0.147626 1.45832 4.46835 0 0 0 255 255 0 255
1.13785 1.64149 4.46923 0 0 0 255 255 0 255
0.47994 1.53153 4.4701 0 0 0 255 255 0 255
0.698511 1.57041 4.4701 0 0 0 255 255 0 255
0.167664 1.477 4.47023 0 0 0 255 255 0 255
0.694688 1.57476 4.47073 0 0 0 255 255 0 255
0.754746 1.58545 4.47073 0 0 0 255 255 0 255
0.765402 1.58835 4.47086 0 0 0 255 255 0 255
0.659882 1.57059 4.47098 0 0 0 255 255 0 255
0.0568157 1.46636 4.47136 0 0 0 255 255 0 255
0.0513718 1.46841 4.47173 0 0 0 255 255 0 255
0.634052 1.57305 4.47186 0 0 0 255 255 0 255
0.777854 1.60971 4.47324 0 0 0 255 255 0 255
0.791117 1.61509 4.47361 0 0 0 255 255 0 255
0.382355 1.5434 4.47374 0 0 0 255 255 0 255
0.384961 1.54588 4.47399 0 0 0 255 255 0 255
0.785094 1.62611 4.47512 0 0 0 255 255 0 255
0.462683 1.58288 4.47687 0 0 0 255 255 0 255
0.398745 1.58259 4.47825 0 0 0 255 255 0 255
1.27957 1.74126 4.4785 0 0 0 255 255 0 255
0.484343 1.60386 4.479 0 0 0 255 255 0 255
0.429035 1.59503 4.47913 0 0 0 255 255 0 255
0.418031 1.59408 4.47925 0 0 0 255 255 0 255
1.30297 1.75248 4.47938 0 0 0 255 255 0 255
0.474614 1.60717 4.47963 0 0 0 255 255 0 255
1.23631 1.74465 4.47988 0 0 0 255 255 0 255
1.2066 1.74038 4.48 0 0 0 255 255 0 255
0.438765 1.60885 4.48063 0 0 0 255 255 0 255
0.699671 1.65526 4.48063 0 0 0 255 255 0 255
0.442471 1.61657 4.48151 0 0 0 255 255 0 255
1.20596 1.75538 4.48188 0 0 0 255 255 0 255
0.375638 1.60972 4.48213 0 0 0 255 255 0 255
1.28814 1.77302 4.48226 0 0 0 255 255 0 255
0.689362 1.66753 4.48238 0 0 0 255 255 0 255
0.695733 1.67169 4.48276 0 0 0 255 255 0 255
0.427761 1.62504 4.48289 0 0 0 255 255 0 255
0.690636 1.67179 4.48289 0 0 0 255 255 0 255
0.403437 1.62474 4.48339 0 0 0 255 255 0 255
0.48417 1.6391 4.48339 0 0 0 255 255 0 255
1.35005 1.79612 4.48376 0 0 0 255 255 0 255
0.600463 1.66482 4.48401 0 0 0 255 255 0 255
1.34577 1.79737 4.48401 0 0 0 255 255 0 255
0.428051 1.64625 4.48552 0 0 0 255 255 0 255
0.496796 1.65948 4.48564 0 0 0 255 255 0 255
1.22027 1.78916 4.48577 0 0 0 255 255 0 255
0.755038 1.70944 4.48614 0 0 0 255 255 0 255
1.22745 1.79447 4.48627 0 0 0 255 255 0 255
1.2304 1.79499 4.48627 0 0 0 255 255 0 255
0.670946 1.70255 4.48715 0 0 0 255 255 0 255
1.20139 1.80394 4.48802 0 0 0 255 255 0 255
0.42006 1.67405 4.48915 0 0 0 255 255 0 255
0.373438 1.66777 4.4894 0 0 0 255 255 0 255
0.400021 1.6725 4.4894 0 0 0 255 255 0 255
0.369153 1.66903 4.48965 0 0 0 255 255 0 255
0.497608 1.6949 4.49003 0 0 0 255 255 0 255
0.681371 1.72959 4.49028 0 0 0 255 255 0 255
0.707954 1.73432 4.49028 0 0 0 255 255 0 255
0.363304 1.67907 4.49103 0 0 0 255 255 0 255
0.417454 1.6887 4.49103 0 0 0 255 255 0 255
0.667182 1.73513 4.49128 0 0 0 255 255 0 255
0.726892 1.74777 4.49153 0 0 0 255 255 0 255
0.697645 1.7466 4.49203 0 0 0 255 255 0 255
0.394925 1.70686 4.49379 0 0 0 255 255 0 255
0.893571 1.79857 4.49416 0 0 0 255 255 0 255
0.468361 1.72799 4.49479 0 0 0 255 255 0 255
0.196859 1.74117 4.50243 0 0 0 255 255 0 255
