ply
format ascii 1.0
comment VCGLIB generated
element vertex 1000
property float x
property float y
property float z
property float nx
property float ny
property float nz
property uchar red
property uchar green
property uchar blue
property uchar alpha
element face 0
property list uchar int vertex_indices
end_header
-0.781524 1.29581 5.5811 0 0 0 128 128 128 255
-0.0440731 0.416 5.5811 0 0 0 128 128 128 255
-0.372732 0.8112 5.58131 0 0 0 128 128 128 255
-0.0457606 0.421109 5.58131 0 0 0 128 128 128 255
0.334528 -0.0325918 5.58131 0 0 0 128 128 128 255
-0.0691692 0.453681 5.58163 0 0 0 128 128 128 255
0.553296 -0.288948 5.58163 0 0 0 128 128 128 255
-0.117108 0.513971 5.58183 0 0 0 128 128 128 255
-0.125982 0.526105 5.58194 0 0 0 128 128 128 255
0.153453 0.192727 5.58194 0 0 0 128 128 128 255
0.559437 -0.29163 5.58194 0 0 0 128 128 128 255
-0.432919 0.893844 5.58204 0 0 0 128 128 128 255
0.0458931 0.325696 5.58225 0 0 0 128 128 128 255
0.523823 -0.244496 5.58225 0 0 0 128 128 128 255
-0.41883 0.884776 5.58257 0 0 0 128 128 128 255
0.167902 0.187875 5.58278 0 0 0 128 128 128 255
-0.0904978 0.50235 5.58319 0 0 0 128 128 128 255
7.76798e-05 0.394289 5.58319 0 0 0 128 128 128 255
0.0996464 0.275499 5.58319 0 0 0 128 128 128 255
0.386148 -0.0663092 5.58319 0 0 0 128 128 128 255
0.0870385 0.293638 5.5834 0 0 0 128 128 128 255
0.365831 -0.0389744 5.5834 0 0 0 128 128 128 255
0.421076 -0.104884 5.5834 0 0 0 128 128 128 255
0.223179 0.138956 5.58393 0 0 0 128 128 128 255
0.511608 -0.205152 5.58393 0 0 0 128 128 128 255
0.548985 -0.248197 5.58403 0 0 0 128 128 128 255
-0.0989354 0.527898 5.58424 0 0 0 128 128 128 255
-0.387244 0.873411 5.58434 0 0 0 128 128 128 255
-0.0358624 0.454197 5.58434 0 0 0 128 128 128 255
-0.124914 0.563536 5.58455 0 0 0 128 128 128 255
-0.116563 0.553573 5.58455 0 0 0 128 128 128 255
0.198965 0.178682 5.58466 0 0 0 128 128 128 255
0.133682 0.259664 5.58487 0 0 0 128 128 128 255
0.213457 0.166037 5.58497 0 0 0 128 128 128 255
0.344862 0.0139099 5.58529 0 0 0 128 128 128 255
0.591655 -0.278977 5.58539 0 0 0 128 128 128 255
-0.0924021 0.546422 5.58602 0 0 0 128 128 128 255
0.235331 0.15697 5.58612 0 0 0 128 128 128 255
-0.34735 0.859876 5.58665 0 0 0 128 128 128 255
0.365691 0.00918639 5.58665 0 0 0 128 128 128 255
-0.798823 1.40005 5.58675 0 0 0 128 128 128 255
-0.0996748 0.569033 5.58696 0 0 0 128 128 128 255
-0.0707677 0.534545 5.58696 0 0 0 128 128 128 255
-0.0635818 0.52752 5.58706 0 0 0 128 128 128 255
0.57221 -0.224815 5.58748 0 0 0 128 128 128 255
0.196538 0.224926 5.58759 0 0 0 128 128 128 255
0.140129 0.293774 5.58769 0 0 0 128 128 128 255
0.226208 0.191078 5.58769 0 0 0 128 128 128 255
0.611232 -0.265178 5.5879 0 0 0 128 128 128 255
-0.0695697 0.548598 5.58801 0 0 0 128 128 128 255
0.0878132 0.360833 5.58801 0 0 0 128 128 128 255
0.189429 0.241149 5.58811 0 0 0 128 128 128 255
0.23347 0.19325 5.58842 0 0 0 128 128 128 255
0.180915 0.257499 5.58853 0 0 0 128 128 128 255
-0.0301883 0.512451 5.58874 0 0 0 128 128 128 255
0.0661685 0.397493 5.58874 0 0 0 128 128 128 255
0.0944332 0.363772 5.58874 0 0 0 128 128 128 255
-0.0653993 0.556008 5.58884 0 0 0 128 128 128 255
0.169069 0.276277 5.58884 0 0 0 128 128 128 255
0.594324 -0.231072 5.58884 0 0 0 128 128 128 255
-0.334436 0.878529 5.58895 0 0 0 128 128 128 255
0.527996 -0.145746 5.58926 0 0 0 128 128 128 255
0.120847 0.341548 5.58937 0 0 0 128 128 128 255
0.210258 0.236426 5.58947 0 0 0 128 128 128 255
-0.351704 0.908419 5.58957 0 0 0 128 128 128 255
-0.0305146 0.525226 5.58957 0 0 0 128 128 128 255
0.115948 0.35049 5.58957 0 0 0 128 128 128 255
0.623547 -0.253551 5.58968 0 0 0 128 128 128 255
0.286494 0.159406 5.59041 0 0 0 128 128 128 255
-0.037145 0.54707 5.59052 0 0 0 128 128 128 255
-0.164859 0.700986 5.59062 0 0 0 128 128 128 255
0.595076 -0.20565 5.59062 0 0 0 128 128 128 255
-0.331638 0.903057 5.59083 0 0 0 128 128 128 255
-0.0424471 0.559588 5.59093 0 0 0 128 128 128 255
0.0437515 0.458298 5.59104 0 0 0 128 128 128 255
0.172227 0.30502 5.59104 0 0 0 128 128 128 255
-0.171729 0.720019 5.59135 0 0 0 128 128 128 255
0.623014 -0.226596 5.59146 0 0 0 128 128 128 255
-0.170847 0.722064 5.59156 0 0 0 128 128 128 255
0.586758 -0.178696 5.59177 0 0 0 128 128 128 255
0.639793 -0.237324 5.59208 0 0 0 128 128 128 255
-0.360914 0.958112 5.59219 0 0 0 128 128 128 255
0.210161 0.276794 5.59219 0 0 0 128 128 128 255
-0.0280421 0.562529 5.59229 0 0 0 128 128 128 255
0.0117854 0.515013 5.59229 0 0 0 128 128 128 255
0.0934874 0.419087 5.5924 0 0 0 128 128 128 255
0.309969 0.160814 5.5924 0 0 0 128 128 128 255
0.014072 0.516929 5.59261 0 0 0 128 128 128 255
0.31366 0.162603 5.59282 0 0 0 128 128 128 255
0.0704381 0.455875 5.59303 0 0 0 128 128 128 255
0.625454 -0.206284 5.59303 0 0 0 128 128 128 255
-0.325431 0.934356 5.59344 0 0 0 128 128 128 255
0.0985397 0.428541 5.59344 0 0 0 128 128 128 255
0.597908 -0.164131 5.59365 0 0 0 128 128 128 255
-0.264568 0.867937 5.59386 0 0 0 128 128 128 255
-0.14637 0.726922 5.59386 0 0 0 128 128 128 255
0.206416 0.307581 5.59397 0 0 0 128 128 128 255
0.0159888 0.539413 5.59428 0 0 0 128 128 128 255
0.00735493 0.554358 5.59459 0 0 0 128 128 128 255
0.0935536 0.453068 5.5947 0 0 0 128 128 128 255
0.656397 -0.216882 5.5948 0 0 0 128 128 128 255
0.22805 0.295703 5.59491 0 0 0 128 128 128 255
0.0181122 0.547717 5.59501 0 0 0 128 128 128 255
0.645717 -0.201043 5.59501 0 0 0 128 128 128 255
-0.148144 0.747617 5.59512 0 0 0 128 128 128 255
-0.318897 0.952881 5.59522 0 0 0 128 128 128 255
-0.232176 0.849418 5.59522 0 0 0 128 128 128 255
0.642984 -0.19159 5.59543 0 0 0 128 128 128 255
-0.125704 0.728586 5.59564 0 0 0 128 128 128 255
-0.301237 0.944197 5.59606 0 0 0 128 128 128 255
-0.284535 0.924271 5.59606 0 0 0 128 128 128 255
-0.150158 0.765501 5.59616 0 0 0 128 128 128 255
0.063874 0.511699 5.59627 0 0 0 128 128 128 255
0.677466 -0.218795 5.59637 0 0 0 128 128 128 255
-0.228691 0.865387 5.59658 0 0 0 128 128 128 255
0.0417502 0.542739 5.59658 0 0 0 128 128 128 255
-0.219578 0.856063 5.59669 0 0 0 128 128 128 255
0.0303071 0.557939 5.59669 0 0 0 128 128 128 255
0.14979 0.415391 5.59669 0 0 0 128 128 128 255
0.641526 -0.158887 5.59752 0 0 0 128 128 128 255
-0.694786 1.44159 5.59794 0 0 0 128 128 128 255
-0.281616 0.950204 5.59805 0 0 0 128 128 128 255
0.063461 0.540059 5.59815 0 0 0 128 128 128 255
0.150944 0.437236 5.59826 0 0 0 128 128 128 255
0.141429 0.450137 5.59836 0 0 0 128 128 128 255
0.184544 0.407987 5.59899 0 0 0 128 128 128 255
-0.719686 1.48987 5.5992 0 0 0 128 128 128 255
0.0628518 0.557816 5.5993 0 0 0 128 128 128 255
0.0594333 0.575828 5.60024 0 0 0 128 128 128 255
0.172492 0.440944 5.60024 0 0 0 128 128 128 255
0.656323 -0.13474 5.60035 0 0 0 128 128 128 255
-0.207557 0.897455 5.60045 0 0 0 128 128 128 255
0.116322 0.512602 5.60056 0 0 0 128 128 128 255
-0.312188 1.03157 5.60108 0 0 0 128 128 128 255
0.20312 0.418337 5.60118 0 0 0 128 128 128 255
0.114188 0.529081 5.6015 0 0 0 128 128 128 255
-0.20098 0.908187 5.60171 0 0 0 128 128 128 255
0.652742 -0.110341 5.60171 0 0 0 128 128 128 255
0.15578 0.485653 5.60192 0 0 0 128 128 128 255
0.115267 0.541728 5.60244 0 0 0 128 128 128 255
0.144816 0.506474 5.60244 0 0 0 128 128 128 255
0.590344 -0.0204163 5.60275 0 0 0 128 128 128 255
-0.200827 0.926583 5.60296 0 0 0 128 128 128 255
0.667506 -0.103185 5.60338 0 0 0 128 128 128 255
-0.224399 0.965542 5.60369 0 0 0 128 128 128 255
0.584999 -0.000105381 5.60369 0 0 0 128 128 128 255
0.576125 0.0120294 5.6038 0 0 0 128 128 128 255
-0.282616 1.03809 5.6039 0 0 0 128 128 128 255
0.17552 0.493065 5.60401 0 0 0 128 128 128 255
-0.189231 0.929778 5.60411 0 0 0 128 128 128 255
0.212898 0.45002 5.60411 0 0 0 128 128 128 255
-0.260296 1.01766 5.60432 0 0 0 128 128 128 255
-0.267003 1.0303 5.60464 0 0 0 128 128 128 255
-0.223201 0.979595 5.60474 0 0 0 128 128 128 255
-0.255603 1.0229 5.60505 0 0 0 128 128 128 255
-0.224007 0.986748 5.60516 0 0 0 128 128 128 255
0.661954 -0.068694 5.60526 0 0 0 128 128 128 255
-0.295071 1.07463 5.60537 0 0 0 128 128 128 255
0.675521 -0.0755903 5.60589 0 0 0 128 128 128 255
0.284432 0.392545 5.606 0 0 0 128 128 128 255
0.481119 0.159436 5.6061 0 0 0 128 128 128 255
0.672548 -0.0689478 5.6061 0 0 0 128 128 128 255
-0.289496 1.08191 5.60631 0 0 0 128 128 128 255
0.150653 0.558341 5.60641 0 0 0 128 128 128 255
0.511148 0.129803 5.60652 0 0 0 128 128 128 255
0.335898 0.340432 5.60662 0 0 0 128 128 128 255
0.482361 0.165695 5.60662 0 0 0 128 128 128 255
0.348223 0.327276 5.60673 0 0 0 128 128 128 255
0.492356 0.158415 5.60694 0 0 0 128 128 128 255
0.178831 0.540205 5.60746 0 0 0 128 128 128 255
0.671014 -0.0454423 5.60756 0 0 0 128 128 128 255
0.651862 -0.0210457 5.60767 0 0 0 128 128 128 255
0.653147 -0.0225784 5.60767 0 0 0 128 128 128 255
0.215806 0.500736 5.60777 0 0 0 128 128 128 255
-0.364785 1.19496 5.60788 0 0 0 128 128 128 255
0.325131 0.371856 5.60788 0 0 0 128 128 128 255
-0.330379 1.15855 5.60819 0 0 0 128 128 128 255
0.333318 0.36828 5.6083 0 0 0 128 128 128 255
0.700117 -0.0693266 5.6083 0 0 0 128 128 128 255
0.205605 0.522197 5.6084 0 0 0 128 128 128 255
0.638808 0.00846219 5.60861 0 0 0 128 128 128 255
-0.350979 1.19087 5.60871 0 0 0 128 128 128 255
0.516233 0.156247 5.60871 0 0 0 128 128 128 255
-0.26675 1.09967 5.60934 0 0 0 128 128 128 255
-0.362225 1.21667 5.60955 0 0 0 128 128 128 255
-0.299272 1.14157 5.60955 0 0 0 128 128 128 255
-0.312642 1.15907 5.60966 0 0 0 128 128 128 255
0.220892 0.527181 5.60997 0 0 0 128 128 128 255
-0.184493 1.01856 5.61049 0 0 0 128 128 128 255
0.644013 0.0363119 5.61091 0 0 0 128 128 128 255
-0.183894 1.02559 5.61102 0 0 0 128 128 128 255
-0.183251 1.02482 5.61102 0 0 0 128 128 128 255
0.623697 0.0636468 5.61112 0 0 0 128 128 128 255
0.0880723 0.704219 5.61122 0 0 0 128 128 128 255
0.353375 0.387701 5.61122 0 0 0 128 128 128 255
-0.175183 1.01984 5.61133 0 0 0 128 128 128 255
0.609162 0.0840842 5.61133 0 0 0 128 128 128 255
0.698692 -0.0196331 5.61154 0 0 0 128 128 128 255
0.249789 0.517477 5.61164 0 0 0 128 128 128 255
-0.279412 1.15038 5.61175 0 0 0 128 128 128 255
0.223571 0.550304 5.61175 0 0 0 128 128 128 255
0.270584 0.495763 5.61185 0 0 0 128 128 128 255
0.486424 0.238257 5.61185 0 0 0 128 128 128 255
0.485259 0.241195 5.61196 0 0 0 128 128 128 255
-0.216742 1.08026 5.61206 0 0 0 128 128 128 255
0.0809194 0.728234 5.61227 0 0 0 128 128 128 255
0.0855358 0.724275 5.61238 0 0 0 128 128 128 255
0.230833 0.552477 5.61248 0 0 0 128 128 128 255
0.564228 0.154722 5.61248 0 0 0 128 128 128 255
0.687162 0.0111523 5.61269 0 0 0 128 128 128 255
0.668893 0.0375932 5.613 0 0 0 128 128 128 255
-0.324748 1.2246 5.61311 0 0 0 128 128 128 255
0.563782 0.166091 5.61321 0 0 0 128 128 128 255
0.255799 0.538173 5.61353 0 0 0 128 128 128 255
0.657929 0.0584145 5.61353 0 0 0 128 128 128 255
0.274548 0.517353 5.61363 0 0 0 128 128 128 255
-0.192984 1.07669 5.61373 0 0 0 128 128 128 255
-0.19158 1.07656 5.61384 0 0 0 128 128 128 255
0.116763 0.708694 5.61384 0 0 0 128 128 128 255
0.595977 0.13697 5.61384 0 0 0 128 128 128 255
0.566221 0.186404 5.61478 0 0 0 128 128 128 255
0.738619 -0.0161777 5.61499 0 0 0 128 128 128 255
0.896644 -0.204709 5.61499 0 0 0 128 128 128 255
0.279437 0.533194 5.61509 0 0 0 128 128 128 255
0.588422 0.164562 5.61509 0 0 0 128 128 128 255
0.724323 0.00707006 5.61541 0 0 0 128 128 128 255
0.884918 -0.184527 5.61541 0 0 0 128 128 128 255
0.622947 0.129564 5.61551 0 0 0 128 128 128 255
0.631298 0.119601 5.61551 0 0 0 128 128 128 255
0.871145 -0.16345 5.61572 0 0 0 128 128 128 255
-0.167462 1.0772 5.61583 0 0 0 128 128 128 255
0.275137 0.549162 5.61583 0 0 0 128 128 128 255
0.283608 0.540604 5.61593 0 0 0 128 128 128 255
0.899649 -0.194361 5.61593 0 0 0 128 128 128 255
0.114259 0.745741 5.61614 0 0 0 128 128 128 255
-0.622952 1.62836 5.61635 0 0 0 128 128 128 255
-0.586979 1.58545 5.61635 0 0 0 128 128 128 255
0.312352 0.512504 5.61635 0 0 0 128 128 128 255
0.678508 0.0756636 5.61635 0 0 0 128 128 128 255
0.603469 0.166736 5.61645 0 0 0 128 128 128 255
-0.104313 1.0127 5.61656 0 0 0 128 128 128 255
0.878527 -0.159872 5.61656 0 0 0 128 128 128 255
-0.558355 1.55594 5.61666 0 0 0 128 128 128 255
-0.607056 1.61559 5.61677 0 0 0 128 128 128 255
-0.10857 1.02087 5.61677 0 0 0 128 128 128 255
-0.412296 1.38478 5.61687 0 0 0 128 128 128 255
0.684246 0.0765587 5.61687 0 0 0 128 128 128 255
0.611777 0.164566 5.61698 0 0 0 128 128 128 255
-0.562253 1.56833 5.61719 0 0 0 128 128 128 255
0.0769145 0.805776 5.61719 0 0 0 128 128 128 255
-0.0649315 0.976553 5.61729 0 0 0 128 128 128 255
-0.585019 1.60014 5.6175 0 0 0 128 128 128 255
-0.667124 1.69964 5.6176 0 0 0 128 128 128 255
-0.15824 1.09407 5.61771 0 0 0 128 128 128 255
0.0584817 0.838605 5.61792 0 0 0 128 128 128 255
0.918105 -0.185416 5.61802 0 0 0 128 128 128 255
-0.153264 1.09432 5.61813 0 0 0 128 128 128 255
-0.0870987 1.01539 5.61813 0 0 0 128 128 128 255
0.627989 0.163802 5.61823 0 0 0 128 128 128 255
0.904974 -0.165106 5.61834 0 0 0 128 128 128 255
0.890439 -0.144668 5.61855 0 0 0 128 128 128 255
0.328717 0.530136 5.61886 0 0 0 128 128 128 255
0.314182 0.550573 5.61907 0 0 0 128 128 128 255
0.782476 -0.00812292 5.61907 0 0 0 128 128 128 255
-0.0396494 0.974258 5.61917 0 0 0 128 128 128 255
0.999317 -0.26218 5.61938 0 0 0 128 128 128 255
0.870319 -0.10673 5.61949 0 0 0 128 128 128 255
-0.167004 1.13239 5.61959 0 0 0 128 128 128 255
-0.0512556 0.995845 5.6197 0 0 0 128 128 128 255
-0.166764 1.1352 5.6198 0 0 0 128 128 128 255
-0.153797 1.12128 5.61991 0 0 0 128 128 128 255
-0.0618166 1.01309 5.62001 0 0 0 128 128 128 255
0.89866 -0.131254 5.62011 0 0 0 128 128 128 255
0.00892161 0.937985 5.62064 0 0 0 128 128 128 255
-0.19652 1.18463 5.62074 0 0 0 128 128 128 255
0.00775659 0.940923 5.62074 0 0 0 128 128 128 255
0.618017 0.212855 5.62074 0 0 0 128 128 128 255
0.619302 0.211322 5.62074 0 0 0 128 128 128 255
-0.413524 1.44508 5.62085 0 0 0 128 128 128 255
0.628415 0.201998 5.62085 0 0 0 128 128 128 255
-0.213385 1.21095 5.62116 0 0 0 128 128 128 255
0.0801823 0.860708 5.62116 0 0 0 128 128 128 255
-0.074914 1.05039 5.62147 0 0 0 128 128 128 255
-0.413328 1.45568 5.62158 0 0 0 128 128 128 255
-0.191707 1.19128 5.62158 0 0 0 128 128 128 255
-0.0059399 0.971197 5.62168 0 0 0 128 128 128 255
0.0499471 0.904521 5.62168 0 0 0 128 128 128 255
-0.406022 1.45006 5.62179 0 0 0 128 128 128 255
-0.370572 1.40932 5.62189 0 0 0 128 128 128 255
0.952729 -0.169442 5.62189 0 0 0 128 128 128 255
0.906598 -0.112857 5.622 0 0 0 128 128 128 255
0.813573 -0.000325441 5.6221 0 0 0 128 128 128 255
0.621099 0.232401 5.62231 0 0 0 128 128 128 255
0.829872 -0.0166748 5.62231 0 0 0 128 128 128 255
1.02347 -0.244547 5.62252 0 0 0 128 128 128 255
-0.300356 1.33638 5.62262 0 0 0 128 128 128 255
-0.28225 1.31633 5.62273 0 0 0 128 128 128 255
0.762498 0.0729938 5.62294 0 0 0 128 128 128 255
0.0477701 0.928793 5.62315 0 0 0 128 128 128 255
0.939392 -0.134952 5.62315 0 0 0 128 128 128 255
1.01391 -0.223853 5.62315 0 0 0 128 128 128 255
1.04025 -0.255275 5.62315 0 0 0 128 128 128 255
1.04306 -0.25553 5.62336 0 0 0 128 128 128 255
-0.0340951 1.03111 5.62346 0 0 0 128 128 128 255
0.659675 0.203408 5.62346 0 0 0 128 128 128 255
0.797144 0.0394015 5.62346 0 0 0 128 128 128 255
0.635504 0.235341 5.62367 0 0 0 128 128 128 255
0.786463 0.0552405 5.62367 0 0 0 128 128 128 255
1.03659 -0.240073 5.62388 0 0 0 128 128 128 255
-0.401579 1.47727 5.62398 0 0 0 128 128 128 255
0.90245 -0.0784935 5.62398 0 0 0 128 128 128 255
-0.359705 1.42886 5.62409 0 0 0 128 128 128 255
-0.0268327 1.03328 5.62419 0 0 0 128 128 128 255
0.379151 0.548922 5.62419 0 0 0 128 128 128 255
0.00769272 0.998282 5.62461 0 0 0 128 128 128 255
0.843428 0.001212 5.62461 0 0 0 128 128 128 255
0.00074631 1.00812 5.62472 0 0 0 128 128 128 255
1.06838 -0.265618 5.62472 0 0 0 128 128 128 255
-0.356297 1.43563 5.62482 0 0 0 128 128 128 255
-0.0909941 1.11912 5.62482 0 0 0 128 128 128 255
-0.0627294 1.08539 5.62482 0 0 0 128 128 128 255
-0.162821 1.20636 5.62493 0 0 0 128 128 128 255
0.417248 0.514309 5.62493 0 0 0 128 128 128 255
-0.0978207 1.13036 5.62503 0 0 0 128 128 128 255
0.0351518 0.971714 5.62503 0 0 0 128 128 128 255
1.01671 -0.199325 5.62503 0 0 0 128 128 128 255
-0.0461908 1.07186 5.62524 0 0 0 128 128 128 255
-0.0858984 1.12078 5.62534 0 0 0 128 128 128 255
0.0805976 0.923688 5.62545 0 0 0 128 128 128 255
-0.0175666 1.04235 5.62555 0 0 0 128 128 128 255
0.396126 0.548797 5.62555 0 0 0 128 128 128 255
0.631356 0.269705 5.62566 0 0 0 128 128 128 255
0.922354 -0.0774684 5.62566 0 0 0 128 128 128 255
0.415876 0.531427 5.62597 0 0 0 128 128 128 255
-0.14994 1.20802 5.62608 0 0 0 128 128 128 255
0.766735 0.114385 5.62608 0 0 0 128 128 128 255
0.960091 -0.116298 5.62608 0 0 0 128 128 128 255
0.0795091 0.935824 5.62618 0 0 0 128 128 128 255
-0.0822506 1.13036 5.62629 0 0 0 128 128 128 255
1.06464 -0.234831 5.62649 0 0 0 128 128 128 255
-0.0684013 1.11848 5.6266 0 0 0 128 128 128 255
0.759625 0.130608 5.6266 0 0 0 128 128 128 255
0.96338 -0.110932 5.6267 0 0 0 128 128 128 255
0.98779 -0.140055 5.6267 0 0 0 128 128 128 255
0.62882 0.289761 5.62681 0 0 0 128 128 128 255
0.760225 0.137634 5.62712 0 0 0 128 128 128 255
0.797482 0.0931833 5.62712 0 0 0 128 128 128 255
0.0614358 0.972868 5.62723 0 0 0 128 128 128 255
1.03721 -0.191274 5.62723 0 0 0 128 128 128 255
0.98092 -0.121021 5.62744 0 0 0 128 128 128 255
0.796677 0.100337 5.62754 0 0 0 128 128 128 255
-0.13915 1.21837 5.62765 0 0 0 128 128 128 255
0.656758 0.268815 5.62765 0 0 0 128 128 128 255
0.812856 0.0825826 5.62765 0 0 0 128 128 128 255
0.877214 0.00734913 5.62775 0 0 0 128 128 128 255
0.424456 0.549057 5.62785 0 0 0 128 128 128 255
0.955062 -0.0839783 5.62785 0 0 0 128 128 128 255
1.09703 -0.25335 5.62785 0 0 0 128 128 128 255
-0.092539 1.1674 5.62796 0 0 0 128 128 128 255
0.043003 1.0057 5.62796 0 0 0 128 128 128 255
1.23205 -0.412886 5.62796 0 0 0 128 128 128 255
-0.0268965 1.09064 5.62806 0 0 0 128 128 128 255
0.663139 0.268943 5.62817 0 0 0 128 128 128 255
0.665708 0.265878 5.62817 0 0 0 128 128 128 255
1.02929 -0.167897 5.62817 0 0 0 128 128 128 255
1.05704 -0.199447 5.62827 0 0 0 128 128 128 255
0.757285 0.161267 5.62848 0 0 0 128 128 128 255
1.05471 -0.19357 5.62848 0 0 0 128 128 128 255
0.618651 0.328211 5.62859 0 0 0 128 128 128 255
-0.0942698 1.18031 5.62869 0 0 0 128 128 128 255
-0.0326014 1.10673 5.62869 0 0 0 128 128 128 255
0.842961 0.0621479 5.62869 0 0 0 128 128 128 255
1.01191 -0.139412 5.62869 0 0 0 128 128 128 255
0.466647 0.512656 5.6288 0 0 0 128 128 128 255
0.47821 0.498861 5.6288 0 0 0 128 128 128 255
1.06599 -0.202384 5.6288 0 0 0 128 128 128 255
0.846533 0.0625315 5.629 0 0 0 128 128 128 255
0.928757 -0.0355661 5.629 0 0 0 128 128 128 255
0.877487 0.0271502 5.62911 0 0 0 128 128 128 255
0.0779642 0.984112 5.62932 0 0 0 128 128 128 255
0.640688 0.312757 5.62932 0 0 0 128 128 128 255
1.11733 -0.255902 5.62932 0 0 0 128 128 128 255
0.753867 0.179279 5.62942 0 0 0 128 128 128 255
1.27431 -0.44009 5.62953 0 0 0 128 128 128 255
1.02648 -0.142859 5.62963 0 0 0 128 128 128 255
1.12745 -0.261777 5.62974 0 0 0 128 128 128 255
0.0651931 1.00864 5.62995 0 0 0 128 128 128 255
-0.0951621 1.20305 5.63016 0 0 0 128 128 128 255
-0.180479 1.30638 5.63026 0 0 0 128 128 128 255
0.721422 0.230373 5.63026 0 0 0 128 128 128 255
0.757395 0.187455 5.63026 0 0 0 128 128 128 255
0.890367 0.0288129 5.63026 0 0 0 128 128 128 255
-0.644037 1.86252 5.63047 0 0 0 128 128 128 255
0.455074 0.551234 5.63047 0 0 0 128 128 128 255
0.487193 0.512914 5.63047 0 0 0 128 128 128 255
1.0129 -0.11118 5.63068 0 0 0 128 128 128 255
1.30647 -0.461419 5.63068 0 0 0 128 128 128 255
0.844073 0.0917853 5.63078 0 0 0 128 128 128 255
0.503209 0.501547 5.63099 0 0 0 128 128 128 255
1.32288 -0.476362 5.63099 0 0 0 128 128 128 255
0.08514 1.00187 5.6311 0 0 0 128 128 128 255
0.719288 0.246852 5.6312 0 0 0 128 128 128 255
1.10869 -0.216173 5.63131 0 0 0 128 128 128 255
0.474259 0.543827 5.63152 0 0 0 128 128 128 255
0.160255 0.919996 5.63162 0 0 0 128 128 128 255
0.694714 0.282362 5.63162 0 0 0 128 128 128 255
0.891282 0.0478475 5.63162 0 0 0 128 128 128 255
-0.111232 1.24699 5.63183 0 0 0 128 128 128 255
-0.103523 1.23779 5.63183 0 0 0 128 128 128 255
-0.0746163 1.2033 5.63183 0 0 0 128 128 128 255
0.855788 0.096386 5.63204 0 0 0 128 128 128 255
0.908061 0.0371192 5.63225 0 0 0 128 128 128 255
1.10013 -0.192031 5.63225 0 0 0 128 128 128 255
0.599838 0.40639 5.63235 0 0 0 128 128 128 255
0.953147 -0.0151227 5.63235 0 0 0 128 128 128 255
1.15947 -0.259728 5.63246 0 0 0 128 128 128 255
0.526205 0.497335 5.63256 0 0 0 128 128 128 255
0.0275552 1.09844 5.63298 0 0 0 128 128 128 255
0.678928 0.321322 5.63298 0 0 0 128 128 128 255
1.04187 -0.111686 5.63298 0 0 0 128 128 128 255
0.0353835 1.09065 5.63308 0 0 0 128 128 128 255
0.491473 0.546513 5.63308 0 0 0 128 128 128 255
0.677763 0.32426 5.63308 0 0 0 128 128 128 255
0.743285 0.246089 5.63308 0 0 0 128 128 128 255
-0.0678 1.21685 5.63329 0 0 0 128 128 128 255
0.0613182 1.0628 5.63329 0 0 0 128 128 128 255
0.694182 0.309316 5.6334 0 0 0 128 128 128 255
1.12995 -0.207483 5.63361 0 0 0 128 128 128 255
0.0720755 1.05616 5.63371 0 0 0 128 128 128 255
0.633515 0.386339 5.63371 0 0 0 128 128 128 255
0.981924 -0.0262322 5.63392 0 0 0 128 128 128 255
0.730231 0.275597 5.63403 0 0 0 128 128 128 255
0.65467 0.368841 5.63423 0 0 0 128 128 128 255
0.119046 1.00941 5.63434 0 0 0 128 128 128 255
0.622029 0.409332 5.63434 0 0 0 128 128 128 255
1.14493 -0.214507 5.63434 0 0 0 128 128 128 255
0.134583 0.992425 5.63444 0 0 0 128 128 128 255
0.220019 0.890495 5.63444 0 0 0 128 128 128 255
1.02299 -0.0674884 5.63444 0 0 0 128 128 128 255
-0.193434 1.38686 5.63465 0 0 0 128 128 128 255
0.517038 0.539235 5.63465 0 0 0 128 128 128 255
0.0328037 1.1185 5.63476 0 0 0 128 128 128 255
0.554133 0.501172 5.63507 0 0 0 128 128 128 255
0.546664 0.513179 5.63528 0 0 0 128 128 128 255
0.136946 1.00354 5.63539 0 0 0 128 128 128 255
0.865001 0.138033 5.63559 0 0 0 128 128 128 255
0.953007 0.0330381 5.63559 0 0 0 128 128 128 255
1.04872 -0.0811535 5.63559 0 0 0 128 128 128 255
1.07185 -0.108743 5.63559 0 0 0 128 128 128 255
1.09112 -0.131735 5.63559 0 0 0 128 128 128 255
0.52209 0.548689 5.6357 0 0 0 128 128 128 255
0.640288 0.407674 5.6357 0 0 0 128 128 128 255
0.075114 1.0835 5.6358 0 0 0 128 128 128 255
0.108235 1.04863 5.63612 0 0 0 128 128 128 255
0.704602 0.340233 5.63633 0 0 0 128 128 128 255
1.1517 -0.193172 5.63633 0 0 0 128 128 128 255
1.0439 -0.063014 5.63643 0 0 0 128 128 128 255
1.24059 -0.296123 5.63654 0 0 0 128 128 128 255
0.0241595 1.15822 5.63674 0 0 0 128 128 128 255
0.0333925 1.15031 5.63695 0 0 0 128 128 128 255
0.123326 1.04301 5.63695 0 0 0 128 128 128 255
0.663566 0.39848 5.63695 0 0 0 128 128 128 255
0.545488 0.5409 5.63706 0 0 0 128 128 128 255
0.761448 0.284799 5.63716 0 0 0 128 128 128 255
1.03382 -0.0401489 5.63716 0 0 0 128 128 128 255
1.07621 -0.0907303 5.63716 0 0 0 128 128 128 255
0.565642 0.519953 5.63727 0 0 0 128 128 128 255
0.113004 1.06307 5.63748 0 0 0 128 128 128 255
0.188402 0.976209 5.63769 0 0 0 128 128 128 255
-0.396043 1.67503 5.63779 0 0 0 128 128 128 255
1.02911 -0.0206041 5.6381 0 0 0 128 128 128 255
-0.376293 1.65766 5.63821 0 0 0 128 128 128 255
-0.569932 1.89332 5.63852 0 0 0 128 128 128 255
1.24643 -0.26904 5.63884 0 0 0 128 128 128 255
0.0744511 1.13383 5.63915 0 0 0 128 128 128 255
0.598632 0.50846 5.63915 0 0 0 128 128 128 255
1.1665 -0.169026 5.63915 0 0 0 128 128 128 255
0.895532 0.155795 5.63925 0 0 0 128 128 128 255
0.766653 0.312649 5.63946 0 0 0 128 128 128 255
1.1143 -0.100561 5.63957 0 0 0 128 128 128 255
0.568397 0.552273 5.63967 0 0 0 128 128 128 255
1.15987 -0.147182 5.64009 0 0 0 128 128 128 255
1.01762 0.0271717 5.64041 0 0 0 128 128 128 255
0.101704 1.12144 5.64051 0 0 0 128 128 128 255
0.77299 0.32057 5.64051 0 0 0 128 128 128 255
1.40573 -0.434321 5.64051 0 0 0 128 128 128 255
0.0876911 1.13971 5.64061 0 0 0 128 128 128 255
0.169916 1.04161 5.64061 0 0 0 128 128 128 255
1.00437 0.0460763 5.64061 0 0 0 128 128 128 255
0.26575 0.928827 5.64072 0 0 0 128 128 128 255
1.21454 -0.203127 5.64072 0 0 0 128 128 128 255
1.21466 -0.201722 5.64082 0 0 0 128 128 128 255
1.10172 -0.0654324 5.64093 0 0 0 128 128 128 255
0.164614 1.05413 5.64103 0 0 0 128 128 128 255
0.221263 0.988095 5.64114 0 0 0 128 128 128 255
0.637122 0.495053 5.64135 0 0 0 128 128 128 255
0.697505 0.423012 5.64135 0 0 0 128 128 128 255
0.607692 0.531712 5.64145 0 0 0 128 128 128 255
-0.362584 1.69394 5.64177 0 0 0 128 128 128 255
0.716733 0.407813 5.64187 0 0 0 128 128 128 255
0.601704 0.552789 5.64239 0 0 0 128 128 128 255
0.965291 0.119014 5.64239 0 0 0 128 128 128 255
0.717289 0.422632 5.64292 0 0 0 128 128 128 255
0.622979 0.536696 5.64302 0 0 0 128 128 128 255
1.05016 0.0270489 5.64302 0 0 0 128 128 128 255
0.997606 0.091298 5.64312 0 0 0 128 128 128 255
1.0233 0.0606425 5.64312 0 0 0 128 128 128 255
0.199248 1.04532 5.64323 0 0 0 128 128 128 255
1.24837 -0.204782 5.64333 0 0 0 128 128 128 255
0.159018 1.09642 5.64344 0 0 0 128 128 128 255
1.03932 0.0492754 5.64365 0 0 0 128 128 128 255
1.01567 0.0790371 5.64375 0 0 0 128 128 128 255
0.163352 1.09744 5.64386 0 0 0 128 128 128 255
0.769758 0.373969 5.64386 0 0 0 128 128 128 255
0.884743 0.236785 5.64386 0 0 0 128 128 128 255
0.116175 1.15837 5.64417 0 0 0 128 128 128 255
1.16582 -0.0939102 5.64417 0 0 0 128 128 128 255
1.46517 -0.451046 5.64417 0 0 0 128 128 128 255
0.173586 1.09297 5.64438 0 0 0 128 128 128 255
0.764575 0.387892 5.64438 0 0 0 128 128 128 255
1.45385 -0.434441 5.64438 0 0 0 128 128 128 255
0.668578 0.507066 5.64469 0 0 0 128 128 128 255
0.251391 1.00943 5.64501 0 0 0 128 128 128 255
1.24591 -0.175529 5.64511 0 0 0 128 128 128 255
0.297239 0.95783 5.64522 0 0 0 128 128 128 255
0.655687 0.530186 5.64522 0 0 0 128 128 128 255
0.902361 0.235894 5.64522 0 0 0 128 128 128 255
0.933195 0.199107 5.64522 0 0 0 128 128 128 255
0.74574 0.424297 5.64532 0 0 0 128 128 128 255
0.231956 1.03881 5.64543 0 0 0 128 128 128 255
1.50154 -0.472758 5.64563 0 0 0 128 128 128 255
1.50796 -0.480422 5.64563 0 0 0 128 128 128 255
0.146357 1.14713 5.64584 0 0 0 128 128 128 255
0.199674 1.08352 5.64584 0 0 0 128 128 128 255
0.213806 1.06666 5.64584 0 0 0 128 128 128 255
0.754047 0.422127 5.64584 0 0 0 128 128 128 255
0.513275 0.710927 5.64595 0 0 0 128 128 128 255
1.49676 -0.462411 5.64595 0 0 0 128 128 128 255
0.656645 0.541428 5.64605 0 0 0 128 128 128 255
0.679771 0.513838 5.64605 0 0 0 128 128 128 255
0.864776 0.293119 5.64605 0 0 0 128 128 128 255
0.660097 0.540407 5.64626 0 0 0 128 128 128 255
-0.362212 1.76471 5.64658 0 0 0 128 128 128 255
0.245599 1.04111 5.64668 0 0 0 128 128 128 255
1.26453 -0.172971 5.64679 0 0 0 128 128 128 255
0.285024 0.997175 5.64689 0 0 0 128 128 128 255
1.46186 -0.406847 5.64689 0 0 0 128 128 128 255
0.880629 0.288139 5.64699 0 0 0 128 128 128 255
0.676472 0.533255 5.6471 0 0 0 128 128 128 255
1.18074 -0.0683584 5.6471 0 0 0 128 128 128 255
0.888697 0.283158 5.64731 0 0 0 128 128 128 255
1.478 -0.416808 5.64752 0 0 0 128 128 128 255
0.705336 0.506561 5.64762 0 0 0 128 128 128 255
0.529444 0.717956 5.64773 0 0 0 128 128 128 255
0.543696 0.702501 5.64783 0 0 0 128 128 128 255
-0.376714 1.80214 5.64794 0 0 0 128 128 128 255
0.711074 0.507456 5.64815 0 0 0 128 128 128 255
0.0959143 1.24446 5.64835 0 0 0 128 128 128 255
0.512818 0.74708 5.64835 0 0 0 128 128 128 255
0.0955116 1.24804 5.64856 0 0 0 128 128 128 255
0.254299 1.06015 5.64867 0 0 0 128 128 128 255
0.772819 0.44308 5.64877 0 0 0 128 128 128 255
0.704204 0.526489 5.64888 0 0 0 128 128 128 255
0.108958 1.23974 5.64909 0 0 0 128 128 128 255
0.877244 0.323142 5.64909 0 0 0 128 128 128 255
0.145051 1.19823 5.64919 0 0 0 128 128 128 255
0.244098 1.08161 5.6493 0 0 0 128 128 128 255
0.740254 0.492769 5.6495 0 0 0 128 128 128 255
1.26893 -0.137967 5.6495 0 0 0 128 128 128 255
0.918955 0.281119 5.64961 0 0 0 128 128 128 255
0.13485 1.21969 5.64982 0 0 0 128 128 128 255
0.000712216 1.38127 5.64992 0 0 0 128 128 128 255
0.512808 0.771863 5.65003 0 0 0 128 128 128 255
0.561988 0.717833 5.65034 0 0 0 128 128 128 255
0.704074 0.549867 5.65045 0 0 0 128 128 128 255
0.321695 1.01225 5.65086 0 0 0 128 128 128 255
0.935287 0.28176 5.65097 0 0 0 128 128 128 255
0.157486 1.21126 5.65107 0 0 0 128 128 128 255
0.258579 1.09375 5.65128 0 0 0 128 128 128 255
0.730728 0.530453 5.65128 0 0 0 128 128 128 255
1.27623 -0.118804 5.65139 0 0 0 128 128 128 255
0.247898 1.10959 5.65149 0 0 0 128 128 128 255
0.724141 0.544505 5.6517 0 0 0 128 128 128 255
0.976313 0.248297 5.65201 0 0 0 128 128 128 255
-0.40023 1.89986 5.65264 0 0 0 128 128 128 255
0.305745 1.0576 5.65264 0 0 0 128 128 128 255
0.881557 0.37373 5.65285 0 0 0 128 128 128 255
0.742923 0.540675 5.65296 0 0 0 128 128 128 255
0.601719 0.710685 5.65306 0 0 0 128 128 128 255
0.606335 0.706726 5.65317 0 0 0 128 128 128 255
0.879989 0.380245 5.65317 0 0 0 128 128 128 255
0.59168 0.725758 5.65327 0 0 0 128 128 128 255
-0.319496 1.81748 5.65358 0 0 0 128 128 128 255
1.30905 -0.123909 5.65369 0 0 0 128 128 128 255
0.399566 0.9627 5.65379 0 0 0 128 128 128 255
0.981039 0.270525 5.6539 0 0 0 128 128 128 255
1.1609 0.0559371 5.6539 0 0 0 128 128 128 255
0.449911 0.905733 5.654 0 0 0 128 128 128 255
0.785353 0.507084 5.65411 0 0 0 128 128 128 255
0.985775 0.267971 5.65411 0 0 0 128 128 128 255
1.29926 -0.106026 5.65411 0 0 0 128 128 128 255
1.45857 -0.296089 5.65411 0 0 0 128 128 128 255
0.462193 0.900369 5.65463 0 0 0 128 128 128 255
0.763588 0.542339 5.65473 0 0 0 128 128 128 255
0.881263 0.403495 5.65484 0 0 0 128 128 128 255
0.519201 0.838548 5.65505 0 0 0 128 128 128 255
0.91041 0.371818 5.65505 0 0 0 128 128 128 255
0.386468 1 5.65526 0 0 0 128 128 128 255
0.288304 1.11866 5.65536 0 0 0 128 128 128 255
0.440025 0.939201 5.65547 0 0 0 128 128 128 255
0.350332 1.04931 5.65568 0 0 0 128 128 128 255
0.514139 0.853877 5.65568 0 0 0 128 128 128 255
0.526986 0.838549 5.65568 0 0 0 128 128 128 255
0.791004 0.523564 5.65568 0 0 0 128 128 128 255
0.298419 1.11279 5.65578 0 0 0 128 128 128 255
1.0225 0.250475 5.65588 0 0 0 128 128 128 255
0.367633 1.03641 5.6562 0 0 0 128 128 128 255
0.510883 0.865502 5.6562 0 0 0 128 128 128 255
0.948986 0.342826 5.6562 0 0 0 128 128 128 255
0.999092 0.283048 5.6562 0 0 0 128 128 128 255
0.310581 1.10602 5.6563 0 0 0 128 128 128 255
0.724273 0.612466 5.6563 0 0 0 128 128 128 255
0.726962 0.610806 5.65641 0 0 0 128 128 128 255
0.36747 1.04279 5.65662 0 0 0 128 128 128 255
0.384814 1.0221 5.65662 0 0 0 128 128 128 255
0.717686 0.626518 5.65672 0 0 0 128 128 128 255
0.812116 0.513859 5.65672 0 0 0 128 128 128 255
-0.342642 1.89463 5.65693 0 0 0 128 128 128 255
0.829057 0.496743 5.65693 0 0 0 128 128 128 255
0.493333 0.900374 5.65714 0 0 0 128 128 128 255
0.910879 0.402223 5.65714 0 0 0 128 128 128 255
0.965318 0.343467 5.65756 0 0 0 128 128 128 255
1.28727 -0.0390877 5.65766 0 0 0 128 128 128 255
0.502642 0.901653 5.65798 0 0 0 128 128 128 255
0.802753 0.545155 5.65808 0 0 0 128 128 128 255
1.1017 0.191596 5.65829 0 0 0 128 128 128 255
0.393274 1.03833 5.65839 0 0 0 128 128 128 255
0.73759 0.627543 5.65839 0 0 0 128 128 128 255
0.594459 0.799852 5.6585 0 0 0 128 128 128 255
0.323495 1.12467 5.6586 0 0 0 128 128 128 255
0.543188 0.862568 5.6586 0 0 0 128 128 128 255
1.46308 -0.234898 5.6586 0 0 0 128 128 128 255
0.964905 0.371827 5.65944 0 0 0 128 128 128 255
1.11032 0.201434 5.65965 0 0 0 128 128 128 255
0.407679 1.04127 5.65975 0 0 0 128 128 128 255
0.830365 0.536984 5.65975 0 0 0 128 128 128 255
1.33078 -0.0600315 5.65975 0 0 0 128 128 128 255
0.850115 0.519613 5.66017 0 0 0 128 128 128 255
1.3152 -0.0352509 5.66017 0 0 0 128 128 128 255
0.495882 0.946874 5.66049 0 0 0 128 128 128 255
1.4845 -0.232595 5.66049 0 0 0 128 128 128 255
1.28035 0.0125215 5.66059 0 0 0 128 128 128 255
0.627809 0.792576 5.6607 0 0 0 128 128 128 255
1.49141 -0.234638 5.6609 0 0 0 128 128 128 255
1.4959 -0.240002 5.6609 0 0 0 128 128 128 255
0.574208 0.861168 5.66101 0 0 0 128 128 128 255
1.06033 0.2874 5.66143 0 0 0 128 128 128 255
0.501054 0.957734 5.66164 0 0 0 128 128 128 255
0.801687 0.599065 5.66164 0 0 0 128 128 128 255
1.31816 -0.0171103 5.66164 0 0 0 128 128 128 255
0.908682 0.47606 5.66195 0 0 0 128 128 128 255
0.315885 1.18484 5.66206 0 0 0 128 128 128 255
0.596082 0.852101 5.66216 0 0 0 128 128 128 255
0.575646 0.878031 5.66226 0 0 0 128 128 128 255
1.24244 0.0825211 5.66226 0 0 0 128 128 128 255
1.29844 0.0172508 5.66237 0 0 0 128 128 128 255
0.612501 0.837157 5.66247 0 0 0 128 128 128 255
1.24396 0.0837989 5.66247 0 0 0 128 128 128 255
0.325597 1.18254 5.66268 0 0 0 128 128 128 255
0.860057 0.544909 5.66268 0 0 0 128 128 128 255
0.968456 0.421777 5.6631 0 0 0 128 128 128 255
1.29928 0.0270875 5.6631 0 0 0 128 128 128 255
0.458527 1.03169 5.66321 0 0 0 128 128 128 255
0.638393 0.817105 5.66321 0 0 0 128 128 128 255
0.906265 0.497522 5.66321 0 0 0 128 128 128 255
0.334667 1.18101 5.66331 0 0 0 128 128 128 255
0.831226 0.588594 5.66331 0 0 0 128 128 128 255
1.07481 0.299539 5.66342 0 0 0 128 128 128 255
1.32469 0.00141406 5.66342 0 0 0 128 128 128 255
1.25837 0.0867394 5.66383 0 0 0 128 128 128 255
1.50375 -0.20602 5.66383 0 0 0 128 128 128 255
0.81717 0.614652 5.66394 0 0 0 128 128 128 255
0.329322 1.20132 5.66425 0 0 0 128 128 128 255
1.50435 -0.198994 5.66436 0 0 0 128 128 128 255
0.943393 0.476449 5.66477 0 0 0 128 128 128 255
1.05874 0.343481 5.66509 0 0 0 128 128 128 255
0.914322 0.517324 5.66519 0 0 0 128 128 128 255
0.762841 0.699596 5.6653 0 0 0 128 128 128 255
1.33106 0.0263258 5.66561 0 0 0 128 128 128 255
1.01152 0.412202 5.66593 0 0 0 128 128 128 255
1.02384 0.399046 5.66603 0 0 0 128 128 128 255
0.959083 0.477857 5.66613 0 0 0 128 128 128 255
1.05287 0.365964 5.66613 0 0 0 128 128 128 255
0.840362 0.621043 5.66624 0 0 0 128 128 128 255
0.936077 0.506852 5.66624 0 0 0 128 128 128 255
0.995176 0.436344 5.66624 0 0 0 128 128 128 255
0.573252 0.941266 5.66634 0 0 0 128 128 128 255
1.27754 0.104116 5.66655 0 0 0 128 128 128 255
0.833775 0.635095 5.66666 0 0 0 128 128 128 255
0.921781 0.5301 5.66666 0 0 0 128 128 128 255
1.06246 0.362261 5.66666 0 0 0 128 128 128 255
1.51405 -0.176509 5.66666 0 0 0 128 128 128 255
1.08442 0.337609 5.66676 0 0 0 128 128 128 255
0.920976 0.537253 5.66708 0 0 0 128 128 128 255
0.553252 0.980609 5.66739 0 0 0 128 128 128 255
1.01524 0.430982 5.66749 0 0 0 128 128 128 255
1.31395 0.0746119 5.66749 0 0 0 128 128 128 255
0.768166 0.728851 5.6677 0 0 0 128 128 128 255
1.30158 0.0955607 5.66791 0 0 0 128 128 128 255
1.02303 0.430983 5.66812 0 0 0 128 128 128 255
0.496516 1.06223 5.66833 0 0 0 128 128 128 255
0.986771 0.478883 5.66844 0 0 0 128 128 128 255
1.29973 0.107058 5.66854 0 0 0 128 128 128 255
0.680596 0.84726 5.66864 0 0 0 128 128 128 255
0.959388 0.514648 5.66864 0 0 0 128 128 128 255
0.588333 0.96043 5.66885 0 0 0 128 128 128 255
0.941119 0.541089 5.66896 0 0 0 128 128 128 255
1.0832 0.373123 5.66906 0 0 0 128 128 128 255
1.33193 0.0779363 5.66917 0 0 0 128 128 128 255
0.423078 1.16378 5.66927 0 0 0 128 128 128 255
0.496952 1.07564 5.66927 0 0 0 128 128 128 255
1.11685 0.336081 5.66927 0 0 0 128 128 128 255
1.07212 0.392539 5.66948 0 0 0 128 128 128 255
0.792163 0.728088 5.66959 0 0 0 128 128 128 255
1.32598 0.091221 5.66959 0 0 0 128 128 128 255
0.456319 1.13031 5.66969 0 0 0 128 128 128 255
0.885428 0.618368 5.66969 0 0 0 128 128 128 255
1.31261 0.10872 5.66969 0 0 0 128 128 128 255
0.530955 1.04282 5.6698 0 0 0 128 128 128 255
0.545087 1.02596 5.6698 0 0 0 128 128 128 255
0.791118 0.732432 5.6698 0 0 0 128 128 128 255
1.5107 -0.124516 5.6699 0 0 0 128 128 128 255
0.998563 0.492681 5.67032 0 0 0 128 128 128 255
0.513044 1.07348 5.67042 0 0 0 128 128 128 255
0.781559 0.753125 5.67042 0 0 0 128 128 128 255
0.690058 0.866934 5.67074 0 0 0 128 128 128 255
1.50664 -0.105738 5.67084 0 0 0 128 128 128 255
0.987959 0.517718 5.67115 0 0 0 128 128 128 255
0.659943 0.912153 5.67136 0 0 0 128 128 128 255
0.609554 0.976913 5.67168 0 0 0 128 128 128 255
1.50503 -0.0914305 5.67168 0 0 0 128 128 128 255
1.50836 -0.0938574 5.67178 0 0 0 128 128 128 255
0.438921 1.18358 5.67189 0 0 0 128 128 128 255
0.78721 0.769606 5.67199 0 0 0 128 128 128 255
1.32267 0.135421 5.67231 0 0 0 128 128 128 255
1.44023 -0.00482774 5.67231 0 0 0 128 128 128 255
1.0273 0.489364 5.67241 0 0 0 128 128 128 255
1.09282 0.411193 5.67241 0 0 0 128 128 128 255
1.326 0.132995 5.67241 0 0 0 128 128 128 255
1.10707 0.395738 5.67251 0 0 0 128 128 128 255
1.13919 0.357418 5.67251 0 0 0 128 128 128 255
1.08021 0.429331 5.67262 0 0 0 128 128 128 255
1.07969 0.431503 5.67272 0 0 0 128 128 128 255
1.013 0.512612 5.67283 0 0 0 128 128 128 255
1.44685 -0.00188828 5.67304 0 0 0 128 128 128 255
1.50643 -0.0667751 5.67346 0 0 0 128 128 128 255
0.648446 0.959928 5.67367 0 0 0 128 128 128 255
0.941371 0.610456 5.67367 0 0 0 128 128 128 255
0.945824 0.612884 5.67419 0 0 0 128 128 128 255
1.13211 0.390632 5.67419 0 0 0 128 128 128 255
1.01725 0.52922 5.67429 0 0 0 128 128 128 255
1.32507 0.163526 5.6744 0 0 0 128 128 128 255
1.10549 0.427035 5.6745 0 0 0 128 128 128 255
1.12284 0.406343 5.6745 0 0 0 128 128 128 255
0.815095 0.781235 5.67502 0 0 0 128 128 128 255
1.03848 0.52092 5.67544 0 0 0 128 128 128 255
1.169 0.366748 5.67555 0 0 0 128 128 128 255
1.1582 0.381182 5.67565 0 0 0 128 128 128 255
0.659313 0.979475 5.67586 0 0 0 128 128 128 255
1.13929 0.408389 5.67597 0 0 0 128 128 128 255
1.49336 -0.0124843 5.67607 0 0 0 128 128 128 255
0.51321 1.15843 5.67618 0 0 0 128 128 128 255
1.07079 0.493204 5.67618 0 0 0 128 128 128 255
1.51596 -0.0379026 5.67618 0 0 0 128 128 128 255
0.695123 0.942945 5.67628 0 0 0 128 128 128 255
1.08119 0.482347 5.67628 0 0 0 128 128 128 255
1.16085 0.387314 5.67628 0 0 0 128 128 128 255
0.239916 1.48912 5.67649 0 0 0 128 128 128 255
0.676331 0.971558 5.6767 0 0 0 128 128 128 255
0.904495 0.700896 5.6768 0 0 0 128 128 128 255
0.242562 1.49526 5.67712 0 0 0 128 128 128 255
0.711618 0.937199 5.67722 0 0 0 128 128 128 255
1.07264 0.50649 5.67722 0 0 0 128 128 128 255
0.235692 1.51429 5.67785 0 0 0 128 128 128 255
0.997913 0.609571 5.67816 0 0 0 128 128 128 255
1.08206 0.509174 5.67816 0 0 0 128 128 128 255
1.06648 0.533954 5.67858 0 0 0 128 128 128 255
0.242551 1.52004 5.67879 0 0 0 128 128 128 255
1.43738 0.0945596 5.67879 0 0 0 128 128 128 255
1.0022 0.618386 5.6791 0 0 0 128 128 128 255
1.11024 0.491038 5.67921 0 0 0 128 128 128 255
1.13052 0.471496 5.67952 0 0 0 128 128 128 255
1.14401 0.455402 5.67952 0 0 0 128 128 128 255
1.08936 0.528337 5.68005 0 0 0 128 128 128 255
0.585212 1.13136 5.68015 0 0 0 128 128 128 255
1.5173 0.0193286 5.68015 0 0 0 128 128 128 255
1.17568 0.428452 5.68025 0 0 0 128 128 128 255
1.01661 0.621326 5.68046 0 0 0 128 128 128 255
1.46009 0.0953296 5.68067 0 0 0 128 128 128 255
0.60873 1.12497 5.68161 0 0 0 128 128 128 255
0.969867 0.695668 5.68172 0 0 0 128 128 128 255
0.523534 1.22971 5.68182 0 0 0 128 128 128 255
1.15009 0.485295 5.68203 0 0 0 128 128 128 255
1.12516 0.51659 5.68214 0 0 0 128 128 128 255
1.11307 0.532556 5.68224 0 0 0 128 128 128 255
1.48116 0.0934167 5.68224 0 0 0 128 128 128 255
0.608524 1.13915 5.68256 0 0 0 128 128 128 255
0.699862 1.03173 5.68266 0 0 0 128 128 128 255
1.19963 0.435481 5.68266 0 0 0 128 128 128 255
1.15736 0.487468 5.68276 0 0 0 128 128 128 255
1.14655 0.501902 5.68287 0 0 0 128 128 128 255
1.15001 0.500881 5.68308 0 0 0 128 128 128 255
1.46284 0.12765 5.68308 0 0 0 128 128 128 255
1.06119 0.613029 5.6835 0 0 0 128 128 128 255
1.21794 0.426031 5.6835 0 0 0 128 128 128 255
1.50981 0.0809019 5.68371 0 0 0 128 128 128 255
1.51752 0.0717051 5.68371 0 0 0 128 128 128 255
1.50953 0.0858839 5.68402 0 0 0 128 128 128 255
1.49359 0.106449 5.68412 0 0 0 128 128 128 255
1.35841 0.272372 5.68444 0 0 0 128 128 128 255
1.25125 0.401764 5.68454 0 0 0 128 128 128 255
1.14731 0.527324 5.68465 0 0 0 128 128 128 255
1.36339 0.272628 5.68486 0 0 0 128 128 128 255
0.630551 1.14848 5.68496 0 0 0 128 128 128 255
0.652392 1.12242 5.68496 0 0 0 128 128 128 255
1.14622 0.53946 5.68538 0 0 0 128 128 128 255
1.32171 0.331641 5.68548 0 0 0 128 128 128 255
0.603767 1.19127 5.68569 0 0 0 128 128 128 255
1.17946 0.505995 5.6858 0 0 0 128 128 128 255
1.154 0.539461 5.68601 0 0 0 128 128 128 255
1.19383 0.491945 5.68601 0 0 0 128 128 128 255
1.49768 0.129444 5.68601 0 0 0 128 128 128 255
1.25112 0.425142 5.68611 0 0 0 128 128 128 255
1.03348 0.686352 5.68622 0 0 0 128 128 128 255
1.03412 0.685586 5.68622 0 0 0 128 128 128 255
0.686188 1.10378 5.68643 0 0 0 128 128 128 255
0.611149 1.19485 5.68653 0 0 0 128 128 128 255
1.11425 0.596175 5.68663 0 0 0 128 128 128 255
1.17604 0.524007 5.68674 0 0 0 128 128 128 255
1.05282 0.672559 5.68684 0 0 0 128 128 128 255
1.38003 0.285278 5.68705 0 0 0 128 128 128 255
1.04379 0.69108 5.68737 0 0 0 128 128 128 255
1.27697 0.412882 5.68737 0 0 0 128 128 128 255
1.36032 0.319639 5.68778 0 0 0 128 128 128 255
0.680919 1.13329 5.68799 0 0 0 128 128 128 255
1.04141 0.704749 5.6881 0 0 0 128 128 128 255
1.04796 0.698491 5.6882 0 0 0 128 128 128 255
1.34188 0.352467 5.68852 0 0 0 128 128 128 255
0.702313 1.1186 5.68873 0 0 0 128 128 128 255
1.21915 0.50664 5.68904 0 0 0 128 128 128 255
0.582026 1.2683 5.68914 0 0 0 128 128 128 255
1.07216 0.683548 5.68914 0 0 0 128 128 128 255
1.2393 0.485692 5.68925 0 0 0 128 128 128 255
0.695803 1.14185 5.68977 0 0 0 128 128 128 255
0.695923 1.14325 5.68988 0 0 0 128 128 128 255
1.2079 0.532443 5.68988 0 0 0 128 128 128 255
0.562025 1.30764 5.69019 0 0 0 128 128 128 255
0.560457 1.31416 5.6905 0 0 0 128 128 128 255
0.569048 1.30701 5.69071 0 0 0 128 128 128 255
1.06404 0.721104 5.69103 0 0 0 128 128 128 255
1.42273 0.296271 5.69124 0 0 0 128 128 128 255
0.813871 1.02421 5.69134 0 0 0 128 128 128 255
1.38298 0.352985 5.69186 0 0 0 128 128 128 255
1.16276 0.617261 5.69197 0 0 0 128 128 128 255
1.22892 0.538323 5.69197 0 0 0 128 128 128 255
1.25626 0.51035 5.69228 0 0 0 128 128 128 255
1.06415 0.747293 5.69281 0 0 0 128 128 128 255
1.08045 0.730943 5.69301 0 0 0 128 128 128 255
1.28304 0.492342 5.69322 0 0 0 128 128 128 255
1.50297 0.233048 5.69343 0 0 0 128 128 128 255
0.829354 1.0398 5.69364 0 0 0 128 128 128 255
1.43961 0.311731 5.69364 0 0 0 128 128 128 255
1.39922 0.369211 5.69427 0 0 0 128 128 128 255
0.475719 1.47409 5.69448 0 0 0 128 128 128 255
1.2116 0.600789 5.69479 0 0 0 128 128 128 255
1.42744 0.343283 5.69479 0 0 0 128 128 128 255
1.07923 0.766457 5.69532 0 0 0 128 128 128 255
1.27901 0.528111 5.69532 0 0 0 128 128 128 255
1.39721 0.387096 5.69532 0 0 0 128 128 128 255
1.45024 0.328467 5.69563 0 0 0 128 128 128 255
1.49404 0.277759 5.69573 0 0 0 128 128 128 255
0.751572 1.16511 5.69584 0 0 0 128 128 128 255
1.30028 0.512018 5.69594 0 0 0 128 128 128 255
1.51163 0.259876 5.69594 0 0 0 128 128 128 255
1.31899 0.49899 5.69657 0 0 0 128 128 128 255
1.04092 0.840034 5.6972 0 0 0 128 128 128 255
0.468033 1.52506 5.6973 0 0 0 128 128 128 255
1.3436 0.480471 5.6973 0 0 0 128 128 128 255
1.51254 0.278911 5.6973 0 0 0 128 128 128 255
1.32444 0.504868 5.69741 0 0 0 128 128 128 255
1.42168 0.391954 5.69762 0 0 0 128 128 128 255
1.25269 0.601306 5.69814 0 0 0 128 128 128 255
1.32736 0.530801 5.69939 0 0 0 128 128 128 255
1.25566 0.619447 5.6996 0 0 0 128 128 128 255
1.10566 0.81079 5.70044 0 0 0 128 128 128 255
1.05844 0.879511 5.70128 0 0 0 128 128 128 255
1.37332 0.505386 5.70138 0 0 0 128 128 128 255
1.39002 0.48546 5.70138 0 0 0 128 128 128 255
1.04743 0.908124 5.70232 0 0 0 128 128 128 255
1.06834 0.887816 5.70264 0 0 0 128 128 128 255
1.04482 0.918983 5.70285 0 0 0 128 128 128 255
1.01796 0.952576 5.70295 0 0 0 128 128 128 255
1.40543 0.49185 5.70305 0 0 0 128 128 128 255
1.04658 0.923071 5.70326 0 0 0 128 128 128 255
1.38833 0.515353 5.70326 0 0 0 128 128 128 255
1.39499 0.510499 5.70347 0 0 0 128 128 128 255
1.34123 0.585479 5.70421 0 0 0 128 128 128 255
1.17866 0.787168 5.70473 0 0 0 128 128 128 255
0.845744 1.19054 5.70515 0 0 0 128 128 128 255
1.40947 0.522638 5.70546 0 0 0 128 128 128 255
1.10855 0.886289 5.70577 0 0 0 128 128 128 255
1.08169 0.919882 5.70588 0 0 0 128 128 128 255
1.09723 0.902894 5.70598 0 0 0 128 128 128 255
1.36587 0.58395 5.70609 0 0 0 128 128 128 255
1.20242 0.783594 5.7064 0 0 0 128 128 128 255
1.47001 0.468993 5.70672 0 0 0 128 128 128 255
1.35193 0.611413 5.70682 0 0 0 128 128 128 255
1.26031 0.723817 5.70703 0 0 0 128 128 128 255
1.16536 0.838648 5.70713 0 0 0 128 128 128 255
1.19884 0.807994 5.70776 0 0 0 128 128 128 255
1.15078 0.866878 5.70787 0 0 0 128 128 128 255
1.06032 0.976344 5.70797 0 0 0 128 128 128 255
1.12287 0.904815 5.70818 0 0 0 128 128 128 255
1.47297 0.487134 5.70818 0 0 0 128 128 128 255
1.08276 0.957313 5.70849 0 0 0 128 128 128 255
1.06164 0.991801 5.70912 0 0 0 128 128 128 255
1.10982 0.934322 5.70912 0 0 0 128 128 128 255
1.14836 0.888339 5.70912 0 0 0 128 128 128 255
1.19987 0.828433 5.70923 0 0 0 128 128 128 255
1.49408 0.477428 5.70923 0 0 0 128 128 128 255
1.16129 0.882209 5.70975 0 0 0 128 128 128 255
1.40908 0.592771 5.71017 0 0 0 128 128 128 255
1.40016 0.612698 5.71079 0 0 0 128 128 128 255
1.51836 0.471683 5.71079 0 0 0 128 128 128 255
1.29044 0.745156 5.7109 0 0 0 128 128 128 255
1.48765 0.509875 5.7109 0 0 0 128 128 128 255
1.27835 0.761122 5.711 0 0 0 128 128 128 255
1.49041 0.517413 5.71163 0 0 0 128 128 128 255
0.994332 1.11545 5.71205 0 0 0 128 128 128 255
1.27425 0.787693 5.71247 0 0 0 128 128 128 255
1.14549 0.945953 5.71278 0 0 0 128 128 128 255
1.12955 0.966518 5.71289 0 0 0 128 128 128 255
1.23566 0.841469 5.71299 0 0 0 128 128 128 255
1.20752 0.876595 5.7131 0 0 0 128 128 128 255
1.26545 0.809026 5.7132 0 0 0 128 128 128 255
1.30977 0.756145 5.7132 0 0 0 128 128 128 255
0.941288 1.19886 5.71341 0 0 0 128 128 128 255
0.983805 1.14969 5.71351 0 0 0 128 128 128 255
1.4458 0.600058 5.71362 0 0 0 128 128 128 255
0.99111 1.14407 5.71372 0 0 0 128 128 128 255
1.13308 0.974694 5.71372 0 0 0 128 128 128 255
1.54625 0.483312 5.71383 0 0 0 128 128 128 255
1.25806 0.830231 5.71404 0 0 0 128 128 128 255
1.30495 0.774284 5.71404 0 0 0 128 128 128 255
1.2962 0.787824 5.71425 0 0 0 128 128 128 255
1.16872 0.944551 5.71456 0 0 0 128 128 128 255
0.96007 1.19503 5.71466 0 0 0 128 128 128 255
0.987289 1.16565 5.71487 0 0 0 128 128 128 255
1.14981 0.971758 5.71487 0 0 0 128 128 128 255
0.97135 1.18622 5.71498 0 0 0 128 128 128 255
0.962193 1.20334 5.7154 0 0 0 128 128 128 255
1.54808 0.521382 5.71655 0 0 0 128 128 128 255
1.58341 0.47923 5.71655 0 0 0 128 128 128 255
1.17048 0.973422 5.71665 0 0 0 128 128 128 255
1.57337 0.494303 5.71676 0 0 0 128 128 128 255
1.29213 0.831386 5.71686 0 0 0 128 128 128 255
1.36921 0.739419 5.71686 0 0 0 128 128 128 255
1.19794 0.946855 5.71707 0 0 0 128 128 128 255
1.02847 1.15059 5.71717 0 0 0 128 128 128 255
1.20869 0.940214 5.71749 0 0 0 128 128 128 255
1.1781 0.979811 5.7177 0 0 0 128 128 128 255
1.56879 0.515253 5.7178 0 0 0 128 128 128 255
1.34327 0.792047 5.71833 0 0 0 128 128 128 255
1.02617 1.17345 5.71853 0 0 0 128 128 128 255
1.59339 0.496733 5.71853 0 0 0 128 128 128 255
1.50306 0.607605 5.71874 0 0 0 128 128 128 255
1.05223 1.14701 5.71885 0 0 0 128 128 128 255
1.06893 1.12709 5.71885 0 0 0 128 128 128 255
1.58347 0.513211 5.71885 0 0 0 128 128 128 255
1.59604 0.502866 5.71916 0 0 0 128 128 128 255
1.01673 1.19555 5.71927 0 0 0 128 128 128 255
1.05202 1.16119 5.71979 0 0 0 128 128 128 255
1.3335 0.826921 5.71989 0 0 0 128 128 128 255
1.33426 0.82756 5.72 0 0 0 128 128 128 255
1.6259 0.47962 5.72 0 0 0 128 128 128 255
1.59141 0.531608 5.72073 0 0 0 128 128 128 255
1.30784 0.874567 5.72104 0 0 0 128 128 128 255
1.45362 0.70839 5.72157 0 0 0 128 128 128 255
1.31755 0.872269 5.72167 0 0 0 128 128 128 255
1.40387 0.772384 5.72188 0 0 0 128 128 128 255
1.62934 0.503382 5.72188 0 0 0 128 128 128 255
1.30904 0.888619 5.72209 0 0 0 128 128 128 255
1.08352 1.16541 5.72261 0 0 0 128 128 128 255
1.43554 0.745434 5.72261 0 0 0 128 128 128 255
1.66114 0.477837 5.72272 0 0 0 128 128 128 255
1.47276 0.708776 5.72314 0 0 0 128 128 128 255
1.56152 0.60442 5.72324 0 0 0 128 128 128 255
1.62641 0.527015 5.72324 0 0 0 128 128 128 255
1.31059 0.906887 5.72345 0 0 0 128 128 128 255
1.45384 0.735983 5.72345 0 0 0 128 128 128 255
