ply
format ascii 1.0
comment VCGLIB generated
element vertex 135
property float x
property float y
property float z
property float nx
property float ny
property float nz
property uchar red
property uchar green
property uchar blue
property uchar alpha
element face 0
property list uchar int vertex_indices
end_header
-0.253722 1.86444 5.50991 0 0 0 128 128 0 255
-0.244313 1.85453 5.51297 0 0 0 128 128 0 255
-0.292467 1.87329 5.50213 0 0 0 128 128 0 255
-0.296078 1.86983 5.50204 0 0 0 128 128 0 255
-0.341002 1.88084 5.49279 0 0 0 128 128 0 255
-0.343937 1.87667 5.4929 0 0 0 128 128 0 255
-0.346004 1.75548 5.50955 0 0 0 128 128 0 255
-0.587539 1.80529 5.4572 0 0 0 128 128 0 255
-0.620541 1.67056 5.46563 0 0 0 128 128 0 255
-0.697264 1.6703 5.44907 0 0 0 128 128 0 255
-0.761962 1.67769 5.43398 0 0 0 128 128 0 255
-0.757364 1.66851 5.43589 0 0 0 128 128 0 255
-0.80942 1.68285 5.42275 0 0 0 128 128 0 255
-0.728078 1.56976 5.45166 0 0 0 128 128 0 255
-0.852442 1.69926 5.41139 0 0 0 128 128 0 255
-0.85251 1.69644 5.41163 0 0 0 128 128 0 255
-0.727675 1.55778 5.45282 0 0 0 128 128 0 255
-0.730058 1.54441 5.45344 0 0 0 128 128 0 255
-0.77625 1.57138 5.44031 0 0 0 128 128 0 255
-0.807968 1.5687 5.43305 0 0 0 128 128 0 255
-0.802591 1.56304 5.4348 0 0 0 128 128 0 255
-0.804796 1.5567 5.43479 0 0 0 128 128 0 255
-0.897056 1.64518 5.40553 0 0 0 128 128 0 255
-0.821149 1.53209 5.43284 0 0 0 128 128 0 255
-0.834862 1.53355 5.4294 0 0 0 128 128 0 255
-0.840013 1.51735 5.42939 0 0 0 128 128 0 255
-0.815849 1.49046 5.43735 0 0 0 128 128 0 255
-0.905869 1.55354 5.41048 0 0 0 128 128 0 255
-0.90002 1.5373 5.41311 0 0 0 128 128 0 255
-0.798149 1.41564 5.44724 0 0 0 128 128 0 255
-0.92491 1.5275 5.40759 0 0 0 128 128 0 255
-1.08595 1.63805 5.35925 0 0 0 128 128 0 255
-0.86957 1.40879 5.42963 0 0 0 128 128 0 255
-0.871194 1.39468 5.43012 0 0 0 128 128 0 255
-1.10716 1.63881 5.35374 0 0 0 128 128 0 255
-0.913784 1.42514 5.41719 0 0 0 128 128 0 255
-1.11956 1.63461 5.35079 0 0 0 128 128 0 255
-0.945683 1.39981 5.41037 0 0 0 128 128 0 255
-0.950193 1.3744 5.41061 0 0 0 128 128 0 255
-0.973351 1.37868 5.40418 0 0 0 128 128 0 255
-0.990196 1.39355 5.39886 0 0 0 128 128 0 255
-0.997653 1.3971 5.39667 0 0 0 128 128 0 255
-1.30398 1.68233 5.29908 0 0 0 128 128 0 255
-1.03884 1.38023 5.38634 0 0 0 128 128 0 255
-1.04296 1.37882 5.38528 0 0 0 128 128 0 255
-1.03593 1.34419 5.38883 0 0 0 128 128 0 255
-1.05084 1.34987 5.38444 0 0 0 128 128 0 255
-1.0766 1.3598 5.37683 0 0 0 128 128 0 255
-1.08203 1.36123 5.37525 0 0 0 128 128 0 255
-1.0766 1.30399 5.37912 0 0 0 128 128 0 255
-1.09412 1.31814 5.37359 0 0 0 128 128 0 255
-0.999375 1.21696 5.40443 0 0 0 128 128 0 255
-1.20707 1.43278 5.33707 0 0 0 128 128 0 255
-1.01632 1.22193 5.39941 0 0 0 128 128 0 255
-1.01363 1.2191 5.40028 0 0 0 128 128 0 255
-1.03726 1.23397 5.39297 0 0 0 128 128 0 255
-1.0906 1.26726 5.37646 0 0 0 128 128 0 255
-1.10842 1.25032 5.37186 0 0 0 128 128 0 255
-1.10991 1.23618 5.37186 0 0 0 128 128 0 255
-1.12414 1.23832 5.36762 0 0 0 128 128 0 255
-1.37808 1.43439 5.28701 0 0 0 128 128 0 255
-1.12408 1.16268 5.36962 0 0 0 128 128 0 255
-1.1336 1.15704 5.36688 0 0 0 128 128 0 255
-1.13564 1.15492 5.36631 0 0 0 128 128 0 255
-1.08122 1.09619 5.38402 0 0 0 128 128 0 255
-1.08057 1.09124 5.38432 0 0 0 128 128 0 255
-1.14213 1.08776 5.36557 0 0 0 128 128 0 255
-1.14218 1.07786 5.3657 0 0 0 128 128 0 255
-1.11261 1.04673 5.37531 0 0 0 128 128 0 255
-1.0663 0.983762 5.39055 0 0 0 128 128 0 255
-1.08462 0.959029 5.3851 0 0 0 128 128 0 255
-1.11756 0.990872 5.37443 0 0 0 128 128 0 255
-1.14848 1.02201 5.3644 0 0 0 128 128 0 255
-1.16529 1.03687 5.35896 0 0 0 128 128 0 255
-1.31721 1.18688 5.3097 0 0 0 128 128 0 255
-1.10556 0.947024 5.37858 0 0 0 128 128 0 255
-1.1493 0.967561 5.36452 0 0 0 128 128 0 255
-1.21383 1.03266 5.34358 0 0 0 128 128 0 255
-1.21922 1.03125 5.34186 0 0 0 128 128 0 255
-1.17823 0.98526 5.35518 0 0 0 128 128 0 255
-1.21721 1.02347 5.34253 0 0 0 128 128 0 255
-1.32676 1.13598 5.30695 0 0 0 128 128 0 255
-1.3093 1.1091 5.31265 0 0 0 128 128 0 255
-1.30393 1.09637 5.3144 0 0 0 128 128 0 255
-1.1171 0.899657 5.3751 0 0 0 128 128 0 255
-1.11645 0.873493 5.37533 0 0 0 128 128 0 255
-1.13325 0.88694 5.36987 0 0 0 128 128 0 255
-1.39133 1.14451 5.28602 0 0 0 128 128 0 255
-1.13863 0.868559 5.36808 0 0 0 128 128 0 255
-1.2367 0.913885 5.33593 0 0 0 128 128 0 255
-1.23871 0.910351 5.33523 0 0 0 128 128 0 255
-1.33478 0.994567 5.30387 0 0 0 128 128 0 255
-1.23195 0.882062 5.33724 0 0 0 128 128 0 255
-1.23732 0.883481 5.33545 0 0 0 128 128 0 255
-1.40931 1.04341 5.27935 0 0 0 128 128 0 255
-1.56723 1.20687 5.22801 0 0 0 128 128 0 255
-1.56585 1.19555 5.22834 0 0 0 128 128 0 255
-1.58466 1.21112 5.22217 0 0 0 128 128 0 255
-1.55844 1.18211 5.23067 0 0 0 128 128 0 255
-1.28083 0.874324 5.32063 0 0 0 128 128 0 255
-1.44412 1.04203 5.26752 0 0 0 128 128 0 255
-1.29424 0.879992 5.31615 0 0 0 128 128 0 255
-1.34732 0.933063 5.29886 0 0 0 128 128 0 255
-1.34461 0.924576 5.29965 0 0 0 128 128 0 255
-1.29419 0.868679 5.31598 0 0 0 128 128 0 255
-1.26256 0.825525 5.32609 0 0 0 128 128 0 255
-1.48497 1.05125 5.25369 0 0 0 128 128 0 255
-1.60588 1.16589 5.21418 0 0 0 128 128 0 255
-1.49628 1.04066 5.24959 0 0 0 128 128 0 255
-1.62732 1.17722 5.20699 0 0 0 128 128 0 255
-1.58226 1.12275 5.22149 0 0 0 128 128 0 255
-1.59502 1.13478 5.21731 0 0 0 128 128 0 255
-1.29527 0.817777 5.31465 0 0 0 128 128 0 255
-1.42362 0.950098 5.2729 0 0 0 128 128 0 255
-1.53579 1.05695 5.23622 0 0 0 128 128 0 255
-1.41213 0.926758 5.27639 0 0 0 128 128 0 255
-1.64526 1.16098 5.2004 0 0 0 128 128 0 255
-1.34077 0.833373 5.29915 0 0 0 128 128 0 255
-1.6196 1.11571 5.2083 0 0 0 128 128 0 255
-1.40319 0.886454 5.27857 0 0 0 128 128 0 255
-1.39578 0.875843 5.2809 0 0 0 128 128 0 255
-1.57587 1.06265 5.22233 0 0 0 128 128 0 255
-1.51921 0.974937 5.23999 0 0 0 128 128 0 255
-1.47812 0.920464 5.25302 0 0 0 128 128 0 255
-1.51092 0.939586 5.24191 0 0 0 128 128 0 255
-1.50519 0.894345 5.24253 0 0 0 128 128 0 255
-1.42788 0.810145 5.26755 0 0 0 128 128 0 255
-1.42782 0.804491 5.26738 0 0 0 128 128 0 255
-1.54116 0.900045 5.22972 0 0 0 128 128 0 255
-1.50517 0.828623 5.24015 0 0 0 128 128 0 255
-1.54647 0.841403 5.22549 0 0 0 128 128 0 255
-1.56438 0.842139 5.21889 0 0 0 128 128 0 255
-1.58815 0.835113 5.20974 0 0 0 128 128 0 255
-1.59888 0.845021 5.20618 0 0 0 128 128 0 255
-1.59726 0.823827 5.20579 0 0 0 128 128 0 255
