ply
format ascii 1.0
comment VCGLIB generated
element vertex 1036
property float x
property float y
property float z
property float nx
property float ny
property float nz
property uchar red
property uchar green
property uchar blue
property uchar alpha
element face 0
property list uchar int vertex_indices
end_header
0.57654 2.37003 2.89147 0 0 0 128 128 128 255
0.35832 2.35155 2.89147 0 0 0 128 128 128 255
0.738983 2.38349 2.89243 0 0 0 128 128 128 255
2.60732 2.54137 2.89339 0 0 0 128 128 128 255
2.60533 2.5412 2.89339 0 0 0 128 128 128 255
1.51523 2.44892 2.89339 0 0 0 128 128 128 255
0.548688 2.3671 2.89339 0 0 0 128 128 128 255
2.25361 2.51114 2.89435 0 0 0 128 128 128 255
0.513837 2.36386 2.89435 0 0 0 128 128 128 255
2.86246 2.56239 2.89531 0 0 0 128 128 128 255
2.78175 2.55556 2.89531 0 0 0 128 128 128 255
1.48439 2.44573 2.89531 0 0 0 128 128 128 255
0.801831 2.38795 2.89531 0 0 0 128 128 128 255
2.84953 2.56101 2.89627 0 0 0 128 128 128 255
1.47148 2.44407 2.89722 0 0 0 128 128 128 255
0.920455 2.39742 2.89722 0 0 0 128 128 128 255
0.858676 2.39219 2.89722 0 0 0 128 128 128 255
0.596613 2.37001 2.89722 0 0 0 128 128 128 255
0.569709 2.36773 2.89722 0 0 0 128 128 128 255
0.358465 2.34985 2.89722 0 0 0 128 128 128 255
1.09884 2.41224 2.89818 0 0 0 128 128 128 255
2.39423 2.52161 2.89914 0 0 0 128 128 128 255
1.18456 2.41921 2.89914 0 0 0 128 128 128 255
0.843777 2.39036 2.89914 0 0 0 128 128 128 255
0.57175 2.36733 2.89914 0 0 0 128 128 128 255
2.9692 2.57 2.9001 0 0 0 128 128 128 255
2.84365 2.55937 2.9001 0 0 0 128 128 128 255
2.35639 2.51812 2.9001 0 0 0 128 128 128 255
1.53732 2.44878 2.9001 0 0 0 128 128 128 255
1.10487 2.41217 2.9001 0 0 0 128 128 128 255
0.563803 2.36637 2.9001 0 0 0 128 128 128 255
0.809947 2.38692 2.90106 0 0 0 128 128 128 255
2.77395 2.55289 2.90202 0 0 0 128 128 128 255
0.581787 2.36732 2.90202 0 0 0 128 128 128 255
2.78991 2.55396 2.90297 0 0 0 128 128 128 255
0.969425 2.39985 2.90297 0 0 0 128 128 128 255
0.60174 2.36872 2.90297 0 0 0 128 128 128 255
2.61058 2.53849 2.90393 0 0 0 128 128 128 255
2.23891 2.50703 2.90393 0 0 0 128 128 128 255
1.47464 2.44233 2.90393 0 0 0 128 128 128 255
1.25742 2.42394 2.90393 0 0 0 128 128 128 255
0.943541 2.39737 2.90393 0 0 0 128 128 128 255
2.75808 2.55069 2.90489 0 0 0 128 128 128 255
2.67139 2.54335 2.90489 0 0 0 128 128 128 255
2.6106 2.53821 2.90489 0 0 0 128 128 128 255
1.51452 2.44542 2.90489 0 0 0 128 128 128 255
1.4936 2.44365 2.90489 0 0 0 128 128 128 255
1.28933 2.42636 2.90489 0 0 0 128 128 128 255
0.845915 2.38882 2.90489 0 0 0 128 128 128 255
2.76507 2.551 2.90585 0 0 0 128 128 128 255
1.14188 2.41359 2.90585 0 0 0 128 128 128 255
2.8498 2.55788 2.90681 0 0 0 128 128 128 255
1.25948 2.42326 2.90681 0 0 0 128 128 128 255
0.982475 2.39981 2.90681 0 0 0 128 128 128 255
1.0672 2.40669 2.90777 0 0 0 128 128 128 255
2.24204 2.50557 2.90968 0 0 0 128 128 128 255
1.51664 2.44417 2.90968 0 0 0 128 128 128 255
1.49173 2.44206 2.90968 0 0 0 128 128 128 255
1.25657 2.42215 2.90968 0 0 0 128 128 128 255
0.790235 2.38267 2.90968 0 0 0 128 128 128 255
0.624826 2.36867 2.90968 0 0 0 128 128 128 255
2.64363 2.53928 2.91064 0 0 0 128 128 128 255
1.0025 2.40036 2.91064 0 0 0 128 128 128 255
2.266 2.50703 2.9116 0 0 0 128 128 128 255
2.1843 2.50011 2.9116 0 0 0 128 128 128 255
1.49377 2.44166 2.9116 0 0 0 128 128 128 255
1.47882 2.44039 2.9116 0 0 0 128 128 128 255
2.18532 2.49991 2.91256 0 0 0 128 128 128 255
1.53166 2.44458 2.91256 0 0 0 128 128 128 255
1.24169 2.42003 2.91256 0 0 0 128 128 128 255
0.793296 2.38207 2.91256 0 0 0 128 128 128 255
1.54463 2.44539 2.91352 0 0 0 128 128 128 255
1.37823 2.4313 2.91352 0 0 0 128 128 128 255
0.638873 2.36871 2.91352 0 0 0 128 128 128 255
0.377806 2.34661 2.91352 0 0 0 128 128 128 255
0.27617 2.33801 2.91352 0 0 0 128 128 128 255
2.97853 2.56649 2.91447 0 0 0 128 128 128 255
2.27504 2.50693 2.91447 0 0 0 128 128 128 255
0.330002 2.34228 2.91447 0 0 0 128 128 128 255
2.85998 2.55616 2.91543 0 0 0 128 128 128 255
1.52475 2.44313 2.91543 0 0 0 128 128 128 255
1.27963 2.42238 2.91543 0 0 0 128 128 128 255
1.18298 2.4142 2.91543 0 0 0 128 128 128 255
2.71153 2.54331 2.91639 0 0 0 128 128 128 255
0.617023 2.366 2.91639 0 0 0 128 128 128 255
2.77035 2.548 2.91735 0 0 0 128 128 128 255
2.27512 2.50608 2.91735 0 0 0 128 128 128 255
2.25818 2.50465 2.91735 0 0 0 128 128 128 255
0.530358 2.35838 2.91735 0 0 0 128 128 128 255
1.47899 2.4384 2.91831 0 0 0 128 128 128 255
0.328105 2.34097 2.91831 0 0 0 128 128 128 255
1.53681 2.44301 2.91927 0 0 0 128 128 128 255
1.28371 2.42158 2.91927 0 0 0 128 128 128 255
0.623074 2.36566 2.91927 0 0 0 128 128 128 255
0.604142 2.36405 2.91927 0 0 0 128 128 128 255
2.73654 2.54428 2.92023 0 0 0 128 128 128 255
1.48103 2.438 2.92023 0 0 0 128 128 128 255
0.635056 2.36638 2.92023 0 0 0 128 128 128 255
2.90795 2.55851 2.92118 0 0 0 128 128 128 255
0.654012 2.3677 2.92118 0 0 0 128 128 128 255
0.535436 2.35766 2.92118 0 0 0 128 128 128 255
1.52791 2.44139 2.92214 0 0 0 128 128 128 255
0.649054 2.367 2.92214 0 0 0 128 128 128 255
2.18459 2.4967 2.9231 0 0 0 128 128 128 255
2.17163 2.4956 2.9231 0 0 0 128 128 128 255
0.866301 2.3851 2.9231 0 0 0 128 128 128 255
0.859326 2.38451 2.9231 0 0 0 128 128 128 255
0.600253 2.36258 2.9231 0 0 0 128 128 128 255
2.90404 2.55731 2.92406 0 0 0 128 128 128 255
1.51202 2.43948 2.92406 0 0 0 128 128 128 255
1.18618 2.41189 2.92406 0 0 0 128 128 128 255
1.1802 2.41139 2.92406 0 0 0 128 128 128 255
0.289389 2.33598 2.92406 0 0 0 128 128 128 255
2.26335 2.50279 2.92502 0 0 0 128 128 128 255
1.59574 2.44628 2.92502 0 0 0 128 128 128 255
1.54791 2.44223 2.92502 0 0 0 128 128 128 255
1.45126 2.43405 2.92502 0 0 0 128 128 128 255
1.24998 2.41701 2.92502 0 0 0 128 128 128 255
1.24798 2.41684 2.92502 0 0 0 128 128 128 255
2.12786 2.49104 2.92598 0 0 0 128 128 128 255
1.54196 2.44144 2.92598 0 0 0 128 128 128 255
1.50609 2.4384 2.92598 0 0 0 128 128 128 255
0.572425 2.35936 2.92598 0 0 0 128 128 128 255
0.36417 2.34173 2.92598 0 0 0 128 128 128 255
1.33074 2.42327 2.92693 0 0 0 128 128 128 255
1.28889 2.41973 2.92693 0 0 0 128 128 128 255
2.662 2.53568 2.92789 0 0 0 128 128 128 255
1.50115 2.43741 2.92789 0 0 0 128 128 128 255
0.331335 2.33838 2.92789 0 0 0 128 128 128 255
0.325357 2.33787 2.92789 0 0 0 128 128 128 255
0.287492 2.33467 2.92789 0 0 0 128 128 128 255
2.09707 2.48728 2.92981 0 0 0 128 128 128 255
1.27202 2.41744 2.92981 0 0 0 128 128 128 255
1.03985 2.39779 2.92981 0 0 0 128 128 128 255
0.432024 2.34633 2.92981 0 0 0 128 128 128 255
0.161989 2.32347 2.92981 0 0 0 128 128 128 255
2.77168 2.5441 2.93077 0 0 0 128 128 128 255
1.05482 2.39877 2.93077 0 0 0 128 128 128 255
1.005 2.39455 2.93077 0 0 0 128 128 128 255
0.98208 2.39261 2.93077 0 0 0 128 128 128 255
0.935272 2.38836 2.93173 0 0 0 128 128 128 255
0.314492 2.33581 2.93173 0 0 0 128 128 128 255
0.666258 2.3653 2.93268 0 0 0 128 128 128 255
3.06969 2.56847 2.93364 0 0 0 128 128 128 255
2.85446 2.55025 2.93364 0 0 0 128 128 128 255
0.132193 2.3198 2.93364 0 0 0 128 128 128 255
2.99797 2.56211 2.9346 0 0 0 128 128 128 255
2.16694 2.49176 2.9346 0 0 0 128 128 128 255
1.52523 2.43744 2.9346 0 0 0 128 128 128 255
1.46744 2.43255 2.9346 0 0 0 128 128 128 255
1.38872 2.42589 2.9346 0 0 0 128 128 128 255
0.307614 2.33408 2.93556 0 0 0 128 128 128 255
2.76684 2.54198 2.93652 0 0 0 128 128 128 255
0.608561 2.35927 2.93652 0 0 0 128 128 128 255
2.8984 2.55283 2.93748 0 0 0 128 128 128 255
1.51734 2.43591 2.93748 0 0 0 128 128 128 255
1.06396 2.39753 2.93748 0 0 0 128 128 128 255
0.306665 2.33343 2.93748 0 0 0 128 128 128 255
2.2617 2.49864 2.93843 0 0 0 128 128 128 255
2.70115 2.53555 2.93939 0 0 0 128 128 128 255
2.67624 2.53345 2.93939 0 0 0 128 128 128 255
2.17702 2.49119 2.93939 0 0 0 128 128 128 255
1.57518 2.44024 2.93939 0 0 0 128 128 128 255
1.4297 2.42792 2.93939 0 0 0 128 128 128 255
0.591694 2.35698 2.93939 0 0 0 128 128 128 255
2.79484 2.5432 2.94035 0 0 0 128 128 128 255
2.79185 2.54295 2.94035 0 0 0 128 128 128 255
1.51342 2.43472 2.94035 0 0 0 128 128 128 255
1.24239 2.41178 2.94035 0 0 0 128 128 128 255
1.4995 2.43326 2.94131 0 0 0 128 128 128 255
0.346619 2.33566 2.94131 0 0 0 128 128 128 255
2.78791 2.54204 2.94227 0 0 0 128 128 128 255
2.19802 2.4921 2.94227 0 0 0 128 128 128 255
2.11432 2.48502 2.94227 0 0 0 128 128 128 255
1.26436 2.41307 2.94227 0 0 0 128 128 128 255
0.926569 2.38447 2.94227 0 0 0 128 128 128 255
0.863793 2.37916 2.94227 0 0 0 128 128 128 255
0.713332 2.36642 2.94227 0 0 0 128 128 128 255
0.327711 2.33378 2.94227 0 0 0 128 128 128 255
1.23549 2.41034 2.94323 0 0 0 128 128 128 255
0.4493 2.34378 2.94323 0 0 0 128 128 128 255
0.382539 2.33813 2.94323 0 0 0 128 128 128 255
2.87764 2.54906 2.94418 0 0 0 128 128 128 255
2.69728 2.53379 2.94418 0 0 0 128 128 128 255
0.680497 2.36307 2.94418 0 0 0 128 128 128 255
2.20108 2.4915 2.94514 0 0 0 128 128 128 255
0.966499 2.38699 2.94514 0 0 0 128 128 128 255
0.668564 2.36177 2.94514 0 0 0 128 128 128 255
1.25947 2.41151 2.9461 0 0 0 128 128 128 255
0.643677 2.35938 2.9461 0 0 0 128 128 128 255
0.920711 2.38254 2.94706 0 0 0 128 128 128 255
0.568969 2.35277 2.94706 0 0 0 128 128 128 255
0.531104 2.34956 2.94706 0 0 0 128 128 128 255
2.70635 2.53342 2.94802 0 0 0 128 128 128 255
2.07361 2.47985 2.94802 0 0 0 128 128 128 255
1.42692 2.42511 2.94802 0 0 0 128 128 128 255
1.03236 2.39142 2.94898 0 0 0 128 128 128 255
2.88775 2.5482 2.94993 0 0 0 128 128 128 255
2.74625 2.53622 2.94993 0 0 0 128 128 128 255
1.5874 2.43812 2.94993 0 0 0 128 128 128 255
0.373764 2.33509 2.95089 0 0 0 128 128 128 255
0.698626 2.36231 2.95185 0 0 0 128 128 128 255
2.79714 2.53967 2.95281 0 0 0 128 128 128 255
1.28256 2.41145 2.95281 0 0 0 128 128 128 255
1.02847 2.38994 2.95281 0 0 0 128 128 128 255
0.533242 2.34802 2.95281 0 0 0 128 128 128 255
3.01838 2.55811 2.95377 0 0 0 128 128 128 255
0.936822 2.3819 2.95377 0 0 0 128 128 128 255
3.01043 2.55715 2.95473 0 0 0 128 128 128 255
2.69855 2.53075 2.95473 0 0 0 128 128 128 255
1.43008 2.42337 2.95473 0 0 0 128 128 128 255
0.962754 2.38381 2.95473 0 0 0 128 128 128 255
1.25772 2.40849 2.95568 0 0 0 128 128 128 255
1.24577 2.40748 2.95568 0 0 0 128 128 128 255
0.570182 2.35029 2.95568 0 0 0 128 128 128 255
2.87197 2.54486 2.95664 0 0 0 128 128 128 255
1.28864 2.41082 2.95664 0 0 0 128 128 128 255
1.25376 2.40787 2.95664 0 0 0 128 128 128 255
0.995684 2.38602 2.95664 0 0 0 128 128 128 255
1.21094 2.40396 2.9576 0 0 0 128 128 128 255
0.981758 2.38456 2.9576 0 0 0 128 128 128 255
0.346032 2.33074 2.9576 0 0 0 128 128 128 255
1.5079 2.42881 2.95856 0 0 0 128 128 128 255
0.430753 2.33763 2.95856 0 0 0 128 128 128 255
1.60458 2.43671 2.95952 0 0 0 128 128 128 255
1.5717 2.43392 2.95952 0 0 0 128 128 128 255
1.26181 2.40769 2.95952 0 0 0 128 128 128 255
1.44517 2.42293 2.96048 0 0 0 128 128 128 255
1.30468 2.41103 2.96048 0 0 0 128 128 128 255
1.213 2.40327 2.96048 0 0 0 128 128 128 255
1.00575 2.38573 2.96048 0 0 0 128 128 128 255
2.92291 2.54774 2.96143 0 0 0 128 128 128 255
0.604205 2.35145 2.96143 0 0 0 128 128 128 255
0.387007 2.33278 2.96239 0 0 0 128 128 128 255
2.80239 2.53696 2.96335 0 0 0 128 128 128 255
2.70175 2.52844 2.96335 0 0 0 128 128 128 255
1.25792 2.40622 2.96335 0 0 0 128 128 128 255
0.531514 2.34472 2.96335 0 0 0 128 128 128 255
0.497635 2.34186 2.96335 0 0 0 128 128 128 255
1.54093 2.42989 2.96431 0 0 0 128 128 128 255
2.76657 2.53335 2.96527 0 0 0 128 128 128 255
2.07604 2.4749 2.96527 0 0 0 128 128 128 255
2.07404 2.47473 2.96527 0 0 0 128 128 128 255
0.792628 2.36625 2.96527 0 0 0 128 128 128 255
0.402025 2.33319 2.96527 0 0 0 128 128 128 255
2.80545 2.53636 2.96623 0 0 0 128 128 128 255
0.943114 2.37871 2.96623 0 0 0 128 128 128 255
2.26641 2.49044 2.96719 0 0 0 128 128 128 255
1.0089 2.38399 2.96719 0 0 0 128 128 128 255
0.783733 2.36464 2.96814 0 0 0 128 128 128 255
2.99983 2.55196 2.9691 0 0 0 128 128 128 255
0.560555 2.34546 2.9691 0 0 0 128 128 128 255
0.415075 2.33315 2.9691 0 0 0 128 128 128 255
2.07018 2.47297 2.97006 0 0 0 128 128 128 255
0.45695 2.33641 2.97006 0 0 0 128 128 128 255
2.95803 2.54784 2.97102 0 0 0 128 128 128 255
3.02182 2.55296 2.97198 0 0 0 128 128 128 255
2.95706 2.54747 2.97198 0 0 0 128 128 128 255
2.78168 2.53263 2.97198 0 0 0 128 128 128 255
3.02484 2.55293 2.97294 0 0 0 128 128 128 255
1.32791 2.40927 2.97294 0 0 0 128 128 128 255
1.30599 2.40742 2.97294 0 0 0 128 128 128 255
0.359371 2.32729 2.97294 0 0 0 128 128 128 255
3.00892 2.55129 2.97389 0 0 0 128 128 128 255
2.15896 2.47934 2.97389 0 0 0 128 128 128 255
0.978182 2.37938 2.97389 0 0 0 128 128 128 255
0.404235 2.3308 2.97389 0 0 0 128 128 128 255
2.89834 2.54164 2.97485 0 0 0 128 128 128 255
2.8525 2.53776 2.97485 0 0 0 128 128 128 255
2.19386 2.48201 2.97485 0 0 0 128 128 128 255
0.980199 2.37927 2.97485 0 0 0 128 128 128 255
0.682265 2.35405 2.97485 0 0 0 128 128 128 255
2.98007 2.54828 2.97581 0 0 0 128 128 128 255
2.19089 2.48147 2.97581 0 0 0 128 128 128 255
2.17597 2.47992 2.97677 0 0 0 128 128 128 255
1.21541 2.39861 2.97677 0 0 0 128 128 128 255
0.730142 2.35753 2.97677 0 0 0 128 128 128 255
2.96318 2.54627 2.97773 0 0 0 128 128 128 255
2.10126 2.47331 2.97773 0 0 0 128 128 128 255
0.938421 2.37487 2.97773 0 0 0 128 128 128 255
3.00605 2.54962 2.97869 0 0 0 128 128 128 255
2.81374 2.53334 2.97869 0 0 0 128 128 128 255
2.14015 2.47631 2.97869 0 0 0 128 128 128 255
2.10428 2.47328 2.97869 0 0 0 128 128 128 255
1.17759 2.39483 2.97869 0 0 0 128 128 128 255
0.549835 2.34169 2.97869 0 0 0 128 128 128 255
2.31953 2.49121 2.97964 0 0 0 128 128 128 255
2.06145 2.46937 2.97964 0 0 0 128 128 128 255
0.981316 2.37793 2.97964 0 0 0 128 128 128 255
1.50945 2.42235 2.9806 0 0 0 128 128 128 255
1.04113 2.38271 2.9806 0 0 0 128 128 128 255
2.89851 2.53965 2.98156 0 0 0 128 128 128 255
2.72114 2.52464 2.98156 0 0 0 128 128 128 255
1.32414 2.40638 2.98156 0 0 0 128 128 128 255
2.32359 2.4907 2.98252 0 0 0 128 128 128 255
1.37199 2.41014 2.98252 0 0 0 128 128 128 255
1.35704 2.40888 2.98252 0 0 0 128 128 128 255
1.00231 2.37885 2.98252 0 0 0 128 128 128 255
2.90453 2.53959 2.98348 0 0 0 128 128 128 255
2.11137 2.47245 2.98348 0 0 0 128 128 128 255
1.25742 2.40016 2.98348 0 0 0 128 128 128 255
0.784118 2.36009 2.98348 0 0 0 128 128 128 255
2.12435 2.47326 2.98444 0 0 0 128 128 128 255
0.684522 2.35108 2.98539 0 0 0 128 128 128 255
1.55145 2.42419 2.98635 0 0 0 128 128 128 255
1.03233 2.37995 2.98731 0 0 0 128 128 128 255
1.0114 2.37818 2.98731 0 0 0 128 128 128 255
2.91263 2.53884 2.98827 0 0 0 128 128 128 255
2.29882 2.48688 2.98827 0 0 0 128 128 128 255
0.791213 2.35926 2.98827 0 0 0 128 128 128 255
0.38965 2.32526 2.98827 0 0 0 128 128 128 255
1.37116 2.40807 2.98923 0 0 0 128 128 128 255
0.67864 2.34944 2.98923 0 0 0 128 128 128 255
0.415581 2.32717 2.98923 0 0 0 128 128 128 255
1.23866 2.39656 2.99019 0 0 0 128 128 128 255
0.687632 2.34992 2.99019 0 0 0 128 128 128 255
1.00552 2.37654 2.99114 0 0 0 128 128 128 255
2.72539 2.52185 2.9921 0 0 0 128 128 128 255
1.00853 2.37651 2.9921 0 0 0 128 128 128 255
0.99259 2.37516 2.9921 0 0 0 128 128 128 255
0.723552 2.35238 2.9921 0 0 0 128 128 128 255
2.88883 2.53539 2.99306 0 0 0 128 128 128 255
0.962721 2.37234 2.99306 0 0 0 128 128 128 255
0.711619 2.35109 2.99306 0 0 0 128 128 128 255
2.10765 2.46898 2.99402 0 0 0 128 128 128 255
0.72659 2.35207 2.99402 0 0 0 128 128 128 255
2.81315 2.52841 2.99498 0 0 0 128 128 128 255
2.31294 2.48607 2.99498 0 0 0 128 128 128 255
2.81218 2.52805 2.99594 0 0 0 128 128 128 255
0.9608 2.37132 2.99594 0 0 0 128 128 128 255
0.829271 2.36019 2.99594 0 0 0 128 128 128 255
0.750552 2.35352 2.99594 0 0 0 128 128 128 255
0.746566 2.35318 2.99594 0 0 0 128 128 128 255
0.411764 2.32484 2.99594 0 0 0 128 128 128 255
1.3584 2.40469 2.99689 0 0 0 128 128 128 255
1.0236 2.37635 2.99689 0 0 0 128 128 128 255
0.504457 2.3324 2.99689 0 0 0 128 128 128 255
1.01366 2.37522 2.99785 0 0 0 128 128 128 255
0.706757 2.34924 2.99785 0 0 0 128 128 128 255
2.33496 2.48679 2.99881 0 0 0 128 128 128 255
0.775559 2.35449 2.99977 0 0 0 128 128 128 255
2.20148 2.47492 3.00073 0 0 0 128 128 128 255
2.02113 2.45965 3.00073 0 0 0 128 128 128 255
1.4133 2.40819 3.00073 0 0 0 128 128 128 255
2.33403 2.48585 3.00169 0 0 0 128 128 128 255
1.02771 2.37526 3.00169 0 0 0 128 128 128 255
0.990838 2.37214 3.00169 0 0 0 128 128 128 255
0.11497 2.298 3.00169 0 0 0 128 128 128 255
2.32011 2.48438 3.00264 0 0 0 128 128 128 255
1.36751 2.40374 3.00264 0 0 0 128 128 128 255
2.33408 2.48528 3.0036 0 0 0 128 128 128 255
0.997861 2.37217 3.0036 0 0 0 128 128 128 255
0.725858 2.34885 3.00456 0 0 0 128 128 128 255
2.21157 2.47434 3.00552 0 0 0 128 128 128 255
1.60175 2.42271 3.00552 0 0 0 128 128 128 255
0.980994 2.36988 3.00648 0 0 0 128 128 128 255
0.733878 2.34896 3.00648 0 0 0 128 128 128 255
0.490747 2.32838 3.00648 0 0 0 128 128 128 255
0.128044 2.29767 3.00648 0 0 0 128 128 128 255
1.13447 2.38258 3.00744 0 0 0 128 128 128 255
1.06173 2.37643 3.00744 0 0 0 128 128 128 255
0.751862 2.34991 3.00839 0 0 0 128 128 128 255
0.544603 2.33236 3.00839 0 0 0 128 128 128 255
2.20469 2.47261 3.00935 0 0 0 128 128 128 255
2.92015 2.53289 3.01031 0 0 0 128 128 128 255
1.3966 2.40391 3.01031 0 0 0 128 128 128 255
2.91819 2.53243 3.01127 0 0 0 128 128 128 255
1.63577 2.42387 3.01127 0 0 0 128 128 128 255
0.526739 2.32999 3.01127 0 0 0 128 128 128 255
0.147097 2.29785 3.01127 0 0 0 128 128 128 255
2.31537 2.48112 3.01223 0 0 0 128 128 128 255
0.67324 2.34211 3.01223 0 0 0 128 128 128 255
2.32237 2.48142 3.01319 0 0 0 128 128 128 255
1.93475 2.44861 3.01319 0 0 0 128 128 128 255
0.667285 2.34132 3.01319 0 0 0 128 128 128 255
2.32239 2.48114 3.01414 0 0 0 128 128 128 255
1.33891 2.39788 3.01414 0 0 0 128 128 128 255
1.26716 2.39181 3.01414 0 0 0 128 128 128 255
1.01805 2.37072 3.01414 0 0 0 128 128 128 255
0.165106 2.29852 3.01414 0 0 0 128 128 128 255
2.95814 2.53467 3.0151 0 0 0 128 128 128 255
1.6259 2.42189 3.0151 0 0 0 128 128 128 255
0.721141 2.3453 3.0151 0 0 0 128 128 128 255
0.521854 2.32843 3.0151 0 0 0 128 128 128 255
2.10721 2.46235 3.01606 0 0 0 128 128 128 255
1.93981 2.44818 3.01606 0 0 0 128 128 128 255
0.443159 2.32148 3.01606 0 0 0 128 128 128 255
1.41272 2.40327 3.01702 0 0 0 128 128 128 255
2.18797 2.46861 3.01798 0 0 0 128 128 128 255
1.45559 2.40661 3.01798 0 0 0 128 128 128 255
1.38783 2.40088 3.01798 0 0 0 128 128 128 255
1.15666 2.38131 3.01798 0 0 0 128 128 128 255
1.08093 2.3749 3.01798 0 0 0 128 128 128 255
0.954379 2.36419 3.01798 0 0 0 128 128 128 255
1.32906 2.39562 3.01894 0 0 0 128 128 128 255
1.14572 2.3801 3.01894 0 0 0 128 128 128 255
0.485082 2.32417 3.01894 0 0 0 128 128 128 255
1.02221 2.36907 3.02085 0 0 0 128 128 128 255
0.487123 2.32377 3.02085 0 0 0 128 128 128 255
2.12728 2.46233 3.02181 0 0 0 128 128 128 255
1.15277 2.37983 3.02181 0 0 0 128 128 128 255
0.754192 2.34609 3.02181 0 0 0 128 128 128 255
0.775141 2.34758 3.02277 0 0 0 128 128 128 255
1.94398 2.44624 3.02373 0 0 0 128 128 128 255
1.12394 2.37653 3.02469 0 0 0 128 128 128 255
0.483234 2.3223 3.02469 0 0 0 128 128 128 255
2.01378 2.45158 3.02565 0 0 0 128 128 128 255
0.483258 2.32201 3.02565 0 0 0 128 128 128 255
1.99886 2.45003 3.0266 0 0 0 128 128 128 255
0.468335 2.32046 3.0266 0 0 0 128 128 128 255
0.462356 2.31996 3.0266 0 0 0 128 128 128 255
2.12444 2.46037 3.02756 0 0 0 128 128 128 255
2.04771 2.45387 3.02756 0 0 0 128 128 128 255
1.22667 2.38408 3.02852 0 0 0 128 128 128 255
1.13301 2.37615 3.02852 0 0 0 128 128 128 255
0.756353 2.34427 3.02852 0 0 0 128 128 128 255
0.520198 2.32428 3.02852 0 0 0 128 128 128 255
1.63125 2.41805 3.02948 0 0 0 128 128 128 255
1.40605 2.39898 3.02948 0 0 0 128 128 128 255
0.9457 2.36001 3.02948 0 0 0 128 128 128 255
0.916804 2.35757 3.02948 0 0 0 128 128 128 255
0.669688 2.33665 3.02948 0 0 0 128 128 128 255
1.39811 2.39802 3.03044 0 0 0 128 128 128 255
1.32935 2.3922 3.03044 0 0 0 128 128 128 255
0.858038 2.3523 3.03044 0 0 0 128 128 128 255
0.50931 2.3225 3.0314 0 0 0 128 128 128 255
1.15203 2.37662 3.03235 0 0 0 128 128 128 255
1.60942 2.41505 3.03331 0 0 0 128 128 128 255
1.16003 2.37701 3.03331 0 0 0 128 128 128 255
0.499393 2.32108 3.03331 0 0 0 128 128 128 255
0.478468 2.31931 3.03331 0 0 0 128 128 128 255
2.1246 2.45838 3.03427 0 0 0 128 128 128 255
1.42909 2.3995 3.03427 0 0 0 128 128 128 255
1.36532 2.3941 3.03427 0 0 0 128 128 128 255
2.04693 2.45123 3.03619 0 0 0 128 128 128 255
1.40722 2.39708 3.03619 0 0 0 128 128 128 255
1.37934 2.39443 3.03715 0 0 0 128 128 128 255
0.441696 2.31505 3.03715 0 0 0 128 128 128 255
2.02805 2.44906 3.0381 0 0 0 128 128 128 255
1.14022 2.3739 3.0381 0 0 0 128 128 128 255
0.495528 2.31932 3.0381 0 0 0 128 128 128 255
1.41925 2.39723 3.03906 0 0 0 128 128 128 255
1.28274 2.38568 3.03906 0 0 0 128 128 128 255
1.16615 2.37581 3.03906 0 0 0 128 128 128 255
0.800461 2.34485 3.03906 0 0 0 128 128 128 255
1.3904 2.39422 3.04098 0 0 0 128 128 128 255
2.91397 2.52291 3.04194 0 0 0 128 128 128 255
2.04409 2.44927 3.04194 0 0 0 128 128 128 255
2.19955 2.46214 3.0429 0 0 0 128 128 128 255
1.19913 2.37745 3.0429 0 0 0 128 128 128 255
0.962977 2.35746 3.0429 0 0 0 128 128 128 255
0.860344 2.34877 3.0429 0 0 0 128 128 128 255
0.530524 2.32085 3.0429 0 0 0 128 128 128 255
2.93594 2.52419 3.04385 0 0 0 128 128 128 255
0.974958 2.35819 3.04385 0 0 0 128 128 128 255
2.05313 2.44917 3.04481 0 0 0 128 128 128 255
1.06765 2.36575 3.04481 0 0 0 128 128 128 255
0.757759 2.33952 3.04481 0 0 0 128 128 128 255
0.749812 2.33856 3.04577 0 0 0 128 128 128 255
2.0472 2.4481 3.04673 0 0 0 128 128 128 255
0.755815 2.33878 3.04673 0 0 0 128 128 128 255
0.695032 2.33363 3.04673 0 0 0 128 128 128 255
2.85932 2.51656 3.04769 0 0 0 128 128 128 255
1.05776 2.36405 3.04769 0 0 0 128 128 128 255
0.764806 2.33925 3.04769 0 0 0 128 128 128 255
2.91215 2.52075 3.04865 0 0 0 128 128 128 255
2.01735 2.445 3.04865 0 0 0 128 128 128 255
0.745898 2.33737 3.04865 0 0 0 128 128 128 255
0.724973 2.3356 3.04865 0 0 0 128 128 128 255
1.37966 2.39073 3.0496 0 0 0 128 128 128 255
1.08374 2.36539 3.05056 0 0 0 128 128 128 255
0.838615 2.34464 3.05056 0 0 0 128 128 128 255
2.05728 2.44752 3.05152 0 0 0 128 128 128 255
2.0523 2.4471 3.05152 0 0 0 128 128 128 255
1.47536 2.39826 3.05152 0 0 0 128 128 128 255
0.902411 2.34976 3.05152 0 0 0 128 128 128 255
0.698142 2.33246 3.05152 0 0 0 128 128 128 255
0.230813 2.2929 3.05152 0 0 0 128 128 128 255
2.06727 2.44808 3.05248 0 0 0 128 128 128 255
2.01247 2.44344 3.05248 0 0 0 128 128 128 255
1.20037 2.37469 3.05248 0 0 0 128 128 128 255
1.17745 2.37275 3.05248 0 0 0 128 128 128 255
0.82272 2.34272 3.05248 0 0 0 128 128 128 255
1.38476 2.38973 3.0544 0 0 0 128 128 128 255
1.08184 2.36409 3.0544 0 0 0 128 128 128 255
0.914441 2.34992 3.0544 0 0 0 128 128 128 255
1.40471 2.39113 3.05535 0 0 0 128 128 128 255
0.986208 2.3557 3.05535 0 0 0 128 128 128 255
1.14965 2.36925 3.05631 0 0 0 128 128 128 255
0.732141 2.33391 3.05631 0 0 0 128 128 128 255
0.713209 2.33231 3.05631 0 0 0 128 128 128 255
0.515914 2.31561 3.05631 0 0 0 128 128 128 255
1.51138 2.39959 3.05727 0 0 0 128 128 128 255
1.43266 2.39292 3.05727 0 0 0 128 128 128 255
1.37387 2.38795 3.05727 0 0 0 128 128 128 255
0.952377 2.35227 3.05727 0 0 0 128 128 128 255
0.667397 2.32814 3.05727 0 0 0 128 128 128 255
0.466117 2.3111 3.05727 0 0 0 128 128 128 255
1.55726 2.4029 3.05919 0 0 0 128 128 128 255
0.496058 2.31306 3.05919 0 0 0 128 128 128 255
1.40384 2.38962 3.06015 0 0 0 128 128 128 255
0.527968 2.31548 3.06015 0 0 0 128 128 128 255
2.9025 2.51621 3.0611 0 0 0 128 128 128 255
1.10094 2.3637 3.0611 0 0 0 128 128 128 255
3.11177 2.53363 3.06206 0 0 0 128 128 128 255
2.9085 2.51643 3.06206 0 0 0 128 128 128 255
2.82879 2.50968 3.06206 0 0 0 128 128 128 255
2.19505 2.45603 3.06206 0 0 0 128 128 128 255
2.03662 2.44262 3.06206 0 0 0 128 128 128 255
1.41783 2.39024 3.06206 0 0 0 128 128 128 255
1.33814 2.3832 3.06302 0 0 0 128 128 128 255
1.16775 2.36878 3.06302 0 0 0 128 128 128 255
1.11995 2.36445 3.06398 0 0 0 128 128 128 255
0.238101 2.28979 3.06398 0 0 0 128 128 128 255
2.20409 2.45594 3.06494 0 0 0 128 128 128 255
2.1463 2.45104 3.06494 0 0 0 128 128 128 255
1.46474 2.39335 3.06494 0 0 0 128 128 128 255
0.934634 2.34847 3.06494 0 0 0 128 128 128 255
1.50163 2.39618 3.0659 0 0 0 128 128 128 255
1.15188 2.36658 3.0659 0 0 0 128 128 128 255
0.246145 2.28962 3.06685 0 0 0 128 128 128 255
1.40203 2.38718 3.06781 0 0 0 128 128 128 255
1.34524 2.38237 3.06781 0 0 0 128 128 128 255
1.17584 2.36803 3.06781 0 0 0 128 128 128 255
0.698551 2.32763 3.06781 0 0 0 128 128 128 255
1.40405 2.38706 3.06877 0 0 0 128 128 128 255
0.50427 2.31089 3.06877 0 0 0 128 128 128 255
1.40607 2.38695 3.06973 0 0 0 128 128 128 255
2.96552 2.51867 3.07069 0 0 0 128 128 128 255
1.47983 2.39291 3.07069 0 0 0 128 128 128 255
1.41606 2.38751 3.07069 0 0 0 128 128 128 255
1.39214 2.38548 3.07069 0 0 0 128 128 128 255
1.34531 2.38152 3.07069 0 0 0 128 128 128 255
1.13506 2.36372 3.07069 0 0 0 128 128 128 255
0.902893 2.34407 3.07069 0 0 0 128 128 128 255
0.684698 2.32531 3.07165 0 0 0 128 128 128 255
1.40813 2.38626 3.07261 0 0 0 128 128 128 255
1.31845 2.37867 3.07261 0 0 0 128 128 128 255
0.238318 2.28723 3.07261 0 0 0 128 128 128 255
1.99008 2.43524 3.07356 0 0 0 128 128 128 255
0.875065 2.34085 3.07356 0 0 0 128 128 128 255
0.45158 2.305 3.07356 0 0 0 128 128 128 255
0.248307 2.28779 3.07356 0 0 0 128 128 128 255
2.06785 2.44125 3.07548 0 0 0 128 128 128 255
1.19397 2.36727 3.07548 0 0 0 128 128 128 255
1.12721 2.36162 3.07548 0 0 0 128 128 128 255
1.42218 2.38631 3.07644 0 0 0 128 128 128 255
0.549327 2.31213 3.0774 0 0 0 128 128 128 255
0.438722 2.30277 3.0774 0 0 0 128 128 128 255
0.241428 2.28606 3.0774 0 0 0 128 128 128 255
1.14522 2.36229 3.07836 0 0 0 128 128 128 255
2.06894 2.4402 3.07931 0 0 0 128 128 128 255
1.95834 2.43083 3.07931 0 0 0 128 128 128 255
1.55677 2.39684 3.07931 0 0 0 128 128 128 255
1.39336 2.38301 3.07931 0 0 0 128 128 128 255
1.21998 2.36833 3.07931 0 0 0 128 128 128 255
0.721758 2.32615 3.07931 0 0 0 128 128 128 255
2.97774 2.51656 3.08123 0 0 0 128 128 128 255
2.91496 2.51124 3.08123 0 0 0 128 128 128 255
2.13378 2.44483 3.08219 0 0 0 128 128 128 255
2.97081 2.5154 3.08315 0 0 0 128 128 128 255
0.844416 2.33539 3.08315 0 0 0 128 128 128 255
0.821498 2.33345 3.08315 0 0 0 128 128 128 255
2.91404 2.5103 3.08411 0 0 0 128 128 128 255
1.98436 2.4316 3.08411 0 0 0 128 128 128 255
2.06211 2.4379 3.08506 0 0 0 128 128 128 255
1.96545 2.42972 3.08506 0 0 0 128 128 128 255
1.12944 2.35895 3.08506 0 0 0 128 128 128 255
1.12048 2.35819 3.08506 0 0 0 128 128 128 255
0.566459 2.31129 3.08506 0 0 0 128 128 128 255
1.50612 2.39055 3.08602 0 0 0 128 128 128 255
1.17531 2.36254 3.08602 0 0 0 128 128 128 255
0.872389 2.3369 3.08602 0 0 0 128 128 128 255
1.94059 2.42704 3.08698 0 0 0 128 128 128 255
0.628286 2.31595 3.08698 0 0 0 128 128 128 255
2.21165 2.4497 3.08794 0 0 0 128 128 128 255
0.55856 2.30976 3.08794 0 0 0 128 128 128 255
2.06519 2.43701 3.0889 0 0 0 128 128 128 255
2.05124 2.43583 3.0889 0 0 0 128 128 128 255
0.830611 2.3325 3.0889 0 0 0 128 128 128 255
2.35618 2.46136 3.08986 0 0 0 128 128 128 255
2.02536 2.43336 3.08986 0 0 0 128 128 128 255
1.12259 2.35693 3.08986 0 0 0 128 128 128 255
1.1186 2.3566 3.08986 0 0 0 128 128 128 255
2.36517 2.46183 3.09081 0 0 0 128 128 128 255
1.15948 2.35977 3.09081 0 0 0 128 128 128 255
0.882473 2.33632 3.09081 0 0 0 128 128 128 255
0.579557 2.31068 3.09081 0 0 0 128 128 128 255
0.523756 2.30595 3.09081 0 0 0 128 128 128 255
1.44249 2.38344 3.09177 0 0 0 128 128 128 255
0.872533 2.33519 3.09177 0 0 0 128 128 128 255
1.21234 2.36367 3.09273 0 0 0 128 128 128 255
1.1406 2.3576 3.09273 0 0 0 128 128 128 255
1.22233 2.36423 3.09369 0 0 0 128 128 128 255
1.1476 2.3579 3.09369 0 0 0 128 128 128 255
1.07984 2.35217 3.09369 0 0 0 128 128 128 255
0.479986 2.30139 3.09369 0 0 0 128 128 128 255
1.2373 2.36521 3.09465 0 0 0 128 128 128 255
2.18195 2.44489 3.09561 0 0 0 128 128 128 255
1.2453 2.3656 3.09561 0 0 0 128 128 128 255
1.37585 2.37637 3.09656 0 0 0 128 128 128 255
0.575716 2.30863 3.09656 0 0 0 128 128 128 255
2.13417 2.44027 3.09752 0 0 0 128 128 128 255
2.05943 2.43395 3.09752 0 0 0 128 128 128 255
1.18954 2.36031 3.09752 0 0 0 128 128 128 255
2.81476 2.4976 3.09848 0 0 0 128 128 128 255
2.36636 2.45964 3.09848 0 0 0 128 128 128 255
0.846794 2.33101 3.09848 0 0 0 128 128 128 255
1.39585 2.3772 3.09944 0 0 0 128 128 128 255
1.22746 2.36294 3.09944 0 0 0 128 128 128 255
0.901623 2.33536 3.09944 0 0 0 128 128 128 255
0.454223 2.29749 3.09944 0 0 0 128 128 128 255
2.35744 2.45831 3.1004 0 0 0 128 128 128 255
1.56029 2.39083 3.1004 0 0 0 128 128 128 255
0.857803 2.33137 3.1004 0 0 0 128 128 128 255
1.15975 2.35664 3.10136 0 0 0 128 128 128 255
0.895692 2.33429 3.10136 0 0 0 128 128 128 255
0.866795 2.33184 3.10136 0 0 0 128 128 128 255
2.21002 2.44526 3.10231 0 0 0 128 128 128 255
2.18214 2.44262 3.10327 0 0 0 128 128 128 255
1.17873 2.35767 3.10327 0 0 0 128 128 128 255
0.741317 2.32036 3.10423 0 0 0 128 128 128 255
1.52255 2.38621 3.10519 0 0 0 128 128 128 255
2.18819 2.44227 3.10615 0 0 0 128 128 128 255
0.880866 2.3316 3.10615 0 0 0 128 128 128 255
1.37911 2.37349 3.10711 0 0 0 128 128 128 255
1.18381 2.35696 3.10711 0 0 0 128 128 128 255
1.14793 2.35392 3.10711 0 0 0 128 128 128 255
1.10509 2.35029 3.10711 0 0 0 128 128 128 255
1.95709 2.42184 3.10902 0 0 0 128 128 128 255
2.1853 2.44088 3.10998 0 0 0 128 128 128 255
1.98003 2.4235 3.10998 0 0 0 128 128 128 255
1.20082 2.35754 3.10998 0 0 0 128 128 128 255
2.83699 2.49576 3.11094 0 0 0 128 128 128 255
1.5546 2.38691 3.1119 0 0 0 128 128 128 255
2.21825 2.44281 3.11286 0 0 0 128 128 128 255
0.978685 2.33787 3.11286 0 0 0 128 128 128 255
0.928888 2.33337 3.11381 0 0 0 128 128 128 255
0.873111 2.32836 3.11477 0 0 0 128 128 128 255
1.12922 2.34976 3.11573 0 0 0 128 128 128 255
0.914986 2.33162 3.11573 0 0 0 128 128 128 255
0.845235 2.32572 3.11573 0 0 0 128 128 128 255
0.618048 2.30648 3.11573 0 0 0 128 128 128 255
2.89592 2.49903 3.11669 0 0 0 128 128 128 255
2.01211 2.42392 3.11765 0 0 0 128 128 128 255
1.97325 2.42063 3.11765 0 0 0 128 128 128 255
2.19747 2.43933 3.11861 0 0 0 128 128 128 255
2.2244 2.44132 3.11957 0 0 0 128 128 128 255
1.94739 2.41787 3.11957 0 0 0 128 128 128 255
2.18556 2.43775 3.12052 0 0 0 128 128 128 255
0.901156 2.32902 3.12052 0 0 0 128 128 128 255
0.91513 2.32991 3.12148 0 0 0 128 128 128 255
0.858333 2.32511 3.12148 0 0 0 128 128 128 255
0.574349 2.30107 3.12148 0 0 0 128 128 128 255
0.949033 2.3325 3.12244 0 0 0 128 128 128 255
1.55389 2.38341 3.1234 0 0 0 128 128 128 255
0.900232 2.32808 3.1234 0 0 0 128 128 128 255
2.00032 2.42092 3.12436 0 0 0 128 128 128 255
1.57883 2.38524 3.12436 0 0 0 128 128 128 255
2.88917 2.49588 3.12531 0 0 0 128 128 128 255
2.08504 2.4278 3.12531 0 0 0 128 128 128 255
1.24206 2.35644 3.12531 0 0 0 128 128 128 255
2.38001 2.45249 3.12627 0 0 0 128 128 128 255
1.96151 2.41706 3.12627 0 0 0 128 128 128 255
1.25802 2.35751 3.12627 0 0 0 128 128 128 255
0.652215 2.30594 3.12723 0 0 0 128 128 128 255
1.21921 2.35365 3.12819 0 0 0 128 128 128 255
0.645265 2.30506 3.12819 0 0 0 128 128 128 255
2.00445 2.41955 3.13011 0 0 0 128 128 128 255
1.99053 2.41808 3.13107 0 0 0 128 128 128 255
1.21131 2.35212 3.13107 0 0 0 128 128 128 255
0.587544 2.29932 3.13107 0 0 0 128 128 128 255
0.93931 2.32881 3.13202 0 0 0 128 128 128 255
0.644389 2.30356 3.13298 0 0 0 128 128 128 255
2.08028 2.42482 3.13394 0 0 0 128 128 128 255
1.39274 2.36662 3.13394 0 0 0 128 128 128 255
1.30904 2.35953 3.13394 0 0 0 128 128 128 255
0.984222 2.33175 3.1349 0 0 0 128 128 128 255
0.594615 2.29877 3.1349 0 0 0 128 128 128 255
0.379385 2.28055 3.1349 0 0 0 128 128 128 255
0.97134 2.3298 3.13777 0 0 0 128 128 128 255
0.917532 2.32525 3.13777 0 0 0 128 128 128 255
1.18662 2.34745 3.13969 0 0 0 128 128 128 255
1.3102 2.35763 3.14065 0 0 0 128 128 128 255
0.625649 2.29968 3.14065 0 0 0 128 128 128 255
0.60871 2.29824 3.14065 0 0 0 128 128 128 255
2.79691 2.48319 3.14161 0 0 0 128 128 128 255
2.85971 2.48822 3.14257 0 0 0 128 128 128 255
1.39794 2.36448 3.14257 0 0 0 128 128 128 255
2.85176 2.48726 3.14352 0 0 0 128 128 128 255
1.04622 2.33442 3.14352 0 0 0 128 128 128 255
0.873834 2.31983 3.14352 0 0 0 128 128 128 255
2.3705 2.44624 3.14448 0 0 0 128 128 128 255
1.93706 2.40955 3.14448 0 0 0 128 128 128 255
0.693503 2.30427 3.14448 0 0 0 128 128 128 255
2.17822 2.42967 3.14544 0 0 0 128 128 128 255
1.99587 2.41424 3.14544 0 0 0 128 128 128 255
0.612816 2.29716 3.14544 0 0 0 128 128 128 255
2.90564 2.49097 3.1464 0 0 0 128 128 128 255
2.35361 2.44424 3.1464 0 0 0 128 128 128 255
1.29739 2.35482 3.1464 0 0 0 128 128 128 255
0.663658 2.30117 3.1464 0 0 0 128 128 128 255
0.649708 2.29999 3.1464 0 0 0 128 128 128 255
0.915781 2.32223 3.14736 0 0 0 128 128 128 255
2.17032 2.42815 3.14832 0 0 0 128 128 128 255
1.27156 2.35178 3.14927 0 0 0 128 128 128 255
2.35271 2.44301 3.15023 0 0 0 128 128 128 255
2.21819 2.43163 3.15023 0 0 0 128 128 128 255
1.9452 2.40823 3.15119 0 0 0 128 128 128 255
2.15248 2.42549 3.15215 0 0 0 128 128 128 255
1.2248 2.34696 3.15215 0 0 0 128 128 128 255
0.665795 2.29964 3.15215 0 0 0 128 128 128 255
1.24076 2.34802 3.15311 0 0 0 128 128 128 255
0.698702 2.30214 3.15311 0 0 0 128 128 128 255
3.01046 2.49755 3.15407 0 0 0 128 128 128 255
1.25374 2.34883 3.15407 0 0 0 128 128 128 255
2.11568 2.42151 3.15502 0 0 0 128 128 128 255
1.1601 2.34062 3.15502 0 0 0 128 128 128 255
1.05946 2.3321 3.15502 0 0 0 128 128 128 255
2.01407 2.41263 3.15598 0 0 0 128 128 128 255
0.64696 2.2969 3.15598 0 0 0 128 128 128 255
0.615074 2.2942 3.15598 0 0 0 128 128 128 255
1.99815 2.41099 3.15694 0 0 0 128 128 128 255
1.14421 2.3387 3.15694 0 0 0 128 128 128 255
0.916021 2.31939 3.15694 0 0 0 128 128 128 255
0.650969 2.29695 3.15694 0 0 0 128 128 128 255
0.697826 2.30063 3.1579 0 0 0 128 128 128 255
2.40674 2.44501 3.15886 0 0 0 128 128 128 255
2.37087 2.44197 3.15886 0 0 0 128 128 128 255
2.32304 2.43792 3.15886 0 0 0 128 128 128 255
2.91494 2.48774 3.15982 0 0 0 128 128 128 255
2.35995 2.44047 3.16077 0 0 0 128 128 128 255
1.00978 2.32618 3.16077 0 0 0 128 128 128 255
2.78645 2.47629 3.16173 0 0 0 128 128 128 255
2.36396 2.44053 3.16173 0 0 0 128 128 128 255
0.67899 2.29789 3.16173 0 0 0 128 128 128 255
1.3526 2.35462 3.16269 0 0 0 128 128 128 255
2.38294 2.44156 3.16365 0 0 0 128 128 128 255
2.21554 2.42739 3.16365 0 0 0 128 128 128 255
1.33469 2.35282 3.16365 0 0 0 128 128 128 255
2.49955 2.45114 3.16461 0 0 0 128 128 128 255
2.38496 2.44144 3.16461 0 0 0 128 128 128 255
0.649169 2.2945 3.16461 0 0 0 128 128 128 255
0.876381 2.31345 3.16557 0 0 0 128 128 128 255
2.17376 2.42299 3.16652 0 0 0 128 128 128 255
0.97007 2.3211 3.16652 0 0 0 128 128 128 255
2.393 2.44127 3.16748 0 0 0 128 128 128 255
0.615363 2.29078 3.16748 0 0 0 128 128 128 255
2.30136 2.43322 3.16844 0 0 0 128 128 128 255
2.16983 2.42209 3.16844 0 0 0 128 128 128 255
2.90223 2.4838 3.1694 0 0 0 128 128 128 255
2.89924 2.48355 3.1694 0 0 0 128 128 128 255
1.29498 2.34774 3.1694 0 0 0 128 128 128 255
1.98454 2.40583 3.17036 0 0 0 128 128 128 255
1.29002 2.34703 3.17036 0 0 0 128 128 128 255
1.13557 2.33396 3.17036 0 0 0 128 128 128 255
0.895433 2.31363 3.17036 0 0 0 128 128 128 255
2.3094 2.43304 3.17132 0 0 0 128 128 128 255
1.39168 2.35535 3.17132 0 0 0 128 128 128 255
1.32393 2.34962 3.17132 0 0 0 128 128 128 255
2.15797 2.41994 3.17227 0 0 0 128 128 128 255
1.36381 2.35271 3.17227 0 0 0 128 128 128 255
2.15699 2.41957 3.17323 0 0 0 128 128 128 255
1.28113 2.34542 3.17323 0 0 0 128 128 128 255
1.25721 2.3434 3.17323 0 0 0 128 128 128 255
0.904474 2.31354 3.17323 0 0 0 128 128 128 255
0.719137 2.29785 3.17323 0 0 0 128 128 128 255
2.30449 2.43177 3.17419 0 0 0 128 128 128 255
0.704214 2.2963 3.17419 0 0 0 128 128 128 255
2.3932 2.43899 3.17515 0 0 0 128 128 128 255
0.954344 2.31719 3.17515 0 0 0 128 128 128 255
2.3434 2.43449 3.17611 0 0 0 128 128 128 255
2.8805 2.47967 3.17707 0 0 0 128 128 128 255
0.874677 2.30987 3.17707 0 0 0 128 128 128 255
0.730194 2.29764 3.17707 0 0 0 128 128 128 255
2.16608 2.4189 3.17803 0 0 0 128 128 128 255
1.9947 2.40439 3.17803 0 0 0 128 128 128 255
0.968366 2.31751 3.17803 0 0 0 128 128 128 255
2.36938 2.43583 3.17898 0 0 0 128 128 128 255
1.28426 2.34397 3.17898 0 0 0 128 128 128 255
1.27629 2.34329 3.17898 0 0 0 128 128 128 255
2.87659 2.47848 3.17994 0 0 0 128 128 128 255
2.48001 2.44491 3.17994 0 0 0 128 128 128 255
1.25937 2.34157 3.17994 0 0 0 128 128 128 255
2.49996 2.44631 3.1809 0 0 0 128 128 128 255
1.30224 2.34492 3.1809 0 0 0 128 128 128 255
0.722318 2.29582 3.1809 0 0 0 128 128 128 255
0.415416 2.26984 3.1809 0 0 0 128 128 128 255
2.52788 2.44839 3.18186 0 0 0 128 128 128 255
2.496 2.44569 3.18186 0 0 0 128 128 128 255
1.30528 2.3446 3.18282 0 0 0 128 128 128 255
1.08706 2.32613 3.18282 0 0 0 128 128 128 255
1.01532 2.32005 3.18282 0 0 0 128 128 128 255
2.41932 2.43862 3.18378 0 0 0 128 128 128 255
1.111 2.32787 3.18378 0 0 0 128 128 128 255
0.815059 2.30282 3.18378 0 0 0 128 128 128 255
0.672569 2.29075 3.18378 0 0 0 128 128 128 255
2.89763 2.47883 3.18473 0 0 0 128 128 128 255
2.49308 2.44458 3.18473 0 0 0 128 128 128 255
2.48312 2.44374 3.18473 0 0 0 128 128 128 255
2.41436 2.43792 3.18473 0 0 0 128 128 128 255
2.49211 2.44421 3.18569 0 0 0 128 128 128 255
0.746354 2.29643 3.18569 0 0 0 128 128 128 255
2.4742 2.44241 3.18665 0 0 0 128 128 128 255
2.40843 2.43684 3.18665 0 0 0 128 128 128 255
1.02937 2.3201 3.18665 0 0 0 128 128 128 255
0.895843 2.30879 3.18665 0 0 0 128 128 128 255
0.660684 2.28889 3.18665 0 0 0 128 128 128 255
2.84988 2.47392 3.18761 0 0 0 128 128 128 255
0.964621 2.31433 3.18761 0 0 0 128 128 128 255
1.32436 2.3445 3.18857 0 0 0 128 128 128 255
1.08621 2.32434 3.18857 0 0 0 128 128 128 255
1.04635 2.32096 3.18857 0 0 0 128 128 128 255
2.92167 2.47943 3.18953 0 0 0 128 128 128 255
2.47826 2.44189 3.18953 0 0 0 128 128 128 255
1.32538 2.3443 3.18953 0 0 0 128 128 128 255
0.718549 2.29293 3.18953 0 0 0 128 128 128 255
1.0454 2.32031 3.19048 0 0 0 128 128 128 255
1.03145 2.31913 3.19048 0 0 0 128 128 128 255
0.662773 2.28792 3.19048 0 0 0 128 128 128 255
2.34478 2.43002 3.19144 0 0 0 128 128 128 255
1.89539 2.39198 3.19144 0 0 0 128 128 128 255
1.34037 2.34499 3.19144 0 0 0 128 128 128 255
1.32941 2.34406 3.19144 0 0 0 128 128 128 255
0.66778 2.28805 3.19144 0 0 0 128 128 128 255
2.34481 2.42973 3.1924 0 0 0 128 128 128 255
1.30253 2.3415 3.1924 0 0 0 128 128 128 255
2.87493 2.47433 3.19336 0 0 0 128 128 128 255
1.30555 2.34147 3.19336 0 0 0 128 128 128 255
2.93275 2.47893 3.19432 0 0 0 128 128 128 255
1.06942 2.3212 3.19432 0 0 0 128 128 128 255
0.509418 2.27379 3.19432 0 0 0 128 128 128 255
2.87399 2.47367 3.19528 0 0 0 128 128 128 255
1.28567 2.33922 3.19528 0 0 0 128 128 128 255
1.04353 2.31872 3.19528 0 0 0 128 128 128 255
0.438696 2.26752 3.19528 0 0 0 128 128 128 255
2.83415 2.47001 3.19623 0 0 0 128 128 128 255
2.41665 2.43467 3.19623 0 0 0 128 128 128 255
0.587188 2.2798 3.19623 0 0 0 128 128 128 255
2.53325 2.44425 3.19719 0 0 0 128 128 128 255
2.50137 2.44156 3.19719 0 0 0 128 128 128 255
2.40471 2.43337 3.19719 0 0 0 128 128 128 255
2.30806 2.42519 3.19719 0 0 0 128 128 128 255
0.457676 2.26855 3.19719 0 0 0 128 128 128 255
0.427783 2.26602 3.19719 0 0 0 128 128 128 255
2.41071 2.43359 3.19815 0 0 0 128 128 128 255
1.27378 2.33735 3.19815 0 0 0 128 128 128 255
1.00076 2.31424 3.19815 0 0 0 128 128 128 255
0.727758 2.29084 3.19911 0 0 0 128 128 128 255
0.434806 2.26604 3.19911 0 0 0 128 128 128 255
1.27782 2.33712 3.20007 0 0 0 128 128 128 255
1.24892 2.33467 3.20007 0 0 0 128 128 128 255
0.631128 2.28237 3.20007 0 0 0 128 128 128 255
2.4078 2.43249 3.20103 0 0 0 128 128 128 255
1.3725 2.34485 3.20103 0 0 0 128 128 128 255
1.28382 2.33734 3.20103 0 0 0 128 128 128 255
1.26787 2.33599 3.20103 0 0 0 128 128 128 255
0.622184 2.28133 3.20103 0 0 0 128 128 128 255
2.84426 2.46915 3.20198 0 0 0 128 128 128 255
2.41679 2.43296 3.20198 0 0 0 128 128 128 255
1.30277 2.33866 3.20198 0 0 0 128 128 128 255
2.49254 2.43909 3.20294 0 0 0 128 128 128 255
1.26394 2.33508 3.20294 0 0 0 128 128 128 255
1.09454 2.32074 3.20294 0 0 0 128 128 128 255
1.01184 2.31374 3.20294 0 0 0 128 128 128 255
0.773691 2.29358 3.20294 0 0 0 128 128 128 255
2.26737 2.41974 3.2039 0 0 0 128 128 128 255
2.88419 2.47167 3.20486 0 0 0 128 128 128 255
1.91765 2.38985 3.20486 0 0 0 128 128 128 255
1.25402 2.33367 3.20486 0 0 0 128 128 128 255
1.01189 2.31317 3.20486 0 0 0 128 128 128 255
0.979005 2.31039 3.20486 0 0 0 128 128 128 255
2.97688 2.47923 3.20582 0 0 0 128 128 128 255
2.82044 2.46599 3.20582 0 0 0 128 128 128 255
2.76564 2.46135 3.20582 0 0 0 128 128 128 255
2.4119 2.4314 3.20582 0 0 0 128 128 128 255
1.2381 2.33204 3.20582 0 0 0 128 128 128 255
1.23113 2.33145 3.20582 0 0 0 128 128 128 255
1.07469 2.3182 3.20582 0 0 0 128 128 128 255
0.57049 2.27552 3.20582 0 0 0 128 128 128 255
0.520668 2.2713 3.20582 0 0 0 128 128 128 255
2.90018 2.47245 3.20678 0 0 0 128 128 128 255
2.89919 2.47237 3.20678 0 0 0 128 128 128 255
2.28538 2.42041 3.20678 0 0 0 128 128 128 255
2.26744 2.41889 3.20678 0 0 0 128 128 128 255
2.04026 2.39965 3.20678 0 0 0 128 128 128 255
1.05179 2.31598 3.20678 0 0 0 128 128 128 255
0.837559 2.29784 3.20678 0 0 0 128 128 128 255
0.792719 2.29405 3.20678 0 0 0 128 128 128 255
2.87928 2.47039 3.20773 0 0 0 128 128 128 255
2.36512 2.42687 3.20773 0 0 0 128 128 128 255
1.04883 2.31544 3.20773 0 0 0 128 128 128 255
0.842565 2.29798 3.20773 0 0 0 128 128 128 255
2.36714 2.42675 3.20869 0 0 0 128 128 128 255
1.27704 2.33447 3.20869 0 0 0 128 128 128 255
2.4957 2.43735 3.20965 0 0 0 128 128 128 255
1.03094 2.31335 3.20965 0 0 0 128 128 128 255
0.603469 2.27717 3.20965 0 0 0 128 128 128 255
1.29701 2.33559 3.21061 0 0 0 128 128 128 255
1.01502 2.31172 3.21061 0 0 0 128 128 128 255
0.83068 2.29611 3.21061 0 0 0 128 128 128 255
0.726054 2.28726 3.21061 0 0 0 128 128 128 255
2.91824 2.47255 3.21157 0 0 0 128 128 128 255
2.50671 2.43771 3.21157 0 0 0 128 128 128 255
1.30301 2.33581 3.21157 0 0 0 128 128 128 255
1.22828 2.32949 3.21157 0 0 0 128 128 128 255
2.49278 2.43624 3.21253 0 0 0 128 128 128 255
1.29606 2.33494 3.21253 0 0 0 128 128 128 255
1.07187 2.31596 3.21253 0 0 0 128 128 128 255
0.458061 2.264 3.21253 0 0 0 128 128 128 255
2.51274 2.43765 3.21348 0 0 0 128 128 128 255
1.0121 2.31061 3.21348 0 0 0 128 128 128 255
2.51376 2.43745 3.21444 0 0 0 128 128 128 255
1.06892 2.31514 3.21444 0 0 0 128 128 128 255
1.36688 2.34007 3.2154 0 0 0 128 128 128 255
0.776993 2.29014 3.2154 0 0 0 128 128 128 255
1.38786 2.34127 3.21732 0 0 0 128 128 128 255
2.92737 2.47131 3.21828 0 0 0 128 128 128 255
2.83271 2.4633 3.21828 0 0 0 128 128 128 255
2.29264 2.41758 3.21828 0 0 0 128 128 128 255
1.29621 2.33323 3.21828 0 0 0 128 128 128 255
1.21948 2.32673 3.21828 0 0 0 128 128 128 255
2.89252 2.46808 3.21923 0 0 0 128 128 128 255
1.29723 2.33303 3.21923 0 0 0 128 128 128 255
2.83077 2.46256 3.22019 0 0 0 128 128 128 255
0.609712 2.27454 3.22019 0 0 0 128 128 128 255
2.89755 2.46793 3.22115 0 0 0 128 128 128 255
0.95251 2.30327 3.22115 0 0 0 128 128 128 255
2.8358 2.46242 3.22211 0 0 0 128 128 128 255
1.31324 2.33353 3.22211 0 0 0 128 128 128 255
1.0741 2.31328 3.22211 0 0 0 128 128 128 255
0.789119 2.28916 3.22211 0 0 0 128 128 128 255
2.90358 2.46787 3.22307 0 0 0 128 128 128 255
1.32724 2.33414 3.22403 0 0 0 128 128 128 255
0.772228 2.28715 3.22403 0 0 0 128 128 128 255
2.83786 2.46173 3.22499 0 0 0 128 128 128 255
1.403 2.34026 3.22499 0 0 0 128 128 128 255
1.03232 2.30888 3.22499 0 0 0 128 128 128 255
1.30338 2.33154 3.22594 0 0 0 128 128 128 255
1.11505 2.3156 3.22594 0 0 0 128 128 128 255
0.765301 2.28599 3.22594 0 0 0 128 128 128 255
0.756333 2.28523 3.22594 0 0 0 128 128 128 255
1.39109 2.33868 3.2269 0 0 0 128 128 128 255
1.29443 2.3305 3.2269 0 0 0 128 128 128 255
1.04333 2.30924 3.2269 0 0 0 128 128 128 255
1.02141 2.30739 3.2269 0 0 0 128 128 128 255
2.91765 2.46762 3.22786 0 0 0 128 128 128 255
1.06029 2.31039 3.22786 0 0 0 128 128 128 255
1.08124 2.31188 3.22882 0 0 0 128 128 128 255
2.89677 2.46528 3.22978 0 0 0 128 128 128 255
1.32639 2.33235 3.22978 0 0 0 128 128 128 255
1.04639 2.30864 3.22978 0 0 0 128 128 128 255
1.01852 2.306 3.23074 0 0 0 128 128 128 255
0.805279 2.28795 3.23074 0 0 0 128 128 128 255
0.690688 2.27824 3.23074 0 0 0 128 128 128 255
1.07534 2.31052 3.23169 0 0 0 128 128 128 255
3.00745 2.47379 3.23265 0 0 0 128 128 128 255
2.41258 2.42344 3.23265 0 0 0 128 128 128 255
1.43707 2.34086 3.23265 0 0 0 128 128 128 255
1.33244 2.332 3.23265 0 0 0 128 128 128 255
2.49232 2.4299 3.23361 0 0 0 128 128 128 255
2.83412 2.45855 3.23457 0 0 0 128 128 128 255
2.56309 2.4356 3.23457 0 0 0 128 128 128 255
2.48138 2.42869 3.23457 0 0 0 128 128 128 255
1.05548 2.30798 3.23457 0 0 0 128 128 128 255
1.01961 2.30494 3.23457 0 0 0 128 128 128 255
0.792421 2.28571 3.23457 0 0 0 128 128 128 255
2.89094 2.46307 3.23553 0 0 0 128 128 128 255
1.28668 2.32726 3.23553 0 0 0 128 128 128 255
0.885114 2.29327 3.23553 0 0 0 128 128 128 255
0.776503 2.28408 3.23553 0 0 0 128 128 128 255
0.761556 2.28281 3.23553 0 0 0 128 128 128 255
0.795459 2.28539 3.23649 0 0 0 128 128 128 255
2.44458 2.42471 3.23744 0 0 0 128 128 128 255
2.50539 2.42957 3.2384 0 0 0 128 128 128 255
2.21543 2.40503 3.2384 0 0 0 128 128 128 255
1.40134 2.33611 3.2384 0 0 0 128 128 128 255
0.735745 2.27948 3.23936 0 0 0 128 128 128 255
0.562365 2.2648 3.23936 0 0 0 128 128 128 255
1.09548 2.30965 3.24032 0 0 0 128 128 128 255
2.51941 2.4299 3.24128 0 0 0 128 128 128 255
1.03973 2.30435 3.24224 0 0 0 128 128 128 255
0.544502 2.26243 3.24224 0 0 0 128 128 128 255
0.483719 2.25729 3.24224 0 0 0 128 128 128 255
2.8722 2.45919 3.24319 0 0 0 128 128 128 255
1.03776 2.3039 3.24319 0 0 0 128 128 128 255
2.91109 2.4622 3.24415 0 0 0 128 128 128 255
2.87222 2.45891 3.24415 0 0 0 128 128 128 255
2.21757 2.40349 3.24415 0 0 0 128 128 128 255
2.96292 2.4663 3.24511 0 0 0 128 128 128 255
2.96093 2.46613 3.24511 0 0 0 128 128 128 255
2.48463 2.42581 3.24511 0 0 0 128 128 128 255
1.85887 2.37284 3.24511 0 0 0 128 128 128 255
1.39553 2.33361 3.24511 0 0 0 128 128 128 255
0.730907 2.27735 3.24511 0 0 0 128 128 128 255
0.53162 2.26048 3.24511 0 0 0 128 128 128 255
0.516674 2.25922 3.24511 0 0 0 128 128 128 255
0.763814 2.27985 3.24607 0 0 0 128 128 128 255
2.73379 2.44633 3.24703 0 0 0 128 128 128 255
2.54945 2.43072 3.24703 0 0 0 128 128 128 255
0.55359 2.26177 3.24703 0 0 0 128 128 128 255
1.78322 2.36557 3.24799 0 0 0 128 128 128 255
2.87633 2.45782 3.24894 0 0 0 128 128 128 255
2.48772 2.42493 3.24894 0 0 0 128 128 128 255
0.84659 2.286 3.24894 0 0 0 128 128 128 255
0.537695 2.25985 3.24894 0 0 0 128 128 128 255
1.78227 2.36492 3.2499 0 0 0 128 128 128 255
1.05886 2.30368 3.2499 0 0 0 128 128 128 255
0.994087 2.2982 3.2499 0 0 0 128 128 128 255
0.723056 2.27525 3.2499 0 0 0 128 128 128 255
2.51467 2.42663 3.25086 0 0 0 128 128 128 255
1.1147 2.30783 3.25182 0 0 0 128 128 128 255
2.7439 2.44547 3.25278 0 0 0 128 128 128 255
0.997149 2.2976 3.25278 0 0 0 128 128 128 255
2.73396 2.44434 3.25374 0 0 0 128 128 128 255
1.86009 2.37036 3.25374 0 0 0 128 128 128 255
1.17255 2.31216 3.25374 0 0 0 128 128 128 255
1.15561 2.31072 3.25374 0 0 0 128 128 128 255
2.94623 2.46202 3.25469 0 0 0 128 128 128 255
2.88046 2.45645 3.25469 0 0 0 128 128 128 255
0.63848 2.26666 3.25469 0 0 0 128 128 128 255
2.36236 2.41202 3.25661 0 0 0 128 128 128 255
1.07198 2.30278 3.25661 0 0 0 128 128 128 255
0.766072 2.27689 3.25661 0 0 0 128 128 128 255
0.794992 2.27905 3.25757 0 0 0 128 128 128 255
2.73906 2.44334 3.25853 0 0 0 128 128 128 255
2.55373 2.42765 3.25853 0 0 0 128 128 128 255
1.85224 2.36826 3.25853 0 0 0 128 128 128 255
0.795016 2.27877 3.25853 0 0 0 128 128 128 255
0.793024 2.2786 3.25853 0 0 0 128 128 128 255
0.553879 2.25835 3.25853 0 0 0 128 128 128 255
1.86023 2.36865 3.25949 0 0 0 128 128 128 255
0.803036 2.27887 3.26044 0 0 0 128 128 128 255
0.77414 2.27643 3.26044 0 0 0 128 128 128 255
0.529016 2.25568 3.26044 0 0 0 128 128 128 255
1.15779 2.30862 3.2614 0 0 0 128 128 128 255
