ply
format ascii 1.0
comment VCGLIB generated
element vertex 110
property float x
property float y
property float z
property float nx
property float ny
property float nz
property uchar red
property uchar green
property uchar blue
property uchar alpha
element face 0
property list uchar int vertex_indices
end_header
1.81786 1.80009 4.04974 0 0 0 128 128 0 255
1.82782 1.84937 4.31432 0 0 0 128 128 0 255
1.82151 1.91205 4.31631 0 0 0 128 128 0 255
1.85721 1.56991 4.3273 0 0 0 128 128 0 255
1.8461 1.67934 4.32929 0 0 0 128 128 0 255
1.82654 1.88844 4.36224 0 0 0 128 128 0 255
1.82512 1.9084 4.37322 0 0 0 128 128 0 255
1.84676 1.75581 4.47905 0 0 0 128 128 0 255
1.84841 1.74693 4.49203 0 0 0 128 128 0 255
1.94627 0.792937 4.49303 0 0 0 128 128 0 255
1.94452 0.8199 4.511 0 0 0 128 128 0 255
1.85309 1.71625 4.51899 0 0 0 128 128 0 255
1.94365 0.833885 4.52099 0 0 0 128 128 0 255
1.94675 0.808066 4.52897 0 0 0 128 128 0 255
1.94243 0.850848 4.52997 0 0 0 128 128 0 255
1.92757 0.999105 4.53596 0 0 0 128 128 0 255
1.89459 1.34957 4.58788 0 0 0 128 128 0 255
1.86656 1.63017 4.60086 0 0 0 128 128 0 255
1.92837 1.02834 4.60286 0 0 0 128 128 0 255
1.94708 0.856351 4.62183 0 0 0 128 128 0 255
1.94273 0.908177 4.6388 0 0 0 128 128 0 255
1.94166 0.919126 4.6398 0 0 0 128 128 0 255
1.93841 0.951965 4.6418 0 0 0 128 128 0 255
1.94649 0.876396 4.64779 0 0 0 128 128 0 255
1.92848 1.0565 4.65577 0 0 0 128 128 0 255
1.95064 0.843648 4.66176 0 0 0 128 128 0 255
1.9217 1.12818 4.66576 0 0 0 128 128 0 255
1.91467 1.19682 4.66576 0 0 0 128 128 0 255
1.92965 1.05561 4.67474 0 0 0 128 128 0 255
1.85812 1.75396 4.67574 0 0 0 128 128 0 255
1.91301 1.22178 4.68173 0 0 0 128 128 0 255
1.9019 1.33021 4.68173 0 0 0 128 128 0 255
1.85927 1.74603 4.68173 0 0 0 128 128 0 255
1.90981 1.25362 4.68273 0 0 0 128 128 0 255
1.90089 1.34117 4.68373 0 0 0 128 128 0 255
1.90977 1.25563 4.68573 0 0 0 128 128 0 255
1.90034 1.34815 4.68672 0 0 0 128 128 0 255
1.85439 1.80082 4.69471 0 0 0 128 128 0 255
1.90447 1.31339 4.69671 0 0 0 128 128 0 255
1.9009 1.34821 4.69671 0 0 0 128 128 0 255
1.90039 1.35318 4.69671 0 0 0 128 128 0 255
1.93397 1.02791 4.7007 0 0 0 128 128 0 255
1.89686 1.39102 4.7027 0 0 0 128 128 0 255
1.93617 1.00803 4.7037 0 0 0 128 128 0 255
1.93592 1.01102 4.70469 0 0 0 128 128 0 255
1.916 1.20701 4.70769 0 0 0 128 128 0 255
1.93584 1.01403 4.70869 0 0 0 128 128 0 255
1.93483 1.02498 4.71069 0 0 0 128 128 0 255
1.92173 1.15331 4.71168 0 0 0 128 128 0 255
1.90511 1.31546 4.71168 0 0 0 128 128 0 255
1.9222 1.14934 4.71268 0 0 0 128 128 0 255
1.90639 1.30353 4.71268 0 0 0 128 128 0 255
1.90989 1.27273 4.71867 0 0 0 128 128 0 255
1.92305 1.14541 4.72067 0 0 0 128 128 0 255
1.92882 1.08971 4.72167 0 0 0 128 128 0 255
1.9287 1.09472 4.72866 0 0 0 128 128 0 255
1.93968 0.98929 4.73165 0 0 0 128 128 0 255
1.92235 1.1584 4.73165 0 0 0 128 128 0 255
1.93494 1.03605 4.73265 0 0 0 128 128 0 255
1.9093 1.28674 4.73365 0 0 0 128 128 0 255
1.92216 1.16241 4.73565 0 0 0 128 128 0 255
1.92344 1.15047 4.73664 0 0 0 128 128 0 255
1.89212 1.45989 4.74363 0 0 0 128 128 0 255
1.92127 1.1794 4.75062 0 0 0 128 128 0 255
1.93831 1.01428 4.75262 0 0 0 128 128 0 255
1.91272 1.26498 4.75462 0 0 0 128 128 0 255
1.91252 1.26697 4.75462 0 0 0 128 128 0 255
1.91263 1.26698 4.75661 0 0 0 128 128 0 255
1.86927 1.69278 4.7616 0 0 0 128 128 0 255
1.8697 1.69182 4.76759 0 0 0 128 128 0 255
1.93805 1.02732 4.77159 0 0 0 128 128 0 255
1.91781 1.22529 4.77259 0 0 0 128 128 0 255
1.93542 1.0552 4.77558 0 0 0 128 128 0 255
1.87423 1.65207 4.77558 0 0 0 128 128 0 255
1.93922 1.02141 4.78157 0 0 0 128 128 0 255
1.9222 1.18855 4.78357 0 0 0 128 128 0 255
1.90629 1.34373 4.78357 0 0 0 128 128 0 255
1.85724 1.82223 4.78357 0 0 0 128 128 0 255
1.8568 1.82821 4.78656 0 0 0 128 128 0 255
1.85599 1.83718 4.78856 0 0 0 128 128 0 255
1.92288 1.18861 4.79555 0 0 0 128 128 0 255
1.92283 1.18962 4.79655 0 0 0 128 128 0 255
1.93763 1.04638 4.79855 0 0 0 128 128 0 255
1.85042 1.90094 4.80553 0 0 0 128 128 0 255
1.94368 0.99171 4.80653 0 0 0 128 128 0 255
1.85043 1.90195 4.80753 0 0 0 128 128 0 255
1.86488 1.76269 4.81053 0 0 0 128 128 0 255
1.86473 1.76469 4.81152 0 0 0 128 128 0 255
1.92246 1.20265 4.81352 0 0 0 128 128 0 255
1.86849 1.7319 4.81851 0 0 0 128 128 0 255
1.86152 1.80155 4.82151 0 0 0 128 128 0 255
1.90927 1.33901 4.8275 0 0 0 128 128 0 255
1.86436 1.77772 4.8285 0 0 0 128 128 0 255
1.91057 1.32909 4.83249 0 0 0 128 128 0 255
1.87412 1.68523 4.83349 0 0 0 128 128 0 255
1.91058 1.3301 4.83449 0 0 0 128 128 0 255
1.94065 1.04568 4.85046 0 0 0 128 128 0 255
1.8412 2.01962 4.85745 0 0 0 128 128 0 255
1.95233 0.938314 4.86244 0 0 0 128 128 0 255
1.88391 1.60682 4.86444 0 0 0 128 128 0 255
1.84171 2.03073 4.88641 0 0 0 128 128 0 255
1.88084 1.65777 4.90238 0 0 0 128 128 0 255
1.95471 0.940568 4.90837 0 0 0 128 128 0 255
1.95331 0.968571 4.93433 0 0 0 128 128 0 255
1.84962 2.01546 4.99823 0 0 0 128 128 0 255
1.9754 0.792908 5.00621 0 0 0 128 128 0 255
1.95652 0.980963 5.0132 0 0 0 128 128 0 255
1.95035 1.05773 5.04316 0 0 0 128 128 0 255
1.95522 1.0522 5.11903 0 0 0 128 128 0 255
1.95566 1.05124 5.12503 0 0 0 128 128 0 255
