ply
format ascii 1.0
comment VCGLIB generated
element vertex 354
property float x
property float y
property float z
property float nx
property float ny
property float nz
property uchar red
property uchar green
property uchar blue
property uchar alpha
element face 0
property list uchar int vertex_indices
end_header
3.8207 1.10401 3.12902 0 0 0 0 0 128 255
3.8207 1.15838 3.15537 0 0 0 0 0 128 255
3.78056 1.09165 3.20806 0 0 0 0 0 128 255
3.76868 1.04718 3.21169 0 0 0 0 0 128 255
3.80392 1.27813 3.24894 0 0 0 0 0 128 255
3.8418 1.46438 3.25893 0 0 0 0 0 128 255
3.7381 1.0316 3.26892 0 0 0 0 0 128 255
3.83736 1.46744 3.26983 0 0 0 0 0 128 255
3.84374 1.53471 3.28891 0 0 0 0 0 128 255
3.84213 1.55765 3.30344 0 0 0 0 0 128 255
3.83927 1.5583 3.3098 0 0 0 0 0 128 255
3.64407 0.721769 3.31798 0 0 0 0 0 128 255
3.64285 0.722048 3.3207 0 0 0 0 0 128 255
3.68717 0.9458 3.33524 0 0 0 0 0 128 255
3.64114 0.772704 3.34886 0 0 0 0 0 128 255
3.64185 0.777672 3.34977 0 0 0 0 0 128 255
3.63171 0.738958 3.3525 0 0 0 0 0 128 255
3.63279 0.753072 3.35704 0 0 0 0 0 128 255
3.63287 0.757158 3.35886 0 0 0 0 0 128 255
3.65004 0.832219 3.35886 0 0 0 0 0 128 255
3.62645 0.742213 3.36522 0 0 0 0 0 128 255
3.63367 0.788775 3.37248 0 0 0 0 0 128 255
3.71651 1.15656 3.37521 0 0 0 0 0 128 255
3.6401 0.869371 3.39792 0 0 0 0 0 128 255
3.63869 0.870719 3.40155 0 0 0 0 0 128 255
3.83967 1.75312 3.40337 0 0 0 0 0 128 255
3.58909 0.670744 3.40973 0 0 0 0 0 128 255
3.63439 0.870676 3.41064 0 0 0 0 0 128 255
3.60128 0.731556 3.41336 0 0 0 0 0 128 255
3.69805 1.15463 3.41336 0 0 0 0 0 128 255
3.64261 0.915984 3.41518 0 0 0 0 0 128 255
3.63953 0.904379 3.41609 0 0 0 0 0 128 255
3.57343 0.632267 3.42426 0 0 0 0 0 128 255
3.84646 1.83158 3.42699 0 0 0 0 0 128 255
3.56798 0.625308 3.43244 0 0 0 0 0 128 255
3.63071 0.903319 3.43426 0 0 0 0 0 128 255
3.58872 0.727249 3.43789 0 0 0 0 0 128 255
3.58408 0.70882 3.4388 0 0 0 0 0 128 255
3.5908 0.740108 3.43971 0 0 0 0 0 128 255
3.67576 1.11152 3.43971 0 0 0 0 0 128 255
3.84388 1.84653 3.43971 0 0 0 0 0 128 255
3.6712 1.10846 3.44788 0 0 0 0 0 128 255
3.60813 0.834623 3.44879 0 0 0 0 0 128 255
3.57601 0.726052 3.46424 0 0 0 0 0 128 255
3.84931 1.92838 3.46787 0 0 0 0 0 128 255
3.60508 0.868148 3.4715 0 0 0 0 0 128 255
3.85311 1.95624 3.47332 0 0 0 0 0 128 255
3.55146 0.639344 3.47423 0 0 0 0 0 128 255
3.55213 0.642268 3.47423 0 0 0 0 0 128 255
3.5745 0.743836 3.47605 0 0 0 0 0 128 255
3.61219 0.908581 3.47605 0 0 0 0 0 128 255
3.60227 0.870843 3.47877 0 0 0 0 0 128 255
3.6589 1.11845 3.47877 0 0 0 0 0 128 255
3.6598 1.12235 3.47877 0 0 0 0 0 128 255
3.6271 0.983134 3.48059 0 0 0 0 0 128 255
3.66857 1.16445 3.48059 0 0 0 0 0 128 255
3.64836 1.07983 3.4824 0 0 0 0 0 128 255
3.64732 1.07904 3.48422 0 0 0 0 0 128 255
3.57653 0.775174 3.48695 0 0 0 0 0 128 255
3.56888 0.749227 3.49058 0 0 0 0 0 128 255
3.54795 0.659636 3.49149 0 0 0 0 0 128 255
3.86547 2.04779 3.49149 0 0 0 0 0 128 255
3.56695 0.744539 3.4924 0 0 0 0 0 128 255
3.85462 2.00411 3.49331 0 0 0 0 0 128 255
3.54473 0.651142 3.49421 0 0 0 0 0 128 255
3.5917 0.864027 3.49785 0 0 0 0 0 128 255
3.65384 1.1432 3.50148 0 0 0 0 0 128 255
3.85078 2.01729 3.50784 0 0 0 0 0 128 255
3.85365 2.03921 3.51238 0 0 0 0 0 128 255
3.70897 1.40859 3.51329 0 0 0 0 0 128 255
3.84811 2.01688 3.51329 0 0 0 0 0 128 255
3.72715 1.49368 3.51602 0 0 0 0 0 128 255
3.79899 1.80961 3.51693 0 0 0 0 0 128 255
3.79565 1.80627 3.52238 0 0 0 0 0 128 255
3.80019 1.82986 3.52419 0 0 0 0 0 128 255
3.82876 1.95668 3.5251 0 0 0 0 0 128 255
3.79811 1.82828 3.52783 0 0 0 0 0 128 255
3.62098 1.08199 3.54145 0 0 0 0 0 128 255
3.63696 1.15937 3.54509 0 0 0 0 0 128 255
3.5247 0.674188 3.54781 0 0 0 0 0 128 255
3.61245 1.07471 3.55599 0 0 0 0 0 128 255
3.55942 0.84474 3.5569 0 0 0 0 0 128 255
3.58778 0.970586 3.5578 0 0 0 0 0 128 255
3.66608 1.31479 3.55871 0 0 0 0 0 128 255
3.62442 1.13454 3.55962 0 0 0 0 0 128 255
3.55315 0.826684 3.56144 0 0 0 0 0 128 255
3.57994 0.945706 3.56235 0 0 0 0 0 128 255
3.58039 0.947656 3.56235 0 0 0 0 0 128 255
3.89237 2.31348 3.56326 0 0 0 0 0 128 255
3.57645 0.934195 3.56416 0 0 0 0 0 128 255
3.54802 0.815546 3.56689 0 0 0 0 0 128 255
3.53354 0.763465 3.57234 0 0 0 0 0 128 255
3.86666 2.21985 3.57234 0 0 0 0 0 128 255
3.58345 0.991065 3.57688 0 0 0 0 0 128 255
3.7786 1.84608 3.57779 0 0 0 0 0 128 255
3.66384 1.34813 3.57961 0 0 0 0 0 128 255
3.69719 1.51079 3.58778 0 0 0 0 0 128 255
3.59024 1.04696 3.5896 0 0 0 0 0 128 255
3.85368 2.20436 3.59233 0 0 0 0 0 128 255
3.50231 0.670076 3.59323 0 0 0 0 0 128 255
3.69251 1.5016 3.59323 0 0 0 0 0 128 255
3.50172 0.671237 3.59505 0 0 0 0 0 128 255
3.57397 0.98708 3.59505 0 0 0 0 0 128 255
3.5782 1.0056 3.59505 0 0 0 0 0 128 255
3.6619 1.37525 3.59687 0 0 0 0 0 128 255
3.79818 1.98419 3.60323 0 0 0 0 0 128 255
3.86742 2.29251 3.60595 0 0 0 0 0 128 255
3.79369 1.97393 3.60777 0 0 0 0 0 128 255
3.79328 1.97403 3.60868 0 0 0 0 0 128 255
3.70435 1.58711 3.60959 0 0 0 0 0 128 255
3.57206 1.01624 3.61322 0 0 0 0 0 128 255
3.61331 1.19658 3.61322 0 0 0 0 0 128 255
3.56433 0.986206 3.61504 0 0 0 0 0 128 255
3.60726 1.1795 3.61776 0 0 0 0 0 128 255
3.86443 2.31884 3.62503 0 0 0 0 0 128 255
3.70338 1.62221 3.62866 0 0 0 0 0 128 255
3.68231 1.53574 3.63139 0 0 0 0 0 128 255
3.578 1.08156 3.6323 0 0 0 0 0 128 255
3.71093 1.6646 3.6332 0 0 0 0 0 128 255
3.6657 1.46875 3.63411 0 0 0 0 0 128 255
3.80621 2.08493 3.63502 0 0 0 0 0 128 255
3.80514 2.0821 3.63593 0 0 0 0 0 128 255
3.80708 2.09807 3.63956 0 0 0 0 0 128 255
3.7808 1.98509 3.64047 0 0 0 0 0 128 255
3.806 2.09524 3.64047 0 0 0 0 0 128 255
3.57236 1.07567 3.64138 0 0 0 0 0 128 255
3.68073 1.54943 3.64138 0 0 0 0 0 128 255
3.50394 0.77844 3.64229 0 0 0 0 0 128 255
3.59388 1.17538 3.64411 0 0 0 0 0 128 255
3.57055 1.07711 3.64592 0 0 0 0 0 128 255
3.69277 1.61336 3.64683 0 0 0 0 0 128 255
3.59337 1.18063 3.64774 0 0 0 0 0 128 255
3.69237 1.61345 3.64774 0 0 0 0 0 128 255
3.69307 1.61842 3.64865 0 0 0 0 0 128 255
3.50295 0.790977 3.65047 0 0 0 0 0 128 255
3.71277 1.70829 3.65047 0 0 0 0 0 128 255
3.81066 2.13623 3.65047 0 0 0 0 0 128 255
3.65175 1.44527 3.65228 0 0 0 0 0 128 255
3.80408 2.11312 3.65319 0 0 0 0 0 128 255
3.54759 0.999267 3.65682 0 0 0 0 0 128 255
3.50378 0.813355 3.65955 0 0 0 0 0 128 255
3.58562 1.17112 3.65955 0 0 0 0 0 128 255
3.74776 1.88186 3.66046 0 0 0 0 0 128 255
3.79867 2.1082 3.66227 0 0 0 0 0 128 255
3.79912 2.11015 3.66227 0 0 0 0 0 128 255
3.53542 0.96102 3.66409 0 0 0 0 0 128 255
3.79927 2.11832 3.66591 0 0 0 0 0 128 255
3.68396 1.62358 3.67045 0 0 0 0 0 128 255
3.68954 1.64795 3.67045 0 0 0 0 0 128 255
3.53349 0.967614 3.67136 0 0 0 0 0 128 255
3.683 1.62688 3.67408 0 0 0 0 0 128 255
3.56818 1.13612 3.67954 0 0 0 0 0 128 255
3.56343 1.12285 3.68317 0 0 0 0 0 128 255
3.55685 1.09973 3.68589 0 0 0 0 0 128 255
3.56287 1.12605 3.68589 0 0 0 0 0 128 255
3.70019 1.73578 3.69044 0 0 0 0 0 128 255
3.47808 0.774098 3.69498 0 0 0 0 0 128 255
3.49912 0.869817 3.6968 0 0 0 0 0 128 255
3.47106 0.749032 3.6977 0 0 0 0 0 128 255
3.4491 0.658653 3.70043 0 0 0 0 0 128 255
3.44766 0.657958 3.70315 0 0 0 0 0 128 255
3.6878 1.70784 3.70315 0 0 0 0 0 128 255
3.56587 1.17666 3.70406 0 0 0 0 0 128 255
3.69546 1.74507 3.70497 0 0 0 0 0 128 255
3.61638 1.4031 3.70679 0 0 0 0 0 128 255
3.55923 1.16074 3.71042 0 0 0 0 0 128 255
3.43391 0.655973 3.73132 0 0 0 0 0 128 255
3.52425 1.05282 3.73222 0 0 0 0 0 128 255
3.49999 0.948607 3.73313 0 0 0 0 0 128 255
3.5997 1.39768 3.73949 0 0 0 0 0 128 255
3.71885 1.92232 3.74131 0 0 0 0 0 128 255
3.45455 0.77435 3.74494 0 0 0 0 0 128 255
3.69006 1.81709 3.7513 0 0 0 0 0 128 255
3.71414 1.92237 3.7513 0 0 0 0 0 128 255
3.4957 0.971129 3.75312 0 0 0 0 0 128 255
3.71065 1.91086 3.75312 0 0 0 0 0 128 255
3.71225 1.91973 3.75403 0 0 0 0 0 128 255
3.53435 1.14386 3.75494 0 0 0 0 0 128 255
3.41666 0.631195 3.75584 0 0 0 0 0 128 255
3.68569 1.81296 3.75857 0 0 0 0 0 128 255
3.70802 1.91249 3.75948 0 0 0 0 0 128 255
3.48419 0.935806 3.76039 0 0 0 0 0 128 255
3.71051 1.92525 3.76039 0 0 0 0 0 128 255
3.48026 0.922345 3.7622 0 0 0 0 0 128 255
3.51263 1.06574 3.76311 0 0 0 0 0 128 255
3.68658 1.82814 3.76402 0 0 0 0 0 128 255
3.71111 1.93537 3.76402 0 0 0 0 0 128 255
3.53058 1.14985 3.76584 0 0 0 0 0 128 255
3.45266 0.826074 3.77401 0 0 0 0 0 128 255
3.46084 0.869339 3.77765 0 0 0 0 0 128 255
3.6736 1.80136 3.77855 0 0 0 0 0 128 255
3.48009 0.95726 3.77946 0 0 0 0 0 128 255
3.42714 0.73138 3.78219 0 0 0 0 0 128 255
3.45479 0.852259 3.78219 0 0 0 0 0 128 255
3.71021 1.97456 3.78491 0 0 0 0 0 128 255
3.46346 0.899516 3.78673 0 0 0 0 0 128 255
3.459 0.891302 3.79218 0 0 0 0 0 128 255
3.4276 0.755895 3.79309 0 0 0 0 0 128 255
3.45529 0.878816 3.794 0 0 0 0 0 128 255
3.45618 0.882715 3.794 0 0 0 0 0 128 255
3.46421 0.917809 3.794 0 0 0 0 0 128 255
3.67417 1.87509 3.81308 0 0 0 0 0 128 255
3.65808 1.81415 3.81762 0 0 0 0 0 128 255
3.66266 1.83977 3.82034 0 0 0 0 0 128 255
3.65784 1.83369 3.82761 0 0 0 0 0 128 255
3.65658 1.83193 3.82943 0 0 0 0 0 128 255
3.38465 0.680577 3.8476 0 0 0 0 0 128 255
3.40564 0.774253 3.8485 0 0 0 0 0 128 255
3.69524 2.07031 3.86304 0 0 0 0 0 128 255
3.63196 1.80679 3.8694 0 0 0 0 0 128 255
3.63534 1.82345 3.87031 0 0 0 0 0 128 255
3.69035 2.08271 3.87939 0 0 0 0 0 128 255
3.54925 1.46769 3.8803 0 0 0 0 0 128 255
3.68708 2.07218 3.88121 0 0 0 0 0 128 255
3.62589 1.82151 3.88938 0 0 0 0 0 128 255
3.54429 1.47601 3.89483 0 0 0 0 0 128 255
3.435 1.00758 3.89938 0 0 0 0 0 128 255
3.54961 1.50864 3.89938 0 0 0 0 0 128 255
3.44163 1.05531 3.90846 0 0 0 0 0 128 255
3.5743 1.63533 3.90846 0 0 0 0 0 128 255
3.61778 1.82542 3.90846 0 0 0 0 0 128 255
3.39931 0.883414 3.91482 0 0 0 0 0 128 255
3.54343 1.51724 3.91664 0 0 0 0 0 128 255
3.393 0.863316 3.91845 0 0 0 0 0 128 255
3.52775 1.4562 3.92027 0 0 0 0 0 128 255
3.54336 1.52443 3.92027 0 0 0 0 0 128 255
3.54544 1.53729 3.92209 0 0 0 0 0 128 255
3.68064 2.13212 3.9239 0 0 0 0 0 128 255
3.54318 1.53678 3.92663 0 0 0 0 0 128 255
3.4343 1.06827 3.93026 0 0 0 0 0 128 255
3.44054 1.09556 3.93026 0 0 0 0 0 128 255
3.59656 1.78513 3.9339 0 0 0 0 0 128 255
3.42488 1.05708 3.9448 0 0 0 0 0 128 255
3.44008 1.12542 3.94571 0 0 0 0 0 128 255
3.42526 1.06623 3.94843 0 0 0 0 0 128 255
3.59628 1.81392 3.94843 0 0 0 0 0 128 255
3.26896 0.394161 3.95388 0 0 0 0 0 128 255
3.27547 0.424474 3.95479 0 0 0 0 0 128 255
3.60194 1.85366 3.9557 0 0 0 0 0 128 255
3.56675 1.70168 3.95661 0 0 0 0 0 128 255
3.57199 1.73023 3.95933 0 0 0 0 0 128 255
3.27756 0.448615 3.96206 0 0 0 0 0 128 255
3.65625 2.10795 3.96388 0 0 0 0 0 128 255
3.46497 1.2736 3.96478 0 0 0 0 0 128 255
3.65391 2.10336 3.9666 0 0 0 0 0 128 255
3.50003 1.43997 3.97114 0 0 0 0 0 128 255
3.57428 1.76459 3.97114 0 0 0 0 0 128 255
3.65477 2.1165 3.97114 0 0 0 0 0 128 255
3.56317 1.71789 3.97205 0 0 0 0 0 128 255
3.57052 1.75006 3.97205 0 0 0 0 0 128 255
3.64879 2.09222 3.97205 0 0 0 0 0 128 255
3.64924 2.10545 3.9775 0 0 0 0 0 128 255
3.26287 0.429406 3.98386 0 0 0 0 0 128 255
3.55575 1.71548 3.98659 0 0 0 0 0 128 255
3.25767 0.414182 3.98749 0 0 0 0 0 128 255
3.64108 2.09603 3.99022 0 0 0 0 0 128 255
3.64175 2.09896 3.99022 0 0 0 0 0 128 255
3.56464 1.76371 3.99113 0 0 0 0 0 128 255
3.63867 2.08735 3.99113 0 0 0 0 0 128 255
3.51678 1.55821 3.99295 0 0 0 0 0 128 255
3.24743 0.391904 3.9984 0 0 0 0 0 128 255
3.5616 1.76543 3.9984 0 0 0 0 0 128 255
3.54158 1.67974 3.9993 0 0 0 0 0 128 255
3.54232 1.68675 4.00112 0 0 0 0 0 128 255
3.54879 1.71502 4.00112 0 0 0 0 0 128 255
3.55385 1.74464 4.00476 0 0 0 0 0 128 255
3.24258 0.395066 4.01021 0 0 0 0 0 128 255
3.62614 2.07381 4.01111 0 0 0 0 0 128 255
3.2469 0.417673 4.01202 0 0 0 0 0 128 255
3.53692 1.69312 4.01566 0 0 0 0 0 128 255
3.54435 1.72937 4.01747 0 0 0 0 0 128 255
3.62845 2.09892 4.01838 0 0 0 0 0 128 255
3.23784 0.393073 4.01929 0 0 0 0 0 128 255
3.53652 1.70449 4.02202 0 0 0 0 0 128 255
3.53203 1.69423 4.02656 0 0 0 0 0 128 255
3.44633 1.3271 4.03019 0 0 0 0 0 128 255
3.6129 2.05529 4.03019 0 0 0 0 0 128 255
3.61312 2.05627 4.03019 0 0 0 0 0 128 255
3.61494 2.06611 4.0311 0 0 0 0 0 128 255
3.44931 1.34386 4.03201 0 0 0 0 0 128 255
3.53122 1.7057 4.03382 0 0 0 0 0 128 255
3.43464 1.29284 4.03837 0 0 0 0 0 128 255
3.53063 1.71815 4.04109 0 0 0 0 0 128 255
3.53049 1.72126 4.04291 0 0 0 0 0 128 255
3.25653 0.527285 4.04473 0 0 0 0 0 128 255
3.36512 1.00202 4.04473 0 0 0 0 0 128 255
3.49363 1.56761 4.04654 0 0 0 0 0 128 255
3.49486 1.57861 4.04927 0 0 0 0 0 128 255
3.37234 1.04859 4.05199 0 0 0 0 0 128 255
3.48899 1.56046 4.0529 0 0 0 0 0 128 255
3.59602 2.02838 4.0529 0 0 0 0 0 128 255
3.21477 0.363471 4.05381 0 0 0 0 0 128 255
3.59628 2.0314 4.05381 0 0 0 0 0 128 255
3.42318 1.28213 4.05744 0 0 0 0 0 128 255
3.43549 1.33779 4.05835 0 0 0 0 0 128 255
3.42148 1.27842 4.05926 0 0 0 0 0 128 255
3.19974 0.325876 4.06744 0 0 0 0 0 128 255
3.41807 1.28227 4.06835 0 0 0 0 0 128 255
3.41645 1.29393 4.07743 0 0 0 0 0 128 255
3.41515 1.29012 4.07834 0 0 0 0 0 128 255
3.30192 0.796953 4.07925 0 0 0 0 0 128 255
3.39769 1.22128 4.08197 0 0 0 0 0 128 255
3.4182 1.31097 4.08197 0 0 0 0 0 128 255
3.40758 1.26826 4.08379 0 0 0 0 0 128 255
3.3978 1.22741 4.0847 0 0 0 0 0 128 255
3.18821 0.322358 4.09015 0 0 0 0 0 128 255
3.22122 0.466632 4.09015 0 0 0 0 0 128 255
3.34583 1.0208 4.09469 0 0 0 0 0 128 255
3.44371 1.44875 4.09469 0 0 0 0 0 128 255
3.32391 0.932462 4.09832 0 0 0 0 0 128 255
3.439 1.43751 4.09923 0 0 0 0 0 128 255
3.43837 1.43663 4.10014 0 0 0 0 0 128 255
3.2813 0.766792 4.10832 0 0 0 0 0 128 255
3.18884 0.366326 4.11013 0 0 0 0 0 128 255
3.43968 1.463 4.11013 0 0 0 0 0 128 255
3.19445 0.392739 4.11104 0 0 0 0 0 128 255
3.26807 0.716474 4.11195 0 0 0 0 0 128 255
3.26811 0.718517 4.11286 0 0 0 0 0 128 255
3.20352 0.439904 4.11468 0 0 0 0 0 128 255
3.276 0.768004 4.12013 0 0 0 0 0 128 255
3.29339 0.84404 4.12013 0 0 0 0 0 128 255
3.27388 0.764384 4.12285 0 0 0 0 0 128 255
3.27411 0.765359 4.12285 0 0 0 0 0 128 255
3.38184 1.23824 4.12376 0 0 0 0 0 128 255
3.55967 2.02131 4.12649 0 0 0 0 0 128 255
3.5489 1.98171 4.13012 0 0 0 0 0 128 255
3.54853 1.98385 4.13194 0 0 0 0 0 128 255
3.17713 0.363875 4.13375 0 0 0 0 0 128 255
3.54548 1.97428 4.13375 0 0 0 0 0 128 255
3.2674 0.767918 4.1383 0 0 0 0 0 128 255
3.21643 0.560052 4.14556 0 0 0 0 0 128 255
3.21457 0.55945 4.1492 0 0 0 0 0 128 255
3.1824 0.437554 4.15828 0 0 0 0 0 128 255
3.54254 2.01394 4.15919 0 0 0 0 0 128 255
3.53587 2.00726 4.17009 0 0 0 0 0 128 255
3.53487 2.00851 4.17282 0 0 0 0 0 128 255
3.36701 1.27651 4.17372 0 0 0 0 0 128 255
3.15686 0.363382 4.17645 0 0 0 0 0 128 255
3.15244 0.345928 4.17736 0 0 0 0 0 128 255
3.52436 1.97194 4.17736 0 0 0 0 0 128 255
3.26621 0.867696 4.18917 0 0 0 0 0 128 255
3.50135 1.96694 4.22369 0 0 0 0 0 128 255
3.44399 1.74617 4.23822 0 0 0 0 0 128 255
3.23513 0.934302 4.28728 0 0 0 0 0 128 255
3.45111 1.91791 4.30636 0 0 0 0 0 128 255
3.45026 1.91605 4.30726 0 0 0 0 0 128 255
3.23929 1.00311 4.31181 0 0 0 0 0 128 255
3.27265 1.18833 4.33088 0 0 0 0 0 128 255
3.27047 1.19191 4.33724 0 0 0 0 0 128 255
3.22205 0.989611 4.34178 0 0 0 0 0 128 255
3.27308 1.27645 4.37267 0 0 0 0 0 128 255
3.2832 1.33569 4.37994 0 0 0 0 0 128 255
3.24012 1.17731 4.39447 0 0 0 0 0 128 255
3.41662 1.97709 4.4081 0 0 0 0 0 128 255
