ply
format ascii 1.0
comment VCGLIB generated
element vertex 89
property float x
property float y
property float z
property float nx
property float ny
property float nz
property uchar red
property uchar green
property uchar blue
property uchar alpha
element face 0
property list uchar int vertex_indices
end_header
1.36505 1.16368 4.19932 0 0 0 0 128 0 255
1.28908 1.16652 4.23058 0 0 0 0 128 0 255
1.29536 1.18784 4.23579 0 0 0 0 128 0 255
1.28824 1.19702 4.24195 0 0 0 0 128 0 255
1.29356 1.24083 4.25569 0 0 0 0 128 0 255
1.29034 1.24646 4.25901 0 0 0 0 128 0 255
1.30756 1.29027 4.26801 0 0 0 0 128 0 255
1.04948 1.0208 4.27322 0 0 0 0 128 0 255
0.862012 0.869572 4.29312 0 0 0 0 128 0 255
0.730063 0.801673 4.32107 0 0 0 0 128 0 255
1.33482 1.46821 4.32154 0 0 0 0 128 0 255
0.719427 0.797829 4.32391 0 0 0 0 128 0 255
0.72279 0.801528 4.32391 0 0 0 0 128 0 255
0.96033 1.06805 4.3258 0 0 0 0 128 0 255
0.479427 0.542999 4.32722 0 0 0 0 128 0 255
0.906159 1.0281 4.33291 0 0 0 0 128 0 255
0.894261 1.02811 4.33765 0 0 0 0 128 0 255
0.711419 0.834841 4.34049 0 0 0 0 128 0 255
0.880976 1.02397 4.34144 0 0 0 0 128 0 255
0.464692 0.572612 4.3438 0 0 0 0 128 0 255
0.969329 1.13556 4.34665 0 0 0 0 128 0 255
0.966323 1.15451 4.3547 0 0 0 0 128 0 255
1.32045 1.56236 4.36133 0 0 0 0 128 0 255
0.854974 1.05166 4.36181 0 0 0 0 128 0 255
0.956045 1.21521 4.38076 0 0 0 0 128 0 255
0.541695 0.76074 4.38123 0 0 0 0 128 0 255
0.253136 0.444641 4.3817 0 0 0 0 128 0 255
0.793992 1.04088 4.38218 0 0 0 0 128 0 255
0.25053 0.44701 4.3836 0 0 0 0 128 0 255
0.771857 1.02046 4.3836 0 0 0 0 128 0 255
0.544554 0.774358 4.38502 0 0 0 0 128 0 255
0.850014 1.11428 4.38644 0 0 0 0 128 0 255
0.934099 1.20678 4.38644 0 0 0 0 128 0 255
0.780076 1.03866 4.38692 0 0 0 0 128 0 255
0.822624 1.09594 4.39071 0 0 0 0 128 0 255
0.946397 1.23209 4.39071 0 0 0 0 128 0 255
0.559627 0.807957 4.39118 0 0 0 0 128 0 255
0.828699 1.10393 4.39118 0 0 0 0 128 0 255
0.984109 1.27619 4.39165 0 0 0 0 128 0 255
0.553615 0.803962 4.39213 0 0 0 0 128 0 255
0.819365 1.0989 4.39307 0 0 0 0 128 0 255
0.548296 0.80204 4.39355 0 0 0 0 128 0 255
0.91827 1.209 4.39355 0 0 0 0 128 0 255
0.910913 1.20353 4.3945 0 0 0 0 128 0 255
0.956676 1.25518 4.39497 0 0 0 0 128 0 255
0.414517 0.660123 4.39544 0 0 0 0 128 0 255
0.413866 0.660715 4.39592 0 0 0 0 128 0 255
0.536314 0.796715 4.39639 0 0 0 0 128 0 255
0.840366 1.13116 4.39639 0 0 0 0 128 0 255
0.540435 0.806484 4.39828 0 0 0 0 128 0 255
0.227659 0.463747 4.39876 0 0 0 0 128 0 255
0.407265 0.66131 4.39876 0 0 0 0 128 0 255
0.901012 1.20442 4.39876 0 0 0 0 128 0 255
0.821678 1.11977 4.39971 0 0 0 0 128 0 255
0.833177 1.13635 4.40113 0 0 0 0 128 0 255
0.911901 1.22425 4.4016 0 0 0 0 128 0 255
0.222425 0.467154 4.40207 0 0 0 0 128 0 255
0.774044 1.07523 4.40255 0 0 0 0 128 0 255
0.842027 1.15263 4.4035 0 0 0 0 128 0 255
0.834691 1.14849 4.40492 0 0 0 0 128 0 255
0.844886 1.16625 4.40729 0 0 0 0 128 0 255
0.547225 0.859775 4.41487 0 0 0 0 128 0 255
1.02542 1.42243 4.42813 0 0 0 0 128 0 255
1.02758 1.43398 4.43145 0 0 0 0 128 0 255
0.763872 1.18449 4.44613 0 0 0 0 128 0 255
0.981947 1.43222 4.44897 0 0 0 0 128 0 255
0.998091 1.44998 4.44897 0 0 0 0 128 0 255
0.758113 1.19648 4.45276 0 0 0 0 128 0 255
0.972046 1.43311 4.45324 0 0 0 0 128 0 255
0.536212 0.957633 4.45466 0 0 0 0 128 0 255
0.993656 1.46212 4.45513 0 0 0 0 128 0 255
0.208008 0.600543 4.45608 0 0 0 0 128 0 255
0.545798 0.978651 4.45845 0 0 0 0 128 0 255
0.984449 1.46508 4.45987 0 0 0 0 128 0 255
1.00875 1.49705 4.46177 0 0 0 0 128 0 255
0.96717 1.45917 4.46461 0 0 0 0 128 0 255
0.980623 1.47397 4.46461 0 0 0 0 128 0 255
0.977954 1.47234 4.46508 0 0 0 0 128 0 255
0.966581 1.46376 4.4665 0 0 0 0 128 0 255
0.993488 1.49336 4.4665 0 0 0 0 128 0 255
0.976692 1.47619 4.46698 0 0 0 0 128 0 255
0.532114 0.991091 4.4684 0 0 0 0 128 0 255
0.53697 1.0056 4.47171 0 0 0 0 128 0 255
0.954095 1.46835 4.47314 0 0 0 0 128 0 255
0.537769 1.01433 4.47456 0 0 0 0 128 0 255
0.539199 1.02114 4.47645 0 0 0 0 128 0 255
0.52194 1.01656 4.48166 0 0 0 0 128 0 255
0.522445 1.04853 4.49303 0 0 0 0 128 0 255
0.811428 1.55886 4.56267 0 0 0 0 128 0 255
