ply
format ascii 1.0
comment VCGLIB generated
element vertex 1079
property float x
property float y
property float z
property float nx
property float ny
property float nz
property uchar red
property uchar green
property uchar blue
property uchar alpha
element face 0
property list uchar int vertex_indices
end_header
3.80281 1.15383 3.78484 0 0 0 255 255 0 255
3.715 0.904864 3.78523 0 0 0 255 255 0 255
3.81413 1.18907 3.78523 0 0 0 255 255 0 255
3.8217 1.21079 3.78523 0 0 0 255 255 0 255
3.80371 1.16199 3.78562 0 0 0 255 255 0 255
3.60503 0.59796 3.78641 0 0 0 255 255 0 255
3.64916 0.724484 3.78641 0 0 0 255 255 0 255
3.7282 0.951095 3.78641 0 0 0 255 255 0 255
3.80329 1.16638 3.78641 0 0 0 255 255 0 255
3.81086 1.18809 3.78641 0 0 0 255 255 0 255
3.60131 0.5929 3.7872 0 0 0 255 255 0 255
3.61592 0.637581 3.78759 0 0 0 255 255 0 255
3.72823 0.959557 3.78759 0 0 0 255 255 0 255
3.70859 0.90604 3.78798 0 0 0 255 255 0 255
3.71386 0.921147 3.78798 0 0 0 255 255 0 255
3.71847 0.934366 3.78798 0 0 0 255 255 0 255
3.5885 0.564538 3.78837 0 0 0 255 255 0 255
3.602 0.603251 3.78837 0 0 0 255 255 0 255
3.74461 1.01209 3.78837 0 0 0 255 255 0 255
3.67359 0.81128 3.78877 0 0 0 255 255 0 255
3.72562 0.960466 3.78877 0 0 0 255 255 0 255
3.79742 1.1663 3.78877 0 0 0 255 255 0 255
3.5917 0.579307 3.78916 0 0 0 255 255 0 255
3.60949 0.630294 3.78916 0 0 0 255 255 0 255
3.64802 0.740767 3.78916 0 0 0 255 255 0 255
3.60368 0.616434 3.78955 0 0 0 255 255 0 255
3.7094 0.919526 3.78955 0 0 0 255 255 0 255
3.79251 1.1606 3.78995 0 0 0 255 255 0 255
3.58778 0.576439 3.79034 0 0 0 255 255 0 255
3.60898 0.640004 3.79073 0 0 0 255 255 0 255
3.7473 1.03657 3.79073 0 0 0 255 255 0 255
3.69769 0.897132 3.79113 0 0 0 255 255 0 255
3.70065 0.90563 3.79113 0 0 0 255 255 0 255
3.80341 1.20022 3.79113 0 0 0 255 255 0 255
3.58946 0.589622 3.79152 0 0 0 255 255 0 255
3.61383 0.659493 3.79152 0 0 0 255 255 0 255
3.7426 1.02868 3.79152 0 0 0 255 255 0 255
3.60934 0.64941 3.79191 0 0 0 255 255 0 255
3.67685 0.842973 3.79191 0 0 0 255 255 0 255
3.70518 0.924176 3.79191 0 0 0 255 255 0 255
3.747 1.04409 3.79191 0 0 0 255 255 0 255
3.59233 0.603446 3.79231 0 0 0 255 255 0 255
3.59431 0.609112 3.79231 0 0 0 255 255 0 255
3.62033 0.683704 3.79231 0 0 0 255 255 0 255
3.64931 0.766795 3.79231 0 0 0 255 255 0 255
3.6053 0.643406 3.7927 0 0 0 255 255 0 255
4.11544 2.10599 3.7927 0 0 0 255 255 0 255
3.7006 0.919419 3.79309 0 0 0 255 255 0 255
3.78194 1.15264 3.79309 0 0 0 255 255 0 255
3.58359 0.58955 3.79388 0 0 0 255 255 0 255
3.58458 0.592383 3.79388 0 0 0 255 255 0 255
3.66823 0.832213 3.79388 0 0 0 255 255 0 255
3.73937 1.03616 3.79388 0 0 0 255 255 0 255
3.64167 0.758867 3.79427 0 0 0 255 255 0 255
3.62182 0.707541 3.79506 0 0 0 255 255 0 255
3.64191 0.765138 3.79506 0 0 0 255 255 0 255
3.65137 0.797847 3.79584 0 0 0 255 255 0 255
3.70934 0.964028 3.79584 0 0 0 255 255 0 255
3.77125 1.14154 3.79584 0 0 0 255 255 0 255
3.68245 0.889738 3.79624 0 0 0 255 255 0 255
3.70024 0.940726 3.79624 0 0 0 255 255 0 255
3.63844 0.766349 3.79663 0 0 0 255 255 0 255
3.7761 1.16103 3.79663 0 0 0 255 255 0 255
3.68664 0.90734 3.79702 0 0 0 255 255 0 255
3.77721 1.167 3.79702 0 0 0 255 255 0 255
4.0858 2.05172 3.79702 0 0 0 255 255 0 255
3.6894 0.918029 3.79742 0 0 0 255 255 0 255
3.66021 0.837129 3.79781 0 0 0 255 255 0 255
3.77251 1.15911 3.79781 0 0 0 255 255 0 255
3.65901 0.836488 3.7982 0 0 0 255 255 0 255
4.08056 2.04508 3.7982 0 0 0 255 255 0 255
4.08068 2.04821 3.7986 0 0 0 255 255 0 255
3.61281 0.709625 3.79899 0 0 0 255 255 0 255
3.67506 0.888081 3.79899 0 0 0 255 255 0 255
3.65673 0.838341 3.79938 0 0 0 255 255 0 255
3.68341 0.914822 3.79938 0 0 0 255 255 0 255
3.65521 0.836755 3.79978 0 0 0 255 255 0 255
3.58386 0.634997 3.80017 0 0 0 255 255 0 255
3.64314 0.804955 3.80017 0 0 0 255 255 0 255
3.64129 0.802425 3.80056 0 0 0 255 255 0 255
3.57895 0.629296 3.80135 0 0 0 255 255 0 255
3.70245 0.983375 3.80135 0 0 0 255 255 0 255
3.63012 0.778784 3.80174 0 0 0 255 255 0 255
3.72464 1.04977 3.80174 0 0 0 255 255 0 255
3.57853 0.633678 3.80213 0 0 0 255 255 0 255
3.6062 0.712992 3.80213 0 0 0 255 255 0 255
3.75703 1.14544 3.80213 0 0 0 255 255 0 255
3.76461 1.16716 3.80213 0 0 0 255 255 0 255
3.75353 1.13819 3.80253 0 0 0 255 255 0 255
3.60973 0.728705 3.80292 0 0 0 255 255 0 255
3.63311 0.795744 3.80292 0 0 0 255 255 0 255
3.64179 0.823429 3.80331 0 0 0 255 255 0 255
3.60437 0.718924 3.80371 0 0 0 255 255 0 255
3.67254 0.914376 3.80371 0 0 0 255 255 0 255
3.7517 1.14412 3.8041 0 0 0 255 255 0 255
3.75302 1.1479 3.8041 0 0 0 255 255 0 255
3.71428 1.03962 3.80449 0 0 0 255 255 0 255
3.74964 1.14378 3.80489 0 0 0 255 255 0 255
3.62703 0.797864 3.80567 0 0 0 255 255 0 255
3.75153 1.15478 3.80567 0 0 0 255 255 0 255
3.67635 0.944822 3.80646 0 0 0 255 255 0 255
3.8476 1.43581 3.80646 0 0 0 255 255 0 255
3.55823 0.608986 3.80685 0 0 0 255 255 0 255
3.58293 0.679802 3.80685 0 0 0 255 255 0 255
4.09057 2.13797 3.80724 0 0 0 255 255 0 255
3.5835 0.687017 3.80764 0 0 0 255 255 0 255
3.65135 0.881524 3.80764 0 0 0 255 255 0 255
3.83644 1.41217 3.80764 0 0 0 255 255 0 255
3.55102 0.596675 3.80803 0 0 0 255 255 0 255
3.55299 0.60234 3.80803 0 0 0 255 255 0 255
3.62413 0.80629 3.80803 0 0 0 255 255 0 255
3.67057 0.939424 3.80803 0 0 0 255 255 0 255
3.62195 0.802816 3.80842 0 0 0 255 255 0 255
3.63227 0.835222 3.80882 0 0 0 255 255 0 255
3.56916 0.657069 3.80921 0 0 0 255 255 0 255
3.62374 0.819135 3.81 0 0 0 255 255 0 255
3.56689 0.658922 3.81039 0 0 0 255 255 0 255
3.74123 1.16155 3.81078 0 0 0 255 255 0 255
3.64287 0.882361 3.81118 0 0 0 255 255 0 255
3.65407 0.914464 3.81118 0 0 0 255 255 0 255
3.73422 1.14704 3.81157 0 0 0 255 255 0 255
3.65892 0.933954 3.81196 0 0 0 255 255 0 255
3.60701 0.787904 3.81235 0 0 0 255 255 0 255
3.67781 0.99091 3.81235 0 0 0 255 255 0 255
3.65653 0.932672 3.81275 0 0 0 255 255 0 255
3.84425 1.47087 3.81275 0 0 0 255 255 0 255
3.6438 0.898983 3.81314 0 0 0 255 255 0 255
3.60045 0.777482 3.81353 0 0 0 255 255 0 255
3.60572 0.79259 3.81353 0 0 0 255 255 0 255
3.64985 0.919114 3.81353 0 0 0 255 255 0 255
3.82275 1.41483 3.81353 0 0 0 255 255 0 255
3.57204 0.701607 3.81432 0 0 0 255 255 0 255
3.61847 0.834741 3.81432 0 0 0 255 255 0 255
3.63823 0.891393 3.81432 0 0 0 255 255 0 255
3.67578 0.999034 3.81432 0 0 0 255 255 0 255
3.6253 0.859896 3.81511 0 0 0 255 255 0 255
3.6332 0.882557 3.81511 0 0 0 255 255 0 255
3.67635 1.00625 3.81511 0 0 0 255 255 0 255
3.67931 1.01475 3.81511 0 0 0 255 255 0 255
3.72213 1.13749 3.81511 0 0 0 255 255 0 255
3.83048 1.44814 3.81511 0 0 0 255 255 0 255
3.56877 0.700627 3.8155 0 0 0 255 255 0 255
3.65123 0.939815 3.81589 0 0 0 255 255 0 255
3.62138 0.857027 3.81629 0 0 0 255 255 0 255
3.71755 1.13274 3.81629 0 0 0 255 255 0 255
3.81272 1.40561 3.81629 0 0 0 255 255 0 255
3.60997 0.827115 3.81668 0 0 0 255 255 0 255
3.64171 0.920895 3.81707 0 0 0 255 255 0 255
3.68135 1.03734 3.81746 0 0 0 255 255 0 255
3.64261 0.929055 3.81786 0 0 0 255 255 0 255
3.60749 0.831159 3.81825 0 0 0 255 255 0 255
3.59344 0.793694 3.81864 0 0 0 255 255 0 255
3.63725 0.919274 3.81864 0 0 0 255 255 0 255
3.68961 1.0694 3.81864 0 0 0 255 255 0 255
3.82311 1.45494 3.81904 0 0 0 255 255 0 255
3.66219 0.996361 3.81943 0 0 0 255 255 0 255
3.66844 1.0143 3.81943 0 0 0 255 255 0 255
3.79919 1.38915 3.81943 0 0 0 255 255 0 255
3.68635 1.06842 3.81982 0 0 0 255 255 0 255
3.71237 1.14302 3.81982 0 0 0 255 255 0 255
3.71467 1.14963 3.81982 0 0 0 255 255 0 255
3.6015 0.827953 3.82022 0 0 0 255 255 0 255
3.71282 1.1471 3.82022 0 0 0 255 255 0 255
3.56078 0.714006 3.82061 0 0 0 255 255 0 255
3.67308 1.03598 3.82061 0 0 0 255 255 0 255
3.63171 0.920147 3.821 0 0 0 255 255 0 255
3.62392 0.900621 3.8214 0 0 0 255 255 0 255
3.62009 0.892426 3.82179 0 0 0 255 255 0 255
3.79398 1.39097 3.82179 0 0 0 255 255 0 255
3.8682 1.60655 3.82218 0 0 0 255 255 0 255
3.59695 0.831658 3.82258 0 0 0 255 255 0 255
3.64865 0.979899 3.82258 0 0 0 255 255 0 255
3.86668 1.60497 3.82258 0 0 0 255 255 0 255
3.59608 0.831961 3.82297 0 0 0 255 255 0 255
3.58599 0.805826 3.82336 0 0 0 255 255 0 255
3.86461 1.60463 3.82336 0 0 0 255 255 0 255
3.54791 0.699433 3.82375 0 0 0 255 255 0 255
3.58722 0.814929 3.82415 0 0 0 255 255 0 255
3.64979 0.994329 3.82415 0 0 0 255 255 0 255
3.86255 1.60429 3.82415 0 0 0 255 255 0 255
4.11021 2.31434 3.82415 0 0 0 255 255 0 255
3.61599 0.900211 3.82454 0 0 0 255 255 0 255
3.62785 0.934203 3.82454 0 0 0 255 255 0 255
3.64892 0.994632 3.82454 0 0 0 255 255 0 255
3.65913 1.0239 3.82454 0 0 0 255 255 0 255
3.55946 0.740942 3.82493 0 0 0 255 255 0 255
3.653 1.0091 3.82493 0 0 0 255 255 0 255
3.70141 1.1479 3.82493 0 0 0 255 255 0 255
4.1009 2.29323 3.82493 0 0 0 255 255 0 255
4.12461 2.36121 3.82493 0 0 0 255 255 0 255
3.60404 0.871546 3.82533 0 0 0 255 255 0 255
3.6485 0.999015 3.82533 0 0 0 255 255 0 255
3.69099 1.12082 3.82533 0 0 0 255 255 0 255
3.61108 0.89451 3.82572 0 0 0 255 255 0 255
3.53644 0.683309 3.82611 0 0 0 255 255 0 255
3.58288 0.816443 3.82611 0 0 0 255 255 0 255
3.65434 1.02134 3.82611 0 0 0 255 255 0 255
3.68839 1.12173 3.82651 0 0 0 255 255 0 255
4.11994 2.36178 3.8269 0 0 0 255 255 0 255
3.60234 0.880614 3.82729 0 0 0 255 255 0 255
3.62518 0.9489 3.82769 0 0 0 255 255 0 255
3.53737 0.699931 3.82808 0 0 0 255 255 0 255
3.57821 0.817013 3.82808 0 0 0 255 255 0 255
3.62234 0.943538 3.82808 0 0 0 255 255 0 255
3.63979 0.993581 3.82808 0 0 0 255 255 0 255
3.6533 1.03229 3.82808 0 0 0 255 255 0 255
3.57866 0.821093 3.82847 0 0 0 255 255 0 255
3.59677 0.873025 3.82847 0 0 0 255 255 0 255
3.67581 1.09964 3.82847 0 0 0 255 255 0 255
3.55506 0.756245 3.82887 0 0 0 255 255 0 255
3.61895 0.939422 3.82887 0 0 0 255 255 0 255
3.62686 0.962083 3.82887 0 0 0 255 255 0 255
3.59569 0.875519 3.82926 0 0 0 255 255 0 255
3.61117 0.919896 3.82926 0 0 0 255 255 0 255
3.61327 0.928697 3.82965 0 0 0 255 255 0 255
3.69461 1.16192 3.82965 0 0 0 255 255 0 255
3.53896 0.718441 3.83004 0 0 0 255 255 0 255
3.56015 0.782006 3.83044 0 0 0 255 255 0 255
3.60428 0.90853 3.83044 0 0 0 255 255 0 255
4.07174 2.2515 3.83083 0 0 0 255 255 0 255
3.63482 1.00167 3.83122 0 0 0 255 255 0 255
3.6671 1.0942 3.83122 0 0 0 255 255 0 255
3.60563 0.920769 3.83162 0 0 0 255 255 0 255
4.08581 2.29743 3.83162 0 0 0 255 255 0 255
3.5871 0.87322 3.8324 0 0 0 255 255 0 255
3.65955 1.08095 3.8324 0 0 0 255 255 0 255
3.67569 1.12721 3.8324 0 0 0 255 255 0 255
3.52926 0.710174 3.8328 0 0 0 255 255 0 255
4.08288 2.29739 3.8328 0 0 0 255 255 0 255
3.7721 1.40919 3.83319 0 0 0 255 255 0 255
3.85806 1.65563 3.83319 0 0 0 255 255 0 255
3.55024 0.775931 3.83358 0 0 0 255 255 0 255
3.58692 0.883874 3.83398 0 0 0 255 255 0 255
3.5889 0.889539 3.83398 0 0 0 255 255 0 255
3.62282 0.986793 3.83398 0 0 0 255 255 0 255
3.63105 1.0104 3.83398 0 0 0 255 255 0 255
3.67848 1.14636 3.83398 0 0 0 255 255 0 255
3.6124 0.959713 3.83437 0 0 0 255 255 0 255
3.55982 0.811775 3.83476 0 0 0 255 255 0 255
3.65096 1.07865 3.83555 0 0 0 255 255 0 255
3.65821 1.09942 3.83555 0 0 0 255 255 0 255
3.6862 1.17968 3.83555 0 0 0 255 255 0 255
3.58719 0.898607 3.83594 0 0 0 255 255 0 255
3.63363 1.03174 3.83594 0 0 0 255 255 0 255
3.56491 0.837536 3.83633 0 0 0 255 255 0 255
3.53342 0.750027 3.83673 0 0 0 255 255 0 255
3.59776 0.937284 3.83712 0 0 0 255 255 0 255
3.5274 0.738358 3.83751 0 0 0 255 255 0 255
3.61138 0.979132 3.83751 0 0 0 255 255 0 255
3.60755 0.970937 3.83791 0 0 0 255 255 0 255
3.57012 0.866432 3.8383 0 0 0 255 255 0 255
3.62414 1.02128 3.8383 0 0 0 255 255 0 255
3.51261 0.70433 3.83869 0 0 0 255 255 0 255
3.57683 0.888452 3.83869 0 0 0 255 255 0 255
4.06392 2.28494 3.83869 0 0 0 255 255 0 255
3.50384 0.681972 3.83909 0 0 0 255 255 0 255
3.62207 1.02094 3.83909 0 0 0 255 255 0 255
3.65204 1.10687 3.83909 0 0 0 255 255 0 255
3.58432 0.915495 3.83948 0 0 0 255 255 0 255
3.58465 0.916439 3.83948 0 0 0 255 255 0 255
3.48839 0.646056 3.84027 0 0 0 255 255 0 255
3.59773 0.959535 3.84027 0 0 0 255 255 0 255
3.6333 1.06151 3.84027 0 0 0 255 255 0 255
3.65108 1.1125 3.84027 0 0 0 255 255 0 255
4.0644 2.29748 3.84027 0 0 0 255 255 0 255
3.56986 0.882412 3.84066 0 0 0 255 255 0 255
4.10437 2.41487 3.84066 0 0 0 255 255 0 255
3.58743 0.935591 3.84105 0 0 0 255 255 0 255
4.09231 2.38307 3.84105 0 0 0 255 255 0 255
4.10845 2.42933 3.84105 0 0 0 255 255 0 255
3.5836 0.927396 3.84144 0 0 0 255 255 0 255
3.64716 1.10963 3.84144 0 0 0 255 255 0 255
3.56132 0.866325 3.84184 0 0 0 255 255 0 255
3.76255 1.44324 3.84184 0 0 0 255 255 0 255
3.64818 1.12092 3.84262 0 0 0 255 255 0 255
3.53216 0.793888 3.84341 0 0 0 255 255 0 255
3.60935 1.01797 3.8438 0 0 0 255 255 0 255
3.60024 0.994666 3.8442 0 0 0 255 255 0 255
3.60222 1.00033 3.8442 0 0 0 255 255 0 255
3.62231 1.05793 3.8442 0 0 0 255 255 0 255
3.56051 0.883552 3.84459 0 0 0 255 255 0 255
3.5648 0.895827 3.84459 0 0 0 255 255 0 255
3.62935 1.08089 3.84459 0 0 0 255 255 0 255
3.64548 1.12716 3.84459 0 0 0 255 255 0 255
4.08581 2.38957 3.84459 0 0 0 255 255 0 255
3.55833 0.880078 3.84498 0 0 0 255 255 0 255
3.62551 1.0727 3.84498 0 0 0 255 255 0 255
3.63453 1.10133 3.84538 0 0 0 255 255 0 255
3.64243 1.12399 3.84538 0 0 0 255 255 0 255
3.52246 0.785621 3.84616 0 0 0 255 255 0 255
3.57791 0.947384 3.84655 0 0 0 255 255 0 255
3.5812 0.956826 3.84655 0 0 0 255 255 0 255
4.065 2.34387 3.84655 0 0 0 255 255 0 255
3.54971 0.869317 3.84695 0 0 0 255 255 0 255
3.58782 0.984172 3.84773 0 0 0 255 255 0 255
3.63525 1.12014 3.84773 0 0 0 255 255 0 255
3.52174 0.797521 3.84813 0 0 0 255 255 0 255
3.63339 1.11761 3.84813 0 0 0 255 255 0 255
3.6154 1.06881 3.84852 0 0 0 255 255 0 255
3.63264 1.12105 3.84891 0 0 0 255 255 0 255
3.62716 1.10813 3.84931 0 0 0 255 255 0 255
3.49028 0.718475 3.8497 0 0 0 255 255 0 255
3.60159 1.03762 3.8497 0 0 0 255 255 0 255
3.52201 0.812255 3.85009 0 0 0 255 255 0 255
3.61752 1.08608 3.85009 0 0 0 255 255 0 255
3.61665 1.08638 3.85049 0 0 0 255 255 0 255
3.53839 0.864792 3.85088 0 0 0 255 255 0 255
3.64114 1.15939 3.85088 0 0 0 255 255 0 255
3.52105 0.817884 3.85127 0 0 0 255 255 0 255
3.61426 1.0851 3.85127 0 0 0 255 255 0 255
4.06063 2.36764 3.85167 0 0 0 255 255 0 255
4.06569 2.38494 3.85206 0 0 0 255 255 0 255
3.56719 0.958536 3.85245 0 0 0 255 255 0 255
3.82123 1.68966 3.85284 0 0 0 255 255 0 255
3.84033 1.74442 3.85284 0 0 0 255 255 0 255
3.53132 0.864079 3.85363 0 0 0 255 255 0 255
3.84025 1.74975 3.85363 0 0 0 255 255 0 255
3.5792 1.00413 3.85402 0 0 0 255 255 0 255
3.59962 1.06267 3.85402 0 0 0 255 255 0 255
3.62168 1.12593 3.85402 0 0 0 255 255 0 255
3.83608 1.74061 3.85402 0 0 0 255 255 0 255
3.46372 0.675842 3.85442 0 0 0 255 255 0 255
3.61785 1.11773 3.85442 0 0 0 255 255 0 255
3.52983 0.870956 3.8552 0 0 0 255 255 0 255
3.4463 0.634261 3.8556 0 0 0 255 255 0 255
3.53752 0.895808 3.8556 0 0 0 255 255 0 255
3.57671 1.00817 3.8556 0 0 0 255 255 0 255
3.49713 0.782805 3.85599 0 0 0 255 255 0 255
3.5854 1.03585 3.85599 0 0 0 255 255 0 255
3.53052 0.881306 3.85638 0 0 0 255 255 0 255
4.04989 2.37033 3.85638 0 0 0 255 255 0 255
4.04749 2.36905 3.85717 0 0 0 255 255 0 255
3.56974 1.00213 3.85756 0 0 0 255 255 0 255
3.56294 0.985437 3.85795 0 0 0 255 255 0 255
3.60872 1.11668 3.85795 0 0 0 255 255 0 255
3.82444 1.73514 3.85795 0 0 0 255 255 0 255
3.51938 0.866127 3.85874 0 0 0 255 255 0 255
3.56252 0.989819 3.85874 0 0 0 255 255 0 255
3.60435 1.10973 3.85874 0 0 0 255 255 0 255
3.56968 1.01592 3.85953 0 0 0 255 255 0 255
3.57968 1.04738 3.85992 0 0 0 255 255 0 255
3.508 0.844678 3.86031 0 0 0 255 255 0 255
3.52249 0.886223 3.86031 0 0 0 255 255 0 255
3.55477 0.978756 3.86031 0 0 0 255 255 0 255
3.52133 0.894044 3.86189 0 0 0 255 255 0 255
3.58525 1.08568 3.86307 0 0 0 255 255 0 255
3.5554 1.0029 3.86346 0 0 0 255 255 0 255
3.50546 0.86251 3.86385 0 0 0 255 255 0 255
3.51678 0.897749 3.86424 0 0 0 255 255 0 255
3.53028 0.936462 3.86424 0 0 0 255 255 0 255
3.57441 1.06299 3.86424 0 0 0 255 255 0 255
3.56564 1.04063 3.86464 0 0 0 255 255 0 255
3.59067 1.11239 3.86464 0 0 0 255 255 0 255
3.54414 0.984581 3.86542 0 0 0 255 255 0 255
3.58597 1.1045 3.86542 0 0 0 255 255 0 255
3.59288 1.12432 3.86542 0 0 0 255 255 0 255
3.58773 1.11235 3.86582 0 0 0 255 255 0 255
3.48115 0.809563 3.86621 0 0 0 255 255 0 255
3.51567 0.922494 3.86818 0 0 0 255 255 0 255
3.57672 1.10031 3.86857 0 0 0 255 255 0 255
3.58803 1.13555 3.86896 0 0 0 255 255 0 255
3.52854 0.967781 3.86935 0 0 0 255 255 0 255
3.5772 1.11285 3.87014 0 0 0 255 255 0 255
3.5289 0.977187 3.87053 0 0 0 255 255 0 255
3.53516 0.995127 3.87053 0 0 0 255 255 0 255
3.56645 1.08483 3.87053 0 0 0 255 255 0 255
3.49181 0.873626 3.87093 0 0 0 255 255 0 255
3.53956 1.01054 3.87093 0 0 0 255 255 0 255
3.48303 0.851268 3.87132 0 0 0 255 255 0 255
3.523 0.968653 3.87171 0 0 0 255 255 0 255
3.56747 1.09612 3.87171 0 0 0 255 255 0 255
3.56693 1.09737 3.87211 0 0 0 255 255 0 255
3.56375 1.09106 3.8725 0 0 0 255 255 0 255
3.58384 1.14866 3.8725 0 0 0 255 255 0 255
3.52525 0.989052 3.87368 0 0 0 255 255 0 255
3.55687 1.0797 3.87368 0 0 0 255 255 0 255
3.52603 0.994076 3.87407 0 0 0 255 255 0 255
3.48762 0.886738 3.87447 0 0 0 255 255 0 255
3.51507 0.968243 3.87486 0 0 0 255 255 0 255
3.55788 1.09099 3.87486 0 0 0 255 255 0 255
3.56414 1.10893 3.87486 0 0 0 255 255 0 255
3.49247 0.906228 3.87525 0 0 0 255 255 0 255
3.50756 0.963451 3.87722 0 0 0 255 255 0 255
3.55696 1.10508 3.87722 0 0 0 255 255 0 255
3.54193 1.06478 3.87761 0 0 0 255 255 0 255
3.51528 0.996765 3.87879 0 0 0 255 255 0 255
3.54747 1.09462 3.87958 0 0 0 255 255 0 255
3.50127 0.967762 3.88036 0 0 0 255 255 0 255
3.50863 0.99167 3.88075 0 0 0 255 255 0 255
3.45672 0.84562 3.88115 0 0 0 255 255 0 255
3.5104 0.999526 3.88115 0 0 0 255 255 0 255
3.46672 0.877082 3.88154 0 0 0 255 255 0 255
3.53974 1.09202 3.88233 0 0 0 255 255 0 255
3.54534 1.10808 3.88233 0 0 0 255 255 0 255
3.50495 0.995072 3.88272 0 0 0 255 255 0 255
3.49115 0.963878 3.8839 0 0 0 255 255 0 255
3.53726 1.09607 3.8839 0 0 0 255 255 0 255
3.53564 1.09981 3.88508 0 0 0 255 255 0 255
3.53082 1.08878 3.88547 0 0 0 255 255 0 255
3.47211 0.926038 3.88626 0 0 0 255 255 0 255
3.47343 0.929815 3.88626 0 0 0 255 255 0 255
3.52295 1.07458 3.88665 0 0 0 255 255 0 255
3.51022 1.04089 3.88704 0 0 0 255 255 0 255
3.52109 1.07205 3.88704 0 0 0 255 255 0 255
3.45765 0.892955 3.88744 0 0 0 255 255 0 255
3.44031 0.846047 3.88783 0 0 0 255 255 0 255
3.51968 1.0736 3.88783 0 0 0 255 255 0 255
3.52298 1.08304 3.88783 0 0 0 255 255 0 255
3.40534 0.759749 3.8898 0 0 0 255 255 0 255
3.52304 1.09997 3.89019 0 0 0 255 255 0 255
3.66444 1.50817 3.89058 0 0 0 255 255 0 255
3.52031 1.09774 3.89098 0 0 0 255 255 0 255
3.51977 1.09899 3.89137 0 0 0 255 255 0 255
3.45995 0.930277 3.89176 0 0 0 255 255 0 255
3.45974 0.932469 3.89216 0 0 0 255 255 0 255
3.47456 0.974958 3.89216 0 0 0 255 255 0 255
3.41936 0.819466 3.89255 0 0 0 255 255 0 255
3.66022 1.51282 3.89294 0 0 0 255 255 0 255
3.4684 0.982405 3.89569 0 0 0 255 255 0 255
3.50462 1.08627 3.89569 0 0 0 255 255 0 255
3.41681 0.837299 3.89609 0 0 0 255 255 0 255
3.45052 0.936744 3.89648 0 0 0 255 255 0 255
3.44768 0.931381 3.89687 0 0 0 255 255 0 255
3.50301 1.09001 3.89687 0 0 0 255 255 0 255
3.45549 0.959369 3.89766 0 0 0 255 255 0 255
3.50061 1.08873 3.89766 0 0 0 255 255 0 255
3.44543 0.941696 3.89923 0 0 0 255 255 0 255
3.73933 1.78707 3.89962 0 0 0 255 255 0 255
3.74921 1.81539 3.89962 0 0 0 255 255 0 255
3.48849 1.07071 3.90002 0 0 0 255 255 0 255
3.48828 1.07291 3.90041 0 0 0 255 255 0 255
3.49073 1.09111 3.90198 0 0 0 255 255 0 255
3.41172 0.872964 3.90316 0 0 0 255 255 0 255
3.48418 1.08069 3.90316 0 0 0 255 255 0 255
3.47508 1.05739 3.90356 0 0 0 255 255 0 255
3.48202 1.08568 3.90473 0 0 0 255 255 0 255
3.65834 1.59397 3.90513 0 0 0 255 255 0 255
3.97244 2.50007 3.90591 0 0 0 255 255 0 255
3.41642 0.91157 3.9067 0 0 0 255 255 0 255
3.46615 1.05415 3.9067 0 0 0 255 255 0 255
3.74481 1.86141 3.90788 0 0 0 255 255 0 255
3.42142 0.942657 3.90906 0 0 0 255 255 0 255
3.41178 0.920602 3.90984 0 0 0 255 255 0 255
3.6443 1.58722 3.90984 0 0 0 255 255 0 255
3.41466 0.934427 3.91063 0 0 0 255 255 0 255
3.73588 1.85817 3.91102 0 0 0 255 255 0 255
3.45807 1.07285 3.9126 0 0 0 255 255 0 255
3.45062 1.05427 3.91299 0 0 0 255 255 0 255
3.45325 1.06182 3.91299 0 0 0 255 255 0 255
3.46083 1.08354 3.91299 0 0 0 255 255 0 255
3.45205 1.06118 3.91338 0 0 0 255 255 0 255
3.64882 1.63647 3.91496 0 0 0 255 255 0 255
3.72502 1.85772 3.91535 0 0 0 255 255 0 255
3.43927 1.04128 3.91574 0 0 0 255 255 0 255
3.64325 1.62888 3.91613 0 0 0 255 255 0 255
3.57325 1.43937 3.91771 0 0 0 255 255 0 255
3.43604 1.04876 3.9181 0 0 0 255 255 0 255
3.44954 1.08748 3.9181 0 0 0 255 255 0 255
3.62277 1.58413 3.9181 0 0 0 255 255 0 255
3.42146 1.01255 3.91889 0 0 0 255 255 0 255
3.42092 1.01379 3.91928 0 0 0 255 255 0 255
3.61918 1.58221 3.91928 0 0 0 255 255 0 255
3.73544 1.91552 3.91928 0 0 0 255 255 0 255
3.43181 1.05341 3.92046 0 0 0 255 255 0 255
3.41744 1.015 3.92085 0 0 0 255 255 0 255
3.57894 1.4808 3.92125 0 0 0 255 255 0 255
3.5728 1.466 3.92164 0 0 0 255 255 0 255
3.36017 0.859174 3.92203 0 0 0 255 255 0 255
3.57029 1.46158 3.92203 0 0 0 255 255 0 255
3.58819 1.5157 3.92242 0 0 0 255 255 0 255
3.39137 0.954201 3.92282 0 0 0 255 255 0 255
3.61466 1.59438 3.92282 0 0 0 255 255 0 255
3.61939 1.61073 3.92321 0 0 0 255 255 0 255
3.39095 0.958583 3.9236 0 0 0 255 255 0 255
3.43442 1.08322 3.9236 0 0 0 255 255 0 255
3.4172 1.03945 3.92439 0 0 0 255 255 0 255
3.32873 0.788589 3.92478 0 0 0 255 255 0 255
3.42951 1.07752 3.92478 0 0 0 255 255 0 255
3.19757 0.41812 3.92557 0 0 0 255 255 0 255
3.42942 1.08284 3.92557 0 0 0 255 255 0 255
3.41538 1.04538 3.92596 0 0 0 255 255 0 255
3.19616 0.41967 3.92636 0 0 0 255 255 0 255
3.41685 1.06075 3.92753 0 0 0 255 255 0 255
3.57044 1.50389 3.92793 0 0 0 255 255 0 255
3.57307 1.51145 3.92793 0 0 0 255 255 0 255
3.67517 1.80415 3.92793 0 0 0 255 255 0 255
3.32948 0.815864 3.92832 0 0 0 255 255 0 255
3.40951 1.04531 3.92832 0 0 0 255 255 0 255
3.55738 1.46926 3.92832 0 0 0 255 255 0 255
3.39987 1.02325 3.92911 0 0 0 255 255 0 255
3.55235 1.46042 3.92911 0 0 0 255 255 0 255
3.39834 1.02167 3.9295 0 0 0 255 255 0 255
3.41197 1.06351 3.92989 0 0 0 255 255 0 255
3.31493 0.788108 3.93029 0 0 0 255 255 0 255
3.54954 1.46352 3.93068 0 0 0 255 255 0 255
3.55089 1.47576 3.93186 0 0 0 255 255 0 255
3.31257 0.795287 3.93225 0 0 0 255 255 0 255
3.5296 1.41752 3.93225 0 0 0 255 255 0 255
3.32586 0.836191 3.93265 0 0 0 255 255 0 255
3.35945 0.932501 3.93265 0 0 0 255 255 0 255
3.32894 0.847824 3.93304 0 0 0 255 255 0 255
3.3126 0.803749 3.93343 0 0 0 255 255 0 255
3.5302 1.4332 3.93422 0 0 0 255 255 0 255
3.56511 1.53329 3.93422 0 0 0 255 255 0 255
3.39433 1.05484 3.93579 0 0 0 255 255 0 255
3.35131 0.934282 3.93618 0 0 0 255 255 0 255
3.34912 0.930808 3.93658 0 0 0 255 255 0 255
3.53816 1.47279 3.93658 0 0 0 255 255 0 255
3.55595 1.52377 3.93658 0 0 0 255 255 0 255
3.38349 1.03214 3.93697 0 0 0 255 255 0 255
3.55367 1.52563 3.93776 0 0 0 255 255 0 255
3.39538 1.0746 3.93815 0 0 0 255 255 0 255
3.30254 0.81679 3.93933 0 0 0 255 255 0 255
3.30583 0.826232 3.93933 0 0 0 255 255 0 255
3.39191 1.07581 3.93972 0 0 0 255 255 0 255
3.36338 0.996795 3.94011 0 0 0 255 255 0 255
3.53059 1.48178 3.9409 0 0 0 255 255 0 255
3.63742 1.79084 3.94129 0 0 0 255 255 0 255
3.19984 0.53912 3.94169 0 0 0 255 255 0 255
3.37044 1.02822 3.94169 0 0 0 255 255 0 255
3.36299 1.00964 3.94208 0 0 0 255 255 0 255
3.19778 0.538781 3.94247 0 0 0 255 255 0 255
3.37871 1.06029 3.94287 0 0 0 255 255 0 255
3.28673 0.802181 3.94365 0 0 0 255 255 0 255
3.52352 1.48107 3.94365 0 0 0 255 255 0 255
3.19694 0.547546 3.94405 0 0 0 255 255 0 255
3.29915 0.843387 3.94444 0 0 0 255 255 0 255
3.30158 0.853132 3.94483 0 0 0 255 255 0 255
3.50347 1.43193 3.94483 0 0 0 255 255 0 255
3.57164 1.62739 3.94483 0 0 0 255 255 0 255
3.62466 1.7794 3.94483 0 0 0 255 255 0 255
3.35892 1.02589 3.94601 0 0 0 255 255 0 255
3.63568 1.82216 3.9464 0 0 0 255 255 0 255
3.64197 1.84856 3.94758 0 0 0 255 255 0 255
3.26532 0.77152 3.94798 0 0 0 255 255 0 255
3.3096 0.909642 3.94955 0 0 0 255 255 0 255
3.27086 0.801361 3.94994 0 0 0 255 255 0 255
3.6417 1.86454 3.94994 0 0 0 255 255 0 255
3.3608 1.06759 3.95112 0 0 0 255 255 0 255
3.34511 1.02541 3.95151 0 0 0 255 255 0 255
3.35565 1.05562 3.95151 0 0 0 255 255 0 255
3.25709 0.778628 3.9523 0 0 0 255 255 0 255
3.30353 0.911762 3.9523 0 0 0 255 255 0 255
3.30236 0.919583 3.95387 0 0 0 255 255 0 255
3.49386 1.47977 3.95545 0 0 0 255 255 0 255
3.29835 0.922041 3.95584 0 0 0 255 255 0 255
3.28883 0.903121 3.95702 0 0 0 255 255 0 255
3.59939 1.79351 3.95702 0 0 0 255 255 0 255
3.60664 1.81429 3.95702 0 0 0 255 255 0 255
3.25383 0.808361 3.9578 0 0 0 255 255 0 255
3.51499 1.55712 3.9578 0 0 0 255 255 0 255
3.49284 1.49919 3.95859 0 0 0 255 255 0 255
3.25476 0.824983 3.95977 0 0 0 255 255 0 255
3.5694 1.72984 3.96016 0 0 0 255 255 0 255
3.55799 1.69993 3.96056 0 0 0 255 255 0 255
3.70257 2.11444 3.96056 0 0 0 255 255 0 255
3.33679 1.06855 3.96095 0 0 0 255 255 0 255
3.58733 1.79243 3.96174 0 0 0 255 255 0 255
3.17709 0.619073 3.96213 0 0 0 255 255 0 255
3.24263 0.806971 3.96213 0 0 0 255 255 0 255
3.70305 2.12698 3.96213 0 0 0 255 255 0 255
3.69892 2.1263 3.9637 0 0 0 255 255 0 255
3.18967 0.671878 3.96449 0 0 0 255 255 0 255
3.50089 1.56416 3.96449 0 0 0 255 255 0 255
3.16862 0.61991 3.96567 0 0 0 255 255 0 255
3.53751 1.68589 3.96685 0 0 0 255 255 0 255
3.45398 1.4492 3.96724 0 0 0 255 255 0 255
3.6817 2.11324 3.96881 0 0 0 255 255 0 255
3.4244 1.38114 3.9696 0 0 0 255 255 0 255
3.24602 0.872513 3.96999 0 0 0 255 255 0 255
3.46536 1.50136 3.96999 0 0 0 255 255 0 255
3.43248 1.42386 3.97235 0 0 0 255 255 0 255
3.42296 1.40494 3.97353 0 0 0 255 255 0 255
3.43745 1.44649 3.97353 0 0 0 255 255 0 255
3.17784 0.707775 3.97431 0 0 0 255 255 0 255
3.41389 1.3901 3.9751 0 0 0 255 255 0 255
3.16341 0.683154 3.97667 0 0 0 255 255 0 255
3.53128 1.73784 3.97667 0 0 0 255 255 0 255
3.15976 0.695018 3.97982 0 0 0 255 255 0 255
3.13593 0.654613 3.98375 0 0 0 255 255 0 255
3.41653 1.45908 3.98375 0 0 0 255 255 0 255
3.16407 0.746468 3.98532 0 0 0 255 255 0 255
3.62254 2.06927 3.9865 0 0 0 255 255 0 255
3.62179 2.07271 3.98729 0 0 0 255 255 0 255
3.44452 1.57005 3.98807 0 0 0 255 255 0 255
3.44937 1.58954 3.98886 0 0 0 255 255 0 255
3.44883 1.59079 3.98925 0 0 0 255 255 0 255
3.58563 1.98577 3.98965 0 0 0 255 255 0 255
3.60784 2.06063 3.99122 0 0 0 255 255 0 255
3.6585 2.21983 3.99318 0 0 0 255 255 0 255
3.38922 1.4506 3.99358 0 0 0 255 255 0 255
3.3806 1.43984 3.99554 0 0 0 255 255 0 255
3.60257 2.07624 3.99554 0 0 0 255 255 0 255
3.58251 2.0271 3.99672 0 0 0 255 255 0 255
3.38 1.45488 3.9979 0 0 0 255 255 0 255
3.59045 2.05823 3.9979 0 0 0 255 255 0 255
3.58958 2.05853 3.99829 0 0 0 255 255 0 255
3.57144 2.02885 4.00144 0 0 0 255 255 0 255
3.57901 2.05057 4.00144 0 0 0 255 255 0 255
3.63413 2.21138 4.00183 0 0 0 255 255 0 255
3.37925 1.48903 4.00301 0 0 0 255 255 0 255
3.57512 2.05616 4.0038 0 0 0 255 255 0 255
3.15105 0.84315 4.00419 0 0 0 255 255 0 255
3.3659 1.46191 4.00458 0 0 0 255 255 0 255
3.17171 0.907962 4.00498 0 0 0 255 255 0 255
3.55464 2.01141 4.00576 0 0 0 255 255 0 255
3.55859 2.02274 4.00576 0 0 0 255 255 0 255
3.14518 0.843079 4.00655 0 0 0 255 255 0 255
3.14614 0.868163 4.00969 0 0 0 255 255 0 255
3.15997 0.90782 4.00969 0 0 0 255 255 0 255
3.40503 1.61878 4.01087 0 0 0 255 255 0 255
3.16144 0.923194 4.01127 0 0 0 255 255 0 255
3.14459 0.888828 4.01323 0 0 0 255 255 0 255
3.1298 0.854801 4.01441 0 0 0 255 255 0 255
3.59728 2.20623 4.01598 0 0 0 255 255 0 255
3.54252 2.05482 4.01677 0 0 0 255 255 0 255
3.54791 2.07307 4.01716 0 0 0 255 255 0 255
3.12548 0.864777 4.01756 0 0 0 255 255 0 255
3.14405 0.920788 4.01795 0 0 0 255 255 0 255
3.12201 0.865988 4.01913 0 0 0 255 255 0 255
3.1368 0.930729 4.02227 0 0 0 255 255 0 255
3.49545 1.95898 4.02227 0 0 0 255 255 0 255
3.49491 1.96022 4.02267 0 0 0 255 255 0 255
3.12848 0.91245 4.02306 0 0 0 255 255 0 255
3.63932 2.38538 4.02424 0 0 0 255 255 0 255
3.49201 1.96865 4.02502 0 0 0 255 255 0 255
3.52276 2.0596 4.02542 0 0 0 255 255 0 255
3.49698 1.99127 4.0262 0 0 0 255 255 0 255
3.52048 2.06145 4.0266 0 0 0 255 255 0 255
3.49429 1.99751 4.02817 0 0 0 255 255 0 255
3.12183 0.938068 4.02935 0 0 0 255 255 0 255
3.50444 2.04057 4.03014 0 0 0 255 255 0 255
3.50387 2.06407 4.03367 0 0 0 255 255 0 255
3.46644 2.02099 4.04272 0 0 0 255 255 0 255
3.4657 2.02443 4.0435 0 0 0 255 255 0 255
3.02271 0.776713 4.04665 0 0 0 255 255 0 255
3.1369 1.10968 4.04743 0 0 0 255 255 0 255
3.01848 0.781363 4.049 0 0 0 255 255 0 255
3.45016 2.02455 4.04979 0 0 0 255 255 0 255
3.02402 0.811203 4.05097 0 0 0 255 255 0 255
3.12483 1.10859 4.05215 0 0 0 255 255 0 255
3.14408 1.17496 4.05372 0 0 0 255 255 0 255
3.01609 0.810793 4.05411 0 0 0 255 255 0 255
3.12609 1.12616 4.05411 0 0 0 255 255 0 255
3.12741 1.12994 4.05411 0 0 0 255 255 0 255
3.42058 1.98721 4.05647 0 0 0 255 255 0 255
3.00432 0.802188 4.05765 0 0 0 255 255 0 255
2.99402 0.778244 4.05844 0 0 0 255 255 0 255
3.12971 1.16726 4.05844 0 0 0 255 255 0 255
2.99744 0.790822 4.05883 0 0 0 255 255 0 255
3.00732 0.819148 4.05883 0 0 0 255 255 0 255
3.11995 1.14207 4.05883 0 0 0 255 255 0 255
3.12094 1.1449 4.05883 0 0 0 255 255 0 255
3.00316 0.810009 4.05923 0 0 0 255 255 0 255
3.41989 2.00757 4.05962 0 0 0 255 255 0 255
3.42845 2.03212 4.05962 0 0 0 255 255 0 255
2.99549 0.793619 4.06001 0 0 0 255 255 0 255
3.41804 2.00504 4.06001 0 0 0 255 255 0 255
3.12471 1.16689 4.0604 0 0 0 255 255 0 255
2.9898 0.782894 4.0608 0 0 0 255 255 0 255
2.98597 0.774699 4.06119 0 0 0 255 255 0 255
3.30678 1.70282 4.06237 0 0 0 255 255 0 255
2.99073 0.799515 4.06276 0 0 0 255 255 0 255
2.99765 0.819344 4.06276 0 0 0 255 255 0 255
3.11468 1.15767 4.06316 0 0 0 255 255 0 255
3.28298 1.64017 4.06316 0 0 0 255 255 0 255
3.12019 1.17905 4.06394 0 0 0 255 255 0 255
3.41199 2.01562 4.06394 0 0 0 255 255 0 255
3.11043 1.15386 4.06434 0 0 0 255 255 0 255
3.4007 1.98885 4.06473 0 0 0 255 255 0 255
2.97828 0.78056 4.06512 0 0 0 255 255 0 255
3.11825 1.18185 4.06512 0 0 0 255 255 0 255
3.40971 2.01748 4.06512 0 0 0 255 255 0 255
2.97358 0.772668 4.06591 0 0 0 255 255 0 255
2.99016 0.823014 4.0663 0 0 0 255 255 0 255
3.4069 2.02058 4.06669 0 0 0 255 255 0 255
3.40022 2.00702 4.06748 0 0 0 255 255 0 255
2.96259 0.769086 4.06984 0 0 0 255 255 0 255
3.00969 0.904109 4.06984 0 0 0 255 255 0 255
3.006 0.907511 4.07181 0 0 0 255 255 0 255
3.01061 0.92073 4.07181 0 0 0 255 255 0 255
3.09175 1.15614 4.0722 0 0 0 255 255 0 255
2.96837 0.805198 4.07259 0 0 0 255 255 0 255
2.97034 0.810863 4.07259 0 0 0 255 255 0 255
3.3784 1.98074 4.07259 0 0 0 255 255 0 255
3.11759 1.24139 4.07377 0 0 0 255 255 0 255
3.36241 1.94607 4.07416 0 0 0 255 255 0 255
2.96436 0.807656 4.07456 0 0 0 255 255 0 255
3.09708 1.18817 4.07456 0 0 0 255 255 0 255
3.38525 2.01436 4.07456 0 0 0 255 255 0 255
3.09897 1.19917 4.07534 0 0 0 255 255 0 255
3.36013 1.94793 4.07534 0 0 0 255 255 0 255
3.37858 2.0008 4.07534 0 0 0 255 255 0 255
3.10999 1.24192 4.07692 0 0 0 255 255 0 255
2.99846 0.92497 4.07731 0 0 0 255 255 0 255
2.99442 0.918966 4.07809 0 0 0 255 255 0 255
2.98654 0.904767 4.07927 0 0 0 255 255 0 255
3.36178 1.98336 4.07967 0 0 0 255 255 0 255
3.10328 1.25062 4.08085 0 0 0 255 255 0 255
3.11373 1.28616 4.08163 0 0 0 255 255 0 255
3.1157 1.29182 4.08163 0 0 0 255 255 0 255
2.98606 0.922938 4.08203 0 0 0 255 255 0 255
3.32528 1.89548 4.08203 0 0 0 255 255 0 255
3.35606 1.99489 4.0836 0 0 0 255 255 0 255
2.98648 0.949269 4.08556 0 0 0 255 255 0 255
2.96565 0.89511 4.08635 0 0 0 255 255 0 255
3.10322 1.29512 4.08714 0 0 0 255 255 0 255
3.32355 1.9268 4.08714 0 0 0 255 255 0 255
2.91738 0.767909 4.08792 0 0 0 255 255 0 255
2.97119 0.924951 4.08832 0 0 0 255 255 0 255
2.97744 0.942891 4.08832 0 0 0 255 255 0 255
3.34038 1.98341 4.08832 0 0 0 255 255 0 255
3.09909 1.29444 4.08871 0 0 0 255 255 0 255
2.92532 0.799032 4.0891 0 0 0 255 255 0 255
2.9655 0.914226 4.0891 0 0 0 255 255 0 255
2.96619 0.924577 4.09028 0 0 0 255 255 0 255
2.97508 0.95007 4.09028 0 0 0 255 255 0 255
3.07852 1.25501 4.09146 0 0 0 255 255 0 255
3.31696 1.93862 4.09146 0 0 0 255 255 0 255
2.91726 0.795487 4.09185 0 0 0 255 255 0 255
3.3205 1.95434 4.09225 0 0 0 255 255 0 255
3.09942 1.3261 4.09303 0 0 0 255 255 0 255
2.9664 0.953099 4.09421 0 0 0 255 255 0 255
2.96771 0.956875 4.09421 0 0 0 255 255 0 255
3.30475 1.92594 4.0946 0 0 0 255 255 0 255
2.88059 0.718257 4.09578 0 0 0 255 255 0 255
2.9502 0.920621 4.09618 0 0 0 255 255 0 255
2.94167 0.904534 4.09736 0 0 0 255 255 0 255
2.96134 0.966513 4.09814 0 0 0 255 255 0 255
3.06277 1.25733 4.09814 0 0 0 255 255 0 255
3.06223 1.25858 4.09854 0 0 0 255 255 0 255
2.93062 0.884028 4.09893 0 0 0 255 255 0 255
2.86754 0.714337 4.1005 0 0 0 255 255 0 255
2.88017 0.753353 4.10089 0 0 0 255 255 0 255
2.95394 0.964856 4.10089 0 0 0 255 255 0 255
2.95209 0.962326 4.10129 0 0 0 255 255 0 255
3.06966 1.29941 4.10129 0 0 0 255 255 0 255
3.30352 1.97826 4.10247 0 0 0 255 255 0 255
3.05873 1.28204 4.10325 0 0 0 255 255 0 255
3.2952 1.95998 4.10325 0 0 0 255 255 0 255
2.91855 0.882941 4.10365 0 0 0 255 255 0 255
2.95412 0.984916 4.10365 0 0 0 255 255 0 255
2.95424 0.988051 4.10404 0 0 0 255 255 0 255
2.94164 0.957498 4.10483 0 0 0 255 255 0 255
3.28942 1.95459 4.10483 0 0 0 255 255 0 255
2.91927 0.901754 4.10601 0 0 0 255 255 0 255
2.87571 0.782445 4.10679 0 0 0 255 255 0 255
2.91754 0.902359 4.10679 0 0 0 255 255 0 255
2.94849 0.991115 4.10679 0 0 0 255 255 0 255
2.85673 0.730816 4.10718 0 0 0 255 255 0 255
2.87023 0.769529 4.10718 0 0 0 255 255 0 255
2.94894 0.995195 4.10718 0 0 0 255 255 0 255
2.85323 0.723565 4.10758 0 0 0 255 255 0 255
2.87463 0.784939 4.10758 0 0 0 255 255 0 255
2.90822 0.881248 4.10758 0 0 0 255 255 0 255
3.04014 1.27899 4.11033 0 0 0 255 255 0 255
3.28265 1.97707 4.11072 0 0 0 255 255 0 255
3.33238 2.11964 4.11072 0 0 0 255 255 0 255
2.93993 0.997279 4.11112 0 0 0 255 255 0 255
2.90218 0.89183 4.11151 0 0 0 255 255 0 255
2.89933 0.886468 4.1119 0 0 0 255 255 0 255
2.90044 0.892436 4.11229 0 0 0 255 255 0 255
2.90538 0.906599 4.11229 0 0 0 255 255 0 255
3.03987 1.29497 4.11269 0 0 0 255 255 0 255
2.84266 0.746314 4.11505 0 0 0 255 255 0 255
2.85981 0.803876 4.11623 0 0 0 255 255 0 255
2.88499 0.887233 4.1178 0 0 0 255 255 0 255
2.82907 0.743642 4.12016 0 0 0 255 255 0 255
3.02338 1.30073 4.12016 0 0 0 255 255 0 255
2.8967 0.94034 4.12055 0 0 0 255 255 0 255
2.89682 0.943476 4.12094 0 0 0 255 255 0 255
2.87005 0.872322 4.12173 0 0 0 255 255 0 255
2.8929 0.940608 4.12212 0 0 0 255 255 0 255
3.07086 1.45362 4.12252 0 0 0 255 255 0 255
2.86209 0.863449 4.12369 0 0 0 255 255 0 255
2.80655 0.707013 4.12409 0 0 0 255 255 0 255
2.88922 0.94401 4.12409 0 0 0 255 255 0 255
2.81383 0.736248 4.12527 0 0 0 255 255 0 255
2.88661 0.944919 4.12527 0 0 0 255 255 0 255
2.81131 0.73183 4.12566 0 0 0 255 255 0 255
2.85886 0.870932 4.12605 0 0 0 255 255 0 255
2.88356 0.941747 4.12605 0 0 0 255 255 0 255
2.80628 0.722993 4.12645 0 0 0 255 255 0 255
2.82769 0.784367 4.12645 0 0 0 255 255 0 255
2.88467 0.947716 4.12645 0 0 0 255 255 0 255
2.82254 0.772395 4.12684 0 0 0 255 255 0 255
2.85119 0.854541 4.12684 0 0 0 255 255 0 255
2.88149 0.941409 4.12684 0 0 0 255 255 0 255
3.06266 1.46919 4.12802 0 0 0 255 255 0 255
2.80095 0.721675 4.12841 0 0 0 255 255 0 255
2.85332 0.871804 4.12841 0 0 0 255 255 0 255
2.8205 0.780519 4.12881 0 0 0 255 255 0 255
2.81173 0.75816 4.1292 0 0 0 255 255 0 255
2.81568 0.769491 4.1292 0 0 0 255 255 0 255
3.00736 1.31902 4.1292 0 0 0 255 255 0 255
2.8573 0.891597 4.12959 0 0 0 255 255 0 255
2.99685 1.29727 4.13038 0 0 0 255 255 0 255
3.05514 1.46439 4.13038 0 0 0 255 255 0 255
2.84745 0.871733 4.13077 0 0 0 255 255 0 255
2.95646 1.18427 4.13077 0 0 0 255 255 0 255
2.84769 0.878004 4.13156 0 0 0 255 255 0 255
2.80994 0.772555 4.13195 0 0 0 255 255 0 255
2.84155 0.863199 4.13195 0 0 0 255 255 0 255
2.86098 0.918908 4.13195 0 0 0 255 255 0 255
2.84332 0.871056 4.13234 0 0 0 255 255 0 255
2.95892 1.20247 4.13234 0 0 0 255 255 0 255
2.78877 0.717452 4.13274 0 0 0 255 255 0 255
3.00901 1.35446 4.13352 0 0 0 255 255 0 255
2.86215 0.9418 4.1347 0 0 0 255 255 0 255
2.99368 1.32168 4.1351 0 0 0 255 255 0 255
3.02398 1.40854 4.1351 0 0 0 255 255 0 255
3.04155 1.46172 4.13549 0 0 0 255 255 0 255
3.04694 1.47996 4.13588 0 0 0 255 255 0 255
2.80107 0.786237 4.13745 0 0 0 255 255 0 255
2.82622 0.861132 4.13785 0 0 0 255 255 0 255
2.82952 0.870574 4.13785 0 0 0 255 255 0 255
2.94874 1.21238 4.13785 0 0 0 255 255 0 255
2.79802 0.783065 4.13824 0 0 0 255 255 0 255
2.98817 1.33101 4.13863 0 0 0 255 255 0 255
3.01826 1.42007 4.13903 0 0 0 255 255 0 255
2.99269 1.34956 4.13942 0 0 0 255 255 0 255
2.99335 1.35144 4.13942 0 0 0 255 255 0 255
3.0355 1.4723 4.13942 0 0 0 255 255 0 255
2.84625 0.932518 4.13981 0 0 0 255 255 0 255
2.9411 1.20445 4.13981 0 0 0 255 255 0 255
2.99018 1.34514 4.13981 0 0 0 255 255 0 255
2.84497 0.937203 4.14099 0 0 0 255 255 0 255
2.98604 1.34446 4.14138 0 0 0 255 255 0 255
2.83811 0.934299 4.14335 0 0 0 255 255 0 255
2.9323 1.20434 4.14335 0 0 0 255 255 0 255
2.92721 1.2093 4.1461 0 0 0 255 255 0 255
2.97356 1.34776 4.14689 0 0 0 255 255 0 255
2.81045 0.885698 4.14767 0 0 0 255 255 0 255
2.80212 0.86742 4.14846 0 0 0 255 255 0 255
2.91455 1.19253 4.14885 0 0 0 255 255 0 255
3.00874 1.46258 4.14885 0 0 0 255 255 0 255
2.80533 0.882189 4.14925 0 0 0 255 255 0 255
2.80697 0.88691 4.14925 0 0 0 255 255 0 255
2.91697 1.20228 4.14925 0 0 0 255 255 0 255
2.95254 1.30425 4.14925 0 0 0 255 255 0 255
2.75275 0.73425 4.14964 0 0 0 255 255 0 255
2.91392 1.19911 4.15003 0 0 0 255 255 0 255
2.94302 1.28533 4.15043 0 0 0 255 255 0 255
2.74883 0.731382 4.15082 0 0 0 255 255 0 255
3.01461 1.49336 4.15082 0 0 0 255 255 0 255
2.7506 0.739239 4.15121 0 0 0 255 255 0 255
2.79177 0.857265 4.15121 0 0 0 255 255 0 255
2.97006 1.37122 4.15161 0 0 0 255 255 0 255
2.74135 0.735052 4.15436 0 0 0 255 255 0 255
2.89087 1.16372 4.15436 0 0 0 255 255 0 255
2.93697 1.29591 4.15436 0 0 0 255 255 0 255
2.93829 1.29969 4.15436 0 0 0 255 255 0 255
2.98078 1.42149 4.15436 0 0 0 255 255 0 255
2.78144 0.855572 4.15514 0 0 0 255 255 0 255
2.90967 1.22601 4.15554 0 0 0 255 255 0 255
2.78464 0.870341 4.15593 0 0 0 255 255 0 255
2.79156 0.890169 4.15593 0 0 0 255 255 0 255
2.73548 0.73498 4.15672 0 0 0 255 255 0 255
2.93057 1.29709 4.15711 0 0 0 255 255 0 255
2.97111 1.42169 4.15829 0 0 0 255 255 0 255
2.93994 1.33512 4.15868 0 0 0 255 255 0 255
2.79626 0.928775 4.15947 0 0 0 255 255 0 255
2.73413 0.753454 4.15986 0 0 0 255 255 0 255
2.83668 1.05024 4.16025 0 0 0 255 255 0 255
2.73638 0.773853 4.16183 0 0 0 255 255 0 255
2.93695 1.34888 4.16183 0 0 0 255 255 0 255
2.72234 0.736387 4.16222 0 0 0 255 255 0 255
2.73683 0.777932 4.16222 0 0 0 255 255 0 255
2.94497 1.37467 4.16222 0 0 0 255 255 0 255
2.73629 0.779179 4.16261 0 0 0 255 255 0 255
2.72162 0.748288 4.16419 0 0 0 255 255 0 255
2.72108 0.749535 4.16458 0 0 0 255 255 0 255
2.77377 0.900608 4.16458 0 0 0 255 255 0 255
2.77509 0.904385 4.16458 0 0 0 255 255 0 255
2.94317 1.38907 4.16497 0 0 0 255 255 0 255
2.69365 0.676492 4.16536 0 0 0 255 255 0 255
2.7782 0.924481 4.16615 0 0 0 255 255 0 255
2.93431 1.37204 4.16615 0 0 0 255 255 0 255
2.76362 0.888262 4.16694 0 0 0 255 255 0 255
2.77758 0.931055 4.16733 0 0 0 255 255 0 255
2.72237 0.775562 4.16772 0 0 0 255 255 0 255
2.77572 0.928525 4.16772 0 0 0 255 255 0 255
2.7641 0.900804 4.16851 0 0 0 255 255 0 255
2.69012 0.691492 4.1689 0 0 0 255 255 0 255
2.76488 0.905828 4.1689 0 0 0 255 255 0 255
2.6909 0.696516 4.1693 0 0 0 255 255 0 255
3.0309 1.67408 4.16969 0 0 0 255 255 0 255
2.68851 0.695233 4.17008 0 0 0 255 255 0 255
2.68949 0.698066 4.17008 0 0 0 255 255 0 255
2.92575 1.3782 4.17047 0 0 0 255 255 0 255
2.80731 1.04142 4.17087 0 0 0 255 255 0 255
2.92225 1.37095 4.17087 0 0 0 255 255 0 255
3.01479 1.63627 4.17087 0 0 0 255 255 0 255
3.00823 1.62585 4.17205 0 0 0 255 255 0 255
2.79955 1.03036 4.17244 0 0 0 255 255 0 255
2.74611 0.882721 4.17323 0 0 0 255 255 0 255
2.75063 0.901267 4.17401 0 0 0 255 255 0 255
2.67512 0.690369 4.1748 0 0 0 255 255 0 255
2.69309 0.761416 4.17755 0 0 0 255 255 0 255
2.68719 0.752883 4.17873 0 0 0 255 255 0 255
2.72366 0.863017 4.17952 0 0 0 255 255 0 255
2.98758 1.62247 4.17991 0 0 0 255 255 0 255
2.71566 0.845682 4.1803 0 0 0 255 255 0 255
2.98381 1.6312 4.18266 0 0 0 255 255 0 255
2.98063 1.62489 4.18305 0 0 0 255 255 0 255
2.71333 0.861324 4.18345 0 0 0 255 255 0 255
2.72411 0.89781 4.18423 0 0 0 255 255 0 255
2.72677 0.913826 4.18541 0 0 0 255 255 0 255
2.7056 0.858723 4.1862 0 0 0 255 255 0 255
2.6492 0.702589 4.18699 0 0 0 255 255 0 255
2.71947 0.906842 4.18738 0 0 0 255 255 0 255
2.70369 0.869982 4.18856 0 0 0 255 255 0 255
2.71686 0.90775 4.18856 0 0 0 255 255 0 255
2.82713 1.23785 4.19052 0 0 0 255 255 0 255
2.69749 0.868966 4.19092 0 0 0 255 255 0 255
2.86117 1.33824 4.19092 0 0 0 255 255 0 255
2.71123 0.91395 4.1917 0 0 0 255 255 0 255
2.64297 0.723825 4.19249 0 0 0 255 255 0 255
2.82542 1.24692 4.19249 0 0 0 255 255 0 255
2.82105 1.23997 4.19327 0 0 0 255 255 0 255
2.63114 0.698295 4.19367 0 0 0 255 255 0 255
2.64168 0.72851 4.19367 0 0 0 255 255 0 255
2.82809 1.26293 4.19367 0 0 0 255 255 0 255
2.95039 1.61637 4.19406 0 0 0 255 255 0 255
2.85875 1.35921 4.19485 0 0 0 255 255 0 255
2.64019 0.735386 4.19524 0 0 0 255 255 0 255
2.68531 0.864743 4.19524 0 0 0 255 255 0 255
2.62498 0.705742 4.19721 0 0 0 255 255 0 255
2.92755 1.5788 4.19799 0 0 0 255 255 0 255
2.68099 0.87472 4.19839 0 0 0 255 255 0 255
2.8459 1.3531 4.19917 0 0 0 255 255 0 255
2.62582 0.72769 4.19996 0 0 0 255 255 0 255
2.68028 0.88662 4.20035 0 0 0 255 255 0 255
2.81662 1.27752 4.20035 0 0 0 255 255 0 255
2.63213 0.762554 4.20232 0 0 0 255 255 0 255
2.59648 0.665906 4.2031 0 0 0 255 255 0 255
2.65896 0.850633 4.20389 0 0 0 255 255 0 255
2.83836 1.37056 4.20467 0 0 0 255 255 0 255
2.67228 0.899999 4.20546 0 0 0 255 255 0 255
2.67306 0.905023 4.20585 0 0 0 255 255 0 255
2.79854 1.26477 4.20585 0 0 0 255 255 0 255
2.91755 1.60876 4.20625 0 0 0 255 255 0 255
3.01372 1.88447 4.20625 0 0 0 255 255 0 255
2.67001 0.901852 4.20664 0 0 0 255 255 0 255
2.671 0.904684 4.20664 0 0 0 255 255 0 255
2.92031 1.61945 4.20664 0 0 0 255 255 0 255
2.61689 0.75516 4.20743 0 0 0 255 255 0 255
2.61788 0.757993 4.20743 0 0 0 255 255 0 255
2.79112 1.25465 4.20743 0 0 0 255 255 0 255
2.82866 1.36229 4.20743 0 0 0 255 255 0 255
2.91923 1.62195 4.20743 0 0 0 255 255 0 255
2.65324 0.862159 4.20782 0 0 0 255 255 0 255
2.59618 0.704137 4.20861 0 0 0 255 255 0 255
2.64932 0.859291 4.209 0 0 0 255 255 0 255
3.0386 1.97535 4.209 0 0 0 255 255 0 255
2.66252 0.905521 4.21018 0 0 0 255 255 0 255
2.61172 0.76544 4.21096 0 0 0 255 255 0 255
2.61468 0.773937 4.21096 0 0 0 255 255 0 255
2.78725 1.2687 4.21096 0 0 0 255 255 0 255
2.91142 1.62467 4.21096 0 0 0 255 255 0 255
2.61348 0.773296 4.21136 0 0 0 255 255 0 255
2.64061 0.853857 4.21175 0 0 0 255 255 0 255
2.78971 1.28691 4.21254 0 0 0 255 255 0 255
2.90498 1.61739 4.21254 0 0 0 255 255 0 255
2.91618 1.64949 4.21254 0 0 0 255 255 0 255
2.63076 0.833993 4.21293 0 0 0 255 255 0 255
2.90082 1.60825 4.21293 0 0 0 255 255 0 255
2.62815 0.834901 4.21411 0 0 0 255 255 0 255
2.90471 1.63337 4.2149 0 0 0 255 255 0 255
2.58965 0.732891 4.21529 0 0 0 255 255 0 255
2.90187 1.628 4.21529 0 0 0 255 255 0 255
2.81782 1.40102 4.21725 0 0 0 255 255 0 255
3.03453 2.02231 4.21725 0 0 0 255 255 0 255
2.9016 1.64398 4.21765 0 0 0 255 255 0 255
2.78776 1.32042 4.21804 0 0 0 255 255 0 255
2.61654 0.837894 4.21922 0 0 0 255 255 0 255
2.67285 0.999354 4.21922 0 0 0 255 255 0 255
2.89779 1.64425 4.21922 0 0 0 255 255 0 255
3.02722 2.01533 4.21922 0 0 0 255 255 0 255
2.67265 1.00155 4.21961 0 0 0 255 255 0 255
3.02207 2.00335 4.21961 0 0 0 255 255 0 255
2.89935 1.6543 4.22001 0 0 0 255 255 0 255
3.02441 2.01843 4.22079 0 0 0 255 255 0 255
2.56807 0.712883 4.22119 0 0 0 255 255 0 255
2.55666 0.682972 4.22158 0 0 0 255 255 0 255
2.71157 1.12989 4.22197 0 0 0 255 255 0 255
2.55603 0.689545 4.22276 0 0 0 255 255 0 255
2.76845 1.29856 4.22276 0 0 0 255 255 0 255
2.62498 0.890021 4.22315 0 0 0 255 255 0 255
2.55561 0.693928 4.22354 0 0 0 255 255 0 255
2.62049 0.879937 4.22354 0 0 0 255 255 0 255
2.62411 0.890324 4.22354 0 0 0 255 255 0 255
3.03776 2.07625 4.22354 0 0 0 255 255 0 255
2.62292 0.889682 4.22394 0 0 0 255 255 0 255
2.62555 0.897236 4.22394 0 0 0 255 255 0 255
2.7586 1.2787 4.22394 0 0 0 255 255 0 255
2.62118 0.890288 4.22472 0 0 0 255 255 0 255
2.5472 0.680976 4.22512 0 0 0 255 255 0 255
2.76983 1.31926 4.22512 0 0 0 255 255 0 255
2.803 1.41996 4.2259 0 0 0 255 255 0 255
3.02432 2.05447 4.2259 0 0 0 255 255 0 255
3.03717 2.09129 4.2259 0 0 0 255 255 0 255
2.76887 1.32489 4.2263 0 0 0 255 255 0 255
2.56118 0.73223 4.22669 0 0 0 255 255 0 255
2.55932 0.729701 4.22708 0 0 0 255 255 0 255
2.61872 0.902794 4.22748 0 0 0 255 255 0 255
2.76639 1.32894 4.22787 0 0 0 255 255 0 255
2.7586 1.30941 4.22826 0 0 0 255 255 0 255
2.6148 0.899926 4.22865 0 0 0 255 255 0 255
3.02714 2.08208 4.22865 0 0 0 255 255 0 255
2.79112 1.40821 4.22905 0 0 0 255 255 0 255
2.52908 0.659757 4.22944 0 0 0 255 255 0 255
2.75929 1.31976 4.22944 0 0 0 255 255 0 255
2.78465 1.39247 4.22944 0 0 0 255 255 0 255
2.58256 0.815855 4.22983 0 0 0 255 255 0 255
2.7334 1.2483 4.22983 0 0 0 255 255 0 255
2.76666 1.34367 4.22983 0 0 0 255 255 0 255
2.75899 1.32728 4.23062 0 0 0 255 255 0 255
2.52232 0.651527 4.23101 0 0 0 255 255 0 255
2.52507 0.662216 4.23141 0 0 0 255 255 0 255
2.55373 0.744362 4.23141 0 0 0 255 255 0 255
2.52355 0.66063 4.2318 0 0 0 255 255 0 255
2.75025 1.31338 4.23219 0 0 0 255 255 0 255
2.74346 1.29669 4.23259 0 0 0 255 255 0 255
2.64774 1.02506 4.23298 0 0 0 255 255 0 255
2.73699 1.28094 4.23298 0 0 0 255 255 0 255
2.74468 1.30579 4.23337 0 0 0 255 255 0 255
2.77971 1.40902 4.23376 0 0 0 255 255 0 255
2.77962 1.41434 4.23455 0 0 0 255 255 0 255
2.7781 1.41276 4.23494 0 0 0 255 255 0 255
2.9095 1.7895 4.23494 0 0 0 255 255 0 255
2.91477 1.8046 4.23494 0 0 0 255 255 0 255
2.91456 1.8068 4.23534 0 0 0 255 255 0 255
2.51322 0.658937 4.23573 0 0 0 255 255 0 255
2.54121 0.739195 4.23573 0 0 0 255 255 0 255
2.75265 1.34538 4.23573 0 0 0 255 255 0 255
2.91435 1.80899 4.23573 0 0 0 255 255 0 255
2.57067 0.834828 4.2373 0 0 0 255 255 0 255
2.56663 0.828824 4.23809 0 0 0 255 255 0 255
2.9042 1.79664 4.23809 0 0 0 255 255 0 255
2.69465 1.20145 4.23887 0 0 0 255 255 0 255
2.76843 1.41295 4.23887 0 0 0 255 255 0 255
2.56603 0.84386 4.24045 0 0 0 255 255 0 255
2.76923 1.42644 4.24045 0 0 0 255 255 0 255
2.69142 1.20893 4.24123 0 0 0 255 255 0 255
2.76355 1.41571 4.24123 0 0 0 255 255 0 255
2.52094 0.722965 4.24163 0 0 0 255 255 0 255
2.66717 1.14219 4.24163 0 0 0 255 255 0 255
2.6698 1.14975 4.24163 0 0 0 255 255 0 255
2.71163 1.26966 4.24163 0 0 0 255 255 0 255
2.7134 1.27752 4.24202 0 0 0 255 255 0 255
2.52085 0.728292 4.24241 0 0 0 255 255 0 255
2.51702 0.720097 4.24281 0 0 0 255 255 0 255
2.57214 0.880916 4.2432 0 0 0 255 255 0 255
2.72561 1.32092 4.2432 0 0 0 255 255 0 255
2.89061 1.79397 4.2432 0 0 0 255 255 0 255
2.55987 0.851306 4.24399 0 0 0 255 255 0 255
2.6972 1.24504 4.24399 0 0 0 255 255 0 255
2.56064 0.85633 4.24438 0 0 0 255 255 0 255
2.55879 0.853801 4.24477 0 0 0 255 255 0 255
2.70666 1.27775 4.24477 0 0 0 255 255 0 255
2.92414 1.90407 4.24516 0 0 0 255 255 0 255
2.56672 0.884924 4.24595 0 0 0 255 255 0 255
2.6978 1.26072 4.24595 0 0 0 255 255 0 255
2.564 0.882697 4.24674 0 0 0 255 255 0 255
2.55852 0.869781 4.24713 0 0 0 255 255 0 255
2.56379 0.884888 4.24713 0 0 0 255 255 0 255
2.68531 1.2333 4.24713 0 0 0 255 255 0 255
2.90828 1.87253 4.24713 0 0 0 255 255 0 255
2.54909 0.845534 4.24752 0 0 0 255 255 0 255
2.49136 0.685624 4.24831 0 0 0 255 255 0 255
2.7163 1.33052 4.24831 0 0 0 255 255 0 255
2.48897 0.684341 4.2491 0 0 0 255 255 0 255
2.55154 0.863741 4.2491 0 0 0 255 255 0 255
2.55352 0.869406 4.2491 0 0 0 255 255 0 255
2.91316 1.90049 4.2491 0 0 0 255 255 0 255
2.67516 1.22096 4.24949 0 0 0 255 255 0 255
2.7081 1.31538 4.24949 0 0 0 255 255 0 255
2.5531 0.873789 4.24988 0 0 0 255 255 0 255
