ply
format ascii 1.0
comment VCGLIB generated
element vertex 52
property float x
property float y
property float z
property float nx
property float ny
property float nz
property uchar red
property uchar green
property uchar blue
property uchar alpha
element face 0
property list uchar int vertex_indices
end_header
2.15183 0.624792 3.94517 0 0 0 255 255 0 255
2.05708 0.501736 3.92034 0 0 0 255 255 0 255
2.05208 0.498589 3.91886 0 0 0 255 255 0 255
2.00489 0.499302 3.90328 0 0 0 255 255 0 255
2.00599 0.493357 3.90398 0 0 0 255 255 0 255
2.00167 0.496902 3.90236 0 0 0 255 255 0 255
1.98025 0.46248 3.89728 0 0 0 255 255 0 255
1.97868 0.455433 3.89717 0 0 0 255 255 0 255
1.98077 0.4467 3.89835 0 0 0 255 255 0 255
1.95321 0.498255 3.88642 0 0 0 255 255 0 255
1.94909 0.495497 3.88523 0 0 0 255 255 0 255
1.95382 0.433501 3.8903 0 0 0 255 255 0 255
1.88511 0.500198 3.86415 0 0 0 255 255 0 255
1.88284 0.486495 3.86419 0 0 0 255 255 0 255
1.87764 0.498219 3.86185 0 0 0 255 255 0 255
1.87463 0.498057 3.86088 0 0 0 255 255 0 255
1.88701 0.460501 3.86701 0 0 0 255 255 0 255
1.87892 0.477439 3.86343 0 0 0 255 255 0 255
1.89824 0.420365 3.87297 0 0 0 255 255 0 255
1.88627 0.43678 3.86813 0 0 0 255 255 0 255
1.81956 0.494842 3.84329 0 0 0 255 255 0 255
1.82633 0.444378 3.84833 0 0 0 255 255 0 255
1.80139 0.497066 3.83732 0 0 0 255 255 0 255
1.8153 0.449493 3.84448 0 0 0 255 255 0 255
1.80243 0.436849 3.84107 0 0 0 255 255 0 255
1.80661 0.419394 3.84343 0 0 0 255 255 0 255
1.78602 0.468519 3.834 0 0 0 255 255 0 255
1.79541 0.439335 3.83868 0 0 0 255 255 0 255
1.73394 0.491175 3.81608 0 0 0 255 255 0 255
1.72512 0.492953 3.81317 0 0 0 255 255 0 255
1.72044 0.497456 3.81143 0 0 0 255 255 0 255
1.73489 0.44266 3.81913 0 0 0 255 255 0 255
1.71624 0.477702 3.8112 0 0 0 255 255 0 255
1.72474 0.448164 3.81558 0 0 0 255 255 0 255
1.71808 0.458242 3.81288 0 0 0 255 255 0 255
1.75829 0.342599 3.83251 0 0 0 255 255 0 255
1.71659 0.448087 3.81299 0 0 0 255 255 0 255
1.71791 0.444368 3.81363 0 0 0 255 255 0 255
1.73427 0.395661 3.82167 0 0 0 255 255 0 255
1.70022 0.468112 3.80665 0 0 0 255 255 0 255
1.72677 0.393729 3.8194 0 0 0 255 255 0 255
1.7129 0.392442 3.81506 0 0 0 255 255 0 255
1.72296 0.341241 3.82133 0 0 0 255 255 0 255
1.66836 0.471345 3.79637 0 0 0 255 255 0 255
1.65561 0.472646 3.79226 0 0 0 255 255 0 255
1.67888 0.387394 3.80456 0 0 0 255 255 0 255
1.65076 0.463286 3.79126 0 0 0 255 255 0 255
1.68937 0.311973 3.81244 0 0 0 255 255 0 255
1.64691 0.422475 3.79239 0 0 0 255 255 0 255
1.65516 0.341919 3.79978 0 0 0 255 255 0 255
1.65469 0.337491 3.7999 0 0 0 255 255 0 255
1.65545 0.332487 3.80045 0 0 0 255 255 0 255
