ply
format ascii 1.0
comment VCGLIB generated
element vertex 41
property float x
property float y
property float z
property float nx
property float ny
property float nz
property uchar red
property uchar green
property uchar blue
property uchar alpha
element face 0
property list uchar int vertex_indices
end_header
0.482404 1.54073 3.597 0 0 0 0 255 255 255
0.484221 1.54756 3.59713 0 0 0 0 255 255 255
0.495999 1.55421 3.59859 0 0 0 0 255 255 255
0.506349 1.54894 3.60004 0 0 0 0 255 255 255
0.514818 1.55296 3.60109 0 0 0 0 255 255 255
0.516516 1.5588 3.60123 0 0 0 0 255 255 255
0.520009 1.54629 3.60189 0 0 0 0 255 255 255
0.536319 1.55743 3.60387 0 0 0 0 255 255 255
0.536622 1.5433 3.60413 0 0 0 0 255 255 255
0.537217 1.54826 3.60413 0 0 0 0 255 255 255
0.567489 1.54262 3.60823 0 0 0 0 255 255 255
0.577623 1.56054 3.60928 0 0 0 0 255 255 255
0.583355 1.54172 3.61034 0 0 0 0 255 255 255
0.584783 1.55364 3.61034 0 0 0 0 255 255 255
0.591045 1.55591 3.61113 0 0 0 0 255 255 255
0.59152 1.55988 3.61113 0 0 0 0 255 255 255
0.618061 1.56476 3.61457 0 0 0 0 255 255 255
0.637421 1.55136 3.61734 0 0 0 0 255 255 255
0.675502 1.5609 3.62223 0 0 0 0 255 255 255
0.679233 1.55038 3.62289 0 0 0 0 255 255 255
0.684327 1.5679 3.62328 0 0 0 0 255 255 255
0.720981 1.56552 3.62817 0 0 0 0 255 255 255
0.720332 1.54344 3.62844 0 0 0 0 255 255 255
0.723576 1.56219 3.62857 0 0 0 0 255 255 255
0.721824 1.53923 3.6287 0 0 0 0 255 255 255
0.722776 1.54718 3.6287 0 0 0 0 255 255 255
0.740643 1.53799 3.63121 0 0 0 0 255 255 255
0.764913 1.55724 3.63412 0 0 0 0 255 255 255
0.789042 1.55032 3.63742 0 0 0 0 255 255 255
0.795834 1.57367 3.63795 0 0 0 0 255 255 255
0.821726 1.55647 3.64164 0 0 0 0 255 255 255
0.836727 1.55669 3.64363 0 0 0 0 255 255 255
0.863895 1.55847 3.64719 0 0 0 0 255 255 255
0.864165 1.55239 3.64732 0 0 0 0 255 255 255
0.866372 1.55414 3.64759 0 0 0 0 255 255 255
0.898937 1.55931 3.65181 0 0 0 0 255 255 255
0.899294 1.56228 3.65181 0 0 0 0 255 255 255
0.904247 1.55363 3.65261 0 0 0 0 255 255 255
0.936931 1.55979 3.65683 0 0 0 0 255 255 255
0.944653 1.56591 3.65776 0 0 0 0 255 255 255
0.964456 1.56455 3.6604 0 0 0 0 255 255 255
