ply
format ascii 1.0
comment VCGLIB generated
element vertex 87
property float x
property float y
property float z
property float nx
property float ny
property float nz
property uchar red
property uchar green
property uchar blue
property uchar alpha
element face 0
property list uchar int vertex_indices
end_header
1.2608 -0.634293 4.40713 0 0 0 0 128 128 255
1.25531 -0.676002 4.42497 0 0 0 0 128 128 255
1.3155 0.142789 4.42695 0 0 0 0 128 128 255
1.25614 -0.661023 4.42695 0 0 0 0 128 128 255
1.31523 0.142809 4.42894 0 0 0 0 128 128 255
1.25775 -0.632062 4.43092 0 0 0 0 128 128 255
1.31323 0.133932 4.43885 0 0 0 0 128 128 255
1.25555 -0.621872 4.45272 0 0 0 0 128 128 255
1.30822 0.113245 4.46461 0 0 0 0 128 128 255
1.3082 0.120265 4.46858 0 0 0 0 128 128 255
1.30808 0.12228 4.47056 0 0 0 0 128 128 255
1.24937 -0.636457 4.49038 0 0 0 0 128 128 255
1.25225 -0.595558 4.49137 0 0 0 0 128 128 255
1.24885 -0.634413 4.49533 0 0 0 0 128 128 255
1.24596 -0.666287 4.4993 0 0 0 0 128 128 255
1.24747 -0.631303 4.50723 0 0 0 0 128 128 255
1.30383 0.135629 4.50921 0 0 0 0 128 128 255
1.30689 0.182531 4.51218 0 0 0 0 128 128 255
1.30684 0.185542 4.51416 0 0 0 0 128 128 255
1.31057 0.24142 4.51714 0 0 0 0 128 128 255
1.30945 0.233481 4.5211 0 0 0 0 128 128 255
1.24453 -0.622061 4.53398 0 0 0 0 128 128 255
1.24441 -0.620047 4.53596 0 0 0 0 128 128 255
1.24272 -0.62293 4.54687 0 0 0 0 128 128 255
1.30091 0.166929 4.54786 0 0 0 0 128 128 255
1.24079 -0.63081 4.55678 0 0 0 0 128 128 255
1.31809 0.470488 4.58651 0 0 0 0 128 128 255
1.32038 0.503408 4.5875 0 0 0 0 128 128 255
1.23914 -0.589577 4.59146 0 0 0 0 128 128 255
1.3158 0.457622 4.59642 0 0 0 0 128 128 255
1.2371 -0.604467 4.5984 0 0 0 0 128 128 255
1.26954 -0.130569 4.61723 0 0 0 0 128 128 255
1.25727 -0.293107 4.61921 0 0 0 0 128 128 255
1.25661 -0.293058 4.62416 0 0 0 0 128 128 255
1.23077 -0.6411 4.62515 0 0 0 0 128 128 255
1.25616 -0.290017 4.62912 0 0 0 0 128 128 255
1.28291 0.0850316 4.63606 0 0 0 0 128 128 255
1.28021 0.0611657 4.64299 0 0 0 0 128 128 255
1.26421 -0.148225 4.64696 0 0 0 0 128 128 255
1.22675 -0.642809 4.65389 0 0 0 0 128 128 255
1.2805 0.103259 4.6638 0 0 0 0 128 128 255
1.26104 -0.153004 4.66777 0 0 0 0 128 128 255
1.2771 0.093483 4.68362 0 0 0 0 128 128 255
1.22007 -0.653345 4.6975 0 0 0 0 128 128 255
1.25569 -0.163639 4.70146 0 0 0 0 128 128 255
1.21337 -0.656861 4.74507 0 0 0 0 128 128 255
1.27745 0.221806 4.75101 0 0 0 0 128 128 255
1.2576 -0.0414479 4.75399 0 0 0 0 128 128 255
1.21022 -0.677686 4.75696 0 0 0 0 128 128 255
1.29679 0.509162 4.76489 0 0 0 0 128 128 255
1.27064 0.16415 4.76984 0 0 0 0 128 128 255
1.20716 -0.695509 4.76984 0 0 0 0 128 128 255
1.29395 0.485306 4.77281 0 0 0 0 128 128 255
1.26851 0.155283 4.78074 0 0 0 0 128 128 255
1.27207 0.227216 4.79363 0 0 0 0 128 128 255
1.26584 0.146456 4.79561 0 0 0 0 128 128 255
1.31674 0.837584 4.7966 0 0 0 0 128 128 255
1.26572 0.157495 4.80254 0 0 0 0 128 128 255
1.26236 0.115629 4.80453 0 0 0 0 128 128 255
1.26264 0.137667 4.81444 0 0 0 0 128 128 255
1.27745 0.349151 4.82038 0 0 0 0 128 128 255
1.29392 0.577559 4.82336 0 0 0 0 128 128 255
1.26162 0.143759 4.82534 0 0 0 0 128 128 255
1.29184 0.585734 4.84318 0 0 0 0 128 128 255
1.26042 0.163902 4.84516 0 0 0 0 128 128 255
1.27349 0.364485 4.85804 0 0 0 0 128 128 255
1.27194 0.343542 4.85804 0 0 0 0 128 128 255
1.27127 0.343591 4.863 0 0 0 0 128 128 255
1.27917 0.452305 4.86399 0 0 0 0 128 128 255
1.27064 0.338624 4.86498 0 0 0 0 128 128 255
1.25511 0.139226 4.87092 0 0 0 0 128 128 255
1.26811 0.320762 4.8739 0 0 0 0 128 128 255
1.27609 0.441502 4.88083 0 0 0 0 128 128 255
1.19172 -0.688352 4.88777 0 0 0 0 128 128 255
1.2853 0.615296 4.90759 0 0 0 0 128 128 255
1.25676 0.234363 4.91056 0 0 0 0 128 128 255
1.26362 0.33814 4.91651 0 0 0 0 128 128 255
1.32004 1.11309 4.92246 0 0 0 0 128 128 255
1.32016 1.1201 4.92543 0 0 0 0 128 128 255
1.28348 0.623452 4.92543 0 0 0 0 128 128 255
1.31797 1.10321 4.93237 0 0 0 0 128 128 255
1.28683 0.683368 4.93336 0 0 0 0 128 128 255
1.25247 0.250723 4.95119 0 0 0 0 128 128 255
1.26761 0.481234 4.96507 0 0 0 0 128 128 255
1.27516 0.61805 4.9839 0 0 0 0 128 128 255
1.28179 0.833146 5.05228 0 0 0 0 128 128 255
1.28251 0.850139 5.05624 0 0 0 0 128 128 255
