ply
format ascii 1.0
comment VCGLIB generated
element vertex 267
property float x
property float y
property float z
property float nx
property float ny
property float nz
property uchar red
property uchar green
property uchar blue
property uchar alpha
element face 0
property list uchar int vertex_indices
end_header
-2.35643 -0.764583 5.61631 0 0 0 255 255 255 255
-2.6638 -0.689039 5.71753 0 0 0 255 255 255 255
-2.25386 -0.77532 5.54755 0 0 0 255 255 255 255
-2.66601 -0.662118 5.69831 0 0 0 255 255 255 255
-2.65458 -0.595587 5.69214 0 0 0 255 255 255 255
-2.28926 -0.77314 5.53847 0 0 0 255 255 255 255
-2.34864 -0.80508 5.65484 0 0 0 255 255 255 255
-2.65641 -0.607221 5.6923 0 0 0 255 255 255 255
-2.262 -0.780991 5.54536 0 0 0 255 255 255 255
-2.6198 -0.802574 5.67807 0 0 0 255 255 255 255
-2.33999 -0.763357 5.63123 0 0 0 255 255 255 255
-2.67898 -0.731076 5.74528 0 0 0 255 255 255 255
-2.64811 -0.70994 5.74948 0 0 0 255 255 255 255
-2.96189 -2.35698 8.07998 0 0 0 255 255 255 255
-3.68112 -2.22586 7.91996 0 0 0 255 255 255 255
-3.39948 -2.0317 7.41094 0 0 0 255 255 255 255
-3.14912 -2.48428 8.42635 0 0 0 255 255 255 255
-2.89351 -1.03496 6.42171 0 0 0 255 255 255 255
-3.81201 -2.06773 7.52134 0 0 0 255 255 255 255
-3.40872 -2.06179 7.45203 0 0 0 255 255 255 255
-2.97657 -2.40465 8.09144 0 0 0 255 255 255 255
-2.89221 -1.01585 6.39628 0 0 0 255 255 255 255
-1.04374 -0.536831 5.63448 0 0 0 255 255 255 255
-1.08816 -0.54002 5.45315 0 0 0 255 255 255 255
-1.02755 -0.587402 5.58035 0 0 0 255 255 255 255
-0.666386 -2.53193 8.28367 0 0 0 255 255 255 255
-1.69948 -2.52269 8.3542 0 0 0 255 255 255 255
-2.61955 -0.421094 5.77296 0 0 0 255 255 255 255
-2.59181 0.0754186 5.87492 0 0 0 255 255 255 255
-2.6486 -0.482076 5.75813 0 0 0 255 255 255 255
-2.58846 0.0874429 5.87163 0 0 0 255 255 255 255
-2.66915 -0.182613 5.84208 0 0 0 255 255 255 255
-2.64507 -0.409066 5.71853 0 0 0 255 255 255 255
-2.65094 -0.453884 5.72255 0 0 0 255 255 255 255
-2.59742 0.072286 5.87641 0 0 0 255 255 255 255
-2.30427 0.0414679 5.72643 0 0 0 255 255 255 255
-2.64405 -0.17663 5.85707 0 0 0 255 255 255 255
-2.66801 -0.162684 5.81139 0 0 0 255 255 255 255
-2.64588 -0.384093 5.71552 0 0 0 255 255 255 255
-2.64217 -0.402084 5.73098 0 0 0 255 255 255 255
-2.31485 -0.023946 5.96144 0 0 0 255 255 255 255
-2.62355 0.481364 6.01848 0 0 0 255 255 255 255
-2.61484 0.507675 5.98501 0 0 0 255 255 255 255
-2.64057 0.430297 6.08497 0 0 0 255 255 255 255
-2.33461 0.0749594 6.03482 0 0 0 255 255 255 255
-2.61669 0.505303 5.99813 0 0 0 255 255 255 255
-2.6233 0.482712 6.01799 0 0 0 255 255 255 255
-3.03742 1.08778 6.7252 0 0 0 255 255 255 255
-3.02788 1.09804 6.71503 0 0 0 255 255 255 255
-2.71913 1.42322 6.09854 0 0 0 255 255 255 255
-2.4188 1.17612 6.19548 0 0 0 255 255 255 255
-2.61342 1.13083 6.12397 0 0 0 255 255 255 255
-2.60959 1.13631 6.11594 0 0 0 255 255 255 255
-2.30846 1.30528 6.21163 0 0 0 255 255 255 255
-2.59005 1.2337 6.08158 0 0 0 255 255 255 255
-2.70189 1.41246 6.1427 0 0 0 255 255 255 255
-2.70489 1.40875 6.14121 0 0 0 255 255 255 255
-2.65331 1.58884 6.03883 0 0 0 255 255 255 255
-2.71785 1.45365 6.10588 0 0 0 255 255 255 255
-2.64967 1.59108 6.02464 0 0 0 255 255 255 255
-2.71522 1.44477 6.15651 0 0 0 255 255 255 255
-2.56658 1.68969 6.04889 0 0 0 255 255 255 255
-2.7252 1.44857 6.08214 0 0 0 255 255 255 255
-2.54543 1.57981 6.07671 0 0 0 255 255 255 255
-2.67256 1.52338 6.0702 0 0 0 255 255 255 255
-2.65116 1.59279 6.01644 0 0 0 255 255 255 255
-2.54361 1.59081 6.08487 0 0 0 255 255 255 255
-2.65683 1.55087 6.04162 0 0 0 255 255 255 255
-1.94142 -0.0863655 5.65377 0 0 0 255 255 255 255
-1.72603 -0.0589264 5.53572 0 0 0 255 255 255 255
-1.87277 -0.090569 5.68085 0 0 0 255 255 255 255
-1.86879 -0.0627749 5.75924 0 0 0 255 255 255 255
-1.86679 -0.0552919 5.67209 0 0 0 255 255 255 255
-1.77566 -0.116288 5.74523 0 0 0 255 255 255 255
-1.80615 -0.108106 5.77278 0 0 0 255 255 255 255
-1.83866 -0.0901093 5.67421 0 0 0 255 255 255 255
-1.85659 -0.0843848 5.75925 0 0 0 255 255 255 255
-1.73357 -0.102897 5.63871 0 0 0 255 255 255 255
-1.85883 -0.0574313 5.74255 0 0 0 255 255 255 255
-2.19633 0.427738 5.87684 0 0 0 255 255 255 255
-0.994457 -0.443 4.73131 0 0 0 255 255 255 255
-1.02121 -0.455536 4.90606 0 0 0 255 255 255 255
-1.15467 -0.432002 4.99092 0 0 0 255 255 255 255
-1.11865 -0.00999374 4.89628 0 0 0 255 255 255 255
-1.30439 -0.297229 5.68788 0 0 0 255 255 255 255
-1.27017 -0.251524 5.60186 0 0 0 255 255 255 255
-1.30536 -0.297934 5.68865 0 0 0 255 255 255 255
-1.14574 -0.274186 5.63125 0 0 0 255 255 255 255
-1.02899 -0.133826 5.7137 0 0 0 255 255 255 255
-1.03506 -0.159341 5.72644 0 0 0 255 255 255 255
-1.0729 -0.0983898 5.78514 0 0 0 255 255 255 255
-1.0789 -0.10407 5.78452 0 0 0 255 255 255 255
-0.949418 0.540877 5.67183 0 0 0 255 255 255 255
-1.17069 0.238334 5.48709 0 0 0 255 255 255 255
-1.1188 0.503286 5.50428 0 0 0 255 255 255 255
-1.02402 1.2447 5.55949 0 0 0 255 255 255 255
-0.970829 0.823426 4.94509 0 0 0 255 255 255 255
-1.39677 1.4846 5.66213 0 0 0 255 255 255 255
-0.964066 1.32759 4.96507 0 0 0 255 255 255 255
-1.68945 1.37797 5.61111 0 0 0 255 255 255 255
-1.68599 0.974818 5.68136 0 0 0 255 255 255 255
-0.626598 0.412241 4.48077 0 0 0 255 255 255 255
-0.578883 0.463266 4.52583 0 0 0 255 255 255 255
-0.570339 0.470464 4.51923 0 0 0 255 255 255 255
-0.752831 0.0648465 4.95342 0 0 0 255 255 255 255
-0.848512 -0.481698 5.00539 0 0 0 255 255 255 255
-0.864365 -0.466084 5.08377 0 0 0 255 255 255 255
-0.640291 1.02236 4.60413 0 0 0 255 255 255 255
-0.64211 1.01262 4.59707 0 0 0 255 255 255 255
-0.637419 0.987966 4.59664 0 0 0 255 255 255 255
-0.103364 0.838794 4.35408 0 0 0 255 255 255 255
-0.53486 0.96419 4.5828 0 0 0 255 255 255 255
-0.588753 1.00372 4.55826 0 0 0 255 255 255 255
-0.581836 0.943387 4.55286 0 0 0 255 255 255 255
-0.631232 0.975848 4.60448 0 0 0 255 255 255 255
-0.649139 1.14516 5.08531 0 0 0 255 255 255 255
-0.713338 1.00123 5.1205 0 0 0 255 255 255 255
-0.780993 1.2409 4.83576 0 0 0 255 255 255 255
-0.813148 1.31283 5.07474 0 0 0 255 255 255 255
-0.868358 1.29831 4.8466 0 0 0 255 255 255 255
-0.678313 1.31638 5.18865 0 0 0 255 255 255 255
-0.638524 1.0269 4.60828 0 0 0 255 255 255 255
-0.869522 1.33691 4.88047 0 0 0 255 255 255 255
-0.602753 1.01458 4.63217 0 0 0 255 255 255 255
-0.65563 0.787475 4.64568 0 0 0 255 255 255 255
-0.934955 0.925457 5.73136 0 0 0 255 255 255 255
-0.932649 1.13321 5.72937 0 0 0 255 255 255 255
-0.772996 1.33557 5.30475 0 0 0 255 255 255 255
-0.904814 1.22255 5.55322 0 0 0 255 255 255 255
-0.971181 0.733233 5.9821 0 0 0 255 255 255 255
-1.02826 -0.164485 5.93991 0 0 0 255 255 255 255
-0.961441 0.762367 5.98135 0 0 0 255 255 255 255
-1.02573 -0.154689 5.9276 0 0 0 255 255 255 255
-1.27156 1.66818 6.66808 0 0 0 255 255 255 255
-1.29475 1.66942 6.80868 0 0 0 255 255 255 255
-1.53462 1.56248 6.01792 0 0 0 255 255 255 255
-1.30113 1.67206 6.80435 0 0 0 255 255 255 255
-1.67838 1.67887 6.62453 0 0 0 255 255 255 255
-0.983969 0.872905 5.99 0 0 0 255 255 255 255
-1.18526 1.54217 6.11669 0 0 0 255 255 255 255
-2.20117 1.3408 6.18914 0 0 0 255 255 255 255
-1.19121 1.30455 6.4484 0 0 0 255 255 255 255
-0.923054 0.740524 5.98834 0 0 0 255 255 255 255
-0.874182 -0.07747 6.05175 0 0 0 255 255 255 255
-0.856302 -0.0686672 6.0276 0 0 0 255 255 255 255
-0.870308 -0.0734653 6.05131 0 0 0 255 255 255 255
-0.762511 1.56471 6.15715 0 0 0 255 255 255 255
-0.753162 1.5563 6.15339 0 0 0 255 255 255 255
-0.74855 1.55339 6.15369 0 0 0 255 255 255 255
-0.750133 1.54287 6.15171 0 0 0 255 255 255 255
0.714541 -0.719284 4.56127 0 0 0 255 255 255 255
1.24738 -0.620556 4.53529 0 0 0 255 255 255 255
1.24635 -0.633466 4.40335 0 0 0 255 255 255 255
1.23175 -0.644357 4.34456 0 0 0 255 255 255 255
1.25337 -0.636601 4.49033 0 0 0 255 255 255 255
1.29104 -0.639784 4.35682 0 0 0 255 255 255 255
1.25203 -0.634894 4.4948 0 0 0 255 255 255 255
1.25877 -0.661202 4.42615 0 0 0 255 255 255 255
1.27314 -0.626747 4.3728 0 0 0 255 255 255 255
1.23981 -0.652236 4.32618 0 0 0 255 255 255 255
1.20271 -0.603344 4.59689 0 0 0 255 255 255 255
1.25055 -0.629681 4.37952 0 0 0 255 255 255 255
1.23045 -0.645293 4.34253 0 0 0 255 255 255 255
1.2617 -0.630052 4.33617 0 0 0 255 255 255 255
1.28475 -0.633807 4.43365 0 0 0 255 255 255 255
1.22819 -0.619772 4.44787 0 0 0 255 255 255 255
1.20471 -0.620774 4.54487 0 0 0 255 255 255 255
1.2071 -0.620088 4.53171 0 0 0 255 255 255 255
1.20287 -0.628992 4.55462 0 0 0 255 255 255 255
1.24985 -0.631396 4.5066 0 0 0 255 255 255 255
1.25946 -0.676279 4.42424 0 0 0 255 255 255 255
1.21153 -0.634896 4.6046 0 0 0 255 255 255 255
1.48417 -0.844535 5.15128 0 0 0 255 255 255 255
1.50099 -0.518596 5.78846 0 0 0 255 255 255 255
1.23406 -0.685483 4.86579 0 0 0 255 255 255 255
1.20643 -0.639327 4.64531 0 0 0 255 255 255 255
1.19708 -0.652305 4.69953 0 0 0 255 255 255 255
1.20348 -0.697 4.77307 0 0 0 255 255 255 255
1.20305 -0.657054 4.74535 0 0 0 255 255 255 255
1.96783 -2.46409 8.30506 0 0 0 255 255 255 255
2.46895 -2.69329 8.33239 0 0 0 255 255 255 255
2.50027 -2.16353 8.4114 0 0 0 255 255 255 255
1.91804 -2.67876 8.42919 0 0 0 255 255 255 255
2.49064 -2.17186 8.41348 0 0 0 255 255 255 255
2.17468 -2.51686 8.41789 0 0 0 255 255 255 255
2.45917 -2.6675 8.26914 0 0 0 255 255 255 255
2.47718 -2.42054 8.30005 0 0 0 255 255 255 255
1.91692 -2.61024 8.27443 0 0 0 255 255 255 255
2.28344 -0.513199 7.11346 0 0 0 255 255 255 255
2.46584 -1.77458 8.43182 0 0 0 255 255 255 255
2.76805 -0.596329 7.65325 0 0 0 255 255 255 255
2.74136 -0.865662 8.0084 0 0 0 255 255 255 255
2.70033 -0.879813 7.88938 0 0 0 255 255 255 255
2.5249 -0.817575 7.6313 0 0 0 255 255 255 255
2.68944 -0.978137 8.34727 0 0 0 255 255 255 255
2.6889 -0.876486 7.85536 0 0 0 255 255 255 255
2.00001 -2.54708 8.5779 0 0 0 255 255 255 255
2.53344 -2.66588 8.69496 0 0 0 255 255 255 255
2.55097 -1.80675 8.57336 0 0 0 255 255 255 255
2.68269 -1.80346 8.72597 0 0 0 255 255 255 255
2.21099 -2.58372 8.59943 0 0 0 255 255 255 255
2.48971 -2.58168 8.48648 0 0 0 255 255 255 255
2.5153 -2.61875 8.59319 0 0 0 255 255 255 255
2.68345 -1.84512 8.73347 0 0 0 255 255 255 255
2.54164 -2.22002 8.64667 0 0 0 255 255 255 255
2.56583 -1.78999 8.58314 0 0 0 255 255 255 255
2.49904 -2.4669 8.51441 0 0 0 255 255 255 255
2.57598 -2.28143 8.76539 0 0 0 255 255 255 255
2.61406 -1.74137 8.58029 0 0 0 255 255 255 255
2.52915 -2.32333 8.60687 0 0 0 255 255 255 255
2.5034 -2.30614 8.50291 0 0 0 255 255 255 255
2.9896 -0.755242 8.8622 0 0 0 255 255 255 255
3.05823 -1.01977 8.56953 0 0 0 255 255 255 255
3.16631 -1.00033 8.89893 0 0 0 255 255 255 255
3.25483 -0.955545 8.89075 0 0 0 255 255 255 255
3.157 -0.911375 8.68463 0 0 0 255 255 255 255
2.95 -0.639491 8.74411 0 0 0 255 255 255 255
4.10442 -1.17575 12.4672 0 0 0 255 255 255 255
3.86169 -0.980356 11.8545 0 0 0 255 255 255 255
4.5114 -1.62252 13.5976 0 0 0 255 255 255 255
1.44592 -0.102803 3.31987 0 0 0 255 255 255 255
0.645217 0.606637 4.53673 0 0 0 255 255 255 255
0.791855 -0.0604758 4.29208 0 0 0 255 255 255 255
1.46886 -0.0545781 3.44689 0 0 0 255 255 255 255
0.356668 0.185398 4.60846 0 0 0 255 255 255 255
1.40501 -0.18694 4.73655 0 0 0 255 255 255 255
1.51987 -0.212188 5.07457 0 0 0 255 255 255 255
1.44136 -0.367481 5.00545 0 0 0 255 255 255 255
1.43942 -0.363669 4.99726 0 0 0 255 255 255 255
1.11126 0.0743052 5.65659 0 0 0 255 255 255 255
1.19132 0.073066 5.64623 0 0 0 255 255 255 255
1.18528 0.104239 5.62082 0 0 0 255 255 255 255
1.22657 0.094475 5.29997 0 0 0 255 255 255 255
1.60929 -0.411851 5.67453 0 0 0 255 255 255 255
1.39719 0.304396 5.27609 0 0 0 255 255 255 255
1.14173 0.472674 5.6575 0 0 0 255 255 255 255
1.44464 0.379159 5.6026 0 0 0 255 255 255 255
0.598465 1.19342 3.81573 0 0 0 255 255 255 255
1.51559 0.864219 5.25684 0 0 0 255 255 255 255
1.54094 0.84238 5.20936 0 0 0 255 255 255 255
1.23684 0.883926 5.67572 0 0 0 255 255 255 255
1.76942 -0.0786654 4.30909 0 0 0 255 255 255 255
1.69723 -0.118729 4.0407 0 0 0 255 255 255 255
1.72247 -0.452608 5.51412 0 0 0 255 255 255 255
1.68766 -0.448332 5.51954 0 0 0 255 255 255 255
1.68832 -0.406938 5.52151 0 0 0 255 255 255 255
1.94664 -0.348703 5.00945 0 0 0 255 255 255 255
1.675 -0.264044 5.52692 0 0 0 255 255 255 255
1.96945 -0.345768 5.02329 0 0 0 255 255 255 255
1.99602 -0.250579 5.10163 0 0 0 255 255 255 255
1.76333 -0.307857 4.72698 0 0 0 255 255 255 255
1.68867 -0.290545 5.56316 0 0 0 255 255 255 255
1.67318 -0.488247 5.48756 0 0 0 255 255 255 255
1.91122 -0.352185 4.76777 0 0 0 255 255 255 255
1.95502 1.37516 5.14675 0 0 0 255 255 255 255
2.1256 1.48388 5.67015 0 0 0 255 255 255 255
1.53082 0.979632 6.05012 0 0 0 255 255 255 255
1.57063 0.945198 6.05038 0 0 0 255 255 255 255
2.30086 -0.414899 7.15588 0 0 0 255 255 255 255
2.30694 -0.427218 7.16748 0 0 0 255 255 255 255
2.29458 -0.419475 7.14519 0 0 0 255 255 255 255
2.70636 1.23452 6.20474 0 0 0 255 255 255 255
3.43884 0.634938 8.28683 0 0 0 255 255 255 255
3.4356 0.649408 8.28453 0 0 0 255 255 255 255
3.43411 0.648873 8.2839 0 0 0 255 255 255 255
3.47656 0.652791 8.24579 0 0 0 255 255 255 255
3.4683 0.652449 8.25583 0 0 0 255 255 255 255
