ply
format ascii 1.0
comment VCGLIB generated
element vertex 59
property float x
property float y
property float z
property float nx
property float ny
property float nz
property uchar red
property uchar green
property uchar blue
property uchar alpha
element face 0
property list uchar int vertex_indices
end_header
2.05882 1.34123 6.25665 0 0 0 0 255 255 255
2.01586 1.34312 6.25665 0 0 0 0 255 255 255
1.98607 1.34854 6.2803 0 0 0 0 255 255 255
2.14098 1.34326 6.28917 0 0 0 0 255 255 255
2.13999 1.34331 6.28917 0 0 0 0 255 255 255
2.16502 1.34358 6.29705 0 0 0 0 255 255 255
2.12608 1.3458 6.30001 0 0 0 0 255 255 255
1.13519 1.39279 6.31971 0 0 0 0 255 255 255
2.10429 1.35104 6.32464 0 0 0 0 255 255 255
2.08231 1.352 6.32464 0 0 0 0 255 255 255
1.10526 1.39513 6.32562 0 0 0 0 255 255 255
1.87572 1.36588 6.35223 0 0 0 0 255 255 255
1.96669 1.36325 6.36011 0 0 0 0 255 255 255
1.87283 1.3684 6.36602 0 0 0 0 255 255 255
1.10858 1.40235 6.36799 0 0 0 0 255 255 255
1.08762 1.40361 6.36996 0 0 0 0 255 255 255
1.11664 1.40353 6.37686 0 0 0 0 255 255 255
2.13269 1.35954 6.3808 0 0 0 0 255 255 255
1.09977 1.40684 6.39164 0 0 0 0 255 255 255
2.08883 1.3637 6.39361 0 0 0 0 255 255 255
1.23991 1.40701 6.42809 0 0 0 0 255 255 255
2.10811 1.36969 6.43302 0 0 0 0 255 255 255
2.07949 1.37883 6.47834 0 0 0 0 255 255 255
1.8988 1.38985 6.49608 0 0 0 0 255 255 255
1.89889 1.39207 6.50888 0 0 0 0 255 255 255
2.09899 1.38995 6.54731 0 0 0 0 255 255 255
2.07318 1.39468 6.568 0 0 0 0 255 255 255
2.13514 1.39246 6.57096 0 0 0 0 255 255 255
2.07124 1.39613 6.57588 0 0 0 0 255 255 255
1.32296 1.42903 6.57588 0 0 0 0 255 255 255
1.93045 1.40403 6.58574 0 0 0 0 255 255 255
2.11242 1.39928 6.60446 0 0 0 0 255 255 255
2.10746 1.40036 6.60938 0 0 0 0 255 255 255
2.08659 1.40367 6.62318 0 0 0 0 255 255 255
1.24645 1.44181 6.63007 0 0 0 0 255 255 255
1.88786 1.41429 6.63401 0 0 0 0 255 255 255
1.9199 1.41459 6.64387 0 0 0 0 255 255 255
1.94701 1.41648 6.6616 0 0 0 0 255 255 255
1.91604 1.41784 6.6616 0 0 0 0 255 255 255
1.67431 1.42933 6.66653 0 0 0 0 255 255 255
1.93308 1.41829 6.6685 0 0 0 0 255 255 255
1.4647 1.44282 6.69116 0 0 0 0 255 255 255
1.45272 1.44352 6.69215 0 0 0 0 255 255 255
1.75749 1.43149 6.70003 0 0 0 0 255 255 255
1.89142 1.42697 6.70791 0 0 0 0 255 255 255
1.7326 1.43446 6.71087 0 0 0 0 255 255 255
1.72361 1.43503 6.71185 0 0 0 0 255 255 255
1.21812 1.4576 6.71382 0 0 0 0 255 255 255
1.87154 1.43024 6.7217 0 0 0 0 255 255 255
1.72169 1.43683 6.7217 0 0 0 0 255 255 255
1.31212 1.45552 6.72565 0 0 0 0 255 255 255
1.86861 1.43174 6.72959 0 0 0 0 255 255 255
1.87662 1.4319 6.73254 0 0 0 0 255 255 255
2.32125 1.41355 6.73944 0 0 0 0 255 255 255
1.8567 1.43414 6.74042 0 0 0 0 255 255 255
1.85372 1.43461 6.74239 0 0 0 0 255 255 255
1.88973 1.43406 6.74831 0 0 0 0 255 255 255
2.36441 1.4392 6.89807 0 0 0 0 255 255 255
1.88531 1.47002 6.95423 0 0 0 0 255 255 255
