ply
format ascii 1.0
comment VCGLIB generated
element vertex 194
property float x
property float y
property float z
property float nx
property float ny
property float nz
property uchar red
property uchar green
property uchar blue
property uchar alpha
element face 0
property list uchar int vertex_indices
end_header
0.48358 1.50975 3.49522 0 0 0 0 0 128 255
0.41709 1.48919 3.45835 0 0 0 0 0 128 255
0.334919 1.46121 3.34069 0 0 0 0 0 128 255
0.623547 1.56517 3.81636 0 0 0 0 0 128 255
0.485103 1.51597 3.59462 0 0 0 0 0 128 255
0.480324 1.51468 3.59068 0 0 0 0 0 128 255
0.509168 1.52541 3.64106 0 0 0 0 0 128 255
0.419576 1.4966 3.52099 0 0 0 0 0 128 255
0.558861 1.54885 3.76308 0 0 0 0 0 128 255
0.569059 1.55309 3.78336 0 0 0 0 0 128 255
0.523235 1.538 3.71693 0 0 0 0 0 128 255
0.502196 1.53799 3.72278 0 0 0 0 0 128 255
0.517237 1.54579 3.75841 0 0 0 0 0 128 255
0.592088 1.57334 3.8831 0 0 0 0 0 128 255
0.46638 1.52848 3.68004 0 0 0 0 0 128 255
0.467255 1.52964 3.68522 0 0 0 0 0 128 255
0.476427 1.5351 3.70945 0 0 0 0 0 128 255
0.440487 1.52835 3.67575 0 0 0 0 0 128 255
0.2691 1.46817 3.40263 0 0 0 0 0 128 255
0.527788 1.56199 3.82609 0 0 0 0 0 128 255
0.273851 1.47446 3.42702 0 0 0 0 0 128 255
0.260478 1.4729 3.4165 0 0 0 0 0 128 255
0.542294 1.58081 3.89552 0 0 0 0 0 128 255
0.452021 1.55096 3.75696 0 0 0 0 0 128 255
0.439517 1.55263 3.75476 0 0 0 0 0 128 255
0.507689 1.57822 3.86845 0 0 0 0 0 128 255
0.515338 1.58222 3.88437 0 0 0 0 0 128 255
0.533543 1.59065 3.91911 0 0 0 0 0 128 255
0.44643 1.56218 3.78546 0 0 0 0 0 128 255
0.464651 1.57068 3.82017 0 0 0 0 0 128 255
0.465338 1.57637 3.83524 0 0 0 0 0 128 255
0.44568 1.56936 3.80349 0 0 0 0 0 128 255
0.529487 1.6107 3.96625 0 0 0 0 0 128 255
0.534405 1.62928 4.01056 0 0 0 0 0 128 255
0.540728 1.64123 4.03991 0 0 0 0 0 128 255
0.540211 1.64105 4.03907 0 0 0 0 0 128 255
0.281125 1.99028 3.153 0 0 0 0 0 128 255
0.281447 1.9898 3.15171 0 0 0 0 0 128 255
0.413089 1.97048 3.21091 0 0 0 0 0 128 255
0.649734 2.02952 3.55038 0 0 0 0 0 128 255
0.657256 2.01934 3.54319 0 0 0 0 0 128 255
0.579295 1.99059 3.41591 0 0 0 0 0 128 255
0.436515 1.93964 3.18527 0 0 0 0 0 128 255
0.386042 1.91694 3.09707 0 0 0 0 0 128 255
0.547071 1.97346 3.35587 0 0 0 0 0 128 255
0.387771 1.91282 3.09332 0 0 0 0 0 128 255
0.552929 1.97081 3.35881 0 0 0 0 0 128 255
0.675529 2.01073 3.55173 0 0 0 0 0 128 255
0.627264 1.99063 3.46997 0 0 0 0 0 128 255
0.680487 2.00575 3.55095 0 0 0 0 0 128 255
0.564497 1.93161 3.32561 0 0 0 0 0 128 255
0.52839 1.91568 3.26412 0 0 0 0 0 128 255
0.692029 1.96693 3.52127 0 0 0 0 0 128 255
0.658417 1.95391 3.46597 0 0 0 0 0 128 255
0.739131 1.98169 3.59536 0 0 0 0 0 128 255
0.692582 1.95684 3.51239 0 0 0 0 0 128 255
0.688444 1.95537 3.5057 0 0 0 0 0 128 255
0.683788 1.9537 3.49818 0 0 0 0 0 128 255
0.692573 1.95581 3.51143 0 0 0 0 0 128 255
0.690441 1.9509 3.50425 0 0 0 0 0 128 255
0.563162 1.8825 3.27984 0 0 0 0 0 128 255
0.565671 1.88234 3.28311 0 0 0 0 0 128 255
0.567129 1.87548 3.28013 0 0 0 0 0 128 255
0.566205 1.87093 3.27573 0 0 0 0 0 128 255
0.695755 1.90975 3.48014 0 0 0 0 0 128 255
0.683713 1.90016 3.4574 0 0 0 0 0 128 255
0.587209 1.8636 3.30024 0 0 0 0 0 128 255
0.597675 1.86097 3.31349 0 0 0 0 0 128 255
0.759101 1.91539 3.57251 0 0 0 0 0 128 255
0.754275 1.9126 3.56414 0 0 0 0 0 128 255
0.597696 1.85461 3.3101 0 0 0 0 0 128 255
0.479204 1.80914 3.11707 0 0 0 0 0 128 255
0.566772 1.83826 3.25746 0 0 0 0 0 128 255
0.519696 1.82146 3.18142 0 0 0 0 0 128 255
0.766264 1.90839 3.57919 0 0 0 0 0 128 255
0.671719 1.87253 3.42546 0 0 0 0 0 128 255
0.670685 1.87216 3.42379 0 0 0 0 0 128 255
0.566299 1.83279 3.25418 0 0 0 0 0 128 255
0.677834 1.87153 3.43386 0 0 0 0 0 128 255
0.580157 1.83455 3.27513 0 0 0 0 0 128 255
0.526356 1.81535 3.18822 0 0 0 0 0 128 255
0.634635 1.84975 3.3613 0 0 0 0 0 128 255
0.507954 1.80242 3.1558 0 0 0 0 0 128 255
0.508523 1.8005 3.15587 0 0 0 0 0 128 255
0.513459 1.80121 3.16343 0 0 0 0 0 128 255
0.479639 1.78385 3.10683 0 0 0 0 0 128 255
0.662515 1.84805 3.40186 0 0 0 0 0 128 255
0.666908 1.84645 3.40787 0 0 0 0 0 128 255
0.664573 1.84456 3.40375 0 0 0 0 0 128 255
0.664753 1.83935 3.4024 0 0 0 0 0 128 255
0.747989 1.86694 3.53624 0 0 0 0 0 128 255
0.472487 1.76758 3.09091 0 0 0 0 0 128 255
0.470072 1.75832 3.08488 0 0 0 0 0 128 255
0.417903 1.73656 2.99992 0 0 0 0 0 128 255
0.661819 1.8163 3.39255 0 0 0 0 0 128 255
0.59969 1.78066 3.2905 0 0 0 0 0 128 255
0.484077 1.73735 3.10358 0 0 0 0 0 128 255
0.661646 1.79968 3.39034 0 0 0 0 0 128 255
0.602797 1.77766 3.29522 0 0 0 0 0 128 255
0.474745 1.72991 3.08826 0 0 0 0 0 128 255
0.443188 1.71865 3.03729 0 0 0 0 0 128 255
0.6373 1.78689 3.3508 0 0 0 0 0 128 255
0.47601 1.72832 3.09023 0 0 0 0 0 128 255
0.392528 1.69546 2.9553 0 0 0 0 0 128 255
0.571203 1.75718 3.24391 0 0 0 0 0 128 255
0.531887 1.74315 3.1804 0 0 0 0 0 128 255
0.684429 1.79251 3.42689 0 0 0 0 0 128 255
0.422382 1.69597 3.00372 0 0 0 0 0 128 255
0.643484 1.77185 3.36107 0 0 0 0 0 128 255
0.680499 1.78005 3.4213 0 0 0 0 0 128 255
0.715207 1.79144 3.47748 0 0 0 0 0 128 255
0.421932 1.68579 3.00386 0 0 0 0 0 128 255
0.694123 1.78093 3.44379 0 0 0 0 0 128 255
0.470124 1.70099 3.08196 0 0 0 0 0 128 255
0.634183 1.75755 3.34725 0 0 0 0 0 128 255
0.660106 1.76482 3.38943 0 0 0 0 0 128 255
0.660131 1.76384 3.38963 0 0 0 0 0 128 255
0.63532 1.754 3.34972 0 0 0 0 0 128 255
0.70828 1.77905 3.46775 0 0 0 0 0 128 255
0.63689 1.75358 3.35243 0 0 0 0 0 128 255
0.710392 1.77588 3.47193 0 0 0 0 0 128 255
0.713469 1.77113 3.47825 0 0 0 0 0 128 255
0.72223 1.77232 3.49291 0 0 0 0 0 128 255
0.54632 1.70858 3.20902 0 0 0 0 0 128 255
0.709679 1.76303 3.47401 0 0 0 0 0 128 255
0.72353 1.7651 3.49729 0 0 0 0 0 128 255
0.463318 1.67225 3.07696 0 0 0 0 0 128 255
0.496229 1.68019 3.13142 0 0 0 0 0 128 255
0.726707 1.75866 3.50513 0 0 0 0 0 128 255
0.719913 1.75529 3.49452 0 0 0 0 0 128 255
0.662344 1.73288 3.40228 0 0 0 0 0 128 255
0.731069 1.75647 3.51368 0 0 0 0 0 128 255
0.729869 1.75418 3.51253 0 0 0 0 0 128 255
0.675034 1.73461 3.42396 0 0 0 0 0 128 255
0.657962 1.72852 3.39638 0 0 0 0 0 128 255
0.664083 1.72977 3.40667 0 0 0 0 0 128 255
0.657875 1.72756 3.39665 0 0 0 0 0 128 255
0.704344 1.74321 3.47212 0 0 0 0 0 128 255
0.666062 1.72955 3.41028 0 0 0 0 0 128 255
0.663383 1.72767 3.40637 0 0 0 0 0 128 255
0.748444 1.75526 3.54507 0 0 0 0 0 128 255
0.625516 1.70864 3.34786 0 0 0 0 0 128 255
0.752028 1.75196 3.55316 0 0 0 0 0 128 255
0.647013 1.71449 3.38352 0 0 0 0 0 128 255
0.634746 1.70739 3.36516 0 0 0 0 0 128 255
0.579238 1.68309 3.27804 0 0 0 0 0 128 255
0.581595 1.67949 3.28456 0 0 0 0 0 128 255
0.646458 1.70087 3.39046 0 0 0 0 0 128 255
0.580084 1.67369 3.28558 0 0 0 0 0 128 255
0.639889 1.69156 3.38462 0 0 0 0 0 128 255
0.820055 1.75413 3.6769 0 0 0 0 0 128 255
0.700173 1.7054 3.48784 0 0 0 0 0 128 255
0.642233 1.68473 3.39425 0 0 0 0 0 128 255
0.60559 1.66997 3.33643 0 0 0 0 0 128 255
0.691418 1.69479 3.48005 0 0 0 0 0 128 255
0.670485 1.6865 3.44697 0 0 0 0 0 128 255
0.67852 1.68855 3.46069 0 0 0 0 0 128 255
0.58592 1.64746 3.31887 0 0 0 0 0 128 255
0.635963 1.6606 3.40466 0 0 0 0 0 128 255
0.443452 1.59036 3.09538 0 0 0 0 0 128 255
0.810452 1.72055 3.68907 0 0 0 0 0 128 255
0.454451 1.59198 3.11574 0 0 0 0 0 128 255
0.61287 1.63589 3.38732 0 0 0 0 0 128 255
0.673159 1.65384 3.48963 0 0 0 0 0 128 255
0.666585 1.65079 3.48001 0 0 0 0 0 128 255
0.786137 1.68522 3.6856 0 0 0 0 0 128 255
0.617607 1.62442 3.41444 0 0 0 0 0 128 255
0.610589 1.62059 3.40527 0 0 0 0 0 128 255
0.48892 1.57456 3.21313 0 0 0 0 0 128 255
0.510415 1.58029 3.25121 0 0 0 0 0 128 255
0.666112 1.63207 3.50957 0 0 0 0 0 128 255
0.502122 1.57355 3.24467 0 0 0 0 0 128 255
0.771927 1.66737 3.68518 0 0 0 0 0 128 255
0.776308 1.66652 3.69701 0 0 0 0 0 128 255
0.669328 1.62716 3.52662 0 0 0 0 0 128 255
0.762889 1.65313 3.69392 0 0 0 0 0 128 255
0.585513 1.58659 3.41514 0 0 0 0 0 128 255
0.654729 1.60565 3.5416 0 0 0 0 0 128 255
0.478701 1.52951 3.30001 0 0 0 0 0 128 255
0.557175 1.55484 3.43731 0 0 0 0 0 128 255
0.461776 1.52007 3.28625 0 0 0 0 0 128 255
0.45552 1.51607 3.28383 0 0 0 0 0 128 255
0.606201 1.56422 3.55567 0 0 0 0 0 128 255
0.49451 1.52354 3.3801 0 0 0 0 0 128 255
0.461759 1.51158 3.32882 0 0 0 0 0 128 255
0.494042 1.52182 3.38915 0 0 0 0 0 128 255
0.674411 1.58522 3.68711 0 0 0 0 0 128 255
0.419716 1.4918 3.2958 0 0 0 0 0 128 255
0.412076 1.4887 3.28685 0 0 0 0 0 128 255
0.422341 1.49004 3.32926 0 0 0 0 0 128 255
0.397975 1.48055 3.30217 0 0 0 0 0 128 255
0.484043 1.51032 3.4625 0 0 0 0 0 128 255
0.435163 1.49282 3.38533 0 0 0 0 0 128 255
0.463085 1.50243 3.45209 0 0 0 0 0 128 255
