ply
format ascii 1.0
comment VCGLIB generated
element vertex 122
property float x
property float y
property float z
property float nx
property float ny
property float nz
property uchar red
property uchar green
property uchar blue
property uchar alpha
element face 0
property list uchar int vertex_indices
end_header
3.85921 0.999107 3.45813 0 0 0 0 128 0 255
3.84701 1.01075 3.4708 0 0 0 0 128 0 255
3.84228 0.987961 3.47432 0 0 0 0 128 0 255
3.84833 1.10581 3.47432 0 0 0 0 128 0 255
3.84731 1.09985 3.47502 0 0 0 0 128 0 255
3.83536 1.11648 3.48769 0 0 0 0 128 0 255
3.83304 1.12662 3.4905 0 0 0 0 128 0 255
3.82177 1.01805 3.49613 0 0 0 0 128 0 255
3.81256 1.04656 3.50669 0 0 0 0 128 0 255
3.79878 0.972171 3.51654 0 0 0 0 128 0 255
3.8029 1.06608 3.51725 0 0 0 0 128 0 255
3.80332 1.08809 3.51795 0 0 0 0 128 0 255
3.79417 0.965399 3.52077 0 0 0 0 128 0 255
3.79749 1.08539 3.52358 0 0 0 0 128 0 255
3.79357 1.06456 3.5264 0 0 0 0 128 0 255
3.7896 1.02872 3.52851 0 0 0 0 128 0 255
3.74792 0.757498 3.55595 0 0 0 0 128 0 255
3.74584 0.758606 3.55806 0 0 0 0 128 0 255
3.73748 0.762039 3.56651 0 0 0 0 128 0 255
3.73671 0.81615 3.57003 0 0 0 0 128 0 255
3.73959 0.886095 3.57073 0 0 0 0 128 0 255
3.75213 1.17183 3.57284 0 0 0 0 128 0 255
3.73076 0.797431 3.57495 0 0 0 0 128 0 255
3.72676 0.788625 3.57847 0 0 0 0 128 0 255
3.72927 0.83756 3.57847 0 0 0 0 128 0 255
3.72384 0.745718 3.57918 0 0 0 0 128 0 255
3.73128 0.890527 3.57918 0 0 0 0 128 0 255
3.72757 0.873695 3.58199 0 0 0 0 128 0 255
3.72021 0.771939 3.5841 0 0 0 0 128 0 255
3.72202 0.834929 3.58551 0 0 0 0 128 0 255
3.72062 0.863037 3.58833 0 0 0 0 128 0 255
3.71956 0.870101 3.58973 0 0 0 0 128 0 255
3.7225 0.955062 3.59114 0 0 0 0 128 0 255
3.70955 0.744449 3.59325 0 0 0 0 128 0 255
3.72429 1.05911 3.59466 0 0 0 0 128 0 255
3.71215 0.933565 3.60029 0 0 0 0 128 0 255
3.70135 0.764897 3.6024 0 0 0 0 128 0 255
3.69678 0.759123 3.60662 0 0 0 0 128 0 255
3.70903 1.05288 3.60944 0 0 0 0 128 0 255
3.70554 1.06808 3.61366 0 0 0 0 128 0 255
3.68896 0.814597 3.61718 0 0 0 0 128 0 255
3.69245 0.882508 3.61718 0 0 0 0 128 0 255
3.69169 0.881546 3.61788 0 0 0 0 128 0 255
3.69061 0.943683 3.62211 0 0 0 0 128 0 255
3.70216 1.16839 3.62211 0 0 0 0 128 0 255
3.67899 0.745018 3.62351 0 0 0 0 128 0 255
3.68316 0.853947 3.62492 0 0 0 0 128 0 255
3.68993 1.06888 3.62914 0 0 0 0 128 0 255
3.67758 0.925327 3.63407 0 0 0 0 128 0 255
3.66576 0.819795 3.6404 0 0 0 0 128 0 255
3.67346 0.983615 3.64111 0 0 0 0 128 0 255
3.66403 0.813876 3.64181 0 0 0 0 128 0 255
3.67384 1.03266 3.64322 0 0 0 0 128 0 255
3.66196 0.829002 3.64463 0 0 0 0 128 0 255
3.66735 0.933863 3.64463 0 0 0 0 128 0 255
3.66152 0.862068 3.64674 0 0 0 0 128 0 255
3.67626 1.16271 3.64744 0 0 0 0 128 0 255
3.64523 0.655632 3.65237 0 0 0 0 128 0 255
3.65386 0.837429 3.65307 0 0 0 0 128 0 255
3.65542 0.909443 3.65518 0 0 0 0 128 0 255
3.65815 1.0595 3.66011 0 0 0 0 128 0 255
3.62922 0.662462 3.66855 0 0 0 0 128 0 255
3.63799 0.833237 3.66855 0 0 0 0 128 0 255
3.64588 1.05613 3.67207 0 0 0 0 128 0 255
3.62313 0.654764 3.67418 0 0 0 0 128 0 255
3.64086 1.04136 3.6763 0 0 0 0 128 0 255
3.59941 0.649975 3.69741 0 0 0 0 128 0 255
3.59465 0.654225 3.70233 0 0 0 0 128 0 255
3.59811 0.76319 3.70445 0 0 0 0 128 0 255
3.61602 1.12575 3.70515 0 0 0 0 128 0 255
3.61384 1.11084 3.70656 0 0 0 0 128 0 255
3.5889 0.694573 3.71008 0 0 0 0 128 0 255
3.58942 0.718578 3.71078 0 0 0 0 128 0 255
3.59271 0.796511 3.71148 0 0 0 0 128 0 255
3.59248 0.833572 3.71359 0 0 0 0 128 0 255
3.58694 0.808824 3.71782 0 0 0 0 128 0 255
3.57248 0.624322 3.72274 0 0 0 0 128 0 255
3.56533 0.60967 3.72908 0 0 0 0 128 0 255
3.57006 0.715567 3.72978 0 0 0 0 128 0 255
3.57431 0.798458 3.72978 0 0 0 0 128 0 255
3.57168 0.802598 3.7326 0 0 0 0 128 0 255
3.58133 1.07346 3.73682 0 0 0 0 128 0 255
3.55825 0.63807 3.73752 0 0 0 0 128 0 255
3.55851 0.643064 3.73752 0 0 0 0 128 0 255
3.5578 0.6431 3.73823 0 0 0 0 128 0 255
3.55392 0.595236 3.73963 0 0 0 0 128 0 255
3.55331 0.59727 3.74034 0 0 0 0 128 0 255
3.57882 1.12165 3.74175 0 0 0 0 128 0 255
3.5693 1.13015 3.7516 0 0 0 0 128 0 255
3.55011 0.825735 3.75512 0 0 0 0 128 0 255
3.5292 0.612527 3.76497 0 0 0 0 128 0 255
3.55182 1.05295 3.76497 0 0 0 0 128 0 255
3.53632 0.903545 3.77271 0 0 0 0 128 0 255
3.54191 1.09551 3.77693 0 0 0 0 128 0 255
3.53718 1.07272 3.78045 0 0 0 0 128 0 255
3.52907 1.06713 3.78819 0 0 0 0 128 0 255
3.52007 1.09964 3.79875 0 0 0 0 128 0 255
3.50799 1.07222 3.80931 0 0 0 0 128 0 255
3.49337 0.870705 3.81353 0 0 0 0 128 0 255
3.49358 0.8747 3.81353 0 0 0 0 128 0 255
3.49921 1.05365 3.81705 0 0 0 0 128 0 255
3.48549 0.828053 3.81916 0 0 0 0 128 0 255
3.48709 0.87303 3.81986 0 0 0 0 128 0 255
3.48262 0.855236 3.82338 0 0 0 0 128 0 255
3.4797 0.895439 3.82831 0 0 0 0 128 0 255
3.48099 1.08662 3.83675 0 0 0 0 128 0 255
3.46767 0.855003 3.83816 0 0 0 0 128 0 255
3.46433 0.942289 3.8459 0 0 0 0 128 0 255
3.46572 1.06638 3.85083 0 0 0 0 128 0 255
3.43202 0.825793 3.87194 0 0 0 0 128 0 255
3.43082 0.843879 3.87405 0 0 0 0 128 0 255
3.43648 1.06488 3.87968 0 0 0 0 128 0 255
3.43501 1.06395 3.88109 0 0 0 0 128 0 255
3.42405 0.878271 3.8825 0 0 0 0 128 0 255
3.43188 1.08614 3.88531 0 0 0 0 128 0 255
3.40795 0.91114 3.90009 0 0 0 0 128 0 255
3.35561 0.930851 3.95287 0 0 0 0 128 0 255
3.35404 0.927928 3.95428 0 0 0 0 128 0 255
3.34452 0.784227 3.95639 0 0 0 0 128 0 255
3.33307 0.782813 3.96765 0 0 0 0 128 0 255
3.20376 0.910614 4.10207 0 0 0 0 128 0 255
3.19305 0.882126 4.11122 0 0 0 0 128 0 255
