ply
format ascii 1.0
comment VCGLIB generated
element vertex 253
property float x
property float y
property float z
property float nx
property float ny
property float nz
property uchar red
property uchar green
property uchar blue
property uchar alpha
element face 0
property list uchar int vertex_indices
end_header
1.28701 1.07604 3.22215 0 0 0 255 255 0 255
1.26258 1.0755 3.23174 0 0 0 255 255 0 255
1.34457 1.01463 3.23513 0 0 0 255 255 0 255
1.26406 1.03278 3.25544 0 0 0 255 255 0 255
1.29834 0.995913 3.26334 0 0 0 255 255 0 255
1.2621 0.999313 3.27519 0 0 0 255 255 0 255
1.24975 1.00063 3.27914 0 0 0 255 255 0 255
1.25023 0.992362 3.28366 0 0 0 255 255 0 255
1.22856 0.995945 3.28986 0 0 0 255 255 0 255
1.26314 0.946949 3.30453 0 0 0 255 255 0 255
1.35484 0.873614 3.3113 0 0 0 255 255 0 255
1.22404 0.953261 3.31582 0 0 0 255 255 0 255
1.29541 0.903479 3.31695 0 0 0 255 255 0 255
1.16434 0.977341 3.32485 0 0 0 255 255 0 255
1.29388 0.888608 3.32597 0 0 0 255 255 0 255
1.2274 0.933123 3.32597 0 0 0 255 255 0 255
1.12687 1.00045 3.32597 0 0 0 255 255 0 255
1.19207 0.946851 3.33162 0 0 0 255 255 0 255
1.16419 0.964528 3.33218 0 0 0 255 255 0 255
1.1978 0.941028 3.33275 0 0 0 255 255 0 255
1.16124 0.965511 3.33275 0 0 0 255 255 0 255
1.31182 0.859697 3.33557 0 0 0 255 255 0 255
1.22329 0.917993 3.33613 0 0 0 255 255 0 255
1.15905 0.955054 3.33952 0 0 0 255 255 0 255
1.35599 0.814222 3.34459 0 0 0 255 255 0 255
1.24714 0.887115 3.34459 0 0 0 255 255 0 255
1.10709 0.97991 3.34516 0 0 0 255 255 0 255
1.37807 0.791485 3.34911 0 0 0 255 255 0 255
1.16768 0.928406 3.35137 0 0 0 255 255 0 255
1.01184 1.03177 3.35193 0 0 0 255 255 0 255
1.35491 0.800037 3.35306 0 0 0 255 255 0 255
1.24266 0.873228 3.35419 0 0 0 255 255 0 255
1.35216 0.795921 3.35644 0 0 0 255 255 0 255
1.3421 0.80067 3.35757 0 0 0 255 255 0 255
1.10188 0.959552 3.3587 0 0 0 255 255 0 255
1.35762 0.784313 3.36096 0 0 0 255 255 0 255
1.11454 0.946106 3.36152 0 0 0 255 255 0 255
1.35071 0.782979 3.36434 0 0 0 255 255 0 255
1.11262 0.941434 3.36491 0 0 0 255 255 0 255
1.23264 0.860064 3.36547 0 0 0 255 255 0 255
1.36097 0.773131 3.36604 0 0 0 255 255 0 255
1.34555 0.782461 3.3666 0 0 0 255 255 0 255
1.3787 0.758275 3.36773 0 0 0 255 255 0 255
1.31426 0.800435 3.36829 0 0 0 255 255 0 255
1.23432 0.849995 3.37055 0 0 0 255 255 0 255
1.12464 0.923445 3.37055 0 0 0 255 255 0 255
1.09381 0.942105 3.37168 0 0 0 255 255 0 255
1.338 0.776584 3.37281 0 0 0 255 255 0 255
1.06105 0.956092 3.37619 0 0 0 255 255 0 255
1.3202 0.780556 3.37732 0 0 0 255 255 0 255
1.08784 0.933187 3.37901 0 0 0 255 255 0 255
1.0907 0.930275 3.37958 0 0 0 255 255 0 255
1.30378 0.786585 3.38014 0 0 0 255 255 0 255
1.34819 0.755852 3.38071 0 0 0 255 255 0 255
1.07179 0.937974 3.3824 0 0 0 255 255 0 255
1.2749 0.800961 3.38296 0 0 0 255 255 0 255
1.24166 0.823219 3.38296 0 0 0 255 255 0 255
1.2628 0.808065 3.38353 0 0 0 255 255 0 255
1.29309 0.786791 3.38409 0 0 0 255 255 0 255
1.24656 0.817952 3.38409 0 0 0 255 255 0 255
1.32503 0.764404 3.38466 0 0 0 255 255 0 255
1.3315 0.756096 3.38691 0 0 0 255 255 0 255
1.29615 0.77878 3.38748 0 0 0 255 255 0 255
1.25626 0.805489 3.38748 0 0 0 255 255 0 255
1.2114 0.835537 3.38748 0 0 0 255 255 0 255
1.32709 0.753093 3.3903 0 0 0 255 255 0 255
1.26394 0.795382 3.3903 0 0 0 255 255 0 255
1.2668 0.79247 3.39086 0 0 0 255 255 0 255
1.34768 0.735325 3.39256 0 0 0 255 255 0 255
1.31482 0.75634 3.39312 0 0 0 255 255 0 255
1.21594 0.822556 3.39312 0 0 0 255 255 0 255
1.16887 0.851102 3.39481 0 0 0 255 255 0 255
1.28954 0.76532 3.39763 0 0 0 255 255 0 255
1.22593 0.806923 3.3982 0 0 0 255 255 0 255
1.25539 0.786205 3.39876 0 0 0 255 255 0 255
1.05099 0.923088 3.39876 0 0 0 255 255 0 255
1.29538 0.752469 3.40271 0 0 0 255 255 0 255
1.16235 0.83957 3.40384 0 0 0 255 255 0 255
1.35253 0.710218 3.40497 0 0 0 255 255 0 255
1.29105 0.751394 3.40497 0 0 0 255 255 0 255
1.19291 0.815125 3.4061 0 0 0 255 255 0 255
1.25755 0.767866 3.40835 0 0 0 255 255 0 255
1.20142 0.804461 3.40892 0 0 0 255 255 0 255
1.16818 0.826719 3.40892 0 0 0 255 255 0 255
1.07429 0.889596 3.40892 0 0 0 255 255 0 255
1.19534 0.802571 3.4123 0 0 0 255 255 0 255
1.17706 0.814813 3.4123 0 0 0 255 255 0 255
1.15961 0.826498 3.4123 0 0 0 255 255 0 255
1.16164 0.824143 3.41287 0 0 0 255 255 0 255
1.18926 0.800681 3.41569 0 0 0 255 255 0 255
1.13978 0.832825 3.41625 0 0 0 255 255 0 255
1.08938 0.863596 3.41795 0 0 0 255 255 0 255
1.35434 0.684165 3.41908 0 0 0 255 255 0 255
1.18235 0.799347 3.41908 0 0 0 255 255 0 255
1.29194 0.723969 3.4202 0 0 0 255 255 0 255
1.20204 0.771251 3.42754 0 0 0 255 255 0 255
1.16041 0.797145 3.42867 0 0 0 255 255 0 255
1.26298 0.727461 3.42923 0 0 0 255 255 0 255
1.17445 0.785757 3.4298 0 0 0 255 255 0 255
1.17399 0.785071 3.43036 0 0 0 255 255 0 255
1.07789 0.846447 3.43205 0 0 0 255 255 0 255
1.16247 0.785833 3.43431 0 0 0 255 255 0 255
1.23532 0.731082 3.4377 0 0 0 255 255 0 255
1.18039 0.765878 3.43882 0 0 0 255 255 0 255
1.08596 0.826141 3.44052 0 0 0 255 255 0 255
1.3164 0.668838 3.44221 0 0 0 255 255 0 255
0.936678 0.923129 3.44221 0 0 0 255 255 0 255
0.927079 0.928563 3.44277 0 0 0 255 255 0 255
1.23858 0.717972 3.4439 0 0 0 255 255 0 255
0.93401 0.920941 3.44447 0 0 0 255 255 0 255
1.22622 0.719291 3.44785 0 0 0 255 255 0 255
0.943629 0.90655 3.44898 0 0 0 255 255 0 255
1.17 0.753957 3.44955 0 0 0 255 255 0 255
0.934313 0.908814 3.45124 0 0 0 255 255 0 255
1.21257 0.72048 3.45237 0 0 0 255 255 0 255
1.07696 0.807322 3.45462 0 0 0 255 255 0 255
1.16976 0.739216 3.45801 0 0 0 255 255 0 255
1.14687 0.753554 3.45857 0 0 0 255 255 0 255
1.22156 0.701546 3.4597 0 0 0 255 255 0 255
1.22313 0.698505 3.46083 0 0 0 255 255 0 255
1.31573 0.635498 3.46139 0 0 0 255 255 0 255
0.950052 0.878401 3.46252 0 0 0 255 255 0 255
0.945438 0.880498 3.46309 0 0 0 255 255 0 255
1.06583 0.797886 3.46422 0 0 0 255 255 0 255
1.21946 0.693017 3.46534 0 0 0 255 255 0 255
1.30495 0.633776 3.46647 0 0 0 255 255 0 255
0.984227 0.84856 3.46647 0 0 0 255 255 0 255
0.955976 0.867479 3.46647 0 0 0 255 255 0 255
1.04359 0.807811 3.46704 0 0 0 255 255 0 255
1.30736 0.630178 3.4676 0 0 0 255 255 0 255
1.06677 0.790302 3.46817 0 0 0 255 255 0 255
1.32472 0.616565 3.46873 0 0 0 255 255 0 255
1.28483 0.643273 3.46873 0 0 0 255 255 0 255
1.30265 0.630346 3.46929 0 0 0 255 255 0 255
0.936886 0.871321 3.47155 0 0 0 255 255 0 255
1.07759 0.774112 3.47324 0 0 0 255 255 0 255
0.953328 0.856335 3.47381 0 0 0 255 255 0 255
0.905048 0.88668 3.47494 0 0 0 255 255 0 255
1.07409 0.772481 3.4755 0 0 0 255 255 0 255
1.11205 0.7411 3.47889 0 0 0 255 255 0 255
0.904697 0.878966 3.47945 0 0 0 255 255 0 255
1.13135 0.723203 3.48171 0 0 0 255 255 0 255
1.11141 0.736557 3.48171 0 0 0 255 255 0 255
1.30825 0.602754 3.48284 0 0 0 255 255 0 255
1.12084 0.727265 3.4834 0 0 0 255 255 0 255
1.20596 0.669267 3.48396 0 0 0 255 255 0 255
0.903055 0.871123 3.48453 0 0 0 255 255 0 255
0.944052 0.840687 3.48622 0 0 0 255 255 0 255
1.12169 0.717753 3.48848 0 0 0 255 255 0 255
1.07599 0.748357 3.48848 0 0 0 255 255 0 255
1.11736 0.716678 3.49074 0 0 0 255 255 0 255
1.05504 0.758411 3.49074 0 0 0 255 255 0 255
1.12927 0.705717 3.49243 0 0 0 255 255 0 255
1.19789 0.65182 3.49694 0 0 0 255 255 0 255
1.15136 0.68298 3.49694 0 0 0 255 255 0 255
1.17869 0.662689 3.49807 0 0 0 255 255 0 255
1.13937 0.683056 3.50146 0 0 0 255 255 0 255
1.18378 0.652323 3.50202 0 0 0 255 255 0 255
0.991013 0.781416 3.50202 0 0 0 255 255 0 255
0.886321 0.851527 3.50202 0 0 0 255 255 0 255
1.17492 0.655273 3.50371 0 0 0 255 255 0 255
1.11243 0.693149 3.50597 0 0 0 255 255 0 255
0.947914 0.803323 3.50597 0 0 0 255 255 0 255
1.16349 0.657964 3.50653 0 0 0 255 255 0 255
1.15684 0.662415 3.50653 0 0 0 255 255 0 255
1.15878 0.658132 3.50823 0 0 0 255 255 0 255
1.08484 0.707654 3.50823 0 0 0 255 255 0 255
1.12113 0.677386 3.51161 0 0 0 255 255 0 255
0.944523 0.794664 3.51218 0 0 0 255 255 0 255
1.24272 0.592976 3.51331 0 0 0 255 255 0 255
0.94684 0.789138 3.51443 0 0 0 255 255 0 255
1.08597 0.694971 3.515 0 0 0 255 255 0 255
1.2167 0.60444 3.51669 0 0 0 255 255 0 255
1.18845 0.623359 3.51669 0 0 0 255 255 0 255
1.08081 0.694453 3.51726 0 0 0 255 255 0 255
1.12688 0.662606 3.51782 0 0 0 255 255 0 255
0.940672 0.78532 3.51895 0 0 0 255 255 0 255
1.18699 0.619372 3.51951 0 0 0 255 255 0 255
1.19816 0.610896 3.52008 0 0 0 255 255 0 255
0.940584 0.783391 3.52008 0 0 0 255 255 0 255
1.21016 0.601864 3.52064 0 0 0 255 255 0 255
0.929323 0.789939 3.52064 0 0 0 255 255 0 255
0.926 0.792165 3.52064 0 0 0 255 255 0 255
1.19143 0.613419 3.52121 0 0 0 255 255 0 255
1.11914 0.661829 3.52121 0 0 0 255 255 0 255
1.0812 0.684254 3.5229 0 0 0 255 255 0 255
1.21858 0.589272 3.52459 0 0 0 255 255 0 255
1.19864 0.602626 3.52459 0 0 0 255 255 0 255
1.0657 0.691656 3.52459 0 0 0 255 255 0 255
0.923986 0.785564 3.52515 0 0 0 255 255 0 255
1.12996 0.645639 3.52628 0 0 0 255 255 0 255
0.892324 0.80478 3.52628 0 0 0 255 255 0 255
1.18056 0.609768 3.52741 0 0 0 255 255 0 255
1.08649 0.668789 3.52967 0 0 0 255 255 0 255
1.06729 0.679658 3.5308 0 0 0 255 255 0 255
1.15187 0.619045 3.53305 0 0 0 255 255 0 255
0.902599 0.785976 3.53305 0 0 0 255 255 0 255
1.19831 0.585956 3.53418 0 0 0 255 255 0 255
0.902423 0.782119 3.53531 0 0 0 255 255 0 255
0.938718 0.751851 3.5387 0 0 0 255 255 0 255
0.894222 0.780656 3.53926 0 0 0 255 255 0 255
1.05283 0.672448 3.54039 0 0 0 255 255 0 255
1.04868 0.67523 3.54039 0 0 0 255 255 0 255
0.892013 0.779154 3.54095 0 0 0 255 255 0 255
0.959598 0.730912 3.54265 0 0 0 255 255 0 255
1.134 0.612132 3.54378 0 0 0 255 255 0 255
1.0883 0.642736 3.54378 0 0 0 255 255 0 255
0.891749 0.773369 3.54434 0 0 0 255 255 0 255
1.13594 0.607849 3.54547 0 0 0 255 255 0 255
0.95518 0.727909 3.54603 0 0 0 255 255 0 255
0.944379 0.735143 3.54603 0 0 0 255 255 0 255
1.0536 0.661007 3.5466 0 0 0 255 255 0 255
0.93561 0.740021 3.5466 0 0 0 255 255 0 255
0.892404 0.768956 3.5466 0 0 0 255 255 0 255
0.88908 0.771181 3.5466 0 0 0 255 255 0 255
0.940967 0.73544 3.54716 0 0 0 255 255 0 255
1.08961 0.63391 3.54829 0 0 0 255 255 0 255
0.952883 0.724479 3.54885 0 0 0 255 255 0 255
1.12691 0.606942 3.54942 0 0 0 255 255 0 255
1.10115 0.624191 3.54942 0 0 0 255 255 0 255
0.957409 0.720455 3.54942 0 0 0 255 255 0 255
1.08611 0.632279 3.55055 0 0 0 255 255 0 255
1.06442 0.644818 3.55167 0 0 0 255 255 0 255
1.13542 0.596278 3.55224 0 0 0 255 255 0 255
1.11585 0.60839 3.5528 0 0 0 255 255 0 255
1.05556 0.647767 3.55337 0 0 0 255 255 0 255
0.936745 0.727338 3.55337 0 0 0 255 255 0 255
1.11484 0.60509 3.55506 0 0 0 255 255 0 255
1.12177 0.597467 3.55675 0 0 0 255 255 0 255
1.10183 0.610822 3.55675 0 0 0 255 255 0 255
1.16701 0.566177 3.55732 0 0 0 255 255 0 255
1.1144 0.595448 3.5607 0 0 0 255 255 0 255
0.915006 0.720036 3.56578 0 0 0 255 255 0 255
0.927009 0.711004 3.56635 0 0 0 255 255 0 255
1.03209 0.630694 3.57199 0 0 0 255 255 0 255
1.01206 0.64212 3.57312 0 0 0 255 255 0 255
1.03323 0.618011 3.57876 0 0 0 255 255 0 255
1.07219 0.58993 3.57989 0 0 0 255 255 0 255
1.01265 0.626823 3.58158 0 0 0 255 255 0 255
1.02964 0.614451 3.58214 0 0 0 255 255 0 255
0.93225 0.675698 3.5844 0 0 0 255 255 0 255
1.06677 0.583627 3.58553 0 0 0 255 255 0 255
1.07046 0.580159 3.58609 0 0 0 255 255 0 255
0.904655 0.690203 3.58666 0 0 0 255 255 0 255
1.06244 0.582552 3.58779 0 0 0 255 255 0 255
0.954001 0.636291 3.59851 0 0 0 255 255 0 255
1.02122 0.589291 3.59964 0 0 0 255 255 0 255
1.03571 0.578589 3.6002 0 0 0 255 255 0 255
1.00534 0.597935 3.60076 0 0 0 255 255 0 255
1.02602 0.582095 3.60189 0 0 0 255 255 0 255
1.02244 0.578536 3.60528 0 0 0 255 255 0 255
1.00851 0.582896 3.6081 0 0 0 255 255 0 255
1.00372 0.581135 3.61092 0 0 0 255 255 0 255
