ply
format ascii 1.0
comment VCGLIB generated
element vertex 973
property float x
property float y
property float z
property float nx
property float ny
property float nz
property uchar red
property uchar green
property uchar blue
property uchar alpha
element face 0
property list uchar int vertex_indices
end_header
-0.419626 0.32424 3.80608 0 0 0 128 128 128 255
-0.432103 -0.0792647 3.79042 0 0 0 128 128 128 255
-0.431949 -0.0742704 3.7906 0 0 0 128 128 128 255
-0.408614 0.679871 3.81801 0 0 0 128 128 128 255
-0.440535 -0.351918 3.77951 0 0 0 128 128 128 255
-0.440412 -0.347923 3.77966 0 0 0 128 128 128 255
-0.440565 -0.352844 3.77748 0 0 0 128 128 128 255
-0.433264 -0.116004 3.78308 0 0 0 128 128 128 255
-0.431857 -0.0700198 3.78375 0 0 0 128 128 128 255
-0.408398 0.688117 3.8113 0 0 0 128 128 128 255
-0.403546 0.844939 3.817 0 0 0 128 128 128 255
-0.462041 -1.04487 3.74733 0 0 0 128 128 128 255
-0.418883 0.35472 3.79319 0 0 0 128 128 128 255
-0.41403 0.511541 3.79888 0 0 0 128 128 128 255
-0.409228 0.669437 3.80262 0 0 0 128 128 128 255
-0.401875 0.910238 3.80937 0 0 0 128 128 128 255
-0.440307 -0.32624 3.76144 0 0 0 128 128 128 255
-0.43101 -0.0215106 3.77052 0 0 0 128 128 128 255
-0.440842 -0.332042 3.75624 0 0 0 128 128 128 255
-0.410058 0.662826 3.79239 0 0 0 128 128 128 255
-0.414404 0.525022 3.78639 0 0 0 128 128 128 255
-0.464088 -1.07508 3.72625 0 0 0 128 128 128 255
-0.431636 -0.0262731 3.76436 0 0 0 128 128 128 255
-0.431423 -0.0101741 3.76196 0 0 0 128 128 128 255
-0.417113 0.4523 3.77876 0 0 0 128 128 128 255
-0.409479 0.699019 3.78773 0 0 0 128 128 128 255
-0.413455 0.577236 3.78131 0 0 0 128 128 128 255
-0.432447 -0.0330299 3.75814 0 0 0 128 128 128 255
-0.441799 -0.33165 3.7463 0 0 0 128 128 128 255
-0.433098 -0.0348291 3.75311 0 0 0 128 128 128 255
-0.415976 0.518541 3.77322 0 0 0 128 128 128 255
-0.463383 -0.991539 3.71338 0 0 0 128 128 128 255
-0.415477 0.556699 3.76965 0 0 0 128 128 128 255
-0.462871 -0.960453 3.71155 0 0 0 128 128 128 255
-0.412436 0.679762 3.76917 0 0 0 128 128 128 255
-0.404995 0.925523 3.77712 0 0 0 128 128 128 255
-0.437152 -0.0971898 3.73699 0 0 0 128 128 128 255
-0.438153 -0.112049 3.7335 0 0 0 128 128 128 255
-0.43847 -0.0707619 3.72715 0 0 0 128 128 128 255
-0.446873 -0.335419 3.71656 0 0 0 128 128 128 255
-0.417109 0.633521 3.75079 0 0 0 128 128 128 255
-0.419833 0.552655 3.74688 0 0 0 128 128 128 255
-0.414764 0.716469 3.75283 0 0 0 128 128 128 255
-0.427535 0.341108 3.73432 0 0 0 128 128 128 255
-0.424031 0.470047 3.73707 0 0 0 128 128 128 255
-0.415933 0.731749 3.74658 0 0 0 128 128 128 255
-0.4223 0.534017 3.73842 0 0 0 128 128 128 255
-0.417512 0.696875 3.74337 0 0 0 128 128 128 255
-0.415905 0.748816 3.74526 0 0 0 128 128 128 255
-0.417982 0.689926 3.74215 0 0 0 128 128 128 255
-0.414736 0.794806 3.74596 0 0 0 128 128 128 255
-0.428005 0.374328 3.72971 0 0 0 128 128 128 255
-0.414529 0.809832 3.74554 0 0 0 128 128 128 255
-0.423227 0.537186 3.73467 0 0 0 128 128 128 255
-0.41834 0.721106 3.73846 0 0 0 128 128 128 255
-0.442071 -0.0279542 3.70931 0 0 0 128 128 128 255
-0.428703 0.431653 3.72313 0 0 0 128 128 128 255
-0.42589 0.52255 3.72644 0 0 0 128 128 128 255
-0.420451 0.69835 3.73283 0 0 0 128 128 128 255
-0.417267 0.801233 3.73656 0 0 0 128 128 128 255
-0.417082 0.807226 3.73678 0 0 0 128 128 128 255
-0.409571 1.04995 3.7456 0 0 0 128 128 128 255
-0.426489 0.512605 3.72512 0 0 0 128 128 128 255
-0.428893 0.463792 3.72048 0 0 0 128 128 128 255
-0.429227 0.462838 3.71949 0 0 0 128 128 128 255
-0.426291 0.557729 3.72294 0 0 0 128 128 128 255
-0.420449 0.746514 3.7298 0 0 0 128 128 128 255
-0.419612 0.783516 3.73019 0 0 0 128 128 128 255
-0.430214 0.450939 3.71715 0 0 0 128 128 128 255
-0.429166 0.494933 3.7178 0 0 0 128 128 128 255
-0.426145 0.602855 3.72077 0 0 0 128 128 128 255
-0.421292 0.759676 3.72647 0 0 0 128 128 128 255
-0.429462 0.506009 3.71631 0 0 0 128 128 128 255
-0.423713 0.691798 3.72306 0 0 0 128 128 128 255
-0.42087 0.783693 3.7264 0 0 0 128 128 128 255
-0.47525 -0.963274 3.66197 0 0 0 128 128 128 255
-0.428548 0.546008 3.71681 0 0 0 128 128 128 255
-0.42092 0.813792 3.72465 0 0 0 128 128 128 255
-0.429505 0.54714 3.71402 0 0 0 128 128 128 255
-0.433148 0.440307 3.70919 0 0 0 128 128 128 255
-0.429161 0.56916 3.71388 0 0 0 128 128 128 255
-0.428881 0.589182 3.71366 0 0 0 128 128 128 255
-0.431263 0.523302 3.71033 0 0 0 128 128 128 255
-0.425391 0.713086 3.71723 0 0 0 128 128 128 255
-0.420477 0.871905 3.723 0 0 0 128 128 128 255
-0.422654 0.824049 3.71938 0 0 0 128 128 128 255
-0.425355 0.74818 3.71569 0 0 0 128 128 128 255
-0.425324 0.749179 3.71572 0 0 0 128 128 128 255
-0.438042 0.349679 3.70027 0 0 0 128 128 128 255
-0.43089 0.592448 3.70816 0 0 0 128 128 128 255
-0.427119 0.714309 3.71259 0 0 0 128 128 128 255
-0.434589 0.484615 3.70331 0 0 0 128 128 128 255
-0.417868 1.025 3.72294 0 0 0 128 128 128 255
-0.426146 0.769336 3.71272 0 0 0 128 128 128 255
-0.440515 0.328928 3.69486 0 0 0 128 128 128 255
-0.432019 0.615647 3.70435 0 0 0 128 128 128 255
-0.417739 1.07712 3.72112 0 0 0 128 128 128 255
-0.436538 0.481845 3.69856 0 0 0 128 128 128 255
-0.425761 0.84248 3.71074 0 0 0 128 128 128 255
-0.42803 0.781594 3.7076 0 0 0 128 128 128 255
-0.437133 0.49996 3.69645 0 0 0 128 128 128 255
-0.434599 0.581867 3.69942 0 0 0 128 128 128 255
-0.429715 0.739688 3.70516 0 0 0 128 128 128 255
-0.428344 0.796668 3.70631 0 0 0 128 128 128 255
-0.44246 0.353219 3.68927 0 0 0 128 128 128 255
-0.435839 0.593037 3.69615 0 0 0 128 128 128 255
-0.489835 -1.13895 3.6323 0 0 0 128 128 128 255
-0.444401 0.329383 3.68566 0 0 0 128 128 128 255
-0.439332 0.493196 3.69161 0 0 0 128 128 128 255
-0.429782 0.801845 3.70283 0 0 0 128 128 128 255
-0.430165 0.81592 3.70151 0 0 0 128 128 128 255
-0.447132 0.321667 3.67991 0 0 0 128 128 128 255
-0.437087 0.646297 3.69171 0 0 0 128 128 128 255
-0.424631 1.04884 3.70634 0 0 0 128 128 128 255
-0.442055 0.499511 3.68547 0 0 0 128 128 128 255
-0.440973 0.534471 3.68674 0 0 0 128 128 128 255
-0.438589 0.625413 3.68914 0 0 0 128 128 128 255
-0.494222 -1.14448 3.62302 0 0 0 128 128 128 255
-0.437079 0.716448 3.68974 0 0 0 128 128 128 255
-0.445628 0.468823 3.67895 0 0 0 128 128 128 255
-0.444021 0.520764 3.68084 0 0 0 128 128 128 255
-0.439415 0.698654 3.68551 0 0 0 128 128 128 255
-0.446019 0.499926 3.6774 0 0 0 128 128 128 255
-0.445771 0.507917 3.67769 0 0 0 128 128 128 255
-0.444226 0.55786 3.6795 0 0 0 128 128 128 255
-0.443082 0.594818 3.68085 0 0 0 128 128 128 255
-0.43748 0.790642 3.68707 0 0 0 128 128 128 255
-0.427528 1.11228 3.69876 0 0 0 128 128 128 255
-0.443348 0.615887 3.67983 0 0 0 128 128 128 255
-0.437259 0.812663 3.68698 0 0 0 128 128 128 255
-0.447921 0.483085 3.67412 0 0 0 128 128 128 255
-0.440503 0.722812 3.68283 0 0 0 128 128 128 255
-0.429778 1.06942 3.69543 0 0 0 128 128 128 255
-0.436579 0.864697 3.6871 0 0 0 128 128 128 255
-0.436177 0.877683 3.68757 0 0 0 128 128 128 255
-0.430923 1.04749 3.69374 0 0 0 128 128 128 255
-0.431422 1.04654 3.69283 0 0 0 128 128 128 255
-0.450901 0.432283 3.66962 0 0 0 128 128 128 255
-0.440794 0.758911 3.68149 0 0 0 128 128 128 255
-0.430959 1.10761 3.6924 0 0 0 128 128 128 255
-0.43929 0.853943 3.68231 0 0 0 128 128 128 255
-0.435921 0.962819 3.68626 0 0 0 128 128 128 255
-0.429171 1.1966 3.69388 0 0 0 128 128 128 255
-0.448975 0.572357 3.67032 0 0 0 128 128 128 255
-0.452555 0.472517 3.66582 0 0 0 128 128 128 255
-0.434567 1.05386 3.68695 0 0 0 128 128 128 255
-0.449462 0.604461 3.66888 0 0 0 128 128 128 255
-0.443223 0.82226 3.67592 0 0 0 128 128 128 255
-0.436825 1.02902 3.68344 0 0 0 128 128 128 255
-0.453676 0.500673 3.66337 0 0 0 128 128 128 255
-0.444435 0.799333 3.67423 0 0 0 128 128 128 255
-0.434421 1.12296 3.68599 0 0 0 128 128 128 255
-0.452478 0.588714 3.66399 0 0 0 128 128 128 255
-0.444133 0.858407 3.67379 0 0 0 128 128 128 255
-0.435602 1.13409 3.6838 0 0 0 128 128 128 255
-0.506832 -1.15126 3.5999 0 0 0 128 128 128 255
-0.456 0.541956 3.65886 0 0 0 128 128 128 255
-0.455908 0.544952 3.65897 0 0 0 128 128 128 255
-0.440237 1.05138 3.67737 0 0 0 128 128 128 255
-0.439867 1.06336 3.67781 0 0 0 128 128 128 255
-0.437889 1.12729 3.68013 0 0 0 128 128 128 255
-0.434829 1.22618 3.68373 0 0 0 128 128 128 255
-0.45906 0.460096 3.65504 0 0 0 128 128 128 255
-0.458596 0.475079 3.65558 0 0 0 128 128 128 255
-0.45158 0.701821 3.66382 0 0 0 128 128 128 255
-0.451085 0.717803 3.6644 0 0 0 128 128 128 255
-0.449849 0.757757 3.66585 0 0 0 128 128 128 255
-0.438599 1.12134 3.67906 0 0 0 128 128 128 255
-0.458691 0.48911 3.65524 0 0 0 128 128 128 255
-0.458475 0.496102 3.65549 0 0 0 128 128 128 255
-0.445105 0.962665 3.67075 0 0 0 128 128 128 255
-0.437564 1.20639 3.67961 0 0 0 128 128 128 255
-0.458359 0.569208 3.65477 0 0 0 128 128 128 255
-0.439907 1.16553 3.67644 0 0 0 128 128 128 255
-0.461837 0.474363 3.65048 0 0 0 128 128 128 255
-0.449103 0.885895 3.66544 0 0 0 128 128 128 255
-0.446878 0.957813 3.66805 0 0 0 128 128 128 255
-0.457808 0.622242 3.65502 0 0 0 128 128 128 255
-0.455397 0.700154 3.65785 0 0 0 128 128 128 255
-0.45138 0.830006 3.66257 0 0 0 128 128 128 255
-0.461725 0.513413 3.65023 0 0 0 128 128 128 255
-0.493926 -0.509375 3.61222 0 0 0 128 128 128 255
-0.459711 0.596367 3.65241 0 0 0 128 128 128 255
-0.456126 0.712235 3.65662 0 0 0 128 128 128 255
-0.492965 -0.460383 3.61317 0 0 0 128 128 128 255
-0.492749 -0.453391 3.61343 0 0 0 128 128 128 255
-0.461563 0.554462 3.65005 0 0 0 128 128 128 255
-0.452847 0.836141 3.66029 0 0 0 128 128 128 255
-0.449231 0.953008 3.66453 0 0 0 128 128 128 255
-0.446016 1.05689 3.66831 0 0 0 128 128 128 255
-0.495627 -0.510232 3.6097 0 0 0 128 128 128 255
-0.498569 -0.587097 3.60608 0 0 0 128 128 128 255
-0.497982 -0.568118 3.60677 0 0 0 128 128 128 255
-0.458667 0.702435 3.65294 0 0 0 128 128 128 255
-0.449497 1.01712 3.66355 0 0 0 128 128 128 255
-0.446128 1.126 3.66751 0 0 0 128 128 128 255
-0.464468 0.551702 3.64581 0 0 0 128 128 128 255
-0.451487 0.971224 3.66106 0 0 0 128 128 128 255
-0.449787 1.02616 3.66306 0 0 0 128 128 128 255
-0.503951 -0.705819 3.59929 0 0 0 128 128 128 255
-0.465873 0.52478 3.64401 0 0 0 128 128 128 255
-0.452274 0.96428 3.65999 0 0 0 128 128 128 255
-0.44906 1.06816 3.66376 0 0 0 128 128 128 255
-0.451055 1.02226 3.66127 0 0 0 128 128 128 255
-0.500056 -0.523884 3.60345 0 0 0 128 128 128 255
-0.502307 -0.577775 3.60068 0 0 0 128 128 128 255
-0.501782 -0.560794 3.6013 0 0 0 128 128 128 255
-0.500574 -0.502812 3.6026 0 0 0 128 128 128 255
-0.500049 -0.485832 3.60321 0 0 0 128 128 128 255
-0.499276 -0.46086 3.60412 0 0 0 128 128 128 255
-0.460549 0.790715 3.6496 0 0 0 128 128 128 255
-0.460116 0.804699 3.65011 0 0 0 128 128 128 255
-0.470564 0.486109 3.63772 0 0 0 128 128 128 255
-0.460179 0.821727 3.64992 0 0 0 128 128 128 255
-0.501907 -0.507712 3.6008 0 0 0 128 128 128 255
-0.500949 -0.476747 3.60193 0 0 0 128 128 128 255
-0.50064 -0.466758 3.60229 0 0 0 128 128 128 255
-0.483177 0.0975993 3.6228 0 0 0 128 128 128 255
-0.459935 0.848744 3.65009 0 0 0 128 128 128 255
-0.460599 0.86582 3.64911 0 0 0 128 128 128 255
-0.45621 1.00766 3.65426 0 0 0 128 128 128 255
-0.490807 -0.091043 3.61353 0 0 0 128 128 128 255
-0.469852 0.586186 3.63814 0 0 0 128 128 128 255
-0.458014 0.968751 3.65205 0 0 0 128 128 128 255
-0.456994 1.00171 3.65324 0 0 0 128 128 128 255
-0.456407 1.02069 3.65393 0 0 0 128 128 128 255
-0.506337 -0.573446 3.5952 0 0 0 128 128 128 255
-0.472493 0.520309 3.63495 0 0 0 128 128 128 255
-0.469959 0.602216 3.63793 0 0 0 128 128 128 255
-0.468166 0.66015 3.64003 0 0 0 128 128 128 255
-0.491951 -0.0889501 3.61201 0 0 0 128 128 128 255
-0.472511 0.539335 3.63484 0 0 0 128 128 128 255
-0.464104 0.811025 3.64472 0 0 0 128 128 128 255
-0.45684 1.04576 3.65325 0 0 0 128 128 128 255
-0.473025 0.542379 3.63416 0 0 0 128 128 128 255
-0.472994 0.543378 3.6342 0 0 0 128 128 128 255
-0.452039 1.22061 3.65881 0 0 0 128 128 128 255
-0.457718 1.05684 3.65206 0 0 0 128 128 128 255
-0.452247 1.23364 3.65849 0 0 0 128 128 128 255
-0.451969 1.24263 3.65881 0 0 0 128 128 128 255
-0.513716 -0.733074 3.58623 0 0 0 128 128 128 255
-0.468746 0.720272 3.63904 0 0 0 128 128 128 255
-0.46071 0.979976 3.64848 0 0 0 128 128 128 255
-0.475543 0.520547 3.63099 0 0 0 128 128 128 255
-0.464632 0.89317 3.64375 0 0 0 128 128 128 255
-0.46346 0.951152 3.64507 0 0 0 128 128 128 255
-0.477498 0.517693 3.62854 0 0 0 128 128 128 255
-0.461859 1.02312 3.6469 0 0 0 128 128 128 255
-0.461673 1.02911 3.64712 0 0 0 128 128 128 255
-0.51033 -0.523074 3.58994 0 0 0 128 128 128 255
-0.507981 -0.447161 3.5927 0 0 0 128 128 128 255
-0.474044 0.649591 3.63255 0 0 0 128 128 128 255
-0.508826 -0.454105 3.59167 0 0 0 128 128 128 255
-0.478289 0.532771 3.62753 0 0 0 128 128 128 255
-0.457396 1.208 3.65207 0 0 0 128 128 128 255
-0.480868 0.469891 3.62447 0 0 0 128 128 128 255
-0.456729 1.25 3.65282 0 0 0 128 128 128 255
-0.5138 -0.573873 3.58576 0 0 0 128 128 128 255
-0.511637 -0.503953 3.5883 0 0 0 128 128 128 255
-0.504621 -0.277211 3.59654 0 0 0 128 128 128 255
-0.473497 0.728644 3.6331 0 0 0 128 128 128 255
-0.514468 -0.574825 3.58496 0 0 0 128 128 128 255
-0.479573 0.552892 3.62594 0 0 0 128 128 128 255
-0.475803 0.674753 3.63037 0 0 0 128 128 128 255
-0.474319 0.722698 3.63211 0 0 0 128 128 128 255
-0.473577 0.746671 3.63298 0 0 0 128 128 128 255
-0.47299 0.765649 3.63367 0 0 0 128 128 128 255
-0.470394 0.849554 3.63672 0 0 0 128 128 128 255
-0.513995 -0.538818 3.5855 0 0 0 128 128 128 255
-0.498603 -0.0413842 3.60357 0 0 0 128 128 128 255
-0.475731 0.697775 3.63043 0 0 0 128 128 128 255
-0.475144 0.716753 3.63112 0 0 0 128 128 128 255
-0.474773 0.728739 3.63156 0 0 0 128 128 128 255
-0.474124 0.749715 3.63232 0 0 0 128 128 128 255
-0.505705 -0.250099 3.59522 0 0 0 128 128 128 255
-0.50076 -0.0902807 3.60103 0 0 0 128 128 128 255
-0.480052 0.578957 3.62535 0 0 0 128 128 128 255
-0.467499 1.00552 3.64009 0 0 0 128 128 128 255
-0.482147 0.553082 3.62288 0 0 0 128 128 128 255
-0.518959 -0.61554 3.57966 0 0 0 128 128 128 255
-0.47436 0.82582 3.63203 0 0 0 128 128 128 255
-0.473371 0.857783 3.6332 0 0 0 128 128 128 255
-0.467653 1.04257 3.63991 0 0 0 128 128 128 255
-0.516583 -0.517603 3.58246 0 0 0 128 128 128 255
-0.509103 -0.275879 3.59124 0 0 0 128 128 128 255
-0.508825 -0.266889 3.59157 0 0 0 128 128 128 255
-0.502056 -0.0481378 3.59952 0 0 0 128 128 128 255
-0.47733 0.750953 3.62856 0 0 0 128 128 128 255
-0.462835 1.21942 3.64558 0 0 0 128 128 128 255
-0.515971 -0.476602 3.58319 0 0 0 128 128 128 255
-0.514765 -0.437647 3.58461 0 0 0 128 128 128 255
-0.486918 0.462329 3.61731 0 0 0 128 128 128 255
-0.475296 0.837901 3.63096 0 0 0 128 128 128 255
-0.510447 -0.276782 3.5897 0 0 0 128 128 128 255
-0.479632 0.719084 3.62589 0 0 0 128 128 128 255
-0.506441 -0.125906 3.59443 0 0 0 128 128 128 255
-0.484403 0.586283 3.62031 0 0 0 128 128 128 255
-0.481127 0.692163 3.62416 0 0 0 128 128 128 255
-0.479953 0.730119 3.62554 0 0 0 128 128 128 255
-0.464654 1.22456 3.64351 0 0 0 128 128 128 255
-0.505527 -0.0749164 3.59553 0 0 0 128 128 128 255
-0.487354 0.512415 3.61688 0 0 0 128 128 128 255
-0.474991 0.91196 3.6314 0 0 0 128 128 128 255
-0.522296 -0.595276 3.57588 0 0 0 128 128 128 255
-0.487185 0.539432 3.61711 0 0 0 128 128 128 255
-0.521666 -0.553277 3.57666 0 0 0 128 128 128 255
-0.518853 -0.46238 3.57996 0 0 0 128 128 128 255
-0.481795 0.735257 3.62349 0 0 0 128 128 128 255
-0.480559 0.775211 3.62494 0 0 0 128 128 128 255
-0.483918 0.688358 3.62104 0 0 0 128 128 128 255
-0.466301 1.25771 3.64173 0 0 0 128 128 128 255
-0.480141 0.832242 3.62553 0 0 0 128 128 128 255
-0.484309 0.719418 3.62069 0 0 0 128 128 128 255
-0.480353 0.847272 3.62534 0 0 0 128 128 128 255
-0.511754 -0.14555 3.58852 0 0 0 128 128 128 255
-0.489902 0.560646 3.61419 0 0 0 128 128 128 255
-0.529804 -0.706863 3.56739 0 0 0 128 128 128 255
-0.493674 0.460808 3.60983 0 0 0 128 128 128 255
-0.527274 -0.602934 3.57044 0 0 0 128 128 128 255
-0.514694 -0.196397 3.58521 0 0 0 128 128 128 255
-0.513551 -0.159439 3.58656 0 0 0 128 128 128 255
-0.491452 0.554748 3.61251 0 0 0 128 128 128 255
-0.490895 0.572728 3.61316 0 0 0 128 128 128 255
-0.490772 0.576723 3.61331 0 0 0 128 128 128 255
-0.524405 -0.488017 3.57389 0 0 0 128 128 128 255
-0.487841 0.693638 3.61683 0 0 0 128 128 128 255
-0.482742 0.85845 3.62282 0 0 0 128 128 128 255
-0.527442 -0.563883 3.57041 0 0 0 128 128 128 255
-0.524228 -0.460001 3.57418 0 0 0 128 128 128 255
-0.479288 0.992346 3.62696 0 0 0 128 128 128 255
-0.528133 -0.563835 3.56968 0 0 0 128 128 128 255
-0.510732 -0.0014755 3.59012 0 0 0 128 128 128 255
-0.488232 0.725697 3.61654 0 0 0 128 128 128 255
-0.484739 0.838568 3.62065 0 0 0 128 128 128 255
-0.524221 -0.414957 3.57437 0 0 0 128 128 128 255
-0.482033 0.948491 3.62392 0 0 0 128 128 128 255
-0.529893 -0.575727 3.56781 0 0 0 128 128 128 255
-0.496977 0.488063 3.60647 0 0 0 128 128 128 255
-0.493546 0.598936 3.6105 0 0 0 128 128 128 255
-0.485263 0.866632 3.62023 0 0 0 128 128 128 255
-0.482759 0.947539 3.62317 0 0 0 128 128 128 255
-0.5169 -0.133183 3.58318 0 0 0 128 128 128 255
-0.517106 -0.117153 3.58305 0 0 0 128 128 128 255
-0.488169 0.840804 3.61715 0 0 0 128 128 128 255
-0.528653 -0.444685 3.56973 0 0 0 128 128 128 255
-0.528591 -0.442688 3.5698 0 0 0 128 128 128 255
-0.482477 1.04762 3.62396 0 0 0 128 128 128 255
-0.53647 -0.674376 3.56067 0 0 0 128 128 128 255
-0.529484 -0.448633 3.56888 0 0 0 128 128 128 255
-0.529392 -0.445637 3.56898 0 0 0 128 128 128 255
-0.53786 -0.696304 3.55917 0 0 0 128 128 128 255
-0.522283 -0.192877 3.57747 0 0 0 128 128 128 255
-0.521386 -0.16391 3.57852 0 0 0 128 128 128 255
-0.521574 -0.146882 3.57844 0 0 0 128 128 128 255
-0.508005 0.291619 3.59437 0 0 0 128 128 128 255
-0.500371 0.538338 3.60334 0 0 0 128 128 128 255
-0.494468 0.729121 3.61027 0 0 0 128 128 128 255
-0.490821 0.846987 3.61455 0 0 0 128 128 128 255
-0.49011 0.869961 3.61539 0 0 0 128 128 128 255
-0.478952 1.23055 3.62849 0 0 0 128 128 128 255
-0.501087 0.538386 3.60264 0 0 0 128 128 128 255
-0.540964 -0.727126 3.55596 0 0 0 128 128 128 255
-0.49689 0.697252 3.60772 0 0 0 128 128 128 255
-0.496427 0.712235 3.60826 0 0 0 128 128 128 255
-0.5194 -0.00689852 3.58143 0 0 0 128 128 128 255
-0.505121 0.454576 3.5982 0 0 0 128 128 128 255
-0.494087 0.81117 3.61116 0 0 0 128 128 128 255
-0.54318 -0.752003 3.55367 0 0 0 128 128 128 255
-0.497993 0.708335 3.60673 0 0 0 128 128 128 255
-0.553331 -1.05661 3.54191 0 0 0 128 128 128 255
-0.538805 -0.587143 3.55897 0 0 0 128 128 128 255
-0.517448 0.103071 3.58405 0 0 0 128 128 128 255
-0.544014 -0.731931 3.55302 0 0 0 128 128 128 255
-0.50541 0.515649 3.59836 0 0 0 128 128 128 255
-0.504174 0.555604 3.59981 0 0 0 128 128 128 255
-0.501671 0.636511 3.60275 0 0 0 128 128 128 255
-0.508953 0.4248 3.59437 0 0 0 128 128 128 255
-0.507315 0.47774 3.5963 0 0 0 128 128 128 255
-0.494395 0.895265 3.61147 0 0 0 128 128 128 255
-0.542261 -0.627954 3.55543 0 0 0 128 128 128 255
-0.502205 0.666572 3.60248 0 0 0 128 128 128 255
-0.492098 0.9932 3.61435 0 0 0 128 128 128 255
-0.54058 -0.525976 3.55778 0 0 0 128 128 128 255
-0.533316 -0.291243 3.56631 0 0 0 128 128 128 255
-0.529299 -0.161391 3.57103 0 0 0 128 128 128 255
-0.540206 -0.489969 3.55842 0 0 0 128 128 128 255
-0.545182 -0.626766 3.55278 0 0 0 128 128 128 255
-0.506673 0.641837 3.59821 0 0 0 128 128 128 255
-0.506642 0.642836 3.59824 0 0 0 128 128 128 255
-0.505004 0.695776 3.60017 0 0 0 128 128 128 255
-0.494897 1.0224 3.61204 0 0 0 128 128 128 255
-0.53233 -0.163199 3.56829 0 0 0 128 128 128 255
-0.544082 -0.518747 3.5547 0 0 0 128 128 128 255
-0.501862 0.845699 3.60429 0 0 0 128 128 128 255
-0.496546 1.0175 3.61053 0 0 0 128 128 128 255
-0.504405 0.787813 3.60152 0 0 0 128 128 128 255
-0.491486 1.20534 3.6167 0 0 0 128 128 128 255
-0.552879 -0.754385 3.54482 0 0 0 128 128 128 255
-0.545245 -0.507666 3.55379 0 0 0 128 128 128 255
-0.503983 0.825817 3.60225 0 0 0 128 128 128 255
-0.500398 0.941685 3.60646 0 0 0 128 128 128 255
-0.546587 -0.526597 3.55244 0 0 0 128 128 128 255
-0.506006 0.78491 3.6001 0 0 0 128 128 128 255
-0.546263 -0.49159 3.55306 0 0 0 128 128 128 255
-0.503981 0.874855 3.60272 0 0 0 128 128 128 255
-0.549649 -0.576446 3.54933 0 0 0 128 128 128 255
-0.548197 -0.529499 3.55103 0 0 0 128 128 128 255
-0.531847 -0.0011008 3.57024 0 0 0 128 128 128 255
-0.518217 0.439398 3.58624 0 0 0 128 128 128 255
-0.517969 0.447389 3.58653 0 0 0 128 128 128 255
-0.517258 0.470363 3.58737 0 0 0 128 128 128 255
-0.514724 0.552269 3.59035 0 0 0 128 128 128 255
-0.511541 0.655152 3.59408 0 0 0 128 128 128 255
-0.505606 0.846934 3.60105 0 0 0 128 128 128 255
-0.551639 -0.591335 3.54749 0 0 0 128 128 128 255
-0.550897 -0.567362 3.54837 0 0 0 128 128 128 255
-0.518846 0.468459 3.58601 0 0 0 128 128 128 255
-0.516621 0.540377 3.58862 0 0 0 128 128 128 255
-0.534448 -0.0109483 3.56794 0 0 0 128 128 128 255
-0.530955 0.101923 3.57204 0 0 0 128 128 128 255
-0.51918 0.48249 3.58587 0 0 0 128 128 128 255
-0.518592 0.501468 3.58656 0 0 0 128 128 128 255
-0.513462 0.66728 3.59259 0 0 0 128 128 128 255
-0.552432 -0.567268 3.54709 0 0 0 128 128 128 255
-0.522081 0.413615 3.58273 0 0 0 128 128 128 255
-0.519392 0.500517 3.58589 0 0 0 128 128 128 255
-0.507987 0.869097 3.59928 0 0 0 128 128 128 255
-0.509901 0.832186 3.59731 0 0 0 128 128 128 255
-0.559261 -0.73798 3.53961 0 0 0 128 128 128 255
-0.55447 -0.583156 3.54524 0 0 0 128 128 128 255
-0.516176 0.654435 3.59021 0 0 0 128 128 128 255
-0.512127 0.785286 3.59497 0 0 0 128 128 128 255
-0.555956 -0.606083 3.54377 0 0 0 128 128 128 255
-0.554967 -0.574119 3.54493 0 0 0 128 128 128 255
-0.547425 -0.330397 3.55379 0 0 0 128 128 128 255
-0.545942 -0.282451 3.55553 0 0 0 128 128 128 255
-0.524214 0.419749 3.58105 0 0 0 128 128 128 255
-0.560349 -0.722903 3.5389 0 0 0 128 128 128 255
-0.54964 -0.326261 3.55206 0 0 0 128 128 128 255
-0.557563 -0.556951 3.54306 0 0 0 128 128 128 255
-0.55713 -0.542967 3.54357 0 0 0 128 128 128 255
-0.527397 0.417939 3.57848 0 0 0 128 128 128 255
-0.526995 0.430924 3.57896 0 0 0 128 128 128 255
-0.522947 0.561775 3.58371 0 0 0 128 128 128 255
-0.52239 0.579755 3.58436 0 0 0 128 128 128 255
-0.51386 0.855441 3.59438 0 0 0 128 128 128 255
-0.563109 -0.71073 3.53685 0 0 0 128 128 128 255
-0.562552 -0.69275 3.5375 0 0 0 128 128 128 255
-0.5577 -0.535929 3.5432 0 0 0 128 128 128 255
-0.5509 -0.316179 3.55119 0 0 0 128 128 128 255
-0.54373 -0.0844425 3.55961 0 0 0 128 128 128 255
-0.527318 0.445954 3.57888 0 0 0 128 128 128 255
-0.548319 -0.207256 3.55453 0 0 0 128 128 128 255
-0.543683 -0.0574265 3.55998 0 0 0 128 128 128 255
-0.531876 0.324139 3.57384 0 0 0 128 128 128 255
-0.513394 0.921459 3.59555 0 0 0 128 128 128 255
-0.570683 -0.904416 3.52858 0 0 0 128 128 128 255
-0.565985 -0.752589 3.5341 0 0 0 128 128 128 255
-0.554889 -0.393997 3.54713 0 0 0 128 128 128 255
-0.547471 -0.15427 3.55584 0 0 0 128 128 128 255
-0.527134 0.502982 3.57973 0 0 0 128 128 128 255
-0.559514 -0.517809 3.54202 0 0 0 128 128 128 255
-0.526999 0.532995 3.58021 0 0 0 128 128 128 255
-0.521528 0.709794 3.58663 0 0 0 128 128 128 255
-0.514419 0.939532 3.59498 0 0 0 128 128 128 255
-0.513678 0.963505 3.59585 0 0 0 128 128 128 255
-0.510432 1.06839 3.59966 0 0 0 128 128 128 255
-0.505456 1.2292 3.60551 0 0 0 128 128 128 255
-0.533789 0.339262 3.57256 0 0 0 128 128 128 255
-0.568393 -0.727431 3.53259 0 0 0 128 128 128 255
-0.507598 1.23733 3.60399 0 0 0 128 128 128 255
-0.551638 -0.16003 3.55261 0 0 0 128 128 128 255
-0.532723 0.451274 3.57482 0 0 0 128 128 128 255
-0.518196 0.92074 3.59189 0 0 0 128 128 128 255
-0.509078 1.2154 3.60259 0 0 0 128 128 128 255
-0.564124 -0.537554 3.53829 0 0 0 128 128 128 255
-0.531578 0.514249 3.57652 0 0 0 128 128 128 255
-0.57136 -0.719254 3.53051 0 0 0 128 128 128 255
-0.570835 -0.702273 3.53112 0 0 0 128 128 128 255
-0.559337 -0.330696 3.54463 0 0 0 128 128 128 255
-0.510689 1.24151 3.60176 0 0 0 128 128 128 255
-0.571612 -0.701228 3.53057 0 0 0 128 128 128 255
-0.561475 -0.373601 3.54248 0 0 0 128 128 128 255
-0.557549 -0.246745 3.54709 0 0 0 128 128 128 255
-0.546608 0.106852 3.55994 0 0 0 128 128 128 255
-0.53555 0.490462 3.57329 0 0 0 128 128 128 255
-0.538496 0.421586 3.57021 0 0 0 128 128 128 255
-0.537692 0.447557 3.57115 0 0 0 128 128 128 255
-0.536363 0.490508 3.57271 0 0 0 128 128 128 255
-0.513955 1.21468 3.59903 0 0 0 128 128 128 255
-0.512935 1.24765 3.60023 0 0 0 128 128 128 255
-0.529327 0.744265 3.58136 0 0 0 128 128 128 255
-0.525835 0.857137 3.58546 0 0 0 128 128 128 255
-0.561299 -0.262542 3.54419 0 0 0 128 128 128 255
-0.576798 -0.736956 3.52638 0 0 0 128 128 128 255
-0.560201 -0.200567 3.54587 0 0 0 128 128 128 255
-0.527594 0.853234 3.58416 0 0 0 128 128 128 255
-0.525028 0.936139 3.58718 0 0 0 128 128 128 255
-0.524843 0.942133 3.58739 0 0 0 128 128 128 255
-0.524719 0.946128 3.58754 0 0 0 128 128 128 255
-0.523328 0.991077 3.58917 0 0 0 128 128 128 255
-0.524211 0.989125 3.58853 0 0 0 128 128 128 255
-0.516824 1.22785 3.59721 0 0 0 128 128 128 255
-0.577082 -0.692914 3.52684 0 0 0 128 128 128 255
-0.537149 0.597617 3.57374 0 0 0 128 128 128 255
-0.534893 0.670534 3.57639 0 0 0 128 128 128 255
-0.529237 0.853326 3.58303 0 0 0 128 128 128 255
-0.524941 0.992168 3.58807 0 0 0 128 128 128 255
-0.530432 0.841386 3.58203 0 0 0 128 128 128 255
-0.578671 -0.690824 3.52579 0 0 0 128 128 128 255
-0.535431 0.706585 3.57657 0 0 0 128 128 128 255
-0.579468 -0.68978 3.52526 0 0 0 128 128 128 255
-0.565189 -0.228305 3.54203 0 0 0 128 128 128 255
-0.564973 -0.221313 3.54229 0 0 0 128 128 128 255
-0.558575 -0.0145482 3.5498 0 0 0 128 128 128 255
-0.542132 0.516847 3.56911 0 0 0 128 128 128 255
-0.560116 -0.0374762 3.54841 0 0 0 128 128 128 255
-0.5599 -0.030484 3.54867 0 0 0 128 128 128 255
-0.545466 0.435985 3.56562 0 0 0 128 128 128 255
-0.575382 -0.503899 3.53091 0 0 0 128 128 128 255
-0.581131 -0.662673 3.52459 0 0 0 128 128 128 255
-0.543609 0.549947 3.56865 0 0 0 128 128 128 255
-0.539807 0.672807 3.57312 0 0 0 128 128 128 255
-0.537304 0.753715 3.57606 0 0 0 128 128 128 255
-0.533997 0.860593 3.57994 0 0 0 128 128 128 255
-0.532607 0.932557 3.58201 0 0 0 128 128 128 255
-0.524232 1.20325 3.59184 0 0 0 128 128 128 255
-0.549177 0.424182 3.56299 0 0 0 128 128 128 255
-0.586426 -0.752433 3.51969 0 0 0 128 128 128 255
-0.549244 0.449199 3.56335 0 0 0 128 128 128 255
-0.532925 0.976599 3.58252 0 0 0 128 128 128 255
-0.530638 1.05051 3.58521 0 0 0 128 128 128 255
-0.537639 0.878801 3.57789 0 0 0 128 128 128 255
-0.533745 1.00466 3.58246 0 0 0 128 128 128 255
-0.533621 1.00865 3.58261 0 0 0 128 128 128 255
-0.588555 -0.739312 3.51855 0 0 0 128 128 128 255
-0.58089 -0.491593 3.52756 0 0 0 128 128 128 255
-0.54921 0.532241 3.56476 0 0 0 128 128 128 255
-0.538516 0.877848 3.57732 0 0 0 128 128 128 255
-0.539487 0.873898 3.57665 0 0 0 128 128 128 255
-0.589602 -0.718244 3.51826 0 0 0 128 128 128 255
-0.531543 1.18563 3.58692 0 0 0 128 128 128 255
-0.552753 0.555442 3.56298 0 0 0 128 128 128 255
-0.537516 1.04788 3.58087 0 0 0 128 128 128 255
-0.537238 1.05687 3.5812 0 0 0 128 128 128 255
-0.53152 1.24166 3.58792 0 0 0 128 128 128 255
-0.571597 -0.0258514 3.54134 0 0 0 128 128 128 255
-0.552929 0.577462 3.56326 0 0 0 128 128 128 255
-0.541733 0.967064 3.57691 0 0 0 128 128 128 255
-0.548929 0.762342 3.56896 0 0 0 128 128 128 255
-0.582491 -0.29441 3.53005 0 0 0 128 128 128 255
-0.580482 -0.229484 3.53241 0 0 0 128 128 128 255
-0.558012 0.496689 3.5588 0 0 0 128 128 128 255
-0.546113 0.881252 3.57277 0 0 0 128 128 128 255
-0.543393 0.969151 3.57597 0 0 0 128 128 128 255
-0.596644 -0.695863 3.51445 0 0 0 128 128 128 255
-0.596428 -0.688871 3.51471 0 0 0 128 128 128 255
-0.542988 1.03816 3.57747 0 0 0 128 128 128 255
-0.598809 -0.737771 3.51243 0 0 0 128 128 128 255
-0.559927 0.518799 3.5581 0 0 0 128 128 128 255
-0.601563 -0.798656 3.50973 0 0 0 128 128 128 255
-0.538419 1.24202 3.58388 0 0 0 128 128 128 255
-0.561666 0.518889 3.55711 0 0 0 128 128 128 255
-0.584791 -0.200248 3.53049 0 0 0 128 128 128 255
-0.55682 0.703723 3.56334 0 0 0 128 128 128 255
-0.587179 -0.249148 3.52823 0 0 0 128 128 128 255
-0.589105 -0.283064 3.52651 0 0 0 128 128 128 255
-0.564688 0.506037 3.55519 0 0 0 128 128 128 255
-0.563266 0.551985 3.55686 0 0 0 128 128 128 255
-0.587726 -0.210103 3.52868 0 0 0 128 128 128 255
-0.586149 -0.159161 3.53053 0 0 0 128 128 128 255
-0.586935 -0.15612 3.53017 0 0 0 128 128 128 255
-0.586688 -0.148129 3.53046 0 0 0 128 128 128 255
-0.559535 0.757884 3.56291 0 0 0 128 128 128 255
-0.55496 0.905716 3.56828 0 0 0 128 128 128 255
-0.611105 -0.880207 3.50291 0 0 0 128 128 128 255
-0.560633 0.750937 3.56218 0 0 0 128 128 128 255
-0.569954 0.478291 3.55181 0 0 0 128 128 128 255
-0.572261 0.432388 3.54967 0 0 0 128 128 128 255
-0.567068 0.600197 3.55577 0 0 0 128 128 128 255
-0.572807 0.443419 3.54961 0 0 0 128 128 128 255
-0.594682 -0.234765 3.52451 0 0 0 128 128 128 255
-0.573232 0.458446 3.5497 0 0 0 128 128 128 255
-0.570728 0.539354 3.55264 0 0 0 128 128 128 255
-0.609449 -0.68321 3.50776 0 0 0 128 128 128 255
-0.601938 -0.440486 3.51658 0 0 0 128 128 128 255
-0.614049 -0.80303 3.50295 0 0 0 128 128 128 255
-0.610835 -0.699148 3.50672 0 0 0 128 128 128 255
-0.615498 -0.820965 3.50185 0 0 0 128 128 128 255
-0.608235 -0.586232 3.51038 0 0 0 128 128 128 255
-0.611169 -0.652113 3.50754 0 0 0 128 128 128 255
-0.599208 -0.265553 3.52158 0 0 0 128 128 128 255
-0.597477 -0.209617 3.52362 0 0 0 128 128 128 255
-0.597261 -0.202625 3.52387 0 0 0 128 128 128 255
-0.591698 -0.0228298 3.5304 0 0 0 128 128 128 255
-0.558966 1.03497 3.56884 0 0 0 128 128 128 255
-0.601433 -0.308461 3.51958 0 0 0 128 128 128 255
-0.581158 0.346793 3.54339 0 0 0 128 128 128 255
-0.563942 0.90316 3.56361 0 0 0 128 128 128 255
-0.57473 0.583568 3.55156 0 0 0 128 128 128 255
-0.616674 -0.742879 3.50292 0 0 0 128 128 128 255
-0.61584 -0.715909 3.5039 0 0 0 128 128 128 255
-0.611822 -0.586057 3.50862 0 0 0 128 128 128 255
-0.607499 -0.417206 3.51432 0 0 0 128 128 128 255
-0.614497 -0.584928 3.50736 0 0 0 128 128 128 255
-0.583095 0.429917 3.54424 0 0 0 128 128 128 255
-0.573019 0.755546 3.55608 0 0 0 128 128 128 255
-0.572617 0.768531 3.55655 0 0 0 128 128 128 255
-0.569001 0.885399 3.56079 0 0 0 128 128 128 255
-0.615093 -0.574896 3.5073 0 0 0 128 128 128 255
-0.610178 -0.416077 3.51307 0 0 0 128 128 128 255
-0.581434 0.512866 3.54683 0 0 0 128 128 128 255
-0.580198 0.552821 3.54828 0 0 0 128 128 128 255
-0.569659 0.893433 3.56066 0 0 0 128 128 128 255
-0.622458 -0.783615 3.4993 0 0 0 128 128 128 255
-0.58404 0.457972 3.54441 0 0 0 128 128 128 255
-0.575367 0.767662 3.55525 0 0 0 128 128 128 255
-0.607709 -0.248138 3.51792 0 0 0 128 128 128 255
-0.621972 -0.679604 3.50183 0 0 0 128 128 128 255
-0.618108 -0.554746 3.50637 0 0 0 128 128 128 255
-0.607291 -0.205144 3.51907 0 0 0 128 128 128 255
-0.586351 0.501095 3.54433 0 0 0 128 128 128 255
-0.624199 -0.692503 3.50054 0 0 0 128 128 128 255
-0.620367 -0.568644 3.50505 0 0 0 128 128 128 255
-0.62015 -0.561652 3.5053 0 0 0 128 128 128 255
-0.615885 -0.423809 3.51031 0 0 0 128 128 128 255
-0.622198 -0.568558 3.50425 0 0 0 128 128 128 255
-0.610422 -0.187991 3.51808 0 0 0 128 128 128 255
-0.605168 -0.0181846 3.52425 0 0 0 128 128 128 255
-0.58378 0.673029 3.54936 0 0 0 128 128 128 255
-0.623517 -0.581501 3.50338 0 0 0 128 128 128 255
-0.622899 -0.561523 3.5041 0 0 0 128 128 128 255
-0.629752 -0.753262 3.49674 0 0 0 128 128 128 255
-0.628176 -0.70232 3.49859 0 0 0 128 128 128 255
-0.6249 -0.596441 3.50244 0 0 0 128 128 128 255
-0.620017 -0.438621 3.50818 0 0 0 128 128 128 255
-0.618564 -0.391674 3.50988 0 0 0 128 128 128 255
-0.59016 0.526281 3.54324 0 0 0 128 128 128 255
-0.584998 0.693091 3.5493 0 0 0 128 128 128 255
-0.582371 0.777995 3.55239 0 0 0 128 128 128 255
-0.625171 -0.575422 3.50282 0 0 0 128 128 128 255
-0.593522 0.447414 3.53999 0 0 0 128 128 128 255
-0.59312 0.460399 3.54046 0 0 0 128 128 128 255
-0.589813 0.567277 3.54434 0 0 0 128 128 128 255
-0.587124 0.654178 3.5475 0 0 0 128 128 128 255
-0.586691 0.668162 3.54801 0 0 0 128 128 128 255
-0.585301 0.713111 3.54964 0 0 0 128 128 128 255
-0.621457 -0.42555 3.50787 0 0 0 128 128 128 255
-0.621055 -0.412565 3.50835 0 0 0 128 128 128 255
-0.58409 0.782075 3.55176 0 0 0 128 128 128 255
-0.631714 -0.727164 3.49653 0 0 0 128 128 128 255
-0.620371 -0.360582 3.50985 0 0 0 128 128 128 255
-0.59206 0.554377 3.5431 0 0 0 128 128 128 255
-0.587393 0.705205 3.54858 0 0 0 128 128 128 255
-0.585721 0.789152 3.55125 0 0 0 128 128 128 255
-0.582444 0.895031 3.5551 0 0 0 128 128 128 255
-0.582321 0.899027 3.55524 0 0 0 128 128 128 255
-0.61573 -0.150736 3.51672 0 0 0 128 128 128 255
-0.583617 0.887083 3.55443 0 0 0 128 128 128 255
-0.630721 -0.575168 3.50055 0 0 0 128 128 128 255
-0.625312 -0.400367 3.5069 0 0 0 128 128 128 255
-0.59314 0.669457 3.54541 0 0 0 128 128 128 255
-0.591934 0.708413 3.54683 0 0 0 128 128 128 255
-0.586464 0.885212 3.55325 0 0 0 128 128 128 255
-0.581766 1.03704 3.55877 0 0 0 128 128 128 255
-0.637527 -0.734902 3.49401 0 0 0 128 128 128 255
-0.621795 -0.226481 3.51249 0 0 0 128 128 128 255
-0.621146 -0.205505 3.51325 0 0 0 128 128 128 255
-0.59951 0.493699 3.53866 0 0 0 128 128 128 255
-0.578771 1.16394 3.56302 0 0 0 128 128 128 255
-0.640653 -0.805779 3.49108 0 0 0 128 128 128 255
-0.636975 -0.686915 3.4954 0 0 0 128 128 128 255
-0.586998 0.928247 3.55409 0 0 0 128 128 128 255
-0.622424 -0.186443 3.51322 0 0 0 128 128 128 255
-0.638719 -0.682836 3.49483 0 0 0 128 128 128 255
-0.636339 -0.605923 3.49762 0 0 0 128 128 128 255
-0.6309 -0.430123 3.50401 0 0 0 128 128 128 255
-0.63746 -0.611875 3.49706 0 0 0 128 128 128 255
-0.591161 0.884422 3.55143 0 0 0 128 128 128 255
-0.582383 1.1681 3.56174 0 0 0 128 128 128 255
-0.638552 -0.616827 3.49653 0 0 0 128 128 128 255
-0.638305 -0.608836 3.49682 0 0 0 128 128 128 255
-0.620255 -0.0255005 3.51802 0 0 0 128 128 128 255
-0.603039 0.530866 3.53823 0 0 0 128 128 128 255
-0.60273 0.540855 3.5386 0 0 0 128 128 128 255
-0.643601 -0.749635 3.49136 0 0 0 128 128 128 255
-0.627251 -0.221236 3.51056 0 0 0 128 128 128 255
-0.621285 -0.0284556 3.51756 0 0 0 128 128 128 255
-0.63468 -0.430956 3.5026 0 0 0 128 128 128 255
-0.593419 0.902526 3.55105 0 0 0 128 128 128 255
-0.594359 0.902568 3.55072 0 0 0 128 128 128 255
-0.62423 -0.0323269 3.51641 0 0 0 128 128 128 255
-0.623519 -0.00935306 3.51724 0 0 0 128 128 128 255
-0.60581 0.562995 3.53804 0 0 0 128 128 128 255
-0.596661 0.858659 3.54878 0 0 0 128 128 128 255
-0.642265 -0.584657 3.496 0 0 0 128 128 128 255
-0.595935 0.912639 3.55041 0 0 0 128 128 128 255
-0.591886 1.04349 3.55517 0 0 0 128 128 128 255
-0.648944 -0.739399 3.48972 0 0 0 128 128 128 255
-0.612195 0.448249 3.53288 0 0 0 128 128 128 255
-0.609383 0.539146 3.53619 0 0 0 128 128 128 255
-0.649056 -0.712388 3.49038 0 0 0 128 128 128 255
-0.634612 -0.214914 3.50814 0 0 0 128 128 128 255
-0.600366 0.891826 3.54836 0 0 0 128 128 128 255
-0.595699 1.04265 3.55384 0 0 0 128 128 128 255
-0.654661 -0.83217 3.4854 0 0 0 128 128 128 255
-0.633674 -0.153942 3.51004 0 0 0 128 128 128 255
-0.615439 0.435387 3.53146 0 0 0 128 128 128 255
-0.602211 0.8629 3.54699 0 0 0 128 128 128 255
-0.601623 0.881879 3.54768 0 0 0 128 128 128 255
-0.593124 1.15657 3.55767 0 0 0 128 128 128 255
-0.655208 -0.819144 3.48556 0 0 0 128 128 128 255
-0.614596 0.493362 3.53325 0 0 0 128 128 128 255
-0.656221 -0.821101 3.48518 0 0 0 128 128 128 255
-0.657389 -0.828053 3.48462 0 0 0 128 128 128 255
-0.656399 -0.796089 3.48578 0 0 0 128 128 128 255
-0.658063 -0.819023 3.48464 0 0 0 128 128 128 255
-0.657321 -0.79505 3.48551 0 0 0 128 128 128 255
-0.655591 -0.739114 3.48755 0 0 0 128 128 128 255
-0.641338 -0.247633 3.50511 0 0 0 128 128 128 255
-0.617261 0.530481 3.53338 0 0 0 128 128 128 255
-0.616426 0.557451 3.53436 0 0 0 128 128 128 255
-0.612315 0.690299 3.53919 0 0 0 128 128 128 255
-0.617288 0.560488 3.53418 0 0 0 128 128 128 255
-0.614074 0.664369 3.53795 0 0 0 128 128 128 255
-0.613456 0.684347 3.53868 0 0 0 128 128 128 255
-0.657991 -0.72401 3.48721 0 0 0 128 128 128 255
-0.644731 -0.295498 3.50278 0 0 0 128 128 128 255
-0.6154 0.652423 3.53722 0 0 0 128 128 128 255
-0.620437 0.520613 3.53214 0 0 0 128 128 128 255
-0.611041 0.855272 3.54402 0 0 0 128 128 128 255
-0.646461 -0.25842 3.50327 0 0 0 128 128 128 255
-0.638549 -0.00271105 3.51256 0 0 0 128 128 128 255
-0.613483 0.807367 3.542 0 0 0 128 128 128 255
-0.612123 0.851317 3.54359 0 0 0 128 128 128 255
-0.66476 -0.818742 3.48262 0 0 0 128 128 128 255
-0.627179 0.42688 3.52761 0 0 0 128 128 128 255
-0.626931 0.434871 3.5279 0 0 0 128 128 128 255
-0.626159 0.459842 3.52881 0 0 0 128 128 128 255
-0.613614 0.896385 3.5444 0 0 0 128 128 128 255
-0.608916 1.04821 3.54992 0 0 0 128 128 128 255
-0.608854 1.05021 3.54999 0 0 0 128 128 128 255
-0.619707 0.730613 3.53811 0 0 0 128 128 128 255
-0.61334 0.936379 3.54558 0 0 0 128 128 128 255
-0.665919 -0.731683 3.4847 0 0 0 128 128 128 255
-0.648271 -0.161332 3.50543 0 0 0 128 128 128 255
-0.66917 -0.805559 3.48175 0 0 0 128 128 128 255
-0.669047 -0.801564 3.4819 0 0 0 128 128 128 255
-0.665863 -0.698681 3.48564 0 0 0 128 128 128 255
-0.626054 0.587855 3.53239 0 0 0 128 128 128 255
-0.622345 0.707718 3.53675 0 0 0 128 128 128 255
-0.61706 0.878524 3.54295 0 0 0 128 128 128 255
-0.613011 1.00937 3.54771 0 0 0 128 128 128 255
-0.628604 0.567956 3.53115 0 0 0 128 128 128 255
-0.626069 0.649862 3.53413 0 0 0 128 128 128 255
-0.618126 0.90657 3.54345 0 0 0 128 128 128 255
-0.615035 1.00646 3.54708 0 0 0 128 128 128 255
-0.655657 -0.275046 3.50026 0 0 0 128 128 128 255
-0.63192 0.492081 3.52814 0 0 0 128 128 128 255
-0.616281 0.997506 3.54651 0 0 0 128 128 128 255
-0.614581 1.05244 3.5485 0 0 0 128 128 128 255
-0.61455 1.05344 3.54854 0 0 0 128 128 128 255
-0.653812 -0.18411 3.50332 0 0 0 128 128 128 255
-0.622935 0.813754 3.53958 0 0 0 128 128 128 255
-0.661117 -0.388838 3.49563 0 0 0 128 128 128 255
-0.655801 -0.217034 3.50187 0 0 0 128 128 128 255
-0.622451 0.860739 3.54104 0 0 0 128 128 128 255
-0.622679 0.884751 3.54167 0 0 0 128 128 128 255
-0.619372 0.991629 3.54555 0 0 0 128 128 128 255
-0.669702 -0.603516 3.48735 0 0 0 128 128 128 255
-0.637929 0.423315 3.52466 0 0 0 128 128 128 255
-0.631067 0.645062 3.53272 0 0 0 128 128 128 255
-0.630326 0.669035 3.53359 0 0 0 128 128 128 255
-0.620157 0.997661 3.54553 0 0 0 128 128 128 255
-0.637973 0.453319 3.52551 0 0 0 128 128 128 255
-0.624435 0.890821 3.54141 0 0 0 128 128 128 255
-0.630538 0.725049 3.53516 0 0 0 128 128 128 255
-0.621884 1.00473 3.54532 0 0 0 128 128 128 255
-0.678923 -0.807169 3.47925 0 0 0 128 128 128 255
-0.675739 -0.704286 3.48298 0 0 0 128 128 128 255
-0.66112 -0.231824 3.50015 0 0 0 128 128 128 255
-0.634169 0.639185 3.53181 0 0 0 128 128 128 255
-0.639037 0.513366 3.52701 0 0 0 128 128 128 255
-0.680778 -0.804096 3.47891 0 0 0 128 128 128 255
-0.660317 -0.142848 3.50294 0 0 0 128 128 128 255
-0.638589 0.559352 3.52846 0 0 0 128 128 128 255
-0.636024 0.642258 3.53147 0 0 0 128 128 128 255
-0.679033 -0.716158 3.48188 0 0 0 128 128 128 255
-0.661633 -0.153798 3.50232 0 0 0 128 128 128 255
-0.661602 -0.152799 3.50236 0 0 0 128 128 128 255
-0.657089 -0.00696492 3.50766 0 0 0 128 128 128 255
-0.630014 0.868039 3.53945 0 0 0 128 128 128 255
-0.680133 -0.720115 3.48152 0 0 0 128 128 128 255
-0.634792 0.745217 3.53477 0 0 0 128 128 128 255
-0.681851 -0.74405 3.48044 0 0 0 128 128 128 255
-0.666336 -0.242621 3.49866 0 0 0 128 128 128 255
-0.664976 -0.198671 3.50026 0 0 0 128 128 128 255
-0.64569 0.42462 3.52291 0 0 0 128 128 128 255
-0.636634 0.717287 3.53355 0 0 0 128 128 128 255
-0.636356 0.726277 3.53387 0 0 0 128 128 128 255
-0.635954 0.739262 3.53434 0 0 0 128 128 128 255
-0.678131 -0.592185 3.48575 0 0 0 128 128 128 255
-0.66549 -0.18365 3.5006 0 0 0 128 128 128 255
-0.659803 0.000140816 3.50728 0 0 0 128 128 128 255
-0.637642 0.716326 3.5333 0 0 0 128 128 128 255
-0.62633 1.08191 3.54659 0 0 0 128 128 128 255
-0.681952 -0.684043 3.48221 0 0 0 128 128 128 255
-0.679171 -0.594145 3.48547 0 0 0 128 128 128 255
-0.678676 -0.578163 3.48605 0 0 0 128 128 128 255
-0.673205 -0.401364 3.49248 0 0 0 128 128 128 255
-0.668693 -0.25553 3.49778 0 0 0 128 128 128 255
-0.642916 0.577521 3.52805 0 0 0 128 128 128 255
-0.638898 0.707374 3.53277 0 0 0 128 128 128 255
-0.62839 1.04699 3.54511 0 0 0 128 128 128 255
-0.626154 1.15091 3.54868 0 0 0 128 128 128 255
-0.648398 0.463726 3.52351 0 0 0 128 128 128 255
-0.67568 -0.386269 3.49243 0 0 0 128 128 128 255
-0.675278 -0.373284 3.4929 0 0 0 128 128 128 255
-0.669221 -0.177507 3.50001 0 0 0 128 128 128 255
-0.64774 0.516703 3.52524 0 0 0 128 128 128 255
-0.640137 0.762424 3.53417 0 0 0 128 128 128 255
-0.63071 1.06708 3.54524 0 0 0 128 128 128 255
-0.630308 1.08006 3.54571 0 0 0 128 128 128 255
-0.630246 1.08206 3.54579 0 0 0 128 128 128 255
-0.628175 1.14898 3.54822 0 0 0 128 128 128 255
-0.688066 -0.754812 3.47884 0 0 0 128 128 128 255
-0.683399 -0.603984 3.48432 0 0 0 128 128 128 255
-0.651255 0.434834 3.52207 0 0 0 128 128 128 255
-0.648134 0.535719 3.52574 0 0 0 128 128 128 255
-0.6371 0.892313 3.5387 0 0 0 128 128 128 255
-0.631969 1.05812 3.54472 0 0 0 128 128 128 255
-0.631753 1.06512 3.54498 0 0 0 128 128 128 255
-0.629373 1.14203 3.54777 0 0 0 128 128 128 255
-0.69084 -0.812709 3.47655 0 0 0 128 128 128 255
-0.687317 -0.698838 3.48069 0 0 0 128 128 128 255
-0.648157 0.566721 3.52668 0 0 0 128 128 128 255
-0.639279 0.885395 3.53807 0 0 0 128 128 128 255
-0.631553 1.13511 3.54715 0 0 0 128 128 128 255
-0.631367 1.1411 3.54736 0 0 0 128 128 128 255
-0.692867 -0.814632 3.47611 0 0 0 128 128 128 255
-0.68616 -0.597879 3.48399 0 0 0 128 128 128 255
-0.653738 0.449928 3.52207 0 0 0 128 128 128 255
-0.694702 -0.746563 3.47789 0 0 0 128 128 128 255
-0.694053 -0.725587 3.47865 0 0 0 128 128 128 255
-0.659557 0.421144 3.52016 0 0 0 128 128 128 255
-0.687711 -0.45682 3.48809 0 0 0 128 128 128 255
-0.685733 -0.392893 3.49041 0 0 0 128 128 128 255
-0.655876 0.572009 3.52548 0 0 0 128 128 128 255
-0.699485 -0.805387 3.47527 0 0 0 128 128 128 255
-0.691696 -0.553673 3.48441 0 0 0 128 128 128 255
-0.657265 0.55906 3.52485 0 0 0 128 128 128 255
-0.696609 -0.680493 3.47965 0 0 0 128 128 128 255
-0.681464 -0.19105 3.49743 0 0 0 128 128 128 255
-0.647744 0.89871 3.53704 0 0 0 128 128 128 255
-0.697906 -0.690445 3.47913 0 0 0 128 128 128 255
-0.697349 -0.672466 3.47979 0 0 0 128 128 128 255
-0.665793 0.347373 3.51685 0 0 0 128 128 128 255
-0.65343 0.746919 3.53137 0 0 0 128 128 128 255
-0.653152 0.755908 3.53169 0 0 0 128 128 128 255
-0.64697 0.955681 3.53895 0 0 0 128 128 128 255
-0.699512 -0.710387 3.47826 0 0 0 128 128 128 255
-0.664958 0.438342 3.51986 0 0 0 128 128 128 255
-0.644806 1.0896 3.54353 0 0 0 128 128 128 255
-0.665514 0.452361 3.52023 0 0 0 128 128 128 255
-0.655933 0.762009 3.53148 0 0 0 128 128 128 255
-0.651297 0.911839 3.53693 0 0 0 128 128 128 255
-0.702171 -0.700291 3.4782 0 0 0 128 128 128 255
-0.701522 -0.679315 3.47897 0 0 0 128 128 128 255
-0.698524 -0.582425 3.48249 0 0 0 128 128 128 255
-0.667402 0.455429 3.52007 0 0 0 128 128 128 255
-0.648394 1.06973 3.54239 0 0 0 128 128 128 255
-0.705915 -0.757155 3.47587 0 0 0 128 128 128 255
-0.699331 -0.544397 3.4836 0 0 0 128 128 128 255
-0.659216 0.784126 3.53175 0 0 0 128 128 128 255
-0.671241 0.427567 3.51867 0 0 0 128 128 128 255
-0.710188 -0.799002 3.47398 0 0 0 128 128 128 255
-0.703017 -0.567266 3.4824 0 0 0 128 128 128 255
-0.699339 -0.448401 3.48672 0 0 0 128 128 128 255
-0.660241 0.815161 3.53263 0 0 0 128 128 128 255
-0.711459 -0.807957 3.47353 0 0 0 128 128 128 255
-0.707719 -0.687094 3.47793 0 0 0 128 128 128 255
-0.698137 -0.377447 3.48918 0 0 0 128 128 128 255
-0.670444 0.517534 3.5217 0 0 0 128 128 128 255
-0.653785 1.05592 3.54127 0 0 0 128 128 128 255
-0.653538 1.06391 3.54156 0 0 0 128 128 128 255
-0.713008 -0.825901 3.47277 0 0 0 128 128 128 255
-0.704261 -0.543223 3.48304 0 0 0 128 128 128 255
-0.687571 -0.00383721 3.50264 0 0 0 128 128 128 255
-0.683244 0.136004 3.50772 0 0 0 128 128 128 255
-0.66266 0.801246 3.5319 0 0 0 128 128 128 255
-0.714902 -0.822835 3.47266 0 0 0 128 128 128 255
-0.707794 -0.593097 3.48101 0 0 0 128 128 128 255
-0.707423 -0.581111 3.48144 0 0 0 128 128 128 255
-0.656549 1.06302 3.54119 0 0 0 128 128 128 255
-0.66629 0.780374 3.53082 0 0 0 128 128 128 255
-0.665857 0.794358 3.53132 0 0 0 128 128 128 255
-0.687281 0.134144 3.50723 0 0 0 128 128 128 255
-0.667284 0.780409 3.53072 0 0 0 128 128 128 255
-0.663019 0.918252 3.53573 0 0 0 128 128 128 255
-0.658754 1.05609 3.54074 0 0 0 128 128 128 255
-0.669856 0.729501 3.52877 0 0 0 128 128 128 255
-0.664045 0.917287 3.53559 0 0 0 128 128 128 255
-0.716037 -0.730803 3.47561 0 0 0 128 128 128 255
-0.709732 -0.527035 3.48301 0 0 0 128 128 128 255
-0.695886 -0.0795442 3.49928 0 0 0 128 128 128 255
-0.679412 0.45285 3.51862 0 0 0 128 128 128 255
-0.715796 -0.690814 3.47697 0 0 0 128 128 128 255
-0.710882 -0.531995 3.48274 0 0 0 128 128 128 255
-0.673484 0.676629 3.52666 0 0 0 128 128 128 255
-0.677849 0.567787 3.52262 0 0 0 128 128 128 255
-0.710154 -0.444027 3.48577 0 0 0 128 128 128 255
-0.709011 -0.407069 3.48711 0 0 0 128 128 128 255
-0.674734 0.70067 3.52737 0 0 0 128 128 128 255
-0.71054 -0.392019 3.4875 0 0 0 128 128 128 255
-0.704018 -0.181259 3.49516 0 0 0 128 128 128 255
-0.682476 0.514948 3.52046 0 0 0 128 128 128 255
-0.720284 -0.674664 3.47716 0 0 0 128 128 128 255
-0.718151 -0.605742 3.47966 0 0 0 128 128 128 255
-0.702543 -0.101317 3.49799 0 0 0 128 128 128 255
-0.670059 0.948488 3.53614 0 0 0 128 128 128 255
-0.665454 1.09732 3.54155 0 0 0 128 128 128 255
-0.703447 -0.0982867 3.49803 0 0 0 128 128 128 255
-0.687252 0.425117 3.51706 0 0 0 128 128 128 255
-0.682214 0.587932 3.52297 0 0 0 128 128 128 255
-0.667285 1.07038 3.5405 0 0 0 128 128 128 255
-0.72438 -0.74252 3.47456 0 0 0 128 128 128 255
-0.719156 -0.573712 3.48069 0 0 0 128 128 128 255
-0.716931 -0.501794 3.48331 0 0 0 128 128 128 255
-0.706639 -0.169173 3.49539 0 0 0 128 128 128 255
-0.727386 -0.807413 3.47214 0 0 0 128 128 128 255
-0.679418 0.742822 3.52847 0 0 0 128 128 128 255
-0.67302 0.949587 3.53599 0 0 0 128 128 128 255
-0.6686 1.09242 3.54118 0 0 0 128 128 128 255
-0.705945 -0.0822056 3.49843 0 0 0 128 128 128 255
-0.689966 0.434207 3.5172 0 0 0 128 128 128 255
-0.670556 1.06149 3.53999 0 0 0 128 128 128 255
-0.666816 1.18235 3.54438 0 0 0 128 128 128 255
-0.679714 0.797826 3.53036 0 0 0 128 128 128 255
-0.723581 -0.587565 3.47996 0 0 0 128 128 128 255
-0.723148 -0.573581 3.48047 0 0 0 128 128 128 255
-0.720892 -0.500664 3.48312 0 0 0 128 128 128 255
-0.71709 -0.377803 3.48758 0 0 0 128 128 128 255
-0.681114 0.784873 3.52983 0 0 0 128 128 128 255
-0.720004 -0.4397 3.48528 0 0 0 128 128 128 255
-0.684059 0.721977 3.5275 0 0 0 128 128 128 255
-0.730337 -0.741324 3.47428 0 0 0 128 128 128 255
-0.72873 -0.689384 3.47616 0 0 0 128 128 128 255
-0.679154 0.912793 3.53439 0 0 0 128 128 128 255
-0.708557 -0.00513004 3.50099 0 0 0 128 128 128 255
-0.681111 0.88186 3.53322 0 0 0 128 128 128 255
-0.680215 0.910827 3.53427 0 0 0 128 128 128 255
-0.680122 0.913824 3.53438 0 0 0 128 128 128 255
-0.731376 -0.710295 3.47532 0 0 0 128 128 128 255
-0.692093 0.55926 3.52146 0 0 0 128 128 128 255
-0.675217 1.10464 3.54128 0 0 0 128 128 128 255
-0.694328 0.519338 3.51997 0 0 0 128 128 128 255
-0.736372 -0.807121 3.47174 0 0 0 128 128 128 255
-0.698109 0.429472 3.51667 0 0 0 128 128 128 255
-0.684231 0.877961 3.53297 0 0 0 128 128 128 255
-0.68281 0.923909 3.53464 0 0 0 128 128 128 255
-0.675145 1.17163 3.54364 0 0 0 128 128 128 255
-0.69917 0.427506 3.51658 0 0 0 128 128 128 255
-0.698057 0.463465 3.51788 0 0 0 128 128 128 255
-0.69271 0.636268 3.52416 0 0 0 128 128 128 255
-0.683778 0.92494 3.53465 0 0 0 128 128 128 255
-0.730953 -0.56733 3.4804 0 0 0 128 128 128 255
-0.729346 -0.515389 3.48229 0 0 0 128 128 128 255
-0.699675 0.44352 3.51713 0 0 0 128 128 128 255
-0.687064 0.851056 3.53194 0 0 0 128 128 128 255
-0.726821 -0.401487 3.4864 0 0 0 128 128 128 255
-0.698181 0.556454 3.5212 0 0 0 128 128 128 255
-0.688661 0.864104 3.53238 0 0 0 128 128 128 255
-0.682541 1.06188 3.53956 0 0 0 128 128 128 255
