ply
format ascii 1.0
comment VCGLIB generated
element vertex 479
property float x
property float y
property float z
property float nx
property float ny
property float nz
property uchar red
property uchar green
property uchar blue
property uchar alpha
element face 0
property list uchar int vertex_indices
end_header
0.401253 1.06836 4.46962 0 0 0 255 255 0 255
0.417567 1.01126 4.43281 0 0 0 255 255 0 255
0.417632 0.985462 4.42768 0 0 0 255 255 0 255
0.425961 1.01486 4.41367 0 0 0 255 255 0 255
0.377041 0.236783 4.36719 0 0 0 255 255 0 255
0.383791 0.343387 4.37343 0 0 0 255 255 0 255
0.382601 0.303671 4.36733 0 0 0 255 255 0 255
0.376287 0.179312 4.35529 0 0 0 255 255 0 255
0.386662 0.333812 4.36243 0 0 0 255 255 0 255
0.377924 0.173598 4.34825 0 0 0 255 255 0 255
0.401246 0.521507 4.36378 0 0 0 255 255 0 255
0.402252 0.533504 4.36351 0 0 0 255 255 0 255
0.432508 1.00384 4.3891 0 0 0 255 255 0 255
0.396521 0.421174 4.35109 0 0 0 255 255 0 255
0.375252 0.0785331 4.32908 0 0 0 255 255 0 255
0.414206 0.687363 4.36275 0 0 0 255 255 0 255
0.382172 0.178296 4.33197 0 0 0 255 255 0 255
0.38161 0.166386 4.3303 0 0 0 255 255 0 255
0.379467 0.129568 4.32716 0 0 0 255 255 0 255
0.381864 0.167427 4.32937 0 0 0 255 255 0 255
0.407021 0.559066 4.35033 0 0 0 255 255 0 255
0.394519 0.358856 4.33762 0 0 0 255 255 0 255
0.417606 0.723503 4.35897 0 0 0 255 255 0 255
0.394418 0.351975 4.33525 0 0 0 255 255 0 255
0.387391 0.238444 4.32761 0 0 0 255 255 0 255
0.437917 1.03648 4.37433 0 0 0 255 255 0 255
0.400951 0.447763 4.33789 0 0 0 255 255 0 255
0.399127 0.410099 4.33172 0 0 0 255 255 0 255
0.377498 0.0644812 4.3095 0 0 0 255 255 0 255
0.406136 0.516803 4.33598 0 0 0 255 255 0 255
0.378421 0.0735996 4.30705 0 0 0 255 255 0 255
0.380149 0.0976136 4.30646 0 0 0 255 255 0 255
0.379364 0.0808328 4.30249 0 0 0 255 255 0 255
0.378397 0.0630051 4.29945 0 0 0 255 255 0 255
0.449198 1.17615 4.35961 0 0 0 255 255 0 255
0.437382 0.987955 4.34659 0 0 0 255 255 0 255
0.398066 0.366317 4.30921 0 0 0 255 255 0 255
0.45696 1.29592 4.36262 0 0 0 255 255 0 255
0.38004 0.0804897 4.29047 0 0 0 255 255 0 255
0.447282 1.14255 4.35264 0 0 0 255 255 0 255
0.386443 0.181173 4.29537 0 0 0 255 255 0 255
0.394139 0.302722 4.30248 0 0 0 255 255 0 255
0.384578 0.15134 4.29262 0 0 0 255 255 0 255
0.439498 1.01824 4.34136 0 0 0 255 255 0 255
0.449604 1.1777 4.34969 0 0 0 255 255 0 255
0.386273 0.177708 4.28615 0 0 0 255 255 0 255
0.420777 0.722686 4.31805 0 0 0 255 255 0 255
0.440804 1.03963 4.3346 0 0 0 255 255 0 255
0.394675 0.312508 4.28903 0 0 0 255 255 0 255
0.403127 0.446013 4.29685 0 0 0 255 255 0 255
0.403443 0.450994 4.29714 0 0 0 255 255 0 255
0.395963 0.333491 4.28926 0 0 0 255 255 0 255
0.4041 0.462014 4.29678 0 0 0 255 255 0 255
0.437643 0.999517 4.32024 0 0 0 255 255 0 255
0.400268 0.411825 4.28385 0 0 0 255 255 0 255
0.389801 0.252673 4.27054 0 0 0 255 255 0 255
0.404057 0.477837 4.28372 0 0 0 255 255 0 255
0.394571 0.33151 4.27317 0 0 0 255 255 0 255
0.404663 0.490919 4.2825 0 0 0 255 255 0 255
0.405369 0.503936 4.28226 0 0 0 255 255 0 255
0.39382 0.331906 4.26723 0 0 0 255 255 0 255
0.403223 0.48753 4.27336 0 0 0 255 255 0 255
0.428099 0.899481 4.29056 0 0 0 255 255 0 255
0.427053 0.909007 4.28327 0 0 0 255 255 0 255
0.428156 0.93 4.28353 0 0 0 255 255 0 255
0.425572 0.900325 4.27887 0 0 0 255 255 0 255
0.393146 0.416629 4.24377 0 0 0 255 255 0 255
0.393633 0.428658 4.24351 0 0 0 255 255 0 255
0.388411 0.355079 4.23728 0 0 0 255 255 0 255
0.423346 0.930318 4.26616 0 0 0 255 255 0 255
0.391754 0.436226 4.23628 0 0 0 255 255 0 255
0.428724 1.02512 4.2698 0 0 0 255 255 0 255
0.372701 0.15557 4.21606 0 0 0 255 255 0 255
0.419152 0.91613 4.25586 0 0 0 255 255 0 255
0.392336 0.503815 4.22985 0 0 0 255 255 0 255
0.443052 1.30484 4.27674 0 0 0 255 255 0 255
0.443115 1.30584 4.27679 0 0 0 255 255 0 255
0.384743 0.395372 4.22163 0 0 0 255 255 0 255
0.404991 0.715185 4.24035 0 0 0 255 255 0 255
0.424671 1.02603 4.25855 0 0 0 255 255 0 255
0.412203 0.840874 4.24585 0 0 0 255 255 0 255
0.403436 0.720556 4.23602 0 0 0 255 255 0 255
0.410493 0.838198 4.24198 0 0 0 255 255 0 255
0.407299 0.819662 4.23631 0 0 0 255 255 0 255
0.365222 0.209566 4.19335 0 0 0 255 255 0 255
0.380095 0.503126 4.20342 0 0 0 255 255 0 255
0.364523 0.280198 4.18774 0 0 0 255 255 0 255
0.426819 1.30381 4.24331 0 0 0 255 255 0 255
0.384307 0.673565 4.20214 0 0 0 255 255 0 255
0.394148 0.828988 4.21123 0 0 0 255 255 0 255
0.423176 1.30439 4.23736 0 0 0 255 255 0 255
0.367013 0.451888 4.1841 0 0 0 255 255 0 255
0.364645 0.432129 4.18127 0 0 0 255 255 0 255
0.377779 0.657461 4.19281 0 0 0 255 255 0 255
0.360055 0.38655 4.17612 0 0 0 255 255 0 255
0.388249 0.840949 4.2019 0 0 0 255 255 0 255
0.359392 0.412791 4.17439 0 0 0 255 255 0 255
0.358912 0.423919 4.17342 0 0 0 255 255 0 255
0.358067 0.420018 4.17238 0 0 0 255 255 0 255
0.358291 0.433054 4.17234 0 0 0 255 255 0 255
0.356934 0.421183 4.17085 0 0 0 255 255 0 255
0.35585 0.423345 4.16938 0 0 0 255 255 0 255
0.367649 0.668945 4.17905 0 0 0 255 255 0 255
0.327677 0.140761 4.14051 0 0 0 255 255 0 255
0.373913 0.871051 4.18326 0 0 0 255 255 0 255
0.345261 0.483007 4.15612 0 0 0 255 255 0 255
0.338586 0.410534 4.1497 0 0 0 255 255 0 255
0.345143 0.525195 4.1557 0 0 0 255 255 0 255
0.349496 0.59394 4.15972 0 0 0 255 255 0 255
0.340839 0.479536 4.1516 0 0 0 255 255 0 255
0.336284 0.418848 4.14734 0 0 0 255 255 0 255
0.33824 0.449733 4.14915 0 0 0 255 255 0 255
0.334799 0.418023 4.14589 0 0 0 255 255 0 255
0.345459 0.586398 4.15574 0 0 0 255 255 0 255
0.338914 0.50587 4.14964 0 0 0 255 255 0 255
0.337119 0.489018 4.14796 0 0 0 255 255 0 255
0.342323 0.582757 4.15276 0 0 0 255 255 0 255
0.330666 0.433569 4.14198 0 0 0 255 255 0 255
0.335605 0.523322 4.14656 0 0 0 255 255 0 255
0.338545 0.605277 4.14936 0 0 0 255 255 0 255
0.341321 0.649114 4.15192 0 0 0 255 255 0 255
0.335083 0.562522 4.14619 0 0 0 255 255 0 255
0.338745 0.632349 4.14962 0 0 0 255 255 0 255
0.321904 0.378377 4.1341 0 0 0 255 255 0 255
0.335718 0.596568 4.14688 0 0 0 255 255 0 255
0.335779 0.609605 4.14699 0 0 0 255 255 0 255
0.334505 0.613762 4.14594 0 0 0 255 255 0 255
0.330646 0.565029 4.14245 0 0 0 255 255 0 255
0.353513 0.95077 4.16376 0 0 0 255 255 0 255
0.320188 0.436763 4.13304 0 0 0 255 255 0 255
0.322247 0.481683 4.13505 0 0 0 255 255 0 255
0.315791 0.41718 4.12942 0 0 0 255 255 0 255
0.331212 0.673315 4.1438 0 0 0 255 255 0 255
0.319506 0.50104 4.13311 0 0 0 255 255 0 255
0.32411 0.57377 4.13736 0 0 0 255 255 0 255
0.347071 0.936425 4.15859 0 0 0 255 255 0 255
0.320749 0.546045 4.13454 0 0 0 255 255 0 255
0.319143 0.546216 4.13336 0 0 0 255 255 0 255
0.320215 0.563153 4.13435 0 0 0 255 255 0 255
0.310766 0.426744 4.12577 0 0 0 255 255 0 255
0.317011 0.525378 4.13155 0 0 0 255 255 0 255
0.30819 0.398933 4.12356 0 0 0 255 255 0 255
0.308506 0.403915 4.12385 0 0 0 255 255 0 255
0.309018 0.424922 4.1245 0 0 0 255 255 0 255
0.340438 0.947155 4.15392 0 0 0 255 255 0 255
0.305868 0.427255 4.12235 0 0 0 255 255 0 255
0.311545 0.516922 4.1276 0 0 0 255 255 0 255
0.308512 0.482137 4.125 0 0 0 255 255 0 255
0.301605 0.41265 4.11926 0 0 0 255 255 0 255
0.307219 0.501321 4.12445 0 0 0 255 255 0 255
0.313337 0.597962 4.13011 0 0 0 255 255 0 255
0.305437 0.486461 4.12304 0 0 0 255 255 0 255
0.308465 0.534284 4.12584 0 0 0 255 255 0 255
0.310483 0.566165 4.1277 0 0 0 255 255 0 255
0.351043 1.20679 4.1652 0 0 0 255 255 0 255
0.299931 0.412819 4.11818 0 0 0 255 255 0 255
0.304341 0.522666 4.123 0 0 0 255 255 0 255
0.295545 0.397216 4.11513 0 0 0 255 255 0 255
0.307971 0.593488 4.12662 0 0 0 255 255 0 255
0.329325 0.944271 4.14663 0 0 0 255 255 0 255
0.30015 0.497015 4.11993 0 0 0 255 255 0 255
0.344431 1.19642 4.16087 0 0 0 255 255 0 255
0.302323 0.544921 4.12222 0 0 0 255 255 0 255
0.304556 0.593824 4.12457 0 0 0 255 255 0 255
0.302435 0.573982 4.1229 0 0 0 255 255 0 255
0.289955 0.60022 4.11683 0 0 0 255 255 0 255
0.299204 0.817824 4.12741 0 0 0 255 255 0 255
0.279627 0.523 4.10974 0 0 0 255 255 0 255
0.279917 0.542011 4.11043 0 0 0 255 255 0 255
0.282945 0.589834 4.11323 0 0 0 255 255 0 255
0.281404 0.579952 4.11224 0 0 0 255 255 0 255
0.278915 0.555126 4.11038 0 0 0 255 255 0 255
0.270937 0.443621 4.10345 0 0 0 255 255 0 255
0.271086 0.489694 4.10497 0 0 0 255 255 0 255
0.272375 0.568723 4.10807 0 0 0 255 255 0 255
0.297039 0.958278 4.13088 0 0 0 255 255 0 255
0.266023 0.483121 4.10269 0 0 0 255 255 0 255
0.272898 0.591718 4.10905 0 0 0 255 255 0 255
0.294109 0.941501 4.12916 0 0 0 255 255 0 255
0.294614 0.949471 4.12963 0 0 0 255 255 0 255
0.260295 0.481606 4.10048 0 0 0 255 255 0 255
0.261304 0.497547 4.10141 0 0 0 255 255 0 255
0.253805 0.39401 4.09501 0 0 0 255 255 0 255
0.285165 0.91922 4.12509 0 0 0 255 255 0 255
0.260441 0.543692 4.10278 0 0 0 255 255 0 255
0.257918 0.533886 4.10157 0 0 0 255 255 0 255
0.253816 0.484149 4.09835 0 0 0 255 255 0 255
0.255078 0.504075 4.09951 0 0 0 255 255 0 255
0.24883 0.420463 4.09431 0 0 0 255 255 0 255
0.296959 1.18064 4.13881 0 0 0 255 255 0 255
0.296323 1.1857 4.1388 0 0 0 255 255 0 255
0.254858 0.576196 4.10223 0 0 0 255 255 0 255
0.25612 0.596122 4.1034 0 0 0 255 255 0 255
0.249424 0.505536 4.09781 0 0 0 255 255 0 255
0.252325 0.551366 4.10049 0 0 0 255 255 0 255
0.252578 0.555351 4.10073 0 0 0 255 255 0 255
0.249349 0.519561 4.09835 0 0 0 255 255 0 255
0.248769 0.525616 4.09843 0 0 0 255 255 0 255
0.240414 0.424146 4.09194 0 0 0 255 255 0 255
0.249812 0.572595 4.10063 0 0 0 255 255 0 255
0.239451 0.424222 4.09168 0 0 0 255 255 0 255
0.246732 0.569834 4.09969 0 0 0 255 255 0 255
0.23744 0.438397 4.09175 0 0 0 255 255 0 255
0.239647 0.473268 4.09379 0 0 0 255 255 0 255
0.247848 0.602787 4.10137 0 0 0 255 255 0 255
0.267066 0.92168 4.11979 0 0 0 255 255 0 255
0.268769 0.94858 4.12136 0 0 0 255 255 0 255
0.233675 0.409655 4.08957 0 0 0 255 255 0 255
0.237689 0.488438 4.09395 0 0 0 255 255 0 255
0.281718 1.18386 4.13465 0 0 0 255 255 0 255
0.23663 0.502536 4.09431 0 0 0 255 255 0 255
0.236603 0.517555 4.09496 0 0 0 255 255 0 255
0.239 0.555415 4.09718 0 0 0 255 255 0 255
0.263538 0.942977 4.11986 0 0 0 255 255 0 255
0.239604 0.580397 4.09842 0 0 0 255 255 0 255
0.263069 0.951021 4.12012 0 0 0 255 255 0 255
0.235698 0.549659 4.09619 0 0 0 255 255 0 255
0.227026 0.428184 4.08888 0 0 0 255 255 0 255
0.260206 0.952239 4.11955 0 0 0 255 255 0 255
0.272443 1.17655 4.13228 0 0 0 255 255 0 255
0.221408 0.401576 4.08654 0 0 0 255 255 0 255
0.221689 0.421575 4.08752 0 0 0 255 255 0 255
0.231466 0.576002 4.09656 0 0 0 255 255 0 255
0.268773 1.18083 4.13179 0 0 0 255 255 0 255
0.224077 0.490465 4.0912 0 0 0 255 255 0 255
0.240856 0.755481 4.10671 0 0 0 255 255 0 255
0.23552 0.686808 4.10252 0 0 0 255 255 0 255
0.266113 1.17002 4.13081 0 0 0 255 255 0 255
0.218262 0.429834 4.08731 0 0 0 255 255 0 255
0.26127 1.18738 4.13089 0 0 0 255 255 0 255
0.245479 0.96933 4.11785 0 0 0 255 255 0 255
0.215366 0.525119 4.0916 0 0 0 255 255 0 255
0.228297 0.729361 4.10355 0 0 0 255 255 0 255
0.242111 0.947552 4.11632 0 0 0 255 255 0 255
0.250942 1.08703 4.12449 0 0 0 255 255 0 255
0.206301 0.397662 4.08401 0 0 0 255 255 0 255
0.213555 0.512237 4.09072 0 0 0 255 255 0 255
0.218917 0.596923 4.09568 0 0 0 255 255 0 255
0.255331 1.1878 4.13015 0 0 0 255 255 0 255
0.239407 0.967755 4.11705 0 0 0 255 255 0 255
0.214129 0.584247 4.0945 0 0 0 255 255 0 255
0.221399 0.714831 4.10204 0 0 0 255 255 0 255
0.23433 0.919073 4.114 0 0 0 255 255 0 255
0.235781 0.941988 4.11534 0 0 0 255 255 0 255
0.21651 0.669137 4.09918 0 0 0 255 255 0 255
0.221177 0.742863 4.1035 0 0 0 255 255 0 255
0.200439 0.431088 4.08517 0 0 0 255 255 0 255
0.230969 0.913299 4.11339 0 0 0 255 255 0 255
0.217499 0.732106 4.10263 0 0 0 255 255 0 255
0.208366 0.60365 4.09504 0 0 0 255 255 0 255
0.243086 1.18363 4.12886 0 0 0 255 255 0 255
0.196951 0.502358 4.08882 0 0 0 255 255 0 255
0.197227 0.538356 4.09085 0 0 0 255 255 0 255
0.197618 0.560339 4.0921 0 0 0 255 255 0 255
0.199699 0.593217 4.09403 0 0 0 255 255 0 255
0.194475 0.52653 4.09009 0 0 0 255 255 0 255
0.212011 0.803502 4.10631 0 0 0 255 255 0 255
0.18635 0.414012 4.08348 0 0 0 255 255 0 255
0.203782 0.721001 4.10141 0 0 0 255 255 0 255
0.233051 1.18329 4.12847 0 0 0 255 255 0 255
0.207011 0.787817 4.10531 0 0 0 255 255 0 255
0.181097 0.394341 4.08227 0 0 0 255 255 0 255
0.202606 0.73408 4.10216 0 0 0 255 255 0 255
0.230929 1.18142 4.12835 0 0 0 255 255 0 255
0.221857 1.05396 4.12088 0 0 0 255 255 0 255
0.191905 0.596716 4.09412 0 0 0 255 255 0 255
0.201241 0.744169 4.10275 0 0 0 255 255 0 255
0.222562 1.08092 4.12246 0 0 0 255 255 0 255
0.180436 0.431393 4.08445 0 0 0 255 255 0 255
0.189141 0.568882 4.0925 0 0 0 255 255 0 255
0.186377 0.541048 4.09088 0 0 0 255 255 0 255
0.226558 1.17569 4.12803 0 0 0 255 255 0 255
0.196481 0.71646 4.10116 0 0 0 255 255 0 255
0.174667 0.387741 4.08194 0 0 0 255 255 0 255
0.17738 0.430582 4.08445 0 0 0 255 255 0 255
0.210255 0.965659 4.1158 0 0 0 255 255 0 255
0.22388 1.18086 4.12839 0 0 0 255 255 0 255
0.224574 1.19182 4.12903 0 0 0 255 255 0 255
0.186171 0.601073 4.09449 0 0 0 255 255 0 255
0.171056 0.393963 4.08244 0 0 0 255 255 0 255
0.202406 0.889126 4.11142 0 0 0 255 255 0 255
0.205875 0.943923 4.11463 0 0 0 255 255 0 255
0.206001 0.945915 4.11474 0 0 0 255 255 0 255
0.174802 0.484748 4.08784 0 0 0 255 255 0 255
0.179218 0.554489 4.09192 0 0 0 255 255 0 255
0.168583 0.418115 4.08405 0 0 0 255 255 0 255
0.164222 0.412372 4.08399 0 0 0 255 255 0 255
0.172674 0.545877 4.0918 0 0 0 255 255 0 255
0.166411 0.494242 4.08903 0 0 0 255 255 0 255
0.184278 0.792194 4.10657 0 0 0 255 255 0 255
0.191422 0.920774 4.11419 0 0 0 255 255 0 255
0.156131 0.394839 4.08362 0 0 0 255 255 0 255
0.162916 0.533437 4.09196 0 0 0 255 255 0 255
0.15898 0.502662 4.0904 0 0 0 255 255 0 255
0.152061 0.409065 4.08506 0 0 0 255 255 0 255
0.161523 0.55851 4.0938 0 0 0 255 255 0 255
0.157885 0.51672 4.09149 0 0 0 255 255 0 255
0.164066 0.614358 4.09721 0 0 0 255 255 0 255
0.155067 0.487881 4.08994 0 0 0 255 255 0 255
0.161816 0.594486 4.09618 0 0 0 255 255 0 255
0.169367 0.745035 4.10529 0 0 0 255 255 0 255
0.172268 0.790865 4.10797 0 0 0 255 255 0 255
0.155638 0.543835 4.09366 0 0 0 255 255 0 255
0.166172 0.710218 4.1034 0 0 0 255 255 0 255
0.167749 0.735125 4.10486 0 0 0 255 255 0 255
0.156545 0.573777 4.09557 0 0 0 255 255 0 255
0.157113 0.582744 4.0961 0 0 0 255 255 0 255
0.145972 0.422392 4.08687 0 0 0 255 255 0 255
0.176401 0.918603 4.11609 0 0 0 255 255 0 255
0.177499 0.951533 4.11818 0 0 0 255 255 0 255
0.178319 0.964485 4.11894 0 0 0 255 255 0 255
0.139482 0.397743 4.08631 0 0 0 255 255 0 255
0.137838 0.433812 4.0892 0 0 0 255 255 0 255
0.143582 0.555459 4.09674 0 0 0 255 255 0 255
0.153141 0.721891 4.1067 0 0 0 255 255 0 255
0.152672 0.72991 4.10739 0 0 0 255 255 0 255
0.15151 0.726969 4.10744 0 0 0 255 255 0 255
0.150413 0.725024 4.10756 0 0 0 255 255 0 255
0.162335 0.913326 4.11858 0 0 0 255 255 0 255
0.16336 0.960247 4.1218 0 0 0 255 255 0 255
0.147252 0.721181 4.10805 0 0 0 255 255 0 255
0.126352 0.406396 4.08987 0 0 0 255 255 0 255
0.159658 0.932444 4.12066 0 0 0 255 255 0 255
0.157441 0.958531 4.12322 0 0 0 255 255 0 255
0.13956 0.706556 4.10901 0 0 0 255 255 0 255
0.169838 1.18478 4.137 0 0 0 255 255 0 255
0.131221 0.590033 4.10247 0 0 0 255 255 0 255
0.130958 0.601036 4.1034 0 0 0 255 255 0 255
0.139789 0.740518 4.11156 0 0 0 255 255 0 255
0.118584 0.420749 4.09313 0 0 0 255 255 0 255
0.119341 0.432704 4.09383 0 0 0 255 255 0 255
0.117945 0.425774 4.09371 0 0 0 255 255 0 255
0.147831 0.927996 4.12371 0 0 0 255 255 0 255
0.118552 0.525656 4.1014 0 0 0 255 255 0 255
0.144982 0.943107 4.12584 0 0 0 255 255 0 255
0.145487 0.966063 4.1275 0 0 0 255 255 0 255
0.108404 0.410207 4.09562 0 0 0 255 255 0 255
0.116247 0.5787 4.1065 0 0 0 255 255 0 255
0.103337 0.404424 4.097 0 0 0 255 255 0 255
0.112673 0.551877 4.10563 0 0 0 255 255 0 255
0.114376 0.578777 4.1072 0 0 0 255 255 0 255
0.102026 0.398485 4.09701 0 0 0 255 255 0 255
0.112434 0.562875 4.10663 0 0 0 255 255 0 255
0.112749 0.567856 4.10692 0 0 0 255 255 0 255
0.114152 0.604757 4.10944 0 0 0 255 255 0 255
0.0980412 0.423613 4.1007 0 0 0 255 255 0 255
0.0972465 0.425642 4.10121 0 0 0 255 255 0 255
0.145186 1.18283 4.14553 0 0 0 255 255 0 255
0.103266 0.53527 4.10802 0 0 0 255 255 0 255
0.0918142 0.397884 4.10117 0 0 0 255 255 0 255
0.123487 0.926988 4.13296 0 0 0 255 255 0 255
0.124259 0.967902 4.13619 0 0 0 255 255 0 255
0.0892919 0.429931 4.10512 0 0 0 255 255 0 255
0.0927612 0.484728 4.10833 0 0 0 255 255 0 255
0.11654 0.917249 4.13538 0 0 0 255 255 0 255
0.0888997 0.494847 4.1111 0 0 0 255 255 0 255
0.0883227 0.499859 4.11184 0 0 0 255 255 0 255
0.0919025 0.598581 4.11899 0 0 0 255 255 0 255
0.0817714 0.576932 4.12255 0 0 0 255 255 0 255
0.0775662 0.524153 4.11997 0 0 0 255 255 0 255
0.074209 0.498298 4.11948 0 0 0 255 255 0 255
0.0692831 0.514398 4.12412 0 0 0 255 255 0 255
0.0710493 0.542294 4.12575 0 0 0 255 255 0 255
0.0701481 0.541319 4.12624 0 0 0 255 255 0 255
0.0617027 0.486641 4.12638 0 0 0 255 255 0 255
0.0664336 0.561364 4.13075 0 0 0 255 255 0 255
0.0673186 0.601253 4.13423 0 0 0 255 255 0 255
0.0560968 0.500727 4.13187 0 0 0 255 255 0 255
0.0573995 0.596458 4.14113 0 0 0 255 255 0 255
0.0518862 0.521749 4.13738 0 0 0 255 255 0 255
0.0764447 0.934243 4.16278 0 0 0 255 255 0 255
0.0495425 0.533753 4.14061 0 0 0 255 255 0 255
0.0448555 0.483959 4.13897 0 0 0 255 255 0 255
0.0444719 0.489948 4.13997 0 0 0 255 255 0 255
0.0476281 0.575659 4.14695 0 0 0 255 255 0 255
0.0465626 0.570686 4.14732 0 0 0 255 255 0 255
0.0417783 0.506931 4.14425 0 0 0 255 255 0 255
0.0426614 0.520879 4.14507 0 0 0 255 255 0 255
0.0478339 0.602576 4.14985 0 0 0 255 255 0 255
0.0704791 0.960249 4.17079 0 0 0 255 255 0 255
0.0405926 0.499965 4.14451 0 0 0 255 255 0 255
0.0420372 0.557772 4.14992 0 0 0 255 255 0 255
0.0373368 0.540863 4.15237 0 0 0 255 255 0 255
0.0319337 0.478105 4.15009 0 0 0 255 255 0 255
0.0395031 0.597661 4.15709 0 0 0 255 255 0 255
0.0395662 0.598657 4.15715 0 0 0 255 255 0 255
0.0247044 0.49506 4.15975 0 0 0 255 255 0 255
0.0286389 0.567789 4.16475 0 0 0 255 255 0 255
0.0283179 0.583727 4.16717 0 0 0 255 255 0 255
0.0225227 0.512985 4.16454 0 0 0 255 255 0 255
0.0278213 0.596674 4.16944 0 0 0 255 255 0 255
0.0190898 0.626459 4.18445 0 0 0 255 255 0 255
0.0327148 0.841661 4.19705 0 0 0 255 255 0 255
0.0263541 0.84949 4.20735 0 0 0 255 255 0 255
0.00870819 0.638149 4.20175 0 0 0 255 255 0 255
-0.0128768 0.305366 4.18313 0 0 0 255 255 0 255
-0.00506334 0.43686 4.19169 0 0 0 255 255 0 255
0.0156082 0.848113 4.22536 0 0 0 255 255 0 255
-0.00452541 0.67617 4.23526 0 0 0 255 255 0 255
-0.0247606 0.368251 4.21909 0 0 0 255 255 0 255
-0.00685792 0.668043 4.23944 0 0 0 255 255 0 255
-0.022664 0.43481 4.22861 0 0 0 255 255 0 255
-0.0289604 0.38564 4.23521 0 0 0 255 255 0 255
-0.0223778 0.608354 4.2814 0 0 0 255 255 0 255
-0.0237531 0.595206 4.2846 0 0 0 255 255 0 255
-0.0223666 0.619067 4.28699 0 0 0 255 255 0 255
-0.0225959 0.620908 4.29008 0 0 0 255 255 0 255
-0.0282562 0.533182 4.28595 0 0 0 255 255 0 255
-0.0246539 0.598624 4.29576 0 0 0 255 255 0 255
-0.00882116 0.848697 4.3104 0 0 0 255 255 0 255
-0.00877254 0.850636 4.31151 0 0 0 255 255 0 255
-0.0417121 0.334334 4.28529 0 0 0 255 255 0 255
-0.0257924 0.58911 4.3052 0 0 0 255 255 0 255
-0.0102943 0.835027 4.3226 0 0 0 255 255 0 255
-0.00291413 0.951595 4.32942 0 0 0 255 255 0 255
-0.0390765 0.380656 4.29701 0 0 0 255 255 0 255
-0.0260192 0.58689 4.30908 0 0 0 255 255 0 255
-0.0375764 0.404509 4.2994 0 0 0 255 255 0 255
-0.0267361 0.575816 4.31043 0 0 0 255 255 0 255
-0.0259207 0.588651 4.31319 0 0 0 255 255 0 255
-0.0281235 0.552488 4.31608 0 0 0 255 255 0 255
-0.0317229 0.494582 4.31469 0 0 0 255 255 0 255
-0.0310777 0.503427 4.31721 0 0 0 255 255 0 255
-0.0282697 0.546145 4.32171 0 0 0 255 255 0 255
-0.0399477 0.360771 4.31186 0 0 0 255 255 0 255
-0.0326818 0.471111 4.32232 0 0 0 255 255 0 255
-0.029873 0.512829 4.32676 0 0 0 255 255 0 255
-0.0307047 0.49676 4.32781 0 0 0 255 255 0 255
-0.0103303 0.818566 4.34665 0 0 0 255 255 0 255
-0.00857896 0.841288 4.35097 0 0 0 255 255 0 255
-0.0345212 0.42975 4.32788 0 0 0 255 255 0 255
-0.0222964 0.620974 4.34007 0 0 0 255 255 0 255
-0.0337759 0.422179 4.33637 0 0 0 255 255 0 255
-0.0256406 0.545586 4.34557 0 0 0 255 255 0 255
-0.0285429 0.491581 4.34537 0 0 0 255 255 0 255
-0.0276598 0.505529 4.34619 0 0 0 255 255 0 255
-0.0273047 0.502333 4.34896 0 0 0 255 255 0 255
-0.0295439 0.454232 4.35007 0 0 0 255 255 0 255
-0.0370364 0.318381 4.34701 0 0 0 255 255 0 255
-0.0345764 0.357237 4.34928 0 0 0 255 255 0 255
-0.0293408 0.43993 4.35412 0 0 0 255 255 0 255
-0.0361751 0.328273 4.34856 0 0 0 255 255 0 255
-0.0202162 0.580337 4.36331 0 0 0 255 255 0 255
-0.0328621 0.372963 4.35312 0 0 0 255 255 0 255
-0.0251665 0.494512 4.36024 0 0 0 255 255 0 255
-0.028455 0.438647 4.35794 0 0 0 255 255 0 255
-0.0271344 0.455512 4.35989 0 0 0 255 255 0 255
-0.0263143 0.468464 4.36065 0 0 0 255 255 0 255
-0.00221829 0.849051 4.38293 0 0 0 255 255 0 255
-0.0354603 0.319942 4.35293 0 0 0 255 255 0 255
-0.0348879 0.324851 4.35418 0 0 0 255 255 0 255
-0.0300308 0.401566 4.35867 0 0 0 255 255 0 255
-0.0261107 0.459279 4.36302 0 0 0 255 255 0 255
-0.0325311 0.353598 4.3578 0 0 0 255 255 0 255
-0.00158209 0.833669 4.38783 0 0 0 255 255 0 255
-0.0249575 0.459981 4.36691 0 0 0 255 255 0 255
-0.0285427 0.379906 4.36702 0 0 0 255 255 0 255
-0.0120233 0.615653 4.38557 0 0 0 255 255 0 255
0.00242171 0.843806 4.39892 0 0 0 255 255 0 255
0.00120768 0.808708 4.3997 0 0 0 255 255 0 255
-0.0248049 0.369951 4.37872 0 0 0 255 255 0 255
-0.0360089 0.175439 4.37013 0 0 0 255 255 0 255
-0.0356304 0.181417 4.37048 0 0 0 255 255 0 255
-0.0244073 0.346648 4.382 0 0 0 255 255 0 255
-0.0319728 0.221035 4.37558 0 0 0 255 255 0 255
-0.0244295 0.321427 4.38422 0 0 0 255 255 0 255
-0.00626285 0.608362 4.40101 0 0 0 255 255 0 255
-0.0277612 0.249456 4.38275 0 0 0 255 255 0 255
-0.0265137 0.249218 4.38547 0 0 0 255 255 0 255
-0.0266166 0.22706 4.38689 0 0 0 255 255 0 255
-0.0197368 0.307439 4.39519 0 0 0 255 255 0 255
-0.014312 0.393121 4.4002 0 0 0 255 255 0 255
-0.0207979 0.283448 4.39467 0 0 0 255 255 0 255
-0.0221072 0.25547 4.39393 0 0 0 255 255 0 255
0.0166617 0.837983 4.43156 0 0 0 255 255 0 255
-0.00946052 0.402354 4.4087 0 0 0 255 255 0 255
0.00279683 0.354194 4.42942 0 0 0 255 255 0 255
0.00184804 0.320151 4.42903 0 0 0 255 255 0 255
0.0139545 0.254256 4.44425 0 0 0 255 255 0 255
