ply
format ascii 1.0
comment VCGLIB generated
element vertex 1004
property float x
property float y
property float z
property float nx
property float ny
property float nz
property uchar red
property uchar green
property uchar blue
property uchar alpha
element face 0
property list uchar int vertex_indices
end_header
0.606047 0.731151 1.72943 0 0 0 39 56 70 255 
1.00558 0.796311 1.6486 0 0 0 41 159 200 255 
0.724473 0.752552 1.69882 0 0 0 76 98 110 255 
0.540263 0.727513 1.73194 0 0 0 31 78 108 255 
0.148573 0.679069 1.82072 0 0 0 184 206 218 255 
0.156753 0.685273 1.81274 0 0 0 38 63 74 255 
0.584078 0.74604 1.71616 0 0 0 108 114 105 255 
0.137075 0.683901 1.82166 0 0 0 48 65 76 255 
0.147857 0.687817 1.81106 0 0 0 167 191 202 255 
0.618791 0.751079 1.68533 0 0 0 105 113 120 255 
0.942682 0.80206 1.62745 0 0 0 153 188 199 255 
0.357163 0.705225 1.72044 0 0 0 83 104 118 255 
0.632332 0.755427 1.68077 0 0 0 90 105 110 255 
0.717462 0.773374 1.68197 0 0 0 68 107 131 255 
0.98598 0.811437 1.61505 0 0 0 132 191 214 255 
0.66198 0.762287 1.68019 0 0 0 117 124 124 255 
0.926188 0.803515 1.62076 0 0 0 142 182 199 255 
0.993269 0.820473 1.61182 0 0 0 47 103 139 255 
0.214091 0.705388 1.75639 0 0 0 33 56 68 255 
0.213498 0.704589 1.7405 0 0 0 172 202 211 255 
0.222014 0.713597 1.75649 0 0 0 175 197 209 255 
0.217101 0.715467 1.74649 0 0 0 28 52 62 255 
0.283751 0.728889 1.68839 0 0 0 187 208 218 255 
0.277566 0.73215 1.68391 0 0 0 43 62 72 255 
0.281754 0.741913 1.68465 0 0 0 183 204 214 255 
0.884618 0.833412 1.56497 0 0 0 108 138 143 255 
0.901056 0.841066 1.52895 0 0 0 109 139 148 255 
0.926271 0.854405 1.53171 0 0 0 77 107 120 255 
0.34332 0.756839 1.61881 0 0 0 185 214 223 255 
0.352389 0.765817 1.63241 0 0 0 168 195 205 255 
0.346485 0.767003 1.62108 0 0 0 37 56 69 255 
0.411118 0.785128 1.57163 0 0 0 185 204 219 255 
0.404995 0.787091 1.56542 0 0 0 23 41 54 255 
0.307381 -0.0853292 2.17122 0 0 0 124 128 130 255 
0.22012 -0.0913018 2.18575 0 0 0 123 130 128 255 
1.5341 0.24434 2.04338 0 0 0 24 48 50 255 
0.407879 -0.0142819 2.36472 0 0 0 121 131 137 255 
1.52987 0.26753 2.04789 0 0 0 31 46 50 255 
0.991919 0.160491 2.22497 0 0 0 50 61 67 255 
0.410009 0.0576277 2.37003 0 0 0 57 70 64 255 
0.38952 0.0975352 2.3625 0 0 0 18 20 20 255 
1.11444 0.286013 2.29 0 0 0 92 71 67 255 
0.911655 0.25171 2.25531 0 0 0 103 137 153 255 
1.40197 0.411551 2.03101 0 0 0 59 76 81 255 
1.4344 0.439027 1.99524 0 0 0 22 45 49 255 
1.50374 0.46874 2.10641 0 0 0 20 66 97 255 
1.49642 0.470258 2.1028 0 0 0 20 71 66 255 
1.39409 0.479897 2.05532 0 0 0 50 76 82 255 
0.324106 0.219464 1.91708 0 0 0 157 189 201 255 
0.366516 0.239653 1.94905 0 0 0 149 180 195 255 
0.290736 0.217149 1.90296 0 0 0 14 76 127 255 
0.143478 0.231421 1.96874 0 0 0 16 50 85 255 
0.971464 0.494549 2.37218 0 0 0 111 72 74 255 
1.24494 0.545726 2.17709 0 0 0 73 43 46 255 
0.138002 0.296313 1.97623 0 0 0 67 74 86 255 
0.628162 0.524484 2.23903 0 0 0 94 131 156 255 
0.726655 0.53269 2.16177 0 0 0 144 171 201 255 
0.703541 0.555249 2.16362 0 0 0 102 148 168 255 
1.17834 0.648453 2.02117 0 0 0 25 90 123 255 
0.81802 0.600731 2.05918 0 0 0 42 47 105 255 
1.14782 0.667742 1.97032 0 0 0 66 149 184 255 
0.647089 0.59473 2.04694 0 0 0 22 52 92 255 
1.09355 0.682706 1.93862 0 0 0 96 148 188 255 
0.822467 0.651913 1.91723 0 0 0 68 86 110 255 
0.996627 0.713015 1.8423 0 0 0 159 192 197 255 
0.757389 0.66788 1.86921 0 0 0 130 99 71 255 
0.832918 0.69474 1.88889 0 0 0 119 127 155 255 
0.799573 0.715475 1.82926 0 0 0 120 139 158 255 
0.113731 0.592907 1.93173 0 0 0 62 86 99 255 
1.07194 0.773683 1.73167 0 0 0 3 140 200 255 
0.967584 0.765169 1.72738 0 0 0 47 122 163 255 
1.00055 0.763382 1.71188 0 0 0 135 175 189 255 
0.345614 0.664584 1.83751 0 0 0 51 60 67 255 
0.998249 0.772413 1.69851 0 0 0 58 117 150 255 
0.381035 0.682783 1.83271 0 0 0 50 128 154 255 
0.730993 0.750439 1.72446 0 0 0 82 100 112 255 
0.894819 0.777601 1.69326 0 0 0 78 112 125 255 
0.0700553 0.649409 1.87502 0 0 0 177 207 219 255 
0.0833614 0.664904 1.89567 0 0 0 182 202 214 255 
0.664769 0.737344 1.70977 0 0 0 153 141 135 255 
0.0801352 0.668971 1.88629 0 0 0 86 110 121 255 
0.723771 0.755177 1.7104 0 0 0 70 86 100 255 
1.00358 0.79694 1.64573 0 0 0 121 174 220 255 
0.636545 0.741244 1.71195 0 0 0 112 96 83 255 
0.581817 0.745662 1.71721 0 0 0 107 117 121 255 
0.157908 0.684822 1.81349 0 0 0 38 63 74 255 
0.70749 0.766134 1.68387 0 0 0 92 105 122 255 
0.943465 0.801161 1.62748 0 0 0 143 181 196 255 
0.636669 0.756662 1.67906 0 0 0 83 95 98 255 
0.661915 0.75925 1.68099 0 0 0 98 103 102 255 
0.355389 0.708156 1.7192 0 0 0 34 54 68 255 
0.714649 0.776529 1.67959 0 0 0 58 85 104 255 
0.981928 0.811792 1.61161 0 0 0 134 189 206 255 
0.7022 0.771875 1.66836 0 0 0 65 72 91 255 
0.989495 0.820885 1.61093 0 0 0 53 99 132 255 
0.913713 0.808037 1.61832 0 0 0 95 133 156 255 
0.212364 0.70215 1.75963 0 0 0 36 61 72 255 
0.213585 0.707945 1.7403 0 0 0 135 160 171 255 
0.224075 0.718158 1.75897 0 0 0 177 199 211 255 
0.740198 0.789432 1.62358 0 0 0 49 85 108 255 
0.286951 0.726912 1.69358 0 0 0 185 208 217 255 
0.802945 0.812542 1.58875 0 0 0 98 130 141 255 
0.274672 0.730149 1.68257 0 0 0 37 53 64 255 
0.291592 0.739605 1.6909 0 0 0 29 47 60 255 
0.279528 0.743266 1.67889 0 0 0 176 199 208 255 
0.872021 0.838731 1.56277 0 0 0 114 145 151 255 
0.349568 0.754863 1.63155 0 0 0 27 52 63 255 
0.343027 0.752936 1.61028 0 0 0 185 213 223 255 
0.353302 0.767218 1.63302 0 0 0 176 201 212 255 
0.345226 0.764143 1.6202 0 0 0 104 128 139 255 
0.411771 0.784125 1.57362 0 0 0 189 209 223 255 
0.416662 0.793915 1.57394 0 0 0 39 64 77 255 
0.417633 -0.0898018 2.24472 0 0 0 19 22 29 255 
0.468318 -0.0311534 2.27267 0 0 0 11 25 27 255 
0.872517 0.0798322 2.18937 0 0 0 114 156 176 255 
1.22629 0.174546 2.07807 0 0 0 111 75 59 255 
1.164 0.162611 2.17822 0 0 0 40 24 25 255 
0.568797 0.028753 2.26925 0 0 0 125 95 69 255 
0.406357 -0.000805502 2.35691 0 0 0 26 41 48 255 
0.790371 0.101155 2.24271 0 0 0 24 32 41 255 
0.407553 0.0124359 2.35891 0 0 0 15 30 40 255 
0.401216 0.0333422 2.38593 0 0 0 144 144 145 255 
0.42753 0.0455356 2.36006 0 0 0 95 116 126 255 
0.406109 0.088378 2.36093 0 0 0 172 178 181 255 
1.33997 0.302279 2.0133 0 0 0 93 106 67 255 
0.426297 0.110183 2.35439 0 0 0 27 39 47 255 
0.776451 0.206275 2.27557 0 0 0 57 55 55 255 
1.29681 0.344893 2.07632 0 0 0 97 95 72 255 
0.480388 0.213445 2.39215 0 0 0 105 125 137 255 
1.50132 0.46825 2.10656 0 0 0 19 65 81 255 
1.39677 0.481566 2.05445 0 0 0 48 74 80 255 
0.16967 0.196556 1.93427 0 0 0 49 132 168 255 
0.370174 0.280887 1.96313 0 0 0 154 179 184 255 
0.972827 0.494586 2.3725 0 0 0 110 70 70 255 
0.72598 0.492769 2.28487 0 0 0 175 186 199 255 
1.41419 0.635575 2.07187 0 0 0 57 79 91 255 
0.178261 0.336579 1.97487 0 0 0 140 165 176 255 
0.863968 0.536909 2.20647 0 0 0 73 92 102 255 
0.720133 0.525084 2.17478 0 0 0 122 154 177 255 
0.618674 0.517433 2.24106 0 0 0 89 41 33 255 
0.726762 0.52862 2.16885 0 0 0 129 151 181 255 
1.01131 0.585581 2.12965 0 0 0 45 85 88 255 
0.706753 0.55353 2.16437 0 0 0 140 180 208 255 
0.716753 0.575958 2.07266 0 0 0 128 182 202 255 
1.14901 0.66827 1.96904 0 0 0 72 158 192 255 
0.85789 0.621836 2.00731 0 0 0 38 45 69 255 
1.09691 0.682753 1.94121 0 0 0 105 157 196 255 
0.757367 0.626099 1.97846 0 0 0 123 79 97 255 
0.829961 0.657995 1.9631 0 0 0 137 155 172 255 
0.657518 0.622038 1.96245 0 0 0 131 182 202 255 
0.690184 0.632307 1.94669 0 0 0 49 148 185 255 
1.0004 0.706295 1.86719 0 0 0 27 89 137 255 
0.841847 0.683948 1.90783 0 0 0 22 65 94 255 
1.00589 0.736547 1.81221 0 0 0 8 77 116 255 
1.09601 0.761394 1.76632 0 0 0 3 124 174 255 
0.118523 0.595325 1.92744 0 0 0 45 65 79 255 
0.79933 0.723317 1.81946 0 0 0 43 69 90 255 
0.761689 0.71644 1.80742 0 0 0 130 150 172 255 
1.01956 0.756117 1.74128 0 0 0 133 185 200 255 
1.07078 0.775832 1.727 0 0 0 7 134 189 255 
0.150956 0.619212 1.91181 0 0 0 47 63 77 255 
0.972295 0.763574 1.73073 0 0 0 67 129 161 255 
0.353982 0.666378 1.84045 0 0 0 38 66 78 255 
0.650818 0.7146 1.77601 0 0 0 153 138 135 255 
0.675422 0.724844 1.7569 0 0 0 162 149 142 255 
0.234875 0.646431 1.82602 0 0 0 158 183 191 255 
0.447733 0.695329 1.81884 0 0 0 137 195 214 255 
0.477441 0.70673 1.82214 0 0 0 142 197 232 255 
0.0689506 0.649949 1.89695 0 0 0 43 63 75 255 
0.89629 0.775952 1.69651 0 0 0 48 83 93 255 
0.968975 0.782177 1.6682 0 0 0 62 140 160 255 
0.0843034 0.667346 1.8967 0 0 0 179 201 213 255 
0.0617938 0.653054 1.87743 0 0 0 177 207 220 255 
0.281936 0.668277 1.78894 0 0 0 52 72 84 255 
0.736768 0.754487 1.71107 0 0 0 56 98 121 255 
0.970104 0.788061 1.65134 0 0 0 147 192 218 255 
0.544533 0.727086 1.7349 0 0 0 42 77 111 255 
0.873935 0.783425 1.67464 0 0 0 88 101 119 255 
0.600979 0.741947 1.70863 0 0 0 169 160 143 255 
0.631169 0.744284 1.70038 0 0 0 93 78 67 255 
0.57595 0.742503 1.72071 0 0 0 75 88 103 255 
0.131176 0.683932 1.82335 0 0 0 41 57 68 255 
0.164379 0.685918 1.81127 0 0 0 37 59 71 255 
0.668493 0.758957 1.68092 0 0 0 136 135 132 255 
0.683024 0.759734 1.67491 0 0 0 102 93 90 255 
0.945849 0.801002 1.62715 0 0 0 144 182 197 255 
0.981591 0.811204 1.61347 0 0 0 134 190 208 255 
0.710824 0.774245 1.6784 0 0 0 72 93 110 255 
0.67385 0.771531 1.67473 0 0 0 90 95 102 255 
0.976413 0.818854 1.59852 0 0 0 61 96 122 255 
0.989515 0.823231 1.6093 0 0 0 46 104 133 255 
0.22501 0.717582 1.76365 0 0 0 180 202 214 255 
0.211131 0.699545 1.73483 0 0 0 177 207 216 255 
0.74511 0.787004 1.62001 0 0 0 46 81 102 255 
0.40655 0.73093 1.67143 0 0 0 33 51 66 255 
0.799885 0.808685 1.59863 0 0 0 55 79 86 255 
0.286397 0.72757 1.69238 0 0 0 185 208 217 255 
0.266463 0.734124 1.69204 0 0 0 38 52 64 255 
0.294127 0.741383 1.69241 0 0 0 29 47 60 255 
0.850293 0.831509 1.57787 0 0 0 69 104 115 255 
0.278509 0.74385 1.67659 0 0 0 183 206 215 255 
0.349217 0.752115 1.6363 0 0 0 24 48 59 255 
0.338591 0.753453 1.61406 0 0 0 183 213 222 255 
0.355365 0.769315 1.63596 0 0 0 180 204 215 255 
0.932302 0.859732 1.53347 0 0 0 114 144 157 255 
0.41276 0.78453 1.57441 0 0 0 189 209 223 255 
1.17318 0.122106 2.15081 0 0 0 135 87 42 255 
1.53394 0.233533 2.04533 0 0 0 32 52 58 255 
0.522618 0.0322275 2.3086 0 0 0 132 98 70 255 
0.414089 0.0246309 1.96063 0 0 0 157 183 200 255 
0.404126 0.0875112 2.36126 0 0 0 171 177 179 255 
0.660638 0.15785 2.30317 0 0 0 43 46 53 255 
0.428315 0.118017 2.34918 0 0 0 22 33 41 255 
1.43135 0.366146 1.96841 0 0 0 17 24 42 255 
1.32695 0.384218 2.04919 0 0 0 48 76 53 255 
1.40504 0.412941 2.02453 0 0 0 76 95 97 255 
0.708682 0.284425 2.3138 0 0 0 109 134 147 255 
0.291528 0.1587 1.87372 0 0 0 130 164 176 255 
0.366744 0.224702 1.9475 0 0 0 155 182 194 255 
0.397292 0.312095 2.42092 0 0 0 160 183 183 255 
1.02149 0.48013 2.46786 0 0 0 104 124 129 255 
0.72426 0.496446 2.28555 0 0 0 76 90 102 255 
0.130494 0.351481 2.01787 0 0 0 132 157 170 255 
1.00479 0.5813 2.13196 0 0 0 27 59 64 255 
1.24172 0.673997 1.99033 0 0 0 40 167 195 255 
0.178958 0.427687 1.98801 0 0 0 113 119 112 255 
0.689678 0.593144 2.0947 0 0 0 127 185 226 255 
0.841004 0.659013 1.95754 0 0 0 136 160 183 255 
0.833606 0.663145 1.95516 0 0 0 123 146 162 255 
0.637943 0.633463 1.92655 0 0 0 143 185 209 255 
0.989919 0.718862 1.83886 0 0 0 163 206 217 255 
1.03678 0.743424 1.76991 0 0 0 114 158 190 255 
1.09737 0.760025 1.76882 0 0 0 0 130 180 255 
0.115996 0.594664 1.9293 0 0 0 45 65 79 255 
0.794205 0.723881 1.81718 0 0 0 40 62 79 255 
1.06906 0.764283 1.74022 0 0 0 140 184 203 255 
0.223936 0.627452 1.91227 0 0 0 29 56 68 255 
0.152747 0.613894 1.89674 0 0 0 45 60 74 255 
0.743257 0.718531 1.79055 0 0 0 133 165 196 255 
1.06223 0.776303 1.72223 0 0 0 0 142 192 255 
0.354117 0.665241 1.84084 0 0 0 42 64 73 255 
0.389477 0.686445 1.83344 0 0 0 37 120 165 255 
0.478874 0.70286 1.82735 0 0 0 149 203 236 255 
0.086176 0.668261 1.90371 0 0 0 182 202 214 255 
0.276008 0.672908 1.78729 0 0 0 41 61 73 255 
0.54909 0.719429 1.74273 0 0 0 34 118 149 255 
0.730847 0.755415 1.70945 0 0 0 57 85 106 255 
0.963785 0.789455 1.64818 0 0 0 163 193 207 255 
0.570482 0.739859 1.72491 0 0 0 64 85 101 255 
0.979921 0.81092 1.61529 0 0 0 136 190 206 255 
0.355366 0.710506 1.7189 0 0 0 30 50 64 255 
0.647544 0.759749 1.67956 0 0 0 76 85 87 255 
0.710462 0.77013 1.66793 0 0 0 72 93 110 255 
0.981594 0.824967 1.60275 0 0 0 39 84 117 255 
0.229979 0.720733 1.77533 0 0 0 181 208 218 255 
0.803922 0.800932 1.64551 0 0 0 139 150 151 255 
0.748434 0.784113 1.61478 0 0 0 45 78 100 255 
0.285276 0.724042 1.69472 0 0 0 185 208 217 255 
0.261217 0.729432 1.6888 0 0 0 37 53 64 255 
0.296809 0.74417 1.69642 0 0 0 32 50 63 255 
0.926352 0.843683 1.56144 0 0 0 172 187 193 255 
0.273628 0.745829 1.67639 0 0 0 178 202 211 255 
0.358572 0.768598 1.64182 0 0 0 183 209 219 255 
1.15956 0.156458 2.17782 0 0 0 28 21 25 255 
1.2337 0.18259 2.07455 0 0 0 140 118 87 255 
0.720927 0.0702855 2.23572 0 0 0 40 75 84 255 
0.406851 0.0071362 2.37084 0 0 0 25 40 58 255 
0.542531 0.08968 2.27395 0 0 0 28 26 22 255 
0.41064 0.083326 1.83146 0 0 0 5 69 125 255 
0.408515 0.0962171 2.36429 0 0 0 173 192 197 255 
1.51951 0.341701 2.06612 0 0 0 34 47 73 255 
0.383794 0.098642 2.3536 0 0 0 20 22 22 255 
1.33838 0.301868 2.01423 0 0 0 94 111 79 255 
0.637855 0.180801 2.29945 0 0 0 53 53 57 255 
0.750118 0.199894 2.28538 0 0 0 107 124 104 255 
0.790453 0.223519 2.26709 0 0 0 30 30 38 255 
0.80622 0.238537 2.32021 0 0 0 30 30 40 255 
0.692755 0.221365 2.30281 0 0 0 59 90 94 255 
1.29109 0.342489 2.078 0 0 0 87 86 55 255 
1.43224 0.367773 1.96793 0 0 0 16 25 44 255 
1.3254 0.381963 2.05013 0 0 0 46 74 51 255 
0.679392 0.257978 2.30613 0 0 0 135 162 172 255 
0.917425 0.323443 2.24428 0 0 0 34 30 39 255 
0.992991 0.424396 2.3419 0 0 0 20 24 28 255 
0.376734 0.237661 1.94517 0 0 0 47 101 135 255 
1.02669 0.498087 2.4788 0 0 0 114 135 144 255 
0.249377 0.260678 1.91956 0 0 0 153 177 195 255 
1.20404 0.527274 2.20628 0 0 0 28 51 56 255 
1.25755 0.543056 2.13063 0 0 0 22 41 48 255 
0.33893 0.350151 1.97934 0 0 0 4 86 138 255 
0.240216 0.323127 1.91734 0 0 0 150 177 191 255 
0.361707 0.414255 2.1993 0 0 0 152 182 195 255 
0.330809 0.377712 2.00023 0 0 0 158 151 123 255 
0.349264 0.440472 2.12819 0 0 0 3 72 120 255 
1.07428 0.609158 2.0779 0 0 0 56 91 98 255 
1.17435 0.652161 2.02114 0 0 0 22 93 126 255 
1.24306 0.667308 2.00069 0 0 0 51 161 195 255 
0.623988 0.598279 2.07833 0 0 0 35 44 70 255 
0.51055 0.584441 2.07607 0 0 0 56 61 84 255 
0.636268 0.624061 1.95673 0 0 0 139 183 211 255 
0.660875 0.626157 1.95992 0 0 0 131 178 197 255 
0.309732 0.548766 1.94833 0 0 0 189 216 228 255 
0.6746 0.635913 1.93924 0 0 0 42 152 184 255 
0.839916 0.68114 1.90963 0 0 0 40 91 113 255 
0.631903 0.64055 1.91792 0 0 0 65 102 126 255 
0.756106 0.669914 1.86637 0 0 0 141 94 62 255 
1.00288 0.736675 1.81088 0 0 0 14 75 116 255 
0.22844 0.628475 1.9179 0 0 0 25 48 62 255 
1.07293 0.763094 1.74353 0 0 0 135 177 193 255 
0.734946 0.702632 1.7829 0 0 0 33 51 66 255 
0.744284 0.723164 1.788 0 0 0 128 162 193 255 
1.058 0.781739 1.72203 0 0 0 0 150 195 255 
0.651867 0.715721 1.773 0 0 0 168 151 143 255 
0.229284 0.65753 1.83065 0 0 0 43 60 71 255 
0.555802 0.728899 1.74134 0 0 0 45 78 115 255 
0.174936 0.692366 1.81672 0 0 0 45 58 73 255 
0.662287 0.76702 1.67783 0 0 0 104 118 127 255 
0.818874 0.789003 1.64466 0 0 0 143 154 153 255 
0.973223 0.812593 1.60515 0 0 0 136 180 186 255 
0.203026 0.701556 1.72836 0 0 0 180 210 219 255 
0.75331 0.785986 1.6216 0 0 0 60 76 101 255 
0.97463 0.825099 1.59409 0 0 0 45 83 114 255 
0.300232 0.743715 1.69346 0 0 0 31 49 62 255 
1.33152 0.29012 2.02625 0 0 0 45 89 65 255 
0.360695 0.0903434 2.33335 0 0 0 31 29 30 255 
0.411567 0.119759 2.35788 0 0 0 169 192 199 255 
0.950692 0.261799 2.21888 0 0 0 66 99 113 255 
1.41193 0.342207 1.95603 0 0 0 125 47 37 255 
1.25857 0.345525 2.11288 0 0 0 100 71 40 255 
0.621588 0.212049 2.37183 0 0 0 131 155 162 255 
0.693083 0.229128 2.31036 0 0 0 48 77 79 255 
1.32018 0.37357 2.06934 0 0 0 27 71 51 255 
0.36987 0.296215 2.41293 0 0 0 39 33 38 255 
0.33264 0.260907 1.95169 0 0 0 158 188 204 255 
0.308486 0.307953 1.94292 0 0 0 162 189 203 255 
1.41214 0.634954 2.13636 0 0 0 38 60 72 255 
0.677906 0.497597 2.26559 0 0 0 38 52 62 255 
0.333928 0.376558 2.00457 0 0 0 157 140 119 255 
0.344561 0.438631 2.12306 0 0 0 2 76 126 255 
0.975951 0.598949 2.10306 0 0 0 102 58 89 255 
1.22246 0.673114 1.9982 0 0 0 41 165 196 255 
0.582172 0.588829 2.09077 0 0 0 49 64 67 255 
0.624385 0.605011 2.0287 0 0 0 35 63 76 255 
0.42537 0.584855 2.13673 0 0 0 191 188 114 255 
0.486773 0.594208 2.05264 0 0 0 45 64 74 255 
0.630247 0.622874 1.95154 0 0 0 148 194 219 255 
0.315618 0.547249 1.95876 0 0 0 179 207 219 255 
0.827207 0.679086 1.87816 0 0 0 86 79 91 255 
0.984367 0.736889 1.80018 0 0 0 13 86 121 255 
1.01021 0.758378 1.76572 0 0 0 98 155 180 255 
0.359653 0.663851 1.84104 0 0 0 34 66 87 255 
0.744218 0.724014 1.78809 0 0 0 128 162 193 255 
0.401368 0.688746 1.84412 0 0 0 28 129 168 255 
0.0645686 -0.0927853 2.15532 0 0 0 104 99 101 255 
0.0878615 -0.0890424 2.15515 0 0 0 96 94 94 255 
0.076484 -0.0933409 2.18302 0 0 0 101 101 101 255 
0.0236893 -0.0995618 2.22829 0 0 0 80 78 81 255 
0.120201 -0.0572216 1.96384 0 0 0 101 103 104 255 
0.0440723 -0.0859587 2.14869 0 0 0 97 96 99 255 
0.0485907 -0.0725722 2.03982 0 0 0 94 93 96 255 
-0.0092635 -0.0929258 2.19165 0 0 0 92 96 98 255 
0.466216 0.0431145 2.1713 0 0 0 142 146 150 255 
0.0755777 -0.0570276 1.9474 0 0 0 95 94 98 255 
0.480397 0.0499928 2.15777 0 0 0 38 60 76 255 
0.0612891 -0.0542077 1.93482 0 0 0 103 107 108 255 
0.0574203 -0.0591667 1.99399 0 0 0 101 100 105 255 
0.481806 0.0544029 2.17867 0 0 0 70 88 101 255 
0.0571521 -0.0557359 1.98326 0 0 0 83 82 87 255 
0.0672636 -0.0494027 1.92463 0 0 0 104 108 110 255 
0.369412 0.0352008 2.09575 0 0 0 83 92 137 255 
0.349959 0.0430226 2.10059 0 0 0 117 141 174 255 
0.489148 0.0815658 2.10128 0 0 0 123 116 119 255 
0.663304 0.12969 2.58771 0 0 0 108 124 133 255 
0.441417 0.0917484 2.19295 0 0 0 71 59 61 255 
0.397456 0.0829481 1.99069 0 0 0 68 86 112 255 
0.306034 0.0728338 1.97836 0 0 0 56 114 161 255 
0.32381 0.0914458 1.94748 0 0 0 56 122 171 255 
0.158838 0.0687322 1.94847 0 0 0 92 121 150 255 
0.152555 0.0668332 1.93197 0 0 0 95 117 143 255 
0.165381 0.0794175 1.94185 0 0 0 95 132 147 255 
0.124822 0.0706429 1.97885 0 0 0 88 106 132 255 
0.297627 0.120118 1.97833 0 0 0 96 119 118 255 
0.30155 0.122651 1.94994 0 0 0 80 105 134 255 
0.246963 0.125575 1.91504 0 0 0 71 107 149 255 
0.231953 0.126237 1.928 0 0 0 30 63 109 255 
0.716913 0.299482 2.37813 0 0 0 105 115 119 255 
0.730196 0.335044 2.49731 0 0 0 142 96 94 255 
0.789314 0.351556 2.54191 0 0 0 148 98 92 255 
0.726013 0.32912 2.33443 0 0 0 158 124 115 255 
0.786063 0.350548 2.41418 0 0 0 135 122 109 255 
0.793847 0.361325 2.4965 0 0 0 146 107 104 255 
0.190671 0.15611 1.87692 0 0 0 121 121 131 255 
0.618907 0.293123 2.15953 0 0 0 143 101 93 255 
0.651637 0.296941 2.03058 0 0 0 143 111 106 255 
0.419874 0.273182 2.02065 0 0 0 39 25 42 255 
0.51667 0.339328 2.02918 0 0 0 32 28 30 255 
0.679358 0.464123 2.19961 0 0 0 41 36 38 255 
0.845775 0.540076 2.18883 0 0 0 16 62 95 255 
-0.102605 0.30567 2.1599 0 0 0 71 54 45 255 
0.734586 0.532273 2.16479 0 0 0 137 171 201 255 
0.101153 0.357047 2.04493 0 0 0 52 42 41 255 
0.695593 0.529428 2.16773 0 0 0 112 129 151 255 
0.690636 0.505419 2.04872 0 0 0 78 101 126 255 
0.693886 0.537157 2.15662 0 0 0 129 147 171 255 
-0.110862 0.307866 1.96237 0 0 0 64 72 79 255 
0.691238 0.523661 2.0314 0 0 0 70 87 107 255 
-0.0937167 0.321688 1.94183 0 0 0 93 101 106 255 
0.163607 0.384947 1.94644 0 0 0 78 72 81 255 
0.702403 0.534732 2.03089 0 0 0 30 54 83 255 
0.137002 0.400418 1.99256 0 0 0 166 165 179 255 
0.679947 0.5376 2.02276 0 0 0 122 139 161 255 
0.772722 0.578674 2.07743 0 0 0 77 113 152 255 
-0.107894 0.3463 1.94883 0 0 0 56 62 65 255 
0.67012 0.554394 2.02433 0 0 0 149 151 172 255 
0.705455 0.551414 1.96988 0 0 0 112 155 202 255 
0.821804 0.607229 2.01795 0 0 0 53 88 116 255 
0.575569 0.539385 1.9622 0 0 0 129 120 92 255 
0.81409 0.610936 2.0161 0 0 0 28 53 83 255 
0.597315 0.542605 1.93815 0 0 0 154 146 152 255 
0.871151 0.626417 2.01747 0 0 0 87 68 100 255 
-0.0948063 0.395505 1.97712 0 0 0 63 67 71 255 
0.570404 0.547543 1.95299 0 0 0 46 40 22 255 
0.772008 0.600868 1.96444 0 0 0 44 101 128 255 
0.841536 0.635319 1.97266 0 0 0 60 35 55 255 
0.788792 0.639623 1.95884 0 0 0 97 122 138 255 
0.870748 0.649633 1.90589 0 0 0 93 148 181 255 
0.68105 0.612847 1.91054 0 0 0 122 156 189 255 
0.622131 0.641888 1.9172 0 0 0 57 79 103 255 
0.748234 0.6811 1.80602 0 0 0 107 79 77 255 
0.763395 0.696909 1.84559 0 0 0 65 61 70 255 
0.706306 0.702275 1.78755 0 0 0 68 56 61 255 
0.661952 0.725231 1.73535 0 0 0 110 82 68 255 
0.0504292 0.61937 1.73228 0 0 0 28 36 45 255 
0.130323 0.625563 1.65801 0 0 0 179 186 198 255 
0.127648 0.639699 1.66993 0 0 0 32 42 50 255 
0.0952796 0.641132 1.6911 0 0 0 38 45 54 255 
0.100077 0.651407 1.69431 0 0 0 167 183 189 255 
0.174482 0.659553 1.62818 0 0 0 22 34 40 255 
0.138238 0.674366 1.66237 0 0 0 181 196 203 255 
0.172775 0.669669 1.6337 0 0 0 158 168 172 255 
0.144765 0.682139 1.66085 0 0 0 20 28 35 255 
0.249629 0.57988 1.36109 0 0 0 21 43 43 255 
0.217797 0.59164 1.38735 0 0 0 164 183 186 255 
0.246232 0.588851 1.3661 0 0 0 163 173 179 255 
0.21838 0.688959 1.59172 0 0 0 174 184 192 255 
0.218217 0.600842 1.39023 0 0 0 37 39 48 255 
0.218876 0.700306 1.59899 0 0 0 40 50 58 255 
0.193258 0.700229 1.6127 0 0 0 23 31 36 255 
0.45321 0.785859 1.66894 0 0 0 99 112 120 255 
0.194166 0.710942 1.61862 0 0 0 161 176 181 255 
0.275878 0.610235 1.34485 0 0 0 172 175 184 255 
0.248967 0.62093 1.36515 0 0 0 33 37 43 255 
0.272643 0.619085 1.35184 0 0 0 34 41 50 255 
0.248327 0.629262 1.37063 0 0 0 170 180 186 255 
0.240407 0.737772 1.57825 0 0 0 168 186 194 255 
0.273232 0.732777 1.5525 0 0 0 178 186 195 255 
0.530462 0.794692 1.57415 0 0 0 44 56 64 255 
0.240989 0.748218 1.58527 0 0 0 30 38 48 255 
0.312977 0.636596 1.31575 0 0 0 27 39 45 255 
0.286407 0.647771 1.33631 0 0 0 172 189 195 255 
0.315546 0.643286 1.31517 0 0 0 161 169 174 255 
0.397747 0.806033 1.59007 0 0 0 184 193 204 255 
0.288654 0.656177 1.33593 0 0 0 30 36 42 255 
0.324185 0.751217 1.50231 0 0 0 177 185 194 255 
0.305756 0.761852 1.51698 0 0 0 34 35 45 255 
0.325545 0.761218 1.50795 0 0 0 58 63 74 255 
0.303795 0.77468 1.52729 0 0 0 162 172 180 255 
0.473987 0.812402 1.51537 0 0 0 24 38 50 255 
0.360567 0.657844 1.27072 0 0 0 177 182 190 255 
0.0787876 -0.0934092 2.18075 0 0 0 101 101 101 255 
0.0871389 -0.0746123 2.07002 0 0 0 102 101 103 255 
0.0414226 -0.0732039 2.05541 0 0 0 107 106 108 255 
0.357169 0.012293 2.11392 0 0 0 142 155 170 255 
0.465021 0.0477526 2.16902 0 0 0 153 152 154 255 
0.369534 0.0396223 2.09359 0 0 0 87 101 142 255 
0.652674 0.1296 2.60691 0 0 0 130 146 157 255 
0.15582 0.0494017 1.91779 0 0 0 131 143 155 255 
0.165692 0.077561 1.93685 0 0 0 96 126 132 255 
0.154027 0.100417 1.93611 0 0 0 130 135 144 255 
0.22865 0.119596 1.93225 0 0 0 12 66 115 255 
0.119142 0.117599 1.96505 0 0 0 30 23 24 255 
0.777543 0.354728 2.44666 0 0 0 136 128 115 255 
0.195589 0.155793 1.87015 0 0 0 121 121 131 255 
0.421121 0.273372 2.0186 0 0 0 31 17 35 255 
0.508705 0.341657 2.04856 0 0 0 32 28 30 255 
0.583708 0.433724 2.20958 0 0 0 100 105 111 255 
0.433575 0.396238 1.99053 0 0 0 152 167 184 255 
0.684503 0.484762 2.11375 0 0 0 47 42 44 255 
0.132154 0.357143 1.99005 0 0 0 46 44 45 255 
0.698479 0.534948 2.15986 0 0 0 125 145 169 255 
0.704308 0.530961 2.08991 0 0 0 59 86 116 255 
0.160317 0.383133 1.94744 0 0 0 88 82 89 255 
0.125243 0.404314 2.00985 0 0 0 176 181 191 255 
0.700944 0.553072 1.98979 0 0 0 110 152 198 255 
0.661344 0.562082 1.99827 0 0 0 128 164 186 255 
-0.133994 0.385876 2.00803 0 0 0 102 111 113 255 
0.789038 0.640425 1.95915 0 0 0 118 138 141 255 
0.296164 0.567159 2.09062 0 0 0 186 194 201 255 
0.810228 0.698132 1.80219 0 0 0 68 66 74 255 
0.2397 0.619747 1.8706 0 0 0 37 51 61 255 
0.239131 0.651107 1.82455 0 0 0 61 73 81 255 
0.66257 0.722906 1.73913 0 0 0 115 88 75 255 
0.0971961 0.652452 1.83871 0 0 0 32 44 52 255 
0.0421554 0.62114 1.73968 0 0 0 43 51 60 255 
0.13264 0.636843 1.66496 0 0 0 70 78 89 255 
0.259022 0.680173 1.69286 0 0 0 25 37 45 255 
0.103682 0.653852 1.69294 0 0 0 169 186 190 255 
0.170298 0.660608 1.63174 0 0 0 24 36 42 255 
0.183617 0.667024 1.62489 0 0 0 171 181 187 255 
0.126493 0.676243 1.67201 0 0 0 173 189 198 255 
0.131378 0.691559 1.67377 0 0 0 24 31 38 255 
0.255151 0.57526 1.35699 0 0 0 20 38 39 255 
0.220135 0.687149 1.58975 0 0 0 174 184 192 255 
0.208904 0.592366 1.39301 0 0 0 165 186 190 255 
0.251565 0.588965 1.36291 0 0 0 170 180 186 255 
0.220844 0.700734 1.59864 0 0 0 29 39 47 255 
0.216021 0.602526 1.39151 0 0 0 30 32 42 255 
0.187661 0.700859 1.61542 0 0 0 24 30 35 255 
0.452995 0.789444 1.67032 0 0 0 51 63 71 255 
0.180654 0.72325 1.63677 0 0 0 168 185 190 255 
0.279114 0.604363 1.33982 0 0 0 177 183 191 255 
0.281506 0.605061 1.33873 0 0 0 174 178 186 255 
0.242501 0.620752 1.3674 0 0 0 32 35 42 255 
0.27229 0.622205 1.35334 0 0 0 34 42 51 255 
0.273971 0.719367 1.5461 0 0 0 26 38 49 255 
0.234609 0.738828 1.58216 0 0 0 172 190 199 255 
0.241147 0.750066 1.58405 0 0 0 27 35 45 255 
0.315 0.633934 1.3144 0 0 0 25 37 43 255 
0.286828 0.642599 1.33634 0 0 0 139 157 163 255 
0.318424 0.643488 1.31317 0 0 0 175 181 189 255 
0.32339 0.748506 1.50322 0 0 0 180 189 197 255 
0.287354 0.657362 1.33686 0 0 0 30 36 42 255 
0.472787 0.812712 1.51651 0 0 0 22 36 48 255 
0.362722 0.656341 1.26936 0 0 0 178 183 191 255 
0.285893 -0.0537535 2.25632 0 0 0 186 190 198 255 
0.635371 0.0278972 2.97795 0 0 0 36 36 39 255 
0.583062 0.0428498 2.87786 0 0 0 48 66 79 255 
0.0856522 -0.050336 1.93535 0 0 0 93 92 97 255 
0.0706953 -0.0497443 1.91945 0 0 0 104 108 110 255 
0.484425 0.0584417 2.16757 0 0 0 97 106 117 255 
0.369365 0.0406545 2.09495 0 0 0 87 101 142 255 
0.652015 0.127059 2.60454 0 0 0 124 140 151 255 
0.418213 0.11174 2.01179 0 0 0 11 10 15 255 
0.285662 0.0839346 1.94406 0 0 0 62 121 170 255 
-0.0249928 0.0106293 2.09075 0 0 0 40 33 28 255 
0.163146 0.0742112 1.93986 0 0 0 97 128 132 255 
0.158634 0.103657 1.93 0 0 0 137 141 101 255 
0.788679 0.368694 2.60706 0 0 0 128 99 99 255 
0.195683 0.156024 1.87042 0 0 0 121 121 131 255 
0.355513 0.218556 1.94268 0 0 0 15 53 95 255 
0.438069 0.27623 1.99218 0 0 0 21 17 23 255 
0.577003 0.302807 1.86742 0 0 0 158 164 167 255 
0.0969502 0.206423 2.02048 0 0 0 27 26 26 255 
0.231832 0.291227 1.91578 0 0 0 54 65 96 255 
0.29507 0.346195 1.94858 0 0 0 23 57 99 255 
0.904584 0.55163 2.1484 0 0 0 50 51 74 255 
0.145004 0.3435 1.99015 0 0 0 93 116 125 255 
0.700682 0.53466 2.15984 0 0 0 136 156 180 255 
0.169592 0.376336 1.93131 0 0 0 72 68 74 255 
0.415042 0.434732 1.89574 0 0 0 11 60 128 255 
0.10056 0.407726 2.05569 0 0 0 176 181 191 255 
0.677769 0.54708 2.01899 0 0 0 31 50 71 255 
0.934229 0.618939 2.05693 0 0 0 11 61 94 255 
0.568459 0.552038 2.08561 0 0 0 69 55 41 255 
0.201131 0.440901 1.91107 0 0 0 58 102 131 255 
-0.0905931 0.394487 1.97423 0 0 0 63 66 70 255 
0.510923 0.516036 1.89162 0 0 0 164 100 54 255 
0.570903 0.54817 1.95739 0 0 0 60 54 38 255 
0.803116 0.631585 1.90906 0 0 0 109 126 128 255 
0.295885 0.566414 2.10047 0 0 0 177 185 192 255 
0.653329 0.635223 1.95072 0 0 0 77 135 168 255 
0.836331 0.667363 1.89847 0 0 0 89 135 157 255 
0.721745 0.683715 1.83822 0 0 0 135 103 86 255 
0.164973 0.612877 1.76525 0 0 0 27 35 45 255 
0.11215 0.656072 1.82754 0 0 0 26 35 42 255 
0.0494822 0.621463 1.73399 0 0 0 28 36 45 255 
0.150589 0.668849 1.78307 0 0 0 27 30 39 255 
0.138818 0.621546 1.65092 0 0 0 175 187 198 255 
0.703964 0.753553 1.67635 0 0 0 155 149 152 255 
0.0846892 0.639278 1.69599 0 0 0 28 33 43 255 
0.142732 0.638967 1.65934 0 0 0 23 31 40 255 
0.0919435 0.65929 1.70343 0 0 0 172 189 193 255 
0.177014 0.645613 1.62141 0 0 0 25 34 41 255 
0.125155 0.672658 1.6724 0 0 0 173 192 198 255 
0.18407 0.673163 1.6256 0 0 0 174 186 193 255 
0.136747 0.690494 1.66934 0 0 0 26 31 37 255 
0.252522 0.574455 1.35856 0 0 0 18 38 39 255 
0.261897 0.585542 1.35598 0 0 0 169 180 186 255 
0.214585 0.604446 1.39275 0 0 0 30 30 40 255 
0.186895 0.723229 1.62847 0 0 0 169 189 194 255 
0.287056 0.601614 1.33504 0 0 0 178 186 194 255 
0.281962 0.61787 1.34736 0 0 0 31 39 48 255 
0.286023 0.709872 1.53607 0 0 0 28 38 49 255 
0.242465 0.620929 1.36754 0 0 0 32 35 42 255 
0.237555 0.724916 1.57838 0 0 0 166 185 195 255 
0.241651 0.636182 1.37642 0 0 0 169 184 192 255 
0.284187 0.729007 1.54401 0 0 0 180 190 198 255 
0.320773 0.627978 1.30996 0 0 0 24 34 40 255 
0.275022 0.649898 1.34453 0 0 0 174 191 197 255 
0.331701 0.74227 1.49766 0 0 0 179 191 201 255 
0.395259 0.81081 1.5932 0 0 0 182 195 205 255 
0.321598 0.646774 1.31051 0 0 0 175 179 188 255 
0.282319 0.661583 1.34022 0 0 0 33 37 44 255 
0.298405 0.764708 1.52106 0 0 0 29 32 41 255 
0.333441 0.760405 1.50398 0 0 0 30 35 45 255 
0.524613 -0.0325398 3.25297 0 0 0 61 88 100 255 
0.7082 0.0388628 3.22498 0 0 0 26 42 62 255 
0.664278 0.0372892 3.23328 0 0 0 108 108 108 255 
0.357343 0.0627596 2.06714 0 0 0 127 147 163 255 
0.156132 0.0407761 1.91507 0 0 0 137 149 155 255 
0.646943 0.213535 2.28556 0 0 0 130 151 160 255 
0.098262 0.115936 1.99208 0 0 0 29 22 21 255 
0.368888 0.195543 1.96063 0 0 0 150 159 183 255 
0.961779 0.481887 2.69495 0 0 0 59 32 27 255 
0.304956 0.227799 1.90491 0 0 0 130 154 157 255 
0.564152 0.29605 1.89344 0 0 0 101 104 104 255 
0.447772 0.305415 2.05834 0 0 0 73 55 59 255 
0.955849 0.513208 2.48048 0 0 0 112 94 94 255 
0.594226 0.432711 2.19044 0 0 0 26 29 36 255 
0.438086 0.395366 1.98448 0 0 0 155 168 185 255 
0.255583 0.338958 1.84214 0 0 0 23 55 94 255 
0.698479 0.534948 2.15986 0 0 0 125 145 169 255 
0.176975 0.357393 1.93508 0 0 0 123 132 149 255 
0.151807 0.372796 1.94461 0 0 0 76 71 70 255 
0.698627 0.527862 2.06857 0 0 0 27 64 97 255 
0.991428 0.617478 2.07241 0 0 0 25 79 120 255 
0.0962904 0.413184 2.05623 0 0 0 171 183 190 255 
0.58765 0.543117 2.01768 0 0 0 44 34 35 255 
0.581845 0.539517 1.96966 0 0 0 145 132 111 255 
0.570128 0.54645 1.94868 0 0 0 60 56 25 255 
0.613295 0.564636 1.91266 0 0 0 32 41 52 255 
0.559756 0.548662 1.91614 0 0 0 85 88 54 255 
0.301726 0.564388 2.01868 0 0 0 197 212 219 255 
0.832293 0.656045 1.90376 0 0 0 105 137 156 255 
0.836134 0.697701 1.84848 0 0 0 35 48 66 255 
0.791571 0.715003 1.80389 0 0 0 46 55 68 255 
0.115132 0.601484 1.81531 0 0 0 29 40 51 255 
0.165462 0.60587 1.76155 0 0 0 28 35 46 255 
0.195816 0.624602 1.7397 0 0 0 175 189 199 255 
0.733803 0.729444 1.72047 0 0 0 136 144 153 255 
0.0480168 0.619132 1.7347 0 0 0 28 36 45 255 
0.152513 0.605803 1.63312 0 0 0 175 191 200 255 
0.277028 0.664208 1.67176 0 0 0 25 35 43 255 
0.17453 0.645094 1.62319 0 0 0 25 35 42 255 
0.166651 0.711064 1.78786 0 0 0 175 196 203 255 
0.666892 0.766568 1.66203 0 0 0 74 75 81 255 
0.0973173 0.681672 1.69897 0 0 0 174 190 199 255 
0.217107 0.660756 1.59365 0 0 0 174 189 196 255 
0.211439 0.726271 1.7546 0 0 0 30 38 45 255 
0.311974 0.697089 1.64643 0 0 0 180 197 203 255 
0.386475 0.735679 1.70065 0 0 0 37 48 55 255 
0.0936897 0.709372 1.71129 0 0 0 28 33 39 255 
0.234044 0.664494 1.57293 0 0 0 175 191 200 255 
0.337428 0.720549 1.63848 0 0 0 40 45 55 255 
0.1635 0.695204 1.64394 0 0 0 28 35 38 255 
0.250786 0.6926 1.57152 0 0 0 28 36 45 255 
0.15253 0.708804 1.64982 0 0 0 25 33 38 255 
0.218249 0.60401 1.39016 0 0 0 33 33 43 255 
0.286668 0.595392 1.33215 0 0 0 175 184 192 255 
0.188095 0.728872 1.62902 0 0 0 177 196 202 255 
0.291491 0.706217 1.53099 0 0 0 26 35 46 255 
0.214409 0.737945 1.60018 0 0 0 173 194 203 255 
0.368579 0.773946 1.61578 0 0 0 174 183 191 255 
0.3015 0.797783 1.68004 0 0 0 31 41 49 255 
0.485496 -0.04931 2.87445 0 0 0 77 92 106 255 
0.313352 -0.0234165 2.19539 0 0 0 179 193 205 255 
0.712072 0.0742705 3.33592 0 0 0 107 127 139 255 
0.558136 0.0986411 2.22914 0 0 0 23 22 26 255 
0.339985 0.0698569 2.02626 0 0 0 3 59 120 255 
0.357171 0.0677408 2.06896 0 0 0 113 141 162 255 
0.419898 0.113849 2.02158 0 0 0 22 13 20 255 
0.45101 0.122048 2.23884 0 0 0 169 173 179 255 
0.629002 0.203767 2.62076 0 0 0 47 68 76 255 
0.181022 0.111956 1.90714 0 0 0 140 136 76 255 
0.683684 0.264701 2.24881 0 0 0 128 149 165 255 
0.170712 0.114536 1.91325 0 0 0 120 115 87 255 
0.349487 0.205945 2.00007 0 0 0 161 163 179 255 
0.439969 0.282789 2.00177 0 0 0 27 20 23 255 
1.00664 0.483452 2.56426 0 0 0 94 106 112 255 
0.102844 0.207797 2.01558 0 0 0 30 30 30 255 
0.514659 0.38033 2.08581 0 0 0 131 132 137 255 
0.298889 0.326003 1.9448 0 0 0 160 170 186 255 
0.467322 0.381105 1.95562 0 0 0 89 80 83 255 
0.585864 0.434844 2.20304 0 0 0 25 30 36 255 
0.468153 0.413601 1.8344 0 0 0 8 60 107 255 
0.255879 0.423478 1.97041 0 0 0 53 82 95 255 
0.215475 0.417534 1.89648 0 0 0 32 76 116 255 
0.717647 0.567238 1.98978 0 0 0 147 186 211 255 
0.596777 0.547292 1.94455 0 0 0 134 131 135 255 
0.618615 0.557885 1.90528 0 0 0 38 39 44 255 
0.544633 0.565028 1.93771 0 0 0 39 54 69 255 
0.588641 0.610172 1.98872 0 0 0 110 152 183 255 
0.649881 0.615675 1.97811 0 0 0 89 146 172 255 
0.227783 0.591889 2.15711 0 0 0 193 210 216 255 
0.81649 0.71693 1.85185 0 0 0 118 146 168 255 
0.129218 0.599262 1.80031 0 0 0 30 40 51 255 
0.238669 0.660745 1.82841 0 0 0 31 41 49 255 
0.03951 0.661806 1.89403 0 0 0 175 188 197 255 
0.262186 0.675007 1.80103 0 0 0 32 37 45 255 
0.241718 0.659789 1.72453 0 0 0 29 37 42 255 
0.0988518 0.68295 1.83719 0 0 0 27 31 40 255 
0.196159 0.624928 1.61131 0 0 0 21 29 34 255 
0.317423 0.736589 1.77677 0 0 0 44 51 63 255 
0.222962 0.653659 1.59871 0 0 0 175 187 195 255 
0.304522 0.693401 1.65842 0 0 0 178 194 199 255 
0.0630684 0.687335 1.73325 0 0 0 172 191 199 255 
0.234428 0.658181 1.58024 0 0 0 175 190 197 255 
0.821111 0.776053 1.57664 0 0 0 152 148 142 255 
0.227514 0.738817 1.73157 0 0 0 31 39 46 255 
0.653151 0.178759 2.18973 0 0 0 58 42 42 255 
0.273844 0.0689284 2.13618 0 0 0 1 61 123 255 
0.750264 0.227067 2.57761 0 0 0 25 28 35 255 
0.686422 0.258859 2.23643 0 0 0 133 151 164 255 
0.352524 0.218121 1.93927 0 0 0 66 95 125 255 
0.548594 0.271947 1.93864 0 0 0 115 119 123 255 
0.373503 0.236489 1.85457 0 0 0 145 166 185 255 
1.00394 0.497225 2.56885 0 0 0 102 119 125 255 
0.27499 0.290308 1.91601 0 0 0 20 52 92 255 
0.451067 0.39275 1.96354 0 0 0 164 170 180 255 
0.693781 0.5011 2.2303 0 0 0 38 43 53 255 
0.970271 0.598945 2.14591 0 0 0 93 40 71 255 
0.541782 0.5268 2.16939 0 0 0 177 114 45 255 
0.137044 0.396543 1.96361 0 0 0 129 134 140 255 
0.443698 0.579049 2.33229 0 0 0 181 169 104 255 
0.248858 0.43293 1.85709 0 0 0 6 80 126 255 
0.413961 0.435342 1.69607 0 0 0 11 70 115 255 
0.534195 0.525443 1.81697 0 0 0 194 173 100 255 
0.631037 0.611145 1.98632 0 0 0 127 157 179 255 
0.241732 0.584726 2.01988 0 0 0 191 207 216 255 
0.0972208 0.618826 1.94691 0 0 0 26 34 41 255 
0.466771 0.608931 1.65282 0 0 0 35 53 68 255 
0.650745 0.725415 1.7315 0 0 0 137 110 92 255 
0.222187 0.683234 1.84546 0 0 0 33 38 48 255 
0.557846 0.730645 1.79136 0 0 0 43 70 101 255 
0.384893 -0.000151576 2.44231 0 0 0 38 54 70 255 
0.8054 0.132214 2.21312 0 0 0 103 103 101 255 
0.737508 0.115924 2.24053 0 0 0 108 102 95 255 
0.381968 0.0293091 2.43834 0 0 0 141 138 140 255 
-0.235531 -0.0895086 2.08402 0 0 0 94 55 52 255 
-0.601686 -0.177442 2.03193 0 0 0 126 142 98 255 
-0.36411 -0.107544 2.08498 0 0 0 96 107 92 255 
-0.367852 -0.10485 2.08239 0 0 0 90 101 89 255 
0.41715 0.087306 2.4005 0 0 0 85 84 88 255 
-0.481843 -0.116047 2.02455 0 0 0 114 129 110 255 
0.339688 0.0842785 1.87667 0 0 0 8 63 111 255 
-0.384266 -0.087458 2.08137 0 0 0 49 58 58 255 
0.333239 0.0859638 1.87247 0 0 0 52 108 156 255 
0.411526 0.100099 2.39689 0 0 0 85 92 95 255 
0.33038 0.101992 1.87813 0 0 0 68 121 164 255 
0.18314 0.100907 1.88801 0 0 0 82 105 121 255 
-0.514259 -0.0465729 2.01103 0 0 0 109 124 100 255 
0.281725 0.150527 1.86983 0 0 0 115 116 129 255 
0.259187 0.153631 1.87554 0 0 0 65 93 114 255 
-0.587127 -0.0216415 1.97066 0 0 0 75 84 86 255 
-0.590816 -0.0198206 1.96762 0 0 0 79 87 91 255 
-0.458999 0.0111991 2.06358 0 0 0 75 93 81 255 
0.259585 0.162005 1.87924 0 0 0 109 133 160 255 
-0.44837 0.0205869 2.07987 0 0 0 90 104 96 255 
-0.500256 0.00526239 2.01443 0 0 0 120 141 108 255 
0.247637 0.16479 1.88682 0 0 0 49 110 140 255 
-0.413193 0.0372475 2.12653 0 0 0 65 74 76 255 
-0.515326 0.0162954 1.99075 0 0 0 122 135 108 255 
-0.4166 0.0440717 2.12212 0 0 0 38 46 52 255 
-0.500147 0.0278263 2.01992 0 0 0 104 122 95 255 
-0.460016 0.0421609 2.06656 0 0 0 78 89 88 255 
-0.449811 0.0483366 2.07216 0 0 0 49 57 62 255 
-0.470741 0.0501729 2.06115 0 0 0 88 101 102 255 
-0.501132 0.0435329 2.02443 0 0 0 115 133 108 255 
-0.460928 0.0503987 2.06584 0 0 0 12 23 25 255 
-0.469614 0.0574203 2.06195 0 0 0 110 120 122 255 
-0.485455 0.0590115 2.04192 0 0 0 58 70 74 255 
-0.467485 0.0610998 2.06489 0 0 0 104 114 118 255 
0.656354 0.320454 2.35896 0 0 0 139 107 102 255 
0.921865 0.366928 2.28332 0 0 0 135 101 101 255 
-0.496626 0.064694 2.03562 0 0 0 59 71 74 255 
-0.331271 0.109564 2.21162 0 0 0 69 80 86 255 
0.351744 0.239748 1.94699 0 0 0 130 142 162 255 
-0.510073 0.0736923 2.02564 0 0 0 63 75 80 255 
0.265463 0.226345 1.90558 0 0 0 121 142 174 255 
-0.524993 0.075036 2.01719 0 0 0 78 90 94 255 
-0.336152 0.13138 2.23529 0 0 0 87 97 103 255 
-0.529261 0.0760463 2.00925 0 0 0 27 37 41 255 
-0.398887 0.121093 2.18016 0 0 0 49 68 76 255 
-0.537462 0.0853659 1.97499 0 0 0 73 83 87 255 
-0.583594 0.0848817 1.99518 0 0 0 83 91 96 255 
-0.517439 0.0983468 2.03953 0 0 0 50 60 66 255 
-0.564775 0.0915691 1.98473 0 0 0 89 97 102 255 
-0.427289 0.130173 2.1512 0 0 0 88 103 108 255 
-0.594636 0.0964552 1.97719 0 0 0 76 84 91 255 
0.386161 0.332799 2.48662 0 0 0 147 146 151 255 
-0.632275 0.0935289 1.98687 0 0 0 70 80 88 255 
-0.503196 0.12276 2.04647 0 0 0 122 132 140 255 
-0.496741 0.127691 2.05444 0 0 0 100 110 118 255 
-0.667871 0.0915319 1.98244 0 0 0 101 111 117 255 
0.374263 0.290503 1.96252 0 0 0 137 160 169 255 
-0.641891 0.104353 1.97905 0 0 0 82 92 99 255 
-0.432586 0.156598 2.14054 0 0 0 98 108 114 255 
-0.669808 0.100232 1.9754 0 0 0 8 18 26 255 
-0.657654 0.103557 1.97757 0 0 0 111 121 129 255 
-0.446236 0.161811 2.12755 0 0 0 144 154 162 255 
0.345852 0.309898 1.96998 0 0 0 153 178 202 255 
-0.434805 0.179295 2.12542 0 0 0 119 134 141 255 
-0.538681 0.154658 2.02737 0 0 0 112 129 135 255 
0.320209 0.305514 1.95047 0 0 0 67 83 91 255 
-0.534423 0.161463 2.0346 0 0 0 149 166 172 255 
0.205728 0.308478 1.92934 0 0 0 74 82 94 255 
-0.557196 0.18118 2.02639 0 0 0 155 172 178 255 
-0.52511 0.193375 2.06114 0 0 0 155 171 180 255 
-0.567242 0.185922 2.01448 0 0 0 108 125 131 255 
-0.449866 0.228456 2.15325 0 0 0 85 104 109 255 
-0.567436 0.197033 2.01406 0 0 0 154 166 174 255 
0.244638 0.338451 1.93773 0 0 0 148 172 189 255 
-0.576242 0.200956 2.00467 0 0 0 92 104 112 255 
0.369956 0.39906 2.15925 0 0 0 115 134 142 255 
-0.256973 0.27708 1.93979 0 0 0 37 57 63 255 
-0.589316 0.232921 1.99254 0 0 0 146 160 167 255 
-0.564158 0.243862 2.02766 0 0 0 151 164 170 255 
0.24273 0.374456 1.95487 0 0 0 53 92 104 255 
0.350088 0.401742 2.02231 0 0 0 82 98 127 255 
-0.242256 0.284004 1.91338 0 0 0 84 107 116 255 
-0.620335 0.244514 1.96492 0 0 0 153 161 170 255 
-0.543646 0.27002 2.05633 0 0 0 132 148 159 255 
-0.671703 0.249376 1.96661 0 0 0 89 106 110 255 
0.242494 0.403148 1.96124 0 0 0 77 131 143 255 
0.306814 0.418098 1.97701 0 0 0 69 125 168 255 
0.897259 0.547416 2.14669 0 0 0 48 44 58 255 
-0.683375 0.254124 1.96048 0 0 0 156 171 176 255 
-0.658585 0.259614 1.97017 0 0 0 102 112 118 255 
-0.185146 0.297917 1.70421 0 0 0 141 132 131 255 
-0.137303 0.319924 1.78722 0 0 0 94 139 174 255 
-0.615855 0.267007 1.96859 0 0 0 150 163 175 255 
-0.133004 0.336281 1.87396 0 0 0 91 112 114 255 
0.709409 0.522929 2.17197 0 0 0 49 58 72 255 
0.751893 0.53173 2.16474 0 0 0 31 53 85 255 
0.307965 0.432173 1.97486 0 0 0 137 139 136 255 
0.310851 0.430667 1.97609 0 0 0 110 117 110 255 
0.337986 0.443966 2.04661 0 0 0 41 97 140 255 
0.640256 0.519906 2.19643 0 0 0 94 111 133 255 
-0.166662 0.311249 1.70354 0 0 0 69 80 89 255 
-0.196626 0.353396 2.0271 0 0 0 70 81 86 255 
0.236785 0.416772 1.96532 0 0 0 115 124 144 255 
0.27924 0.428324 1.97032 0 0 0 134 140 136 255 
-0.195685 0.303419 1.68338 0 0 0 143 135 121 255 
0.233013 0.42968 1.96379 0 0 0 135 139 141 255 
-0.21669 0.307216 1.68201 0 0 0 127 131 133 255 
0.16199 0.424204 2.02114 0 0 0 108 105 132 255 
-0.217524 0.313647 1.67274 0 0 0 130 134 137 255 
-0.189143 0.318917 1.67911 0 0 0 114 102 107 255 
-0.672328 0.292569 1.9575 0 0 0 132 149 153 255 
0.621995 0.535162 2.15714 0 0 0 98 91 97 255 
-0.154033 0.373457 1.94469 0 0 0 85 92 99 255 
-0.200918 0.332711 1.66537 0 0 0 47 60 77 255 
-0.184737 0.34192 1.65989 0 0 0 85 78 92 255 
0.936021 0.592379 2.06514 0 0 0 105 127 154 255 
-0.20127 0.340265 1.66062 0 0 0 84 78 94 255 
0.943764 0.593738 2.05614 0 0 0 105 130 156 255 
1.05068 0.606522 2.03982 0 0 0 70 94 111 255 
0.983991 0.604292 2.07484 0 0 0 11 39 79 255 
-0.262319 0.335237 1.6588 0 0 0 80 106 107 255 
1.07154 0.616224 2.03745 0 0 0 107 119 132 255 
1.04764 0.614542 2.02956 0 0 0 124 143 164 255 
-0.173068 0.358452 1.65711 0 0 0 50 83 102 255 
-0.110163 0.373866 1.66996 0 0 0 102 85 105 255 
1.05382 0.622721 2.01187 0 0 0 99 119 139 255 
-0.0703197 0.409833 1.74525 0 0 0 96 119 132 255 
1.02205 0.628674 2.02418 0 0 0 20 43 73 255 
0.691539 0.588551 2.06193 0 0 0 95 159 193 255 
-0.171665 0.373311 1.61407 0 0 0 89 101 127 255 
1.01569 0.630394 2.01438 0 0 0 44 69 96 255 
1.06782 0.633609 1.99983 0 0 0 112 129 144 255 
-0.0753744 0.409854 1.71933 0 0 0 116 133 140 255 
-0.0619865 0.419882 1.75639 0 0 0 109 135 148 255 
1.00253 0.634017 1.98012 0 0 0 44 67 92 255 
1.04787 0.642702 1.97178 0 0 0 99 127 149 255 
0.999897 0.635923 1.97029 0 0 0 61 85 105 255 
1.03648 0.645804 1.9758 0 0 0 104 135 159 255 
1.04168 0.650067 1.94876 0 0 0 30 59 86 255 
1.01371 0.65266 1.96576 0 0 0 91 125 146 255 
-0.18607 0.407651 1.60405 0 0 0 61 91 104 255 
-0.180079 0.41535 1.61746 0 0 0 98 100 116 255 
-0.182307 0.419054 1.60606 0 0 0 133 146 166 255 
1.018 0.662251 1.94619 0 0 0 91 114 139 255 
0.964864 0.653225 1.92554 0 0 0 56 77 102 255 
-0.179395 0.427329 1.62038 0 0 0 153 176 183 255 
1.04698 0.671167 1.90731 0 0 0 21 55 86 255 
-0.182287 0.436475 1.60161 0 0 0 50 53 60 255 
-0.180367 0.438437 1.61772 0 0 0 75 78 90 255 
-0.216367 0.442215 1.60904 0 0 0 73 71 31 255 
0.952028 0.665043 1.89254 0 0 0 99 119 135 255 
-0.153781 0.456868 1.62556 0 0 0 96 70 86 255 
-0.203508 0.447952 1.6052 0 0 0 79 68 63 255 
1.0297 0.683259 1.88353 0 0 0 93 127 153 255 
-0.112285 0.487656 1.66252 0 0 0 155 89 97 255 
0.931446 0.674602 1.87627 0 0 0 106 122 139 255 
0.863183 0.668648 1.87332 0 0 0 91 130 160 255 
1.03216 0.68711 1.86312 0 0 0 61 87 104 255 
0.86578 0.671931 1.85276 0 0 0 63 101 130 255 
0.931483 0.683524 1.86284 0 0 0 113 127 139 255 
1.02653 0.693662 1.85065 0 0 0 125 152 164 255 
0.917093 0.687637 1.86555 0 0 0 131 144 165 255 
0.925851 0.688212 1.86109 0 0 0 65 68 87 255 
1.00855 0.691328 1.84704 0 0 0 74 94 109 255 
0.85797 0.672923 1.85234 0 0 0 111 141 168 255 
0.996233 0.692174 1.84824 0 0 0 91 121 141 255 
0.171047 0.614872 1.88196 0 0 0 32 43 54 255 
-0.0848396 0.542002 1.70177 0 0 0 32 62 83 255 
0.71497 0.678447 1.84782 0 0 0 124 107 105 255 
0.843635 0.697843 1.83862 0 0 0 34 55 84 255 
0.952757 0.713893 1.84323 0 0 0 69 101 131 255 
0.724867 0.688634 1.82311 0 0 0 111 65 49 255 
-0.341825 0.523788 1.66622 0 0 0 132 150 154 255 
0.41519 0.655837 1.82144 0 0 0 140 151 164 255 
-0.211666 0.539816 1.63153 0 0 0 72 84 81 255 
0.137331 0.637672 1.80469 0 0 0 165 179 189 255 
0.370327 0.6629 1.80613 0 0 0 49 82 85 255 
-0.21629 0.56919 1.64936 0 0 0 115 116 121 255 
-0.227992 0.573947 1.65314 0 0 0 119 118 126 255 
0.167866 0.666808 1.76863 0 0 0 40 50 61 255 
0.198522 0.665008 1.74996 0 0 0 37 49 57 255 
0.919734 0.752742 1.70638 0 0 0 63 78 96 255 
0.919641 0.752643 1.70738 0 0 0 63 78 96 255 
0.960245 0.754504 1.69421 0 0 0 63 119 150 255 
0.735848 0.736876 1.69325 0 0 0 89 92 110 255 
0.948947 0.765369 1.68878 0 0 0 94 138 157 255 
0.947344 0.769006 1.6809 0 0 0 65 107 126 255 
-0.0611647 0.695082 1.6485 0 0 0 177 187 193 255 
0.919634 0.778905 1.65014 0 0 0 55 84 106 255 
0.722572 0.758364 1.64018 0 0 0 68 97 121 255 
-0.0460244 0.700903 1.63447 0 0 0 18 28 36 255 
-0.0636877 0.705943 1.63782 0 0 0 155 169 176 255 
0.996188 0.797737 1.65683 0 0 0 81 157 193 255 
-0.124329 0.71545 1.59452 0 0 0 28 40 47 255 
-0.00200985 0.721165 1.59271 0 0 0 27 39 47 255 
0.918725 0.795764 1.60329 0 0 0 146 167 186 255 
-0.135473 0.720125 1.59217 0 0 0 171 188 192 255 
-0.0164924 0.726552 1.59384 0 0 0 175 192 198 255 
0.0124953 0.727497 1.57932 0 0 0 171 183 191 255 
-0.11093 0.721868 1.58111 0 0 0 166 178 186 255 
-0.124005 0.725881 1.58083 0 0 0 30 44 50 255 
-0.00138694 0.734047 1.57913 0 0 0 27 39 47 255 
0.981554 0.816709 1.6003 0 0 0 57 93 122 255 
-0.0638148 0.742015 1.53819 0 0 0 174 184 191 255 
0.0580925 0.748513 1.53664 0 0 0 176 188 196 255 
-0.185103 0.736124 1.53858 0 0 0 173 183 186 255 
-0.07726 0.747022 1.53743 0 0 0 25 33 40 255 
-0.198402 0.738879 1.53723 0 0 0 26 35 37 255 
0.043023 0.75416 1.53897 0 0 0 25 35 38 255 
0.167798 0.762606 1.53731 0 0 0 21 33 41 255 
0.0721007 0.753825 1.52295 0 0 0 21 35 45 255 
0.192534 0.760034 1.52325 0 0 0 47 58 66 255 
-0.174801 0.743074 1.52474 0 0 0 40 52 56 255 
-0.049586 0.7485 1.52254 0 0 0 40 49 57 255 
0.0580198 0.759762 1.52475 0 0 0 169 184 189 255 
0.17771 0.766849 1.52677 0 0 0 156 168 176 255 
-0.185031 0.745752 1.52256 0 0 0 156 169 174 255 
-0.0641628 0.753578 1.52248 0 0 0 171 182 192 255 
0.848063 0.811573 1.53191 0 0 0 77 92 105 255 
-0.126087 0.762033 1.48139 0 0 0 24 39 47 255 
-0.00402176 0.76809 1.4802 0 0 0 21 33 40 255 
0.115964 0.775144 1.48179 0 0 0 25 39 49 255 
0.239915 0.782911 1.48161 0 0 0 23 37 47 255 
0.360522 0.790893 1.48494 0 0 0 32 46 56 255 
-0.136408 0.766109 1.47784 0 0 0 175 190 195 255 
-0.0168391 0.772725 1.47969 0 0 0 171 188 192 255 
0.105645 0.78192 1.48025 0 0 0 176 191 198 255 
0.22859 0.789994 1.48289 0 0 0 169 184 191 255 
-0.112941 0.769143 1.46624 0 0 0 167 182 185 255 
0.00834503 0.774079 1.4674 0 0 0 165 180 187 255 
0.129823 0.781843 1.4676 0 0 0 170 182 190 255 
0.252837 0.78838 1.46886 0 0 0 173 185 193 255 
0.350953 0.800121 1.48579 0 0 0 175 189 199 255 
0.474156 0.808965 1.49155 0 0 0 173 188 198 255 
0.496322 0.803364 1.47601 0 0 0 171 187 198 255 
0.607965 0.813155 1.48376 0 0 0 146 158 166 255 
-0.00468903 0.778287 1.46759 0 0 0 37 47 53 255 
0.119518 0.787495 1.46726 0 0 0 24 34 42 255 
0.241765 0.796121 1.46976 0 0 0 28 36 45 255 
0.362448 0.80544 1.47341 0 0 0 30 41 51 255 
0.484451 0.813578 1.48001 0 0 0 40 53 62 255 
0.926488 0.844008 1.49341 0 0 0 120 131 142 255 
-0.066572 0.789487 1.42451 0 0 0 185 196 200 255 
-0.0764342 0.792565 1.42265 0 0 0 30 35 43 255 
0.0573679 0.796182 1.4228 0 0 0 178 187 195 255 
0.177167 0.804373 1.42441 0 0 0 180 189 194 255 
0.298774 0.810902 1.4271 0 0 0 178 187 196 255 
0.0447489 0.801478 1.42235 0 0 0 24 32 38 255 
0.421102 0.818444 1.42982 0 0 0 176 188 196 255 
-0.0542903 0.795241 1.41082 0 0 0 26 36 42 255 
0.068281 0.800895 1.41105 0 0 0 30 37 46 255 
0.164947 0.810014 1.42635 0 0 0 25 33 42 255 
0.288411 0.816953 1.42966 0 0 0 32 40 49 255 
-0.0649974 0.798717 1.40872 0 0 0 175 183 192 255 
0.0550019 0.806202 1.41121 0 0 0 164 174 180 255 
0.18981 0.809596 1.41008 0 0 0 36 46 52 255 
0.312365 0.814037 1.41328 0 0 0 47 55 64 255 
0.411466 0.827629 1.43187 0 0 0 32 44 52 255 
0.435183 0.821233 1.41444 0 0 0 39 51 59 255 
0.533567 0.837885 1.4397 0 0 0 37 52 59 255 
0.556205 0.830449 1.42159 0 0 0 47 58 66 255 
0.176649 0.81467 1.41384 0 0 0 162 176 182 255 
0.300177 0.822402 1.41554 0 0 0 175 185 193 255 
0.422993 0.830525 1.41867 0 0 0 173 187 197 255 
0.54386 0.841073 1.4269 0 0 0 171 187 196 255 
-0.00475698 0.81757 1.36495 0 0 0 24 38 45 255 
