ply
format ascii 1.0
comment VCGLIB generated
element vertex 1006
property float x
property float y
property float z
property float nx
property float ny
property float nz
property uchar red
property uchar green
property uchar blue
property uchar alpha
element face 0
property list uchar int vertex_indices
end_header
0.402269 0.156399 1.70176 0 0 0 11 24 38 255 
0.339855 0.144884 1.52635 0 0 0 51 128 182 255 
1.19214 0.34767 1.68043 0 0 0 113 113 95 255 
1.29539 0.400933 1.67452 0 0 0 35 55 40 255 
1.15062 0.375353 1.71983 0 0 0 103 94 77 255 
0.302657 0.176133 1.56012 0 0 0 96 114 140 255 
0.370613 0.193949 1.54862 0 0 0 103 161 193 255 
0.716104 0.298215 1.86934 0 0 0 99 102 92 255 
0.348005 0.19236 1.53647 0 0 0 88 117 156 255 
1.15608 0.402748 1.74076 0 0 0 77 99 81 255 
1.33902 0.447444 1.74837 0 0 0 36 55 63 255 
1.25537 0.448105 1.7364 0 0 0 63 84 85 255 
1.03175 0.41198 1.90199 0 0 0 64 64 66 255 
1.28874 0.456211 1.69552 0 0 0 22 54 72 255 
0.36062 0.236087 1.59642 0 0 0 70 118 173 255 
0.691986 0.350711 1.9032 0 0 0 120 71 67 255 
1.28722 0.470401 1.70131 0 0 0 44 74 69 255 
0.528748 0.32565 2.00736 0 0 0 155 119 116 255 
0.682761 0.355345 1.94225 0 0 0 137 87 81 255 
0.761759 0.374512 1.92537 0 0 0 128 104 104 255 
0.765073 0.380757 1.92686 0 0 0 136 115 115 255 
0.396161 0.312625 1.94792 0 0 0 41 34 44 255 
1.10819 0.467458 1.8026 0 0 0 93 93 89 255 
1.12823 0.469913 1.79787 0 0 0 73 80 78 255 
0.382556 0.298449 1.61111 0 0 0 142 180 213 255 
0.261789 0.26175 1.55659 0 0 0 145 175 213 255 
1.30473 0.581656 1.784 0 0 0 75 98 98 255 
0.37411 0.331561 1.62235 0 0 0 113 163 188 255 
1.29451 0.594279 1.77085 0 0 0 79 107 110 255 
0.305259 0.319933 1.57377 0 0 0 161 181 223 255 
0.347938 0.396438 1.87165 0 0 0 39 59 80 255 
0.62482 0.475784 1.86334 0 0 0 52 57 71 255 
0.24532 0.336045 1.57508 0 0 0 78 105 116 255 
0.196827 0.354351 1.62618 0 0 0 41 119 143 255 
0.895181 0.563653 1.73008 0 0 0 66 76 96 255 
0.669655 0.521241 1.76918 0 0 0 147 191 229 255 
0.827582 0.55957 1.75136 0 0 0 90 108 136 255 
0.912225 0.578144 1.75251 0 0 0 63 86 113 255 
0.0951006 0.399979 1.81049 0 0 0 74 85 92 255 
0.841789 0.568161 1.73201 0 0 0 49 36 71 255 
0.967715 0.584626 1.67004 0 0 0 111 136 147 255 
0.0977923 0.406466 1.80393 0 0 0 155 179 187 255 
0.104491 0.407794 1.79593 0 0 0 160 191 201 255 
0.661475 0.532508 1.74333 0 0 0 110 181 224 255 
0.356569 0.437766 1.64304 0 0 0 40 105 161 255 
0.858091 0.573634 1.70681 0 0 0 75 90 118 255 
0.894204 0.585243 1.70379 0 0 0 81 137 180 255 
0.354455 0.438645 1.63956 0 0 0 46 111 164 255 
0.748742 0.549738 1.69608 0 0 0 42 110 167 255 
1.01138 0.608774 1.67786 0 0 0 66 101 122 255 
0.964075 0.601668 1.65088 0 0 0 111 140 158 255 
0.790418 0.574612 1.7065 0 0 0 103 112 148 255 
0.899158 0.59417 1.67727 0 0 0 9 98 145 255 
0.96645 0.613293 1.6622 0 0 0 63 81 103 255 
0.982897 0.621545 1.67203 0 0 0 47 64 95 255 
0.651429 0.55123 1.69173 0 0 0 35 153 191 255 
0.935375 0.611825 1.63176 0 0 0 105 150 177 255 
0.92609 0.613501 1.6265 0 0 0 57 98 130 255 
0.594063 0.557764 1.71032 0 0 0 137 182 211 255 
0.940439 0.624557 1.63416 0 0 0 110 155 184 255 
0.931587 0.625576 1.6358 0 0 0 115 160 191 255 
1.0373 0.649296 1.62539 0 0 0 15 118 151 255 
0.744337 0.582868 1.64564 0 0 0 61 112 143 255 
1.01923 0.647907 1.62452 0 0 0 74 155 199 255 
0.583727 0.564241 1.70817 0 0 0 112 165 199 255 
0.738763 0.582258 1.62892 0 0 0 38 69 112 255 
1.01853 0.652872 1.616 0 0 0 10 98 141 255 
0.937392 0.634792 1.6188 0 0 0 30 79 111 255 
0.727697 0.587768 1.62809 0 0 0 25 86 136 255 
0.973523 0.645576 1.5908 0 0 0 24 93 125 255 
0.990821 0.652514 1.59906 0 0 0 29 106 140 255 
0.91321 0.633272 1.58206 0 0 0 93 140 168 255 
0.763303 0.609259 1.61379 0 0 0 70 47 76 255 
0.88845 0.632986 1.58248 0 0 0 121 150 167 255 
0.95987 0.651099 1.5866 0 0 0 5 67 99 255 
0.971115 0.654033 1.58487 0 0 0 103 157 193 255 
0.870071 0.633209 1.56539 0 0 0 34 62 86 255 
0.901493 0.644806 1.55176 0 0 0 44 89 117 255 
0.774714 0.624822 1.57951 0 0 0 60 123 152 255 
0.623901 0.58438 1.54813 0 0 0 114 182 222 255 
0.749048 0.621973 1.5624 0 0 0 131 150 179 255 
0.817903 0.655713 1.51934 0 0 0 23 72 99 255 
0.73468 0.651033 1.53028 0 0 0 50 51 54 255 
0.754177 0.652252 1.5221 0 0 0 123 132 141 255 
0.656798 0.637519 1.49194 0 0 0 142 119 120 255 
1.26436 0.807201 1.52143 0 0 0 148 174 190 255 
0.663321 0.648798 1.48504 0 0 0 139 97 73 255 
0.925968 0.698622 1.43695 0 0 0 55 159 190 255 
0.729146 0.665243 1.4664 0 0 0 141 162 183 255 
0.930465 0.701873 1.42632 0 0 0 47 154 191 255 
0.733799 0.676397 1.45754 0 0 0 35 79 113 255 
0.95826 0.721498 1.42098 0 0 0 139 193 223 255 
0.198977 0.58178 1.5464 0 0 0 69 87 102 255 
0.934839 0.718878 1.41743 0 0 0 75 139 183 255 
0.63842 0.663897 1.45612 0 0 0 132 121 118 255 
0.898208 0.709243 1.4059 0 0 0 142 192 213 255 
0.404485 0.615916 1.48576 0 0 0 155 174 188 255 
0.663091 0.669288 1.4431 0 0 0 75 80 90 255 
0.655271 0.6718 1.44348 0 0 0 133 128 131 255 
0.900771 0.714367 1.38285 0 0 0 46 130 161 255 
0.598475 0.662337 1.43393 0 0 0 96 108 114 255 
0.890368 0.707074 1.35911 0 0 0 145 194 216 255 
0.372853 0.61845 1.45777 0 0 0 47 76 102 255 
0.864652 0.722477 1.40247 0 0 0 63 139 170 255 
0.828108 0.712309 1.39806 0 0 0 60 93 119 255 
0.889104 0.711741 1.35327 0 0 0 55 118 145 255 
0.632778 0.674802 1.41933 0 0 0 95 88 91 255 
0.864719 0.725288 1.39736 0 0 0 41 96 129 255 
0.854915 0.724556 1.38844 0 0 0 74 141 172 255 
0.647121 0.683503 1.40743 0 0 0 147 139 147 255 
0.877977 0.717541 1.34561 0 0 0 126 178 215 255 
0.614199 0.672081 1.39686 0 0 0 109 98 83 255 
0.854882 0.728438 1.37999 0 0 0 54 105 135 255 
0.595581 0.680143 1.39864 0 0 0 109 94 83 255 
0.575909 0.675126 1.40076 0 0 0 88 97 117 255 
0.621135 0.677773 1.376 0 0 0 113 103 93 255 
0.309421 0.624308 1.43433 0 0 0 49 68 87 255 
0.570313 0.67559 1.39203 0 0 0 33 48 71 255 
0.893367 0.74075 1.33015 0 0 0 62 161 210 255 
0.567188 0.682132 1.36504 0 0 0 167 155 145 255 
0.589037 0.683152 1.35387 0 0 0 90 81 76 255 
0.553772 0.689583 1.37736 0 0 0 111 115 128 255 
0.580594 0.683387 1.35051 0 0 0 158 148 144 255 
0.657816 0.706023 1.34776 0 0 0 121 144 166 255 
0.591167 0.691574 1.34365 0 0 0 112 115 124 255 
0.613614 0.704026 1.3508 0 0 0 131 127 136 255 
0.840946 0.736381 1.29172 0 0 0 133 179 201 255 
0.828549 0.744607 1.30858 0 0 0 151 185 210 255 
0.785017 0.742533 1.28451 0 0 0 94 121 144 255 
0.2677 -0.042695 1.69875 0 0 0 94 94 94 255 
0.291526 -0.0446674 1.70981 0 0 0 163 162 165 255 
0.429912 0.00495712 1.82998 0 0 0 19 23 27 255 
0.413133 0.00549442 1.96957 0 0 0 128 148 160 255 
0.281803 -0.00062641 1.76103 0 0 0 104 102 110 255 
0.386404 0.0155164 2.07754 0 0 0 38 43 49 255 
0.382627 0.0267377 2.11954 0 0 0 104 105 104 255 
1.05143 0.22126 1.85759 0 0 0 25 18 23 255 
1.35507 0.302177 1.69919 0 0 0 41 61 72 255 
1.36064 0.323172 1.72263 0 0 0 61 76 64 255 
0.395154 0.152831 1.958 0 0 0 31 27 38 255 
0.771419 0.246354 1.87113 0 0 0 101 121 107 255 
1.19158 0.346645 1.68033 0 0 0 113 113 95 255 
1.28175 0.376219 1.63438 0 0 0 11 49 80 255 
1.27725 0.395968 1.64162 0 0 0 24 34 35 255 
0.326434 0.176511 1.54625 0 0 0 95 139 184 255 
1.15614 0.401853 1.73794 0 0 0 63 88 73 255 
1.32365 0.461472 1.73693 0 0 0 47 59 65 255 
1.25745 0.44791 1.73765 0 0 0 63 84 85 255 
1.27443 0.447134 1.66499 0 0 0 16 48 80 255 
1.27545 0.469367 1.68085 0 0 0 27 54 57 255 
1.33209 0.491953 1.76986 0 0 0 29 62 87 255 
0.392936 0.297472 1.72828 0 0 0 27 34 49 255 
0.379385 0.310052 1.60247 0 0 0 156 187 199 255 
1.13349 0.545927 1.89806 0 0 0 136 115 100 255 
1.30658 0.582639 1.78668 0 0 0 75 98 98 255 
0.348181 0.397172 1.86917 0 0 0 39 59 80 255 
0.302177 0.339678 1.57832 0 0 0 139 170 201 255 
0.349064 0.40767 1.85811 0 0 0 143 173 191 255 
0.0949326 0.400203 1.81057 0 0 0 74 85 92 255 
0.279938 0.39222 1.57798 0 0 0 35 105 97 255 
1.00581 0.607089 1.68052 0 0 0 64 104 128 255 
0.877341 0.589278 1.70341 0 0 0 17 52 100 255 
0.896506 0.596263 1.68009 0 0 0 10 98 146 255 
0.978859 0.619648 1.66536 0 0 0 51 68 99 255 
0.923005 0.615236 1.62296 0 0 0 39 79 111 255 
1.03544 0.649592 1.62813 0 0 0 17 118 152 255 
1.01531 0.651135 1.61706 0 0 0 30 116 158 255 
0.747399 0.620761 1.56779 0 0 0 70 83 107 255 
0.769085 0.623447 1.55237 0 0 0 117 164 192 255 
0.909927 0.672886 1.52429 0 0 0 156 181 194 255 
1.27475 0.807997 1.53196 0 0 0 57 78 97 255 
0.907353 0.700285 1.45983 0 0 0 78 160 192 255 
1.26641 0.816116 1.52761 0 0 0 185 212 225 255 
0.734479 0.665431 1.48088 0 0 0 70 87 107 255 
0.148411 0.561707 1.5865 0 0 0 125 147 162 255 
0.729257 0.665299 1.46632 0 0 0 141 162 183 255 
0.693248 0.670438 1.45655 0 0 0 104 133 154 255 
0.900869 0.714166 1.3832 0 0 0 46 130 161 255 
0.865463 0.719139 1.40537 0 0 0 44 131 160 255 
0.890403 0.706542 1.35969 0 0 0 145 194 216 255 
0.888985 0.711409 1.3534 0 0 0 55 118 145 255 
0.614686 0.670271 1.39821 0 0 0 107 96 82 255 
0.60327 0.679153 1.41057 0 0 0 162 141 114 255 
0.853901 0.728497 1.37958 0 0 0 54 105 135 255 
0.670638 0.693384 1.37934 0 0 0 71 86 102 255 
0.802115 0.720541 1.36104 0 0 0 92 133 156 255 
0.861008 0.721288 1.32867 0 0 0 65 139 167 255 
0.67655 0.697001 1.37157 0 0 0 44 84 111 255 
0.665061 0.699072 1.37483 0 0 0 77 89 113 255 
0.589355 0.683024 1.35441 0 0 0 101 92 84 255 
0.550543 0.69183 1.38294 0 0 0 91 100 111 255 
0.569621 0.691512 1.35813 0 0 0 132 135 135 255 
0.652134 0.705083 1.35025 0 0 0 85 105 116 255 
0.619142 0.697638 1.34313 0 0 0 128 125 130 255 
0.594043 0.693954 1.34362 0 0 0 89 94 104 255 
0.844171 0.74286 1.31266 0 0 0 151 188 206 255 
0.647913 0.709438 1.33326 0 0 0 66 75 98 255 
0.828065 0.744638 1.31034 0 0 0 151 185 210 255 
0.621678 0.712236 1.3406 0 0 0 91 101 118 255 
0.865838 0.756295 1.28977 0 0 0 112 147 171 255 
0.677351 0.725534 1.3013 0 0 0 55 92 125 255 
0.268528 -0.0451302 1.70013 0 0 0 73 73 73 255 
0.427412 -0.0165286 1.84946 0 0 0 24 32 38 255 
0.341595 0.000406223 1.76124 0 0 0 132 132 143 255 
0.412188 0.00538177 1.97089 0 0 0 134 148 160 255 
0.740434 0.0963662 1.86603 0 0 0 144 148 163 255 
0.386224 0.0167332 2.0849 0 0 0 34 37 46 255 
0.448035 0.0367315 1.96831 0 0 0 43 32 32 255 
0.804004 0.147982 1.82135 0 0 0 113 156 185 255 
1.08542 0.21843 1.74828 0 0 0 158 111 90 255 
1.0994 0.230174 1.7319 0 0 0 68 33 30 255 
0.540355 0.0982967 1.93057 0 0 0 145 106 77 255 
0.396959 0.080125 2.01862 0 0 0 29 34 42 255 
0.493876 0.0929745 1.98093 0 0 0 126 103 94 255 
0.389327 0.0927635 2.06059 0 0 0 144 148 152 255 
0.701913 0.187761 1.82187 0 0 0 125 121 120 255 
0.398193 0.141922 2.00284 0 0 0 179 187 192 255 
0.403902 0.156454 1.70456 0 0 0 10 22 34 255 
0.773204 0.247239 1.8748 0 0 0 105 127 114 255 
1.192 0.346995 1.68033 0 0 0 113 113 95 255 
1.30025 0.38468 1.6741 0 0 0 27 62 66 255 
0.831948 0.292288 1.85284 0 0 0 119 152 166 255 
1.11547 0.363008 1.77622 0 0 0 149 133 89 255 
1.28124 0.399702 1.64651 0 0 0 25 36 37 255 
0.351571 0.201035 1.49947 0 0 0 49 108 143 255 
1.32797 0.467206 1.74472 0 0 0 45 62 68 255 
0.310738 0.210245 1.5132 0 0 0 0 107 149 255 
0.300845 0.223557 1.49997 0 0 0 90 158 189 255 
0.604156 0.336079 1.9146 0 0 0 138 104 103 255 
0.67351 0.355266 1.9218 0 0 0 167 138 134 255 
1.06608 0.446357 1.84291 0 0 0 84 89 88 255 
0.394847 0.315354 1.94354 0 0 0 43 37 47 255 
1.11726 0.469992 1.79509 0 0 0 79 80 79 255 
1.12755 0.471667 1.7956 0 0 0 83 83 80 255 
0.393418 0.298429 1.73171 0 0 0 30 30 40 255 
0.394704 0.337593 1.99266 0 0 0 175 183 192 255 
1.05639 0.524258 1.87734 0 0 0 150 109 86 255 
1.34478 0.582572 1.82309 0 0 0 182 218 234 255 
1.09709 0.530419 1.85225 0 0 0 28 41 43 255 
0.280952 0.342891 1.56232 0 0 0 147 185 197 255 
0.780862 0.529991 1.78821 0 0 0 24 57 78 255 
0.373349 0.432013 1.72816 0 0 0 52 108 151 255 
0.356725 0.440787 1.64216 0 0 0 53 117 168 255 
0.89774 0.585966 1.69807 0 0 0 88 168 209 255 
0.624462 0.545387 1.71707 0 0 0 148 179 212 255 
0.659354 0.554035 1.68362 0 0 0 128 178 216 255 
0.640448 0.564059 1.67503 0 0 0 149 196 235 255 
1.01406 0.650877 1.61675 0 0 0 16 101 141 255 
0.775546 0.598292 1.63124 0 0 0 45 53 72 255 
0.902954 0.625809 1.58947 0 0 0 40 82 112 255 
0.971576 0.646381 1.58965 0 0 0 12 77 109 255 
0.972609 0.655274 1.58695 0 0 0 118 172 210 255 
0.588769 0.579225 1.643 0 0 0 33 57 94 255 
0.754412 0.613002 1.60547 0 0 0 33 54 84 255 
0.868335 0.633023 1.56603 0 0 0 53 81 105 255 
0.617643 0.579535 1.54357 0 0 0 132 192 227 255 
0.614303 0.587429 1.53656 0 0 0 58 150 184 255 
0.747237 0.622867 1.563 0 0 0 106 126 154 255 
0.915711 0.656168 1.51784 0 0 0 125 170 198 255 
0.59737 0.593543 1.53081 0 0 0 153 200 229 255 
0.814369 0.659247 1.51771 0 0 0 14 59 86 255 
0.761434 0.66125 1.50576 0 0 0 22 66 97 255 
0.658316 0.639386 1.49099 0 0 0 141 118 116 255 
0.744977 0.660063 1.49974 0 0 0 70 94 113 255 
0.895963 0.684321 1.44631 0 0 0 1 89 127 255 
1.28411 0.836367 1.56024 0 0 0 189 216 228 255 
0.425602 0.600437 1.51836 0 0 0 113 136 144 255 
0.907999 0.700067 1.46082 0 0 0 65 149 181 255 
0.922455 0.69965 1.43178 0 0 0 98 166 204 255 
0.150816 0.564576 1.589 0 0 0 52 70 86 255 
0.73298 0.666042 1.46434 0 0 0 139 162 184 255 
0.968249 0.715975 1.43677 0 0 0 5 132 185 255 
0.729158 0.675976 1.46095 0 0 0 28 67 98 255 
0.196717 0.578666 1.539 0 0 0 54 69 87 255 
0.900202 0.708752 1.4088 0 0 0 130 187 205 255 
0.404157 0.615323 1.4852 0 0 0 155 174 188 255 
0.63848 0.664297 1.4536 0 0 0 132 121 118 255 
0.677271 0.675216 1.44791 0 0 0 132 169 187 255 
0.950335 0.727618 1.40495 0 0 0 19 148 187 255 
0.370009 0.612152 1.45731 0 0 0 44 68 97 255 
0.59869 0.660099 1.43675 0 0 0 61 77 88 255 
0.367742 0.619719 1.47523 0 0 0 42 74 102 255 
0.60839 0.664403 1.43099 0 0 0 160 149 134 255 
0.391563 0.630523 1.46624 0 0 0 42 128 169 255 
0.263465 0.606983 1.4794 0 0 0 44 62 79 255 
0.446571 0.638691 1.44928 0 0 0 141 202 236 255 
0.474688 0.642356 1.44103 0 0 0 158 202 234 255 
0.625593 0.670013 1.40255 0 0 0 155 143 145 255 
0.615508 0.667813 1.40087 0 0 0 121 111 100 255 
0.307077 0.621321 1.43275 0 0 0 58 69 88 255 
0.805157 0.716048 1.35525 0 0 0 60 100 121 255 
0.864364 0.729191 1.34609 0 0 0 52 129 158 255 
0.569557 0.677159 1.38736 0 0 0 41 55 76 255 
0.673727 0.696671 1.37326 0 0 0 69 91 111 255 
0.523346 0.666082 1.37687 0 0 0 37 82 116 255 
0.753248 0.716582 1.35335 0 0 0 72 124 157 255 
0.786424 0.729001 1.35495 0 0 0 106 104 128 255 
0.891634 0.741858 1.32578 0 0 0 125 190 239 255 
0.592627 0.683761 1.35798 0 0 0 92 83 77 255 
0.548872 0.684933 1.37452 0 0 0 90 103 120 255 
0.567614 0.682553 1.36437 0 0 0 182 170 160 255 
0.622697 0.697887 1.34311 0 0 0 152 149 149 255 
0.654749 0.706988 1.34113 0 0 0 71 90 106 255 
0.845001 0.742782 1.31321 0 0 0 152 189 207 255 
0.596326 0.695619 1.34138 0 0 0 73 85 98 255 
0.659538 0.708239 1.33606 0 0 0 80 109 133 255 
0.650855 0.709201 1.33269 0 0 0 57 74 101 255 
0.874103 0.75293 1.30428 0 0 0 148 201 225 255 
0.621864 0.7129 1.34048 0 0 0 92 103 116 255 
0.820178 0.749964 1.30489 0 0 0 88 130 150 255 
0.877308 0.760487 1.29666 0 0 0 49 94 128 255 
0.786379 0.749992 1.3025 0 0 0 101 129 150 255 
0.724912 0.741228 1.27674 0 0 0 56 78 90 255 
0.42928 -0.010894 1.81517 0 0 0 19 29 34 255 
0.899972 0.152691 1.7922 0 0 0 91 122 133 255 
1.06177 0.188209 1.83119 0 0 0 129 95 61 255 
0.388971 0.0680699 2.05649 0 0 0 39 41 56 255 
0.495176 0.0945444 1.98179 0 0 0 134 103 84 255 
0.557368 0.106028 1.89325 0 0 0 99 73 58 255 
0.665037 0.13487 1.85539 0 0 0 96 131 151 255 
0.397878 0.0766437 2.01988 0 0 0 23 35 47 255 
0.420384 0.0958306 1.60677 0 0 0 158 186 206 255 
1.28798 0.295538 1.60192 0 0 0 19 35 44 255 
0.876479 0.206024 1.78477 0 0 0 31 41 47 255 
0.778433 0.196276 1.87892 0 0 0 90 123 142 255 
0.400743 0.12476 1.58663 0 0 0 9 70 132 255 
0.411002 0.131614 1.61606 0 0 0 132 165 189 255 
0.510054 0.159385 1.88084 0 0 0 33 28 27 255 
0.402673 0.15344 1.97975 0 0 0 169 192 199 255 
1.29376 0.377994 1.65675 0 0 0 9 49 81 255 
0.718982 0.264699 1.85835 0 0 0 34 39 47 255 
1.27015 0.398195 1.63812 0 0 0 20 27 36 255 
1.34104 0.43963 1.7536 0 0 0 31 49 62 255 
0.480001 0.250754 1.96764 0 0 0 120 137 147 255 
0.418048 0.254105 2.03141 0 0 0 27 47 61 255 
0.640084 0.288995 1.84406 0 0 0 136 167 179 255 
0.663386 0.307161 1.80151 0 0 0 118 139 157 255 
0.823871 0.35082 1.81503 0 0 0 34 37 48 255 
1.32514 0.474681 1.74959 0 0 0 36 52 61 255 
0.296589 0.291834 1.54113 0 0 0 159 184 198 255 
1.10449 0.544999 1.77373 0 0 0 34 45 52 255 
0.351 0.415254 1.86358 0 0 0 161 191 204 255 
0.726256 0.508347 1.82218 0 0 0 53 115 161 255 
0.779012 0.530143 1.79374 0 0 0 24 57 78 255 
0.82029 0.543551 1.75583 0 0 0 53 61 81 255 
0.288124 0.382066 1.59806 0 0 0 91 147 163 255 
0.371065 0.432578 1.7099 0 0 0 5 74 131 255 
0.893871 0.596308 1.6842 0 0 0 12 100 148 255 
0.979103 0.618098 1.6651 0 0 0 51 68 99 255 
0.532708 0.528193 1.70521 0 0 0 89 83 62 255 
0.759236 0.620504 1.57137 0 0 0 129 152 175 255 
0.613459 0.576918 1.53866 0 0 0 142 190 214 255 
0.706829 0.611404 1.5706 0 0 0 76 119 148 255 
0.640952 0.592803 1.54649 0 0 0 56 149 186 255 
0.770146 0.638623 1.53757 0 0 0 76 107 138 255 
0.913762 0.668903 1.53041 0 0 0 132 163 182 255 
0.594637 0.592433 1.52926 0 0 0 156 201 229 255 
0.761442 0.661248 1.50576 0 0 0 22 66 97 255 
0.888805 0.686173 1.44719 0 0 0 9 80 127 255 
0.917898 0.693709 1.41418 0 0 0 123 167 208 255 
0.970247 0.717613 1.43744 0 0 0 7 134 187 255 
0.255862 0.589981 1.53904 0 0 0 57 86 99 255 
0.724303 0.675493 1.46464 0 0 0 41 66 93 255 
0.693948 0.671718 1.45613 0 0 0 124 153 173 255 
0.945002 0.718343 1.41456 0 0 0 121 180 217 255 
0.941578 0.727372 1.39325 0 0 0 1 144 198 255 
0.372097 0.611969 1.46 0 0 0 37 67 89 255 
0.473926 0.638879 1.4446 0 0 0 157 206 232 255 
0.446447 0.634965 1.45696 0 0 0 83 160 195 255 
0.52495 0.663804 1.37942 0 0 0 29 81 122 255 
0.673243 0.696715 1.37364 0 0 0 69 91 111 255 
0.748132 0.715562 1.35506 0 0 0 52 107 145 255 
0.856276 0.726801 1.3124 0 0 0 172 202 215 255 
0.566436 0.680988 1.36775 0 0 0 147 136 128 255 
0.59171 0.692152 1.34257 0 0 0 112 115 124 255 
0.744334 0.72515 1.30738 0 0 0 150 162 160 255 
0.416843 0.00320155 1.94808 0 0 0 128 150 160 255 
0.447439 0.0438474 1.93455 0 0 0 22 21 31 255 
1.04818 0.216681 1.85717 0 0 0 27 29 36 255 
0.397944 0.0741565 2.03733 0 0 0 25 43 60 255 
0.388998 0.0938277 2.06305 0 0 0 144 151 158 255 
0.84428 0.187782 1.81382 0 0 0 88 123 142 255 
0.414277 0.1363 1.62954 0 0 0 39 78 104 255 
0.621649 0.192128 1.94159 0 0 0 42 49 63 255 
0.371561 0.149922 1.89784 0 0 0 21 25 33 255 
1.27503 0.362563 1.62969 0 0 0 9 42 80 255 
1.34561 0.376656 1.72755 0 0 0 33 49 76 255 
0.401267 0.170344 1.63806 0 0 0 55 108 156 255 
0.401075 0.188555 1.99853 0 0 0 174 192 205 255 
0.698997 0.245008 1.87224 0 0 0 89 119 102 255 
0.647569 0.248425 1.87806 0 0 0 51 76 86 255 
0.728868 0.265248 1.83865 0 0 0 25 34 45 255 
0.838967 0.286608 1.8564 0 0 0 115 155 174 255 
0.748311 0.278177 1.94545 0 0 0 28 35 46 255 
0.648152 0.297603 1.81277 0 0 0 132 161 181 255 
0.650333 0.295447 1.8071 0 0 0 140 169 187 255 
0.343628 0.251507 1.53682 0 0 0 78 130 163 255 
0.393944 0.333359 1.99367 0 0 0 180 189 198 255 
0.928656 0.502929 2.13751 0 0 0 103 135 136 255 
0.869283 0.499056 1.96902 0 0 0 114 87 82 255 
1.13021 0.52978 1.75583 0 0 0 120 136 78 255 
1.2757 0.579085 1.74236 0 0 0 92 143 142 255 
0.360486 0.337982 1.60978 0 0 0 147 172 193 255 
1.11059 0.547514 1.76636 0 0 0 24 42 57 255 
0.317815 0.342206 1.58836 0 0 0 169 191 205 255 
1.272 0.607635 1.73878 0 0 0 215 255 255 255 
1.2438 0.62347 1.72728 0 0 0 44 81 99 255 
0.892866 0.572494 1.71965 0 0 0 70 78 103 255 
0.982173 0.600711 1.68634 0 0 0 49 75 87 255 
0.843338 0.579994 1.69038 0 0 0 92 131 158 255 
0.883265 0.590064 1.701 0 0 0 17 54 104 255 
0.639614 0.561375 1.67677 0 0 0 118 189 237 255 
1.09805 0.649199 1.64515 0 0 0 57 173 205 255 
0.582158 0.558185 1.71829 0 0 0 126 161 187 255 
0.54405 0.547177 1.67345 0 0 0 44 54 65 255 
0.75403 0.612755 1.60676 0 0 0 33 54 84 255 
0.760062 0.624179 1.55838 0 0 0 128 163 189 255 
0.813895 0.661408 1.51516 0 0 0 15 57 84 255 
0.684567 0.635211 1.51892 0 0 0 146 109 80 255 
0.88116 0.673899 1.47101 0 0 0 148 184 203 255 
0.908654 0.705876 1.43494 0 0 0 77 142 173 255 
0.972735 0.715506 1.44121 0 0 0 8 132 187 255 
0.673608 0.660806 1.44215 0 0 0 39 53 72 255 
0.906802 0.699313 1.39692 0 0 0 84 172 197 255 
0.481685 0.643841 1.43962 0 0 0 110 172 197 255 
0.605737 0.667282 1.42873 0 0 0 178 162 145 255 
0.262022 0.60879 1.47427 0 0 0 48 61 78 255 
0.893236 0.732165 1.35601 0 0 0 0 114 160 255 
0.303164 0.615251 1.41742 0 0 0 44 61 81 255 
0.527682 0.666772 1.3835 0 0 0 49 76 112 255 
0.675453 0.698248 1.37132 0 0 0 51 88 114 255 
0.856512 0.734013 1.32318 0 0 0 176 207 219 255 
0.611892 0.125656 1.88261 0 0 0 54 53 63 255 
0.746837 0.201944 1.85303 0 0 0 34 59 76 255 
0.359296 0.145376 2.00008 0 0 0 16 19 28 255 
0.601191 0.208738 1.91416 0 0 0 70 56 66 255 
0.871015 0.281885 1.75957 0 0 0 71 127 147 255 
0.861142 0.303468 1.82303 0 0 0 56 85 99 255 
0.423298 0.229754 2.01308 0 0 0 27 43 67 255 
0.632067 0.294675 1.86735 0 0 0 133 170 186 255 
0.377873 0.253117 1.60026 0 0 0 162 191 218 255 
1.26466 0.503561 1.76982 0 0 0 18 37 63 255 
1.13803 0.546106 1.86154 0 0 0 142 142 85 255 
0.389825 0.414158 2.02557 0 0 0 141 151 159 255 
0.518085 0.459951 1.92806 0 0 0 33 30 45 255 
0.35705 0.418203 1.86879 0 0 0 159 187 194 255 
0.634805 0.489234 1.82965 0 0 0 38 58 74 255 
1.24514 0.63021 1.77824 0 0 0 38 67 83 255 
0.368468 0.433666 1.69968 0 0 0 5 75 131 255 
1.07574 0.650865 1.62276 0 0 0 26 165 207 255 
0.579916 0.562625 1.64056 0 0 0 43 50 63 255 
0.486965 0.554434 1.6569 0 0 0 42 68 85 255 
0.591918 0.584049 1.61722 0 0 0 89 159 198 255 
0.307701 0.551627 1.61282 0 0 0 114 136 148 255 
0.821134 0.668361 1.50178 0 0 0 18 52 89 255 
0.878098 0.685982 1.43283 0 0 0 7 84 129 255 
0.668303 0.663191 1.4469 0 0 0 62 72 87 255 
0.900137 0.710709 1.4299 0 0 0 101 159 185 255 
0.352245 -0.0344326 1.73419 0 0 0 88 84 78 255 
0.351767 -0.0319487 1.71785 0 0 0 152 147 144 255 
0.337433 -0.0285263 1.691 0 0 0 74 72 68 255 
0.349034 -0.0286288 1.70926 0 0 0 93 92 85 255 
0.158098 -0.118727 2.12687 0 0 0 85 86 78 255 
0.269779 -0.00747297 1.76926 0 0 0 99 99 98 255 
0.451327 0.0451258 1.85287 0 0 0 23 20 19 255 
0.249737 -0.0069784 1.76719 0 0 0 113 112 115 255 
0.195721 -0.01162 1.77189 0 0 0 92 63 68 255 
0.697711 0.161363 1.78639 0 0 0 89 93 92 255 
0.430192 0.0735863 1.89549 0 0 0 64 80 92 255 
0.574513 0.125895 1.82758 0 0 0 114 73 42 255 
0.43883 0.108521 1.5568 0 0 0 131 152 164 255 
0.410144 0.117902 1.94136 0 0 0 106 104 102 255 
0.41614 0.127733 1.94773 0 0 0 27 31 33 255 
0.428248 0.150219 1.95096 0 0 0 89 96 98 255 
0.415605 0.156245 1.97511 0 0 0 51 68 70 255 
0.889759 0.313964 1.81874 0 0 0 112 132 145 255 
0.242045 0.13271 1.5287 0 0 0 102 133 164 255 
0.247393 0.140168 1.52056 0 0 0 115 133 161 255 
0.383652 0.180859 1.48016 0 0 0 100 122 136 255 
0.376923 0.18138 1.47695 0 0 0 66 89 112 255 
0.381254 0.185794 1.47758 0 0 0 125 145 170 255 
0.370943 0.195141 1.48651 0 0 0 71 90 111 255 
0.838278 0.389052 1.86689 0 0 0 122 101 92 255 
0.613514 0.344114 1.94213 0 0 0 147 110 101 255 
0.376115 0.24005 1.51946 0 0 0 105 146 168 255 
0.376703 0.271617 1.59512 0 0 0 133 165 185 255 
0.365354 0.283167 1.60425 0 0 0 149 176 192 255 
0.0675162 0.233061 1.82032 0 0 0 77 77 76 255 
0.0479459 0.235717 1.84623 0 0 0 78 77 74 255 
0.20354 0.268233 1.5884 0 0 0 73 79 92 255 
0.774834 0.525874 1.79449 0 0 0 37 68 85 255 
0.812552 0.534565 1.75751 0 0 0 36 46 56 255 
0.198377 0.315302 1.59618 0 0 0 53 58 64 255 
0.77125 0.535312 1.79003 0 0 0 32 92 129 255 
0.241998 0.323747 1.57747 0 0 0 85 105 107 255 
0.804555 0.546947 1.7769 0 0 0 81 87 117 255 
0.626286 0.509509 1.84096 0 0 0 43 58 76 255 
0.695498 0.526828 1.80902 0 0 0 46 106 152 255 
0.654541 0.518691 1.81338 0 0 0 88 108 120 255 
0.896601 0.580693 1.70039 0 0 0 39 83 114 255 
0.629811 0.534553 1.7586 0 0 0 65 114 148 255 
0.759545 0.564174 1.68706 0 0 0 0 42 78 255 
0.828133 0.584396 1.67478 0 0 0 88 118 142 255 
0.971551 0.611528 1.59565 0 0 0 87 108 125 255 
0.63816 0.546574 1.77551 0 0 0 38 56 76 255 
0.292729 0.407526 1.61544 0 0 0 102 144 162 255 
0.693847 0.559371 1.70851 0 0 0 8 44 82 255 
1.00113 0.624987 1.54471 0 0 0 7 69 105 255 
0.812756 0.601594 1.65462 0 0 0 64 87 114 255 
0.949638 0.623653 1.55885 0 0 0 36 79 106 255 
0.666325 0.581454 1.74213 0 0 0 7 77 106 255 
0.242877 0.421214 1.61054 0 0 0 95 106 112 255 
0.816639 0.608845 1.6209 0 0 0 40 77 121 255 
0.808491 0.611447 1.6137 0 0 0 35 87 129 255 
0.713405 0.606508 1.60226 0 0 0 65 111 142 255 
0.886824 0.654666 1.56829 0 0 0 34 70 97 255 
0.782377 0.624557 1.57177 0 0 0 89 137 174 255 
0.643576 0.603254 1.59242 0 0 0 42 119 165 255 
0.869777 0.665609 1.50329 0 0 0 23 65 81 255 
0.494766 0.587865 1.62881 0 0 0 103 126 139 255 
0.578182 0.621463 1.61401 0 0 0 84 103 132 255 
0.695495 0.650355 1.51441 0 0 0 60 58 54 255 
0.740871 0.658525 1.49459 0 0 0 79 84 92 255 
0.698047 0.65832 1.50064 0 0 0 79 73 80 255 
0.961335 0.706811 1.38749 0 0 0 37 131 160 255 
0.627568 0.645033 1.48297 0 0 0 54 71 99 255 
0.635534 0.650342 1.4949 0 0 0 65 76 89 255 
0.648715 0.66126 1.45807 0 0 0 45 38 36 255 
0.649673 0.677607 1.42311 0 0 0 112 106 99 255 
0.331521 0.633195 1.54339 0 0 0 64 63 64 255 
0.594984 0.686127 1.3808 0 0 0 112 92 72 255 
0.118929 0.607513 1.56357 0 0 0 31 47 58 255 
0.128206 0.615875 1.55322 0 0 0 167 178 189 255 
0.151271 0.597501 1.49274 0 0 0 169 190 199 255 
0.153446 0.604599 1.49604 0 0 0 34 48 60 255 
0.21462 0.61648 1.44208 0 0 0 173 192 198 255 
0.225118 0.621944 1.43009 0 0 0 37 56 64 255 
0.200891 0.621993 1.44654 0 0 0 37 50 55 255 
0.207649 0.627988 1.4415 0 0 0 163 183 188 255 
0.20965 0.630386 1.44529 0 0 0 173 192 200 255 
0.250978 0.645845 1.39901 0 0 0 171 190 198 255 
0.272651 0.645331 1.38543 0 0 0 165 182 187 255 
-0.016093 0.669816 1.62737 0 0 0 12 31 39 255 
0.260017 0.650784 1.3902 0 0 0 59 75 80 255 
-0.0308045 0.669035 1.62931 0 0 0 104 120 126 255 
0.074463 0.673655 1.52332 0 0 0 30 42 46 255 
0.313343 0.664975 1.34875 0 0 0 170 189 197 255 
0.084246 0.677344 1.51039 0 0 0 173 185 189 255 
0.323474 0.668605 1.33896 0 0 0 32 48 57 255 
0.0638683 0.674321 1.51713 0 0 0 162 189 192 255 
0.302043 0.670491 1.35295 0 0 0 43 60 66 255 
0.0756312 0.676799 1.50436 0 0 0 41 56 61 255 
0.309583 0.675894 1.34694 0 0 0 171 190 198 255 
0.150304 0.68564 1.43692 0 0 0 169 186 192 255 
0.36212 0.688209 1.30276 0 0 0 32 48 56 255 
0.160242 0.69105 1.42826 0 0 0 31 47 54 255 
0.145691 0.687008 1.4276 0 0 0 27 37 43 255 
0.351905 0.694515 1.30688 0 0 0 165 184 193 255 
0.370748 0.692826 1.29251 0 0 0 161 174 180 255 
0.15495 0.691441 1.42024 0 0 0 161 177 185 255 
0.357122 0.698796 1.29962 0 0 0 56 68 76 255 
0.220828 0.703973 1.36205 0 0 0 33 51 59 255 
0.22959 0.708876 1.35398 0 0 0 172 188 197 255 
0.413271 0.713127 1.25572 0 0 0 181 197 207 255 
0.220474 0.701362 1.34729 0 0 0 166 187 196 255 
0.421488 0.716316 1.24598 0 0 0 49 63 75 255 
0.225304 0.708297 1.3449 0 0 0 40 54 64 255 
0.400876 0.720335 1.26152 0 0 0 31 40 51 255 
0.408491 0.723087 1.25291 0 0 0 161 175 185 255 
0.0204004 -0.20382 2.4256 0 0 0 120 114 107 255 
0.249758 -0.00684012 1.76866 0 0 0 113 112 115 255 
0.26893 -0.00395346 1.77131 0 0 0 101 102 104 255 
1.04648 0.270394 1.64715 0 0 0 94 67 35 255 
0.77539 0.207652 1.80099 0 0 0 101 128 140 255 
0.412668 0.12845 1.95148 0 0 0 30 32 33 255 
0.387022 0.149296 1.97354 0 0 0 18 18 18 255 
0.416445 0.15833 1.9749 0 0 0 27 40 43 255 
0.247649 0.138848 1.5186 0 0 0 110 125 152 255 
0.381132 0.268124 1.58192 0 0 0 151 171 186 255 
0.0531935 0.235576 1.83951 0 0 0 88 88 84 255 
0.192179 0.257569 1.60956 0 0 0 16 32 60 255 
0.307462 0.413863 2.03091 0 0 0 59 43 44 255 
0.813003 0.53367 1.76031 0 0 0 141 156 161 255 
0.197676 0.315248 1.59642 0 0 0 53 58 64 255 
0.901199 0.568316 1.73309 0 0 0 68 85 101 255 
0.580472 0.510083 1.84571 0 0 0 99 73 64 255 
0.178895 0.360555 1.64632 0 0 0 105 121 130 255 
0.331734 0.409038 1.62597 0 0 0 26 78 120 255 
0.688037 0.562632 1.73105 0 0 0 0 51 88 255 
0.737465 0.627566 1.57045 0 0 0 39 53 74 255 
0.586373 0.612445 1.57402 0 0 0 55 68 98 255 
0.69793 0.656731 1.50926 0 0 0 73 69 75 255 
0.677723 0.652124 1.49888 0 0 0 103 78 66 255 
0.649382 0.660563 1.46225 0 0 0 50 44 45 255 
0.858487 0.737938 1.35087 0 0 0 146 177 196 255 
0.594021 0.68609 1.37979 0 0 0 100 80 61 255 
0.148255 0.596831 1.49439 0 0 0 171 192 201 255 
0.227167 0.622266 1.43055 0 0 0 28 47 55 255 
0.198386 0.622105 1.44765 0 0 0 35 47 53 255 
0.270044 0.636512 1.39449 0 0 0 42 55 64 255 
-0.0327959 0.665258 1.65047 0 0 0 168 187 195 255 
-0.0142107 0.670145 1.62623 0 0 0 12 31 39 255 
-0.0184666 0.672556 1.61106 0 0 0 162 183 187 255 
0.314679 0.661919 1.35053 0 0 0 176 195 203 255 
0.0662679 0.672443 1.53256 0 0 0 30 45 48 255 
0.324742 0.669387 1.33729 0 0 0 32 48 57 255 
0.08747 0.678026 1.50973 0 0 0 172 184 188 255 
0.0627101 0.674213 1.51724 0 0 0 162 189 192 255 
0.292421 0.670316 1.36035 0 0 0 35 50 57 255 
0.809857 0.77063 1.2203 0 0 0 95 115 124 255 
0.464058 0.705083 1.29577 0 0 0 44 60 67 255 
0.360789 0.686472 1.30539 0 0 0 29 44 53 255 
0.347764 0.695002 1.30992 0 0 0 171 192 200 255 
0.379211 0.692143 1.28636 0 0 0 183 196 202 255 
0.35314 0.700348 1.29864 0 0 0 20 32 40 255 
0.413983 0.714437 1.25399 0 0 0 179 194 204 255 
0.394138 0.720353 1.26749 0 0 0 28 37 47 255 
0.409583 0.725553 1.24994 0 0 0 176 193 201 255 
1.0718 0.221388 1.6229 0 0 0 133 88 54 255 
0.847416 0.166285 1.69074 0 0 0 74 110 126 255 
0.27231 -0.00355668 1.77107 0 0 0 61 62 64 255 
0.456596 0.0503966 1.84784 0 0 0 26 16 16 255 
0.671969 0.149776 1.79372 0 0 0 37 64 80 255 
0.708497 0.166027 1.79026 0 0 0 27 24 30 255 
1.0368 0.286422 1.66927 0 0 0 134 94 67 255 
0.433929 0.109759 1.93431 0 0 0 99 106 111 255 
0.38292 0.148379 1.9743 0 0 0 19 19 19 255 
0.42754 0.167634 1.63096 0 0 0 17 15 16 255 
0.340575 0.174944 1.47177 0 0 0 78 122 156 255 
0.480192 0.258969 1.94191 0 0 0 100 108 115 255 
0.838168 0.384315 1.84678 0 0 0 122 70 69 255 
0.357978 0.247434 1.51875 0 0 0 139 168 186 255 
0.385971 0.262435 1.57433 0 0 0 155 168 186 255 
0.219462 0.230943 1.57015 0 0 0 61 120 160 255 
0.32208 0.260809 1.53998 0 0 0 147 169 181 255 
0.310501 0.264642 1.50693 0 0 0 147 166 174 255 
0.326746 0.337565 1.99195 0 0 0 81 65 61 255 
0.332579 0.412087 1.93673 0 0 0 59 52 52 255 
0.226984 0.32342 1.58267 0 0 0 129 154 169 255 
0.314334 0.355899 1.58924 0 0 0 16 65 99 255 
0.352032 0.416122 1.83541 0 0 0 151 169 179 255 
0.237176 0.340185 1.57788 0 0 0 138 158 169 255 
0.579252 0.510496 1.84202 0 0 0 66 42 34 255 
0.180534 0.362156 1.64767 0 0 0 113 135 148 255 
0.220998 0.372093 1.60741 0 0 0 38 87 119 255 
0.603149 0.551386 1.81287 0 0 0 135 162 172 255 
0.626661 0.548637 1.75306 0 0 0 135 169 184 255 
0.153326 0.383597 1.68117 0 0 0 69 68 71 255 
0.59315 0.551928 1.74008 0 0 0 122 152 172 255 
0.503326 0.562629 1.78154 0 0 0 154 152 148 255 
0.927649 0.64643 1.49808 0 0 0 29 67 94 255 
0.78001 0.64063 1.51804 0 0 0 64 106 134 255 
0.583432 0.619517 1.615 0 0 0 137 168 200 255 
0.862207 0.674518 1.50316 0 0 0 95 140 154 255 
0.759838 0.651424 1.51916 0 0 0 131 148 168 255 
0.669027 0.651535 1.50723 0 0 0 132 90 65 255 
0.866115 0.706329 1.37995 0 0 0 73 133 155 255 
0.450568 0.662842 1.51294 0 0 0 148 184 207 255 
0.0618557 0.598955 1.62869 0 0 0 36 55 65 255 
0.859975 0.730326 1.33006 0 0 0 134 164 188 255 
0.670004 0.699929 1.37099 0 0 0 53 76 96 255 
0.629814 0.695326 1.37225 0 0 0 156 139 123 255 
0.140425 0.597582 1.49767 0 0 0 171 192 201 255 
0.132677 0.617611 1.55432 0 0 0 171 181 192 255 
0.87485 0.756628 1.27814 0 0 0 49 88 114 255 
0.624041 0.705373 1.33453 0 0 0 82 86 99 255 
0.189114 0.621514 1.45378 0 0 0 35 45 51 255 
0.280156 0.646576 1.38389 0 0 0 174 192 198 255 
0.730646 0.736568 1.26954 0 0 0 57 67 73 255 
0.242479 0.645902 1.40446 0 0 0 173 192 200 255 
0.765781 0.757237 1.25399 0 0 0 72 99 111 255 
0.309791 0.681394 1.37106 0 0 0 36 50 62 255 
0.0907877 0.6787 1.5067 0 0 0 172 183 187 255 
0.293117 0.672064 1.35839 0 0 0 36 51 58 255 
0.460078 0.704653 1.29943 0 0 0 96 116 121 255 
0.144932 0.684084 1.4505 0 0 0 169 195 201 255 
0.138842 0.684909 1.42986 0 0 0 23 32 37 255 
0.166924 0.692319 1.42548 0 0 0 34 49 58 255 
0.380295 0.691594 1.28588 0 0 0 183 196 202 255 
0.341919 0.695697 1.31412 0 0 0 174 197 206 255 
0.156393 0.6909 1.40764 0 0 0 167 185 194 255 
0.498999 0.729449 1.27361 0 0 0 30 41 49 255 
0.355589 0.700845 1.30042 0 0 0 27 37 45 255 
0.242504 0.685947 1.30613 0 0 0 173 196 205 255 
0.235894 0.711171 1.35393 0 0 0 175 191 200 255 
0.425754 0.719927 1.25173 0 0 0 29 43 54 255 
0.404207 0.728735 1.25132 0 0 0 180 195 202 255 
0.847487 0.168621 1.69006 0 0 0 76 112 128 255 
0.69635 0.129093 1.76369 0 0 0 53 85 97 255 
0.650214 0.241511 1.86742 0 0 0 60 82 92 255 
0.427346 0.167513 1.63455 0 0 0 17 15 16 255 
0.66527 0.320834 1.91038 0 0 0 102 126 132 255 
0.242152 0.340343 1.57727 0 0 0 114 130 139 255 
0.639204 0.540938 1.85265 0 0 0 115 155 172 255 
0.579929 0.513828 1.8323 0 0 0 47 41 36 255 
0.183897 0.360565 1.64241 0 0 0 116 144 158 255 
0.61008 0.542183 1.85841 0 0 0 34 59 79 255 
0.145673 0.382082 1.68321 0 0 0 66 65 63 255 
0.138599 0.407714 1.70351 0 0 0 176 188 196 255 
0.179793 0.420489 1.67711 0 0 0 21 88 125 255 
0.868712 0.629781 1.57618 0 0 0 78 86 116 255 
0.312643 0.539595 1.91552 0 0 0 183 198 207 255 
0.595965 0.571278 1.6777 0 0 0 29 47 66 255 
0.701561 0.624812 1.59092 0 0 0 29 73 102 255 
0.266269 0.584085 1.54044 0 0 0 28 47 55 255 
0.187085 0.576363 1.55209 0 0 0 38 48 52 255 
0.450602 0.662809 1.51283 0 0 0 148 184 207 255 
0.0607514 0.600383 1.63798 0 0 0 28 44 55 255 
0.26738 0.612312 1.47618 0 0 0 43 55 68 255 
0.85756 0.738067 1.34783 0 0 0 154 180 194 255 
0.137468 0.596853 1.50006 0 0 0 172 193 202 255 
0.138756 0.620934 1.57391 0 0 0 170 192 198 255 
0.866745 0.745208 1.28423 0 0 0 131 166 187 255 
0.873155 0.756101 1.27803 0 0 0 49 86 111 255 
0.220421 0.634373 1.46568 0 0 0 33 46 56 255 
0.18356 0.622149 1.45594 0 0 0 31 43 49 255 
0.368939 0.65584 1.37696 0 0 0 24 38 48 255 
-0.00913042 0.670454 1.62425 0 0 0 22 41 49 255 
0.23033 0.647019 1.41176 0 0 0 171 193 205 255 
0.278654 0.652001 1.39691 0 0 0 174 195 200 255 
0.735014 0.735831 1.26708 0 0 0 55 65 71 255 
0.389211 0.677001 1.36799 0 0 0 26 40 50 255 
0.765294 0.754209 1.25347 0 0 0 66 92 106 255 
0.285032 0.672589 1.36425 0 0 0 34 49 56 255 
0.31212 0.687729 1.38438 0 0 0 35 46 59 255 
0.813543 0.774401 1.22688 0 0 0 80 99 110 255 
0.368775 0.680128 1.30697 0 0 0 28 42 52 255 
0.458603 0.709944 1.29844 0 0 0 30 44 51 255 
0.167902 0.696527 1.43435 0 0 0 32 46 54 255 
0.385778 0.69026 1.28244 0 0 0 182 199 205 255 
0.33439 0.694763 1.31293 0 0 0 174 198 207 255 
0.230337 0.687331 1.31383 0 0 0 169 194 205 255 
0.237965 0.714224 1.35755 0 0 0 178 194 203 255 
0.396698 0.709077 1.24724 0 0 0 29 36 48 255 
0.419402 0.72754 1.27052 0 0 0 24 35 44 255 
0.282681 0.717821 1.31036 0 0 0 173 194 201 255 
0.529848 0.155873 1.8586 0 0 0 22 16 22 255 
0.427988 0.142853 1.49001 0 0 0 0 55 117 255 
0.438786 0.147607 1.53362 0 0 0 85 119 133 255 
0.732537 0.270984 1.84051 0 0 0 21 25 27 255 
0.60536 0.237534 1.88085 0 0 0 106 111 118 255 
0.740535 0.27559 1.88266 0 0 0 23 23 31 255 
0.56072 0.252282 1.95819 0 0 0 131 145 155 255 
0.364616 0.174824 1.45377 0 0 0 3 67 119 255 
0.642211 0.298847 1.91674 0 0 0 129 149 154 255 
0.385039 0.271394 1.59174 0 0 0 39 88 120 255 
0.861487 0.496667 1.9244 0 0 0 110 92 89 255 
0.347574 0.360722 1.61232 0 0 0 10 79 132 255 
0.206544 0.320471 1.59512 0 0 0 34 74 106 255 
0.350647 0.392736 1.64431 0 0 0 139 113 111 255 
0.296952 0.382579 1.59961 0 0 0 107 144 149 255 
0.348849 0.396675 1.64387 0 0 0 135 124 125 255 
0.519253 0.542554 1.72877 0 0 0 155 147 134 255 
0.518948 0.57877 1.77175 0 0 0 27 40 38 255 
0.567447 0.585914 1.75752 0 0 0 36 37 52 255 
0.13849 0.463261 1.77829 0 0 0 7 81 126 255 
0.455381 0.582546 1.75871 0 0 0 28 55 72 255 
0.591673 0.593485 1.60891 0 0 0 153 182 196 255 
0.528073 0.599403 1.7144 0 0 0 95 150 185 255 
0.313105 0.543743 1.66489 0 0 0 191 207 218 255 
0.878749 0.675712 1.49101 0 0 0 168 199 209 255 
0.686027 0.671128 1.43525 0 0 0 126 159 182 255 
0.232147 0.600061 1.6103 0 0 0 27 46 54 255 
0.180159 0.577733 1.55473 0 0 0 34 45 51 255 
0.258939 0.620852 1.49718 0 0 0 41 52 64 255 
0.496325 0.704828 1.53088 0 0 0 25 70 94 255 
0.746321 0.715936 1.36234 0 0 0 47 90 119 255 
0.140058 0.624646 1.57075 0 0 0 171 193 200 255 
0.200706 0.645808 1.49957 0 0 0 34 45 56 255 
0.607616 0.698946 1.34185 0 0 0 67 72 78 255 
0.730667 0.735414 1.3342 0 0 0 148 150 143 255 
0.864523 0.750281 1.24697 0 0 0 45 76 98 255 
0.359827 0.66483 1.39237 0 0 0 29 41 49 255 
0.690471 0.720919 1.29309 0 0 0 49 70 88 255 
0.737678 0.738005 1.26457 0 0 0 51 64 72 255 
0.220221 0.646299 1.41463 0 0 0 168 195 205 255 
0.260175 0.66819 1.4228 0 0 0 177 195 199 255 
0.386351 0.678186 1.36907 0 0 0 25 39 49 255 
0.83153 0.76815 1.23544 0 0 0 108 123 132 255 
0.313354 0.686735 1.39137 0 0 0 32 42 50 255 
0.279 0.664968 1.35239 0 0 0 35 47 53 255 
0.824072 0.770083 1.21674 0 0 0 79 97 110 255 
0.173802 0.699561 1.43407 0 0 0 35 45 53 255 
0.391161 0.690725 1.27782 0 0 0 182 197 203 255 
0.327045 0.701691 1.32127 0 0 0 180 200 210 255 
0.489791 0.731575 1.27448 0 0 0 25 35 41 255 
0.606799 0.253126 1.8705 0 0 0 126 149 153 255 
0.892364 0.440775 1.93444 0 0 0 43 25 23 255 
0.385034 0.256243 1.5627 0 0 0 107 137 177 255 
0.906492 0.47999 1.96582 0 0 0 92 114 118 255 
1.00101 0.49586 1.86935 0 0 0 23 33 40 255 
0.854432 0.425192 1.44833 0 0 0 106 59 53 255 
0.328902 0.322129 1.57677 0 0 0 153 174 183 255 
0.349493 0.325449 1.59531 0 0 0 149 175 183 255 
0.363938 0.419914 2.14787 0 0 0 130 137 142 255 
0.624206 0.511657 1.94648 0 0 0 35 39 52 255 
0.357567 0.441284 1.72076 0 0 0 6 69 124 255 
0.515914 0.515553 1.79097 0 0 0 171 115 50 255 
1.00396 0.612479 1.57966 0 0 0 32 71 97 255 
0.483793 0.542601 1.75758 0 0 0 186 179 113 255 
0.483793 0.542601 1.75758 0 0 0 186 179 113 255 
0.526879 0.572071 1.79334 0 0 0 34 43 45 255 
0.400383 0.583586 1.77185 0 0 0 185 146 69 255 
0.593152 0.596812 1.59262 0 0 0 132 169 191 255 
0.752559 0.644155 1.53053 0 0 0 81 86 92 255 
0.295486 0.542413 1.6835 0 0 0 168 189 197 255 
0.237595 0.60357 1.63825 0 0 0 36 45 53 255 
0.347074 0.628375 1.53656 0 0 0 37 45 55 255 
0.384984 0.646994 1.53652 0 0 0 30 117 153 255 
0.521163 0.68616 1.44083 0 0 0 40 67 89 255 
0.732201 0.724525 1.33596 0 0 0 99 116 129 255 
0.270747 0.664329 1.4421 0 0 0 174 200 206 255 
0.823176 0.768643 1.26717 0 0 0 173 187 178 255 
0.848358 0.751852 1.22765 0 0 0 98 112 124 255 
0.388384 0.665927 1.3409 0 0 0 26 40 50 255 
0.754015 0.739647 1.26646 0 0 0 63 89 112 255 
0.130502 -0.0133953 1.80379 0 0 0 112 112 115 255 
0.123245 -0.0175739 1.82215 0 0 0 100 100 100 255 
0.882665 0.221866 1.91328 0 0 0 102 106 110 255 
0.103639 -0.0191463 1.81626 0 0 0 107 104 108 255 
0.0893559 -0.0204451 1.84243 0 0 0 82 81 84 255 
0.121954 -0.00635308 1.74666 0 0 0 100 98 96 255 
0.0422557 -0.0229813 1.84782 0 0 0 95 97 94 255 
0.0411734 -0.0180546 1.81036 0 0 0 114 114 109 255 
0.397373 0.0966765 1.98208 0 0 0 153 157 161 255 
0.00331904 -0.020412 1.83692 0 0 0 70 68 64 255 
0.00487016 -0.015403 1.79151 0 0 0 90 87 91 255 
0.40007 0.10646 1.66285 0 0 0 78 100 141 255 
0.403139 0.110179 1.95674 0 0 0 48 47 49 255 
-0.042852 -0.0240932 1.72165 0 0 0 148 129 121 255 
0.394055 0.116573 1.63445 0 0 0 110 148 186 255 
0.673735 0.201589 1.84784 0 0 0 109 125 131 255 
0.405791 0.139259 1.96206 0 0 0 115 124 126 255 
0.383443 0.133103 1.96927 0 0 0 68 61 64 255 
-0.120744 -0.0151601 1.71437 0 0 0 93 62 58 255 
-0.233106 -0.0372183 1.59471 0 0 0 108 124 100 255 
-0.234375 -0.0380369 1.73015 0 0 0 92 103 92 255 
0.350776 0.135842 1.56518 0 0 0 63 127 177 255 
-0.237198 -0.0356981 1.72446 0 0 0 89 100 89 255 
-0.228509 -0.01909 1.72426 0 0 0 68 78 74 255 
0.342212 0.145429 1.54905 0 0 0 21 85 124 255 
0.0225182 0.0618488 1.78686 0 0 0 36 24 26 255 
-0.207866 -0.0112515 1.52698 0 0 0 111 127 99 255 
-0.240806 -0.0130059 1.70923 0 0 0 71 80 77 255 
0.340197 0.151605 1.54924 0 0 0 61 127 173 255 
0.221741 0.127408 1.54129 0 0 0 106 125 146 255 
0.350335 0.16688 1.54134 0 0 0 81 120 165 255 
0.401923 0.182571 1.62281 0 0 0 109 150 172 255 
0.47958 0.23106 1.95111 0 0 0 95 103 108 255 
-0.000985196 0.0851013 1.77098 0 0 0 63 46 38 255 
0.332229 0.172181 1.53174 0 0 0 14 60 108 255 
0.322741 0.176613 1.531 0 0 0 132 165 186 255 
0.291554 0.175509 1.52195 0 0 0 33 75 111 255 
0.317999 0.194017 1.5301 0 0 0 104 106 120 255 
-0.21607 0.0638718 1.79084 0 0 0 52 57 65 255 
0.298224 0.19302 1.52484 0 0 0 134 150 165 255 
-0.213415 0.0719313 1.79547 0 0 0 64 72 79 255 
-0.279644 0.0516948 1.71679 0 0 0 92 105 91 255 
0.287475 0.196227 1.53176 0 0 0 77 86 97 255 
0.737224 0.371909 1.9997 0 0 0 131 92 81 255 
-0.307823 0.0592174 1.69064 0 0 0 35 54 34 255 
-0.251699 0.0821078 1.77613 0 0 0 62 73 83 255 
0.197758 0.189457 1.5927 0 0 0 121 121 134 255 
0.356904 0.232819 1.58623 0 0 0 57 101 143 255 
-0.306933 0.065602 1.69542 0 0 0 97 114 108 255 
-0.280574 0.0713544 1.71556 0 0 0 117 130 107 255 
0.701706 0.380067 2.10833 0 0 0 134 110 102 255 
0.73644 0.38079 1.98889 0 0 0 134 98 93 255 
-0.26876 0.0847588 1.74694 0 0 0 56 69 72 255 
-0.297893 0.0742323 1.70874 0 0 0 92 97 91 255 
0.486278 0.311003 1.94558 0 0 0 119 75 73 255 
-0.31565 0.0702941 1.67575 0 0 0 103 121 108 255 
-0.341133 0.0600337 1.65266 0 0 0 127 145 111 255 
-0.318158 0.0724232 1.67635 0 0 0 113 129 119 255 
-0.278395 0.0822638 1.55149 0 0 0 122 137 98 255 
-0.339115 0.0767626 1.65923 0 0 0 90 104 83 255 
-0.30136 0.0964824 1.72433 0 0 0 84 94 100 255 
0.241346 0.222235 1.55175 0 0 0 70 137 175 255 
0.371541 0.264661 1.59039 0 0 0 138 156 180 255 
-0.299882 0.0964001 1.70571 0 0 0 98 103 111 255 
-0.316902 0.0998624 1.69344 0 0 0 107 117 125 255 
-0.308784 0.0989695 1.69784 0 0 0 12 22 29 255 
-0.352756 0.092731 1.65077 0 0 0 89 102 75 255 
-0.204809 0.14894 1.82606 0 0 0 63 75 81 255 
0.290866 0.256847 1.55627 0 0 0 87 110 150 255 
-0.329651 0.104707 1.67769 0 0 0 68 78 84 255 
-0.338754 0.109183 1.67112 0 0 0 71 81 85 255 
-0.205797 0.165455 1.83756 0 0 0 53 68 71 255 
0.421069 0.349727 1.953 0 0 0 151 160 162 255 
-0.351808 0.114532 1.66265 0 0 0 68 76 85 255 
-0.301021 0.142901 1.73411 0 0 0 137 142 151 255 
-0.353343 0.118608 1.64414 0 0 0 75 85 93 255 
-0.310812 0.126414 1.58099 0 0 0 84 94 99 255 
-0.336166 0.130057 1.68874 0 0 0 53 62 68 255 
-0.255287 0.168593 1.79632 0 0 0 101 118 124 255 
-0.357266 0.135972 1.67642 0 0 0 66 72 78 255 
-0.239686 0.19113 1.83218 0 0 0 42 57 62 255 
-0.285392 0.178651 1.77503 0 0 0 138 159 164 255 
-0.345814 0.156524 1.68327 0 0 0 125 137 145 255 
-0.273507 0.188408 1.78817 0 0 0 116 133 139 255 
-0.292791 0.187534 1.76702 0 0 0 91 107 113 255 
0.405685 0.399132 1.97753 0 0 0 121 119 120 255 
-0.305445 0.190904 1.75961 0 0 0 144 159 166 255 
-0.244534 0.218508 1.8377 0 0 0 109 124 129 255 
-0.284604 0.199329 1.77423 0 0 0 136 151 158 255 
-0.169582 0.221623 1.70297 0 0 0 39 56 62 255 
0.373874 0.345775 1.61432 0 0 0 146 170 190 255 
-0.29748 0.204509 1.76103 0 0 0 130 145 152 255 
-0.264516 0.227993 1.81669 0 0 0 113 130 136 255 
0.384401 0.406313 1.84102 0 0 0 47 36 33 255 
0.412468 0.397741 1.68627 0 0 0 70 68 88 255 
0.680695 0.49296 1.85061 0 0 0 65 78 90 255 
-0.302997 0.240145 1.77974 0 0 0 113 130 136 255 
-0.367255 0.213238 1.69561 0 0 0 122 138 145 255 
0.686298 0.499211 1.84228 0 0 0 105 123 136 255 
-0.395892 0.205506 1.66533 0 0 0 147 164 168 255 
0.718155 0.510751 1.81261 0 0 0 134 159 185 255 
0.361392 0.397222 1.6343 0 0 0 154 149 173 255 
0.399743 0.420069 1.6972 0 0 0 59 94 124 255 
-0.410003 0.220772 1.64932 0 0 0 90 102 108 255 
0.367578 0.402812 1.63265 0 0 0 84 97 127 255 
0.623083 0.50014 1.81119 0 0 0 96 101 117 255 
0.269496 0.3786 1.59947 0 0 0 54 103 112 255 
-0.178286 0.323721 1.83887 0 0 0 46 51 59 255 
0.664278 0.517104 1.7884 0 0 0 104 118 139 255 
0.411373 0.431039 1.63353 0 0 0 8 60 102 255 
0.67616 0.524037 1.77898 0 0 0 114 137 162 255 
-0.120246 0.293897 1.56368 0 0 0 51 69 79 255 
-0.178532 0.335237 1.84412 0 0 0 76 84 91 255 
0.908776 0.572989 1.72851 0 0 0 47 70 85 255 
-0.136717 0.293244 1.56667 0 0 0 91 113 132 255 
0.322592 0.417652 1.62034 0 0 0 57 110 149 255 
0.847076 0.583566 1.84027 0 0 0 104 76 95 255 
-0.402114 0.256684 1.66829 0 0 0 140 156 160 255 
0.186808 0.39123 1.62595 0 0 0 73 77 85 255 
0.349161 0.442504 1.67488 0 0 0 14 80 128 255 
-0.18836 0.357939 1.84596 0 0 0 59 62 71 255 
0.154862 0.403941 1.69004 0 0 0 152 174 190 255 
0.645627 0.537033 1.76936 0 0 0 39 78 111 255 
-0.365598 0.257969 1.53091 0 0 0 149 164 169 255 
0.566214 0.518527 1.74869 0 0 0 91 50 23 255 
-0.357794 0.265844 1.55156 0 0 0 128 146 153 255 
0.615425 0.53323 1.74641 0 0 0 102 123 142 255 
-0.137456 0.361015 1.73661 0 0 0 75 83 88 255 
0.304549 0.417192 1.52768 0 0 0 137 127 115 255 
-0.0575328 0.326218 1.47789 0 0 0 81 135 169 255 
0.577668 0.514752 1.67241 0 0 0 84 49 30 255 
0.634933 0.544122 1.74576 0 0 0 135 158 175 255 
0.614061 0.538122 1.73798 0 0 0 116 140 160 255 
-0.0849105 0.360133 1.64379 0 0 0 80 87 93 255 
0.560445 0.529257 1.72276 0 0 0 109 117 130 255 
0.80131 0.578452 1.69623 0 0 0 105 118 142 255 
-0.0439374 0.351847 1.54148 0 0 0 49 64 65 255 
-0.16251 0.392674 1.83102 0 0 0 103 103 113 255 
-0.104891 0.31895 1.43404 0 0 0 85 90 98 255 
0.706241 0.562024 1.70389 0 0 0 67 111 138 255 
-0.11385 0.309725 1.39892 0 0 0 139 142 118 255 
-0.0566768 0.370036 1.59804 0 0 0 23 28 36 255 
-0.333055 0.282929 1.4779 0 0 0 137 154 158 255 
0.548201 0.533451 1.71168 0 0 0 109 105 116 255 
0.540665 0.534288 1.71285 0 0 0 76 62 49 255 
0.608592 0.550932 1.71509 0 0 0 136 163 188 255 
-0.115108 0.313907 1.38186 0 0 0 140 151 152 255 
-0.0529028 0.372635 1.57894 0 0 0 96 99 108 255 
-0.122236 0.316861 1.3795 0 0 0 124 134 137 255 
-0.126805 0.325412 1.41567 0 0 0 81 84 95 255 
0.589224 0.551808 1.70183 0 0 0 119 141 170 255 
0.446638 0.525021 1.71842 0 0 0 132 77 42 255 
-0.0233317 0.389992 1.56656 0 0 0 140 157 163 255 
0.600125 0.557615 1.7024 0 0 0 125 166 191 255 
-0.00532118 0.373192 1.47253 0 0 0 60 120 116 255 
0.644401 0.565039 1.67155 0 0 0 89 153 193 255 
-0.351318 0.308534 1.49664 0 0 0 151 163 169 255 
-0.117555 0.328133 1.36459 0 0 0 92 106 114 255 
-0.0454847 0.366788 1.46827 0 0 0 86 135 146 255 
-0.0921882 0.336804 1.37001 0 0 0 60 75 96 255 
0.509292 0.547376 1.69934 0 0 0 61 57 22 255 
-0.105813 0.335695 1.36792 0 0 0 61 70 86 255 
0.513678 0.544816 1.67964 0 0 0 60 56 36 255 
-0.147777 0.32661 1.36786 0 0 0 105 113 118 255 
-0.130267 0.344166 1.40906 0 0 0 78 78 104 255 
0.529137 0.558968 1.68429 0 0 0 148 143 142 255 
0.607008 0.573141 1.67776 0 0 0 7 56 90 255 
-0.00804571 0.38382 1.43377 0 0 0 115 101 114 255 
0.906673 0.631976 1.62778 0 0 0 56 102 137 255 
-0.0760551 0.356909 1.35576 0 0 0 72 102 126 255 
-0.00270645 0.401211 1.44199 0 0 0 104 118 130 255 
0.00185368 0.40188 1.41036 0 0 0 95 120 125 255 
0.0124023 0.418965 1.43714 0 0 0 105 128 137 255 
0.917607 0.645594 1.5698 0 0 0 71 104 127 255 
-0.108767 0.370292 1.33183 0 0 0 74 103 109 255 
0.908767 0.648531 1.56553 0 0 0 83 111 133 255 
0.00577529 0.441512 1.46594 0 0 0 127 118 129 255 
0.919995 0.654469 1.54666 0 0 0 74 109 128 255 
-0.151696 0.376049 1.2918 0 0 0 26 34 39 255 
-0.0698048 0.409363 1.35188 0 0 0 138 108 116 255 
0.918694 0.66302 1.51867 0 0 0 125 145 158 255 
-0.0936925 0.40713 1.3355 0 0 0 102 114 122 255 
-0.10254 0.408819 1.33316 0 0 0 140 154 163 255 
0.901601 0.660133 1.51192 0 0 0 73 95 105 255 
-0.0939086 0.420958 1.33325 0 0 0 94 104 115 255 
0.695892 0.634723 1.5304 0 0 0 119 89 85 255 
0.758933 0.646625 1.52616 0 0 0 36 44 64 255 
0.897274 0.668082 1.50192 0 0 0 64 101 110 255 
-0.0858767 0.423845 1.32498 0 0 0 46 56 64 255 
0.876759 0.665546 1.49949 0 0 0 98 135 156 255 
