ply
format ascii 1.0
comment VCGLIB generated
element vertex 989
property float x
property float y
property float z
property float nx
property float ny
property float nz
property uchar red
property uchar green
property uchar blue
property uchar alpha
element face 0
property list uchar int vertex_indices
end_header
-0.0408726 -0.0382609 1.91609 0 0 0 61 41 43 255 
0.200547 0.109156 1.79783 0 0 0 116 128 138 255 
1.00431 0.259238 2.08529 0 0 0 124 161 188 255 
0.796692 0.235141 2.10117 0 0 0 76 80 77 255 
0.195555 0.12768 1.84023 0 0 0 43 37 44 255 
0.942341 0.275625 2.11994 0 0 0 120 162 178 255 
0.168839 0.12095 2.01987 0 0 0 32 28 37 255 
0.219391 0.189706 1.75328 0 0 0 98 136 148 255 
0.21922 0.193347 1.75583 0 0 0 152 176 171 255 
0.356758 0.238448 1.74837 0 0 0 125 193 224 255 
-0.00649543 0.118608 2.01332 0 0 0 71 47 43 255 
0.375279 0.281381 1.7925 0 0 0 159 196 224 255 
0.759809 0.33363 2.17213 0 0 0 150 142 145 255 
0.675692 0.315289 2.17425 0 0 0 165 152 149 255 
0.108744 0.206779 2.07066 0 0 0 109 101 94 255 
0.397334 0.333024 1.8473 0 0 0 170 183 198 255 
0.39571 0.345835 1.85353 0 0 0 108 144 158 255 
-0.1774 0.163444 2.04657 0 0 0 41 62 76 255 
0.298152 0.351901 1.80375 0 0 0 48 102 145 255 
0.326504 0.368149 1.81564 0 0 0 147 183 210 255 
0.195825 0.324106 1.8654 0 0 0 154 192 224 255 
0.780234 0.504009 2.13929 0 0 0 160 186 205 255 
0.678556 0.484304 2.11047 0 0 0 69 75 91 255 
0.371347 0.410278 1.88548 0 0 0 162 203 215 255 
0.678196 0.49822 2.09349 0 0 0 97 129 155 255 
0.733532 0.530466 2.06356 0 0 0 160 207 233 255 
0.71735 0.532606 2.07569 0 0 0 152 211 237 255 
0.40403 0.444912 1.95586 0 0 0 115 150 180 255 
0.251878 0.406578 1.84434 0 0 0 116 167 210 255 
0.726107 0.552177 2.03263 0 0 0 147 212 247 255 
0.288472 0.42191 1.84221 0 0 0 50 142 132 255 
0.311441 0.427527 1.85233 0 0 0 154 202 188 255 
0.35402 0.436736 1.87999 0 0 0 97 149 174 255 
0.718086 0.554024 2.06318 0 0 0 52 118 152 255 
0.339681 0.455277 1.87437 0 0 0 147 162 174 255 
0.692575 0.577286 2.00367 0 0 0 121 192 231 255 
0.65202 0.572129 2.00491 0 0 0 161 216 239 255 
-0.107903 -0.269406 1.7823 0 0 0 205 205 206 255 
0.0950776 -0.214735 1.81836 0 0 0 176 175 171 255 
0.0629642 -0.205819 1.8129 0 0 0 133 117 115 255 
0.138722 -0.182295 1.83495 0 0 0 136 123 119 255 
-0.124268 -0.213886 1.78818 0 0 0 43 49 52 255 
0.0579013 -0.18478 1.82566 0 0 0 145 106 105 255 
0.0663546 -0.174064 1.83328 0 0 0 149 136 128 255 
0.184943 -0.123392 1.86921 0 0 0 148 142 137 255 
-0.111556 -0.150297 1.82619 0 0 0 135 120 124 255 
0.188717 -0.064431 1.91754 0 0 0 114 116 113 255 
0.100446 -0.0627762 1.92217 0 0 0 177 179 176 255 
0.889039 0.132382 2.04012 0 0 0 148 181 204 255 
0.952367 0.145049 2.04721 0 0 0 98 142 154 255 
-0.0250552 -0.0360285 1.90633 0 0 0 189 187 179 255 
-0.0428344 -0.0354693 1.9191 0 0 0 65 40 40 255 
0.836032 0.154212 2.06781 0 0 0 129 135 136 255 
0.776954 0.146239 2.04281 0 0 0 48 47 64 255 
0.812582 0.145774 2.08016 0 0 0 45 54 62 255 
0.898338 0.173635 2.0483 0 0 0 66 105 131 255 
0.730819 0.133802 2.05995 0 0 0 66 91 113 255 
-0.0275015 -0.0157961 1.91788 0 0 0 36 47 46 255 
0.876583 0.18576 2.08061 0 0 0 136 178 198 255 
0.201696 0.109952 1.79727 0 0 0 128 150 162 255 
0.401059 0.158255 1.75931 0 0 0 177 217 232 255 
-0.191988 -0.0336255 1.95347 0 0 0 59 82 79 255 
0.345028 0.177241 1.71836 0 0 0 17 99 154 255 
0.168692 0.0781852 2.00071 0 0 0 98 87 82 255 
0.0399405 0.0518645 1.9893 0 0 0 59 48 55 255 
0.223668 0.1528 1.7327 0 0 0 10 95 140 255 
0.200464 0.101121 2.01379 0 0 0 103 98 97 255 
0.17167 0.12143 2.01979 0 0 0 32 30 40 255 
0.217829 0.191586 1.75587 0 0 0 54 120 165 255 
0.362395 0.234297 1.75126 0 0 0 161 192 213 255 
0.722966 0.288855 2.1423 0 0 0 150 172 187 255 
0.14869 0.179031 2.04703 0 0 0 117 107 108 255 
0.285335 0.271379 1.75711 0 0 0 37 126 169 255 
0.248354 0.279001 1.77552 0 0 0 72 137 169 255 
0.325293 0.294828 1.76582 0 0 0 180 213 241 255 
0.394651 0.32843 1.8431 0 0 0 156 168 182 255 
0.0897417 0.224317 2.07838 0 0 0 115 112 118 255 
-0.177038 0.170688 2.04357 0 0 0 26 47 61 255 
0.220429 0.317522 1.81695 0 0 0 43 79 100 255 
0.203326 0.328632 1.84581 0 0 0 165 193 204 255 
0.706188 0.478141 2.12892 0 0 0 66 83 103 255 
0.792676 0.509816 2.12379 0 0 0 160 189 215 255 
-0.118237 0.246877 2.04646 0 0 0 136 121 112 255 
0.186732 0.340152 2.12852 0 0 0 48 45 51 255 
0.674919 0.504228 2.09575 0 0 0 126 179 207 255 
0.721821 0.530634 2.0716 0 0 0 161 215 241 255 
0.200092 0.381081 1.88025 0 0 0 125 175 202 255 
0.318329 0.421136 1.84841 0 0 0 140 173 156 255 
0.713144 0.550401 2.06938 0 0 0 60 116 157 255 
0.226134 0.405507 1.86064 0 0 0 127 163 197 255 
0.311792 0.429987 1.85476 0 0 0 149 202 186 255 
0.21346 0.408876 1.87623 0 0 0 140 184 206 255 
0.208588 0.414966 1.88883 0 0 0 101 167 196 255 
0.396716 0.478311 1.97058 0 0 0 90 150 185 255 
0.0595731 -0.207815 1.81473 0 0 0 172 161 158 255 
0.0592645 -0.199428 1.81891 0 0 0 130 110 108 255 
0.111246 -0.191133 1.82906 0 0 0 133 127 120 255 
0.136445 -0.186881 1.8347 0 0 0 174 161 155 255 
0.155791 -0.173528 1.83837 0 0 0 128 110 112 255 
0.135957 -0.173159 1.83959 0 0 0 147 136 131 255 
0.244156 -0.124198 1.88099 0 0 0 128 121 119 255 
0.305327 -0.0987908 1.90285 0 0 0 140 131 127 255 
0.127829 -0.102663 1.88059 0 0 0 119 108 105 255 
0.355988 -0.0646562 1.9328 0 0 0 151 149 147 255 
0.247705 -0.0654917 1.92717 0 0 0 172 170 168 255 
0.258918 -0.0330394 1.95731 0 0 0 50 50 50 255 
0.820338 0.0867536 2.02307 0 0 0 150 178 195 255 
0.255955 -0.0194936 1.96415 0 0 0 37 37 47 255 
0.424362 0.0806066 1.80703 0 0 0 210 240 249 255 
0.802941 0.108446 2.02427 0 0 0 53 93 114 255 
0.121403 -0.0263402 1.92815 0 0 0 18 19 22 255 
0.740515 0.108478 2.03692 0 0 0 113 149 163 255 
-0.024122 -0.0435445 1.90201 0 0 0 188 187 180 255 
0.870651 0.144136 2.06613 0 0 0 48 82 98 255 
0.737802 0.131507 2.05682 0 0 0 60 83 106 255 
-0.0268055 -0.0110978 1.91953 0 0 0 36 44 51 255 
0.0394897 0.0121542 1.95069 0 0 0 141 136 124 255 
-0.189258 -0.0364629 1.95066 0 0 0 60 83 80 255 
0.207744 0.106672 1.7902 0 0 0 154 179 192 255 
0.025163 0.0500042 1.98031 0 0 0 66 60 67 255 
0.133638 0.073301 1.98799 0 0 0 35 34 36 255 
0.0927441 0.0682231 1.98623 0 0 0 38 42 38 255 
0.204325 0.0992934 1.99397 0 0 0 98 88 78 255 
0.716204 0.223291 2.101 0 0 0 75 101 110 255 
0.010758 0.0645498 1.97796 0 0 0 123 111 111 255 
0.80444 0.24597 2.09925 0 0 0 48 52 65 255 
0.868854 0.260059 2.16646 0 0 0 43 51 69 255 
0.110443 0.09581 2.00193 0 0 0 109 103 94 255 
0.0248053 0.0896644 1.97848 0 0 0 46 41 36 255 
0.626105 0.228825 2.17979 0 0 0 131 169 183 255 
0.709172 0.269055 2.14657 0 0 0 162 189 203 255 
-0.00823113 0.119874 2.01406 0 0 0 75 50 47 255 
0.169996 0.229102 2.06001 0 0 0 125 110 101 255 
0.0855114 0.212005 2.07233 0 0 0 45 43 51 255 
0.365045 0.318713 1.80338 0 0 0 180 216 232 255 
0.331039 0.372311 1.82038 0 0 0 178 211 234 255 
0.407014 0.391508 1.91539 0 0 0 36 121 163 255 
0.586922 0.43477 2.18381 0 0 0 65 65 75 255 
-0.114369 0.236126 2.04359 0 0 0 137 123 115 255 
0.187497 0.328205 2.12006 0 0 0 40 48 55 255 
0.689282 0.478821 2.08999 0 0 0 70 78 96 255 
0.678077 0.503081 2.09218 0 0 0 141 180 206 255 
0.175749 0.362919 2.00588 0 0 0 168 147 145 255 
0.314661 0.432298 1.85469 0 0 0 142 177 159 255 
0.39047 0.455525 1.95365 0 0 0 26 119 159 255 
0.173588 0.388313 2.00301 0 0 0 232 253 255 255 
0.0852865 0.374958 2.18099 0 0 0 84 87 90 255 
0.471659 -0.0695688 2.01687 0 0 0 186 185 179 255 
0.468418 -0.0372958 2.03801 0 0 0 40 48 59 255 
0.431807 0.0676339 1.85271 0 0 0 211 238 245 255 
-0.0200862 -0.0418146 1.89988 0 0 0 188 189 179 255 
0.0392212 -0.0162763 1.93822 0 0 0 33 38 46 255 
0.217399 0.0733334 1.7831 0 0 0 221 247 255 255 
0.671638 0.164114 2.08759 0 0 0 80 69 75 255 
0.198327 0.121067 1.79964 0 0 0 39 71 99 255 
0.218975 0.156247 1.77403 0 0 0 0 85 135 255 
0.67643 0.228628 2.14528 0 0 0 159 190 205 255 
0.71197 0.247605 2.12488 0 0 0 125 146 164 255 
0.00498862 0.0739933 1.98869 0 0 0 127 109 106 255 
0.704886 0.265528 2.15557 0 0 0 154 184 197 255 
0.134991 0.174004 2.05196 0 0 0 127 111 105 255 
-0.172077 0.113115 2.02957 0 0 0 81 112 120 255 
0.337535 0.295959 1.77698 0 0 0 172 213 237 255 
0.0851586 0.213089 2.07236 0 0 0 45 43 51 255 
0.298038 0.359628 1.80863 0 0 0 51 109 139 255 
0.215366 0.344784 1.83697 0 0 0 34 92 139 255 
0.26151 0.372323 1.82778 0 0 0 124 151 179 255 
0.0637507 0.359539 2.16689 0 0 0 94 87 87 255 
1.31194 -1.22383 3.56774 0 0 0 222 243 250 255 
1.34219 -1.20509 3.59313 0 0 0 106 121 131 255 
1.17543 -1.1892 3.59409 0 0 0 98 124 132 255 
0.987131 -1.07285 3.40889 0 0 0 123 143 158 255 
0.960966 -1.04167 3.37999 0 0 0 196 218 233 255 
1.3902 -1.19322 3.80116 0 0 0 108 128 140 255 
1.14022 -0.992837 3.49336 0 0 0 93 118 134 255 
1.35838 -1.06067 3.76145 0 0 0 155 165 170 255 
0.468807 -0.365233 1.98626 0 0 0 121 135 144 255 
0.463128 -0.344032 1.96078 0 0 0 60 55 61 255 
0.514169 -0.317971 1.93432 0 0 0 88 80 82 255 
0.373791 -0.207899 1.84862 0 0 0 126 114 104 255 
0.303997 -0.214225 1.8432 0 0 0 151 138 132 255 
0.367779 -0.200863 1.85446 0 0 0 166 146 137 255 
0.314388 -0.207743 1.84809 0 0 0 147 129 124 255 
0.333526 -0.203815 1.85042 0 0 0 181 166 159 255 
0.299679 -0.207978 1.84561 0 0 0 134 113 111 255 
0.346074 -0.201834 1.85676 0 0 0 116 104 92 255 
0.284911 -0.205565 1.84687 0 0 0 140 121 116 255 
0.21785 -0.205237 1.84001 0 0 0 160 147 137 255 
0.329828 -0.191708 1.85801 0 0 0 188 163 160 255 
0.216073 -0.203863 1.84088 0 0 0 164 135 131 255 
0.232429 -0.197768 1.84439 0 0 0 190 179 172 255 
0.232964 -0.197703 1.84452 0 0 0 190 181 172 255 
0.227056 -0.197468 1.84411 0 0 0 188 171 166 255 
0.345234 -0.184368 1.86695 0 0 0 156 142 135 255 
0.193116 -0.199586 1.83982 0 0 0 188 168 159 255 
0.332783 -0.183664 1.86129 0 0 0 189 168 163 255 
0.366849 -0.179214 1.86778 0 0 0 154 144 136 255 
0.101843 -0.204207 1.80812 0 0 0 138 133 121 255 
0.356725 -0.179782 1.86771 0 0 0 122 105 97 255 
0.16976 -0.19807 1.83641 0 0 0 194 174 165 255 
0.183908 -0.195851 1.8406 0 0 0 174 170 160 255 
0.312058 -0.178454 1.86369 0 0 0 136 119 114 255 
0.270757 -0.183342 1.85789 0 0 0 196 180 170 255 
0.159823 -0.19425 1.83507 0 0 0 170 141 135 255 
0.286505 -0.178861 1.86303 0 0 0 126 95 94 255 
0.228003 -0.179073 1.85549 0 0 0 184 173 166 255 
0.669761 -0.110265 1.89757 0 0 0 171 140 127 255 
0.655076 -0.100827 1.90555 0 0 0 184 166 151 255 
0.172827 -0.172666 1.85288 0 0 0 138 126 116 255 
0.158314 -0.172086 1.84979 0 0 0 127 115 105 255 
0.149126 -0.170855 1.84664 0 0 0 135 120 111 255 
0.218873 -0.159996 1.86808 0 0 0 124 103 94 255 
0.642255 -0.093105 1.9162 0 0 0 167 137 119 255 
0.670532 -0.0879566 1.91041 0 0 0 168 135 122 255 
0.221826 -0.149052 1.87416 0 0 0 123 113 98 255 
0.673802 -0.0689755 1.92425 0 0 0 182 162 156 255 
0.154841 -0.146823 1.86598 0 0 0 137 123 109 255 
0.167289 -0.146392 1.86524 0 0 0 131 121 107 255 
0.14574 -0.146485 1.86613 0 0 0 135 124 112 255 
0.29324 -0.124963 1.89322 0 0 0 176 153 145 255 
0.11767 -0.14464 1.85742 0 0 0 142 129 119 255 
0.143935 -0.141273 1.86879 0 0 0 190 178 166 255 
0.737862 -0.0389669 1.91962 0 0 0 133 108 97 255 
0.10479 -0.143755 1.85772 0 0 0 143 123 114 255 
0.701621 -0.0464966 1.92398 0 0 0 139 120 106 255 
0.120244 -0.138814 1.86033 0 0 0 169 142 135 255 
0.711873 -0.0419216 1.92636 0 0 0 181 162 166 255 
0.668567 -0.0496126 1.93765 0 0 0 170 152 123 255 
0.67139 -0.0524539 1.93429 0 0 0 172 134 109 255 
0.69745 -0.0352772 1.93307 0 0 0 134 102 103 255 
0.314865 -0.103391 1.90518 0 0 0 144 131 120 255 
0.262384 -0.109809 1.90199 0 0 0 190 171 164 255 
0.667989 -0.0406716 1.94365 0 0 0 140 108 86 255 
0.674612 -0.032137 1.94385 0 0 0 183 171 170 255 
0.707637 -0.0247173 1.93538 0 0 0 188 150 146 255 
0.336864 -0.0744221 1.92684 0 0 0 138 132 123 255 
0.290072 -0.0716591 1.9246 0 0 0 101 100 91 255 
0.255859 -0.0736622 1.91969 0 0 0 165 160 152 255 
0.286501 -0.0678298 1.9256 0 0 0 79 75 69 255 
0.311253 -0.0633804 1.92766 0 0 0 72 68 62 255 
0.336034 -0.0605535 1.93791 0 0 0 108 102 95 255 
0.324508 -0.0647107 1.94553 0 0 0 88 84 76 255 
0.468531 -0.0418333 1.97525 0 0 0 34 34 31 255 
0.239413 -0.0732253 1.92353 0 0 0 142 138 132 255 
0.242721 -0.0729061 1.92241 0 0 0 141 135 129 255 
0.259104 -0.0705084 1.9334 0 0 0 173 169 163 255 
0.27734 -0.0627269 1.93177 0 0 0 124 120 114 255 
0.291516 -0.0581396 1.93228 0 0 0 110 104 97 255 
0.298975 -0.0602261 1.93656 0 0 0 153 148 142 255 
0.278623 -0.0603849 1.93294 0 0 0 118 114 108 255 
0.196035 -0.0701758 1.91802 0 0 0 192 183 175 255 
0.228554 -0.062679 1.92867 0 0 0 100 93 91 255 
0.472234 -0.022616 2.0045 0 0 0 47 34 31 255 
0.191305 -0.0572111 1.92519 0 0 0 177 171 162 255 
0.187197 -0.0579438 1.92663 0 0 0 106 100 91 255 
0.336811 -0.0286067 1.95368 0 0 0 124 123 126 255 
0.320384 -0.0256457 1.95622 0 0 0 119 118 123 255 
0.116355 -0.0568579 1.90609 0 0 0 178 174 168 255 
0.289977 -0.0271293 1.95103 0 0 0 59 54 56 255 
0.51707 0.0122989 2.04732 0 0 0 104 69 56 255 
0.178948 -0.0224031 1.94507 0 0 0 108 109 113 255 
0.178189 -0.0199213 1.94664 0 0 0 133 134 139 255 
0.155056 -0.023251 1.94285 0 0 0 104 101 103 255 
0.0739469 -0.0178532 1.92396 0 0 0 96 95 90 255 
0.737834 0.12392 2.01921 0 0 0 111 121 130 255 
0.441573 0.118261 1.78518 0 0 0 96 93 97 255 
0.746986 0.150513 2.0363 0 0 0 135 131 117 255 
0.0296948 0.0160305 1.9207 0 0 0 78 60 59 255 
0.0576812 0.0180047 1.93965 0 0 0 90 73 63 255 
0.79699 0.174093 2.03917 0 0 0 122 128 128 255 
0.352884 0.178346 1.70563 0 0 0 70 154 198 255 
0.345322 0.179909 1.70476 0 0 0 68 146 197 255 
0.360513 0.190191 1.7131 0 0 0 105 166 202 255 
0.253461 0.169679 1.70642 0 0 0 126 164 191 255 
0.539752 0.193692 2.14057 0 0 0 95 100 106 255 
0.368018 0.201262 1.72958 0 0 0 77 150 189 255 
0.151609 0.131852 2.03511 0 0 0 39 30 26 255 
1.12584 0.375324 2.1431 0 0 0 73 76 75 255 
0.353692 0.221769 1.72783 0 0 0 108 137 153 255 
0.190299 0.165713 1.87996 0 0 0 51 33 28 255 
1.14769 0.389616 2.12176 0 0 0 90 91 81 255 
0.352858 0.226154 1.73072 0 0 0 111 138 157 255 
0.157175 0.152845 2.03609 0 0 0 37 26 19 255 
1.13635 0.398363 2.14662 0 0 0 77 67 59 255 
1.14205 0.399947 2.13575 0 0 0 107 96 89 255 
1.16425 0.410591 2.11428 0 0 0 90 82 73 255 
0.347486 0.232397 1.73127 0 0 0 160 194 212 255 
1.14932 0.409293 2.13635 0 0 0 114 105 97 255 
1.12316 0.4012 2.16513 0 0 0 68 70 69 255 
1.15722 0.416279 2.12909 0 0 0 114 105 90 255 
1.18169 0.42261 2.08807 0 0 0 75 74 76 255 
1.16414 0.419479 2.12099 0 0 0 117 104 92 255 
0.313883 0.231486 1.72525 0 0 0 124 128 143 255 
0.999774 0.382948 2.14596 0 0 0 59 38 38 255 
0.188653 0.190387 1.85654 0 0 0 46 36 40 255 
0.833899 0.342714 2.14102 0 0 0 165 134 124 255 
0.782557 0.33002 2.15844 0 0 0 175 128 126 255 
0.936154 0.369568 2.13871 0 0 0 172 127 124 255 
0.815698 0.345945 2.15586 0 0 0 168 137 130 255 
0.541533 0.279415 2.20833 0 0 0 149 118 118 255 
0.689661 0.315636 2.17683 0 0 0 171 128 122 255 
0.703738 0.323175 2.17306 0 0 0 152 125 113 255 
0.259649 0.237925 1.74348 0 0 0 52 103 125 255 
0.382237 0.266827 1.78581 0 0 0 74 143 184 255 
0.540365 0.282922 2.21083 0 0 0 159 128 128 255 
0.371251 0.271715 1.78081 0 0 0 14 103 146 255 
0.363807 0.275686 1.77283 0 0 0 17 84 142 255 
0.097097 0.20492 2.06468 0 0 0 77 67 67 255 
0.390533 0.300365 1.8085 0 0 0 183 202 219 255 
0.32347 0.285255 1.76049 0 0 0 61 125 165 255 
0.09398 0.220114 2.07249 0 0 0 93 88 87 255 
0.39361 0.310382 1.8179 0 0 0 76 100 122 255 
0.277537 0.285523 1.76528 0 0 0 75 133 173 255 
0.314684 0.294822 1.76832 0 0 0 53 89 124 255 
0.395216 0.321484 1.82632 0 0 0 178 196 214 255 
0.0971501 0.239058 2.08954 0 0 0 75 66 58 255 
0.324377 0.311037 1.77767 0 0 0 62 88 127 255 
0.39206 0.333979 1.83481 0 0 0 179 205 217 255 
0.221787 0.292105 1.80848 0 0 0 39 82 126 255 
0.332911 0.341168 1.79415 0 0 0 131 147 155 255 
0.393012 0.357528 1.85932 0 0 0 150 185 204 255 
0.393997 0.373767 1.88142 0 0 0 171 188 199 255 
0.198646 0.324398 1.86474 0 0 0 119 140 149 255 
0.317756 0.355854 1.80504 0 0 0 129 164 183 255 
0.381929 0.374994 1.864 0 0 0 104 135 153 255 
0.76427 0.496426 2.12628 0 0 0 170 185 196 255 
0.399855 0.399022 1.92316 0 0 0 78 130 168 255 
0.858011 0.539921 2.08672 0 0 0 19 82 139 255 
0.343579 0.39065 1.84505 0 0 0 149 181 207 255 
0.772698 0.532134 2.07027 0 0 0 72 147 191 255 
0.722763 0.51995 2.07454 0 0 0 120 147 167 255 
0.686951 0.515194 2.09517 0 0 0 84 108 131 255 
0.719226 0.524978 2.07384 0 0 0 84 113 135 255 
0.21969 0.385506 1.85403 0 0 0 25 113 145 255 
0.228508 0.392172 1.8529 0 0 0 45 122 167 255 
1.28358 -1.19972 3.56226 0 0 0 60 77 88 255 
1.28897 -1.18691 3.57775 0 0 0 73 82 93 255 
1.17339 -1.17522 3.59196 0 0 0 73 95 106 255 
0.980338 -1.08883 3.42382 0 0 0 128 150 164 255 
0.459132 -0.372012 1.98386 0 0 0 173 197 205 255 
1.11086 -0.940201 3.43722 0 0 0 181 199 210 255 
0.359551 -0.207272 1.85045 0 0 0 124 112 102 255 
0.372741 -0.207049 1.84911 0 0 0 126 114 104 255 
0.334531 -0.206765 1.84928 0 0 0 130 118 111 255 
0.302118 -0.20951 1.84482 0 0 0 132 111 109 255 
0.281828 -0.204772 1.8458 0 0 0 147 128 124 255 
0.239123 -0.20539 1.84037 0 0 0 143 115 109 255 
0.365732 -0.188179 1.86217 0 0 0 181 149 146 255 
0.21743 -0.203341 1.84095 0 0 0 146 117 112 255 
0.331175 -0.190355 1.85854 0 0 0 190 172 165 255 
0.100796 -0.20724 1.80182 0 0 0 122 117 103 255 
0.232649 -0.196932 1.84496 0 0 0 189 179 171 255 
0.153764 -0.200021 1.83228 0 0 0 140 114 107 255 
0.191636 -0.196908 1.84136 0 0 0 186 176 164 255 
0.27397 -0.186851 1.85642 0 0 0 192 182 172 255 
0.269807 -0.184592 1.85684 0 0 0 194 174 165 255 
0.283392 -0.180077 1.86273 0 0 0 127 94 93 255 
0.305343 -0.177634 1.86476 0 0 0 121 103 95 255 
0.711489 -0.105346 1.88383 0 0 0 177 145 124 255 
0.124398 -0.190313 1.82531 0 0 0 187 176 167 255 
0.262746 -0.175419 1.86087 0 0 0 141 119 113 255 
0.642938 -0.115005 1.90159 0 0 0 185 151 141 255 
0.122815 -0.175434 1.83753 0 0 0 190 181 166 255 
0.642758 -0.0913483 1.91731 0 0 0 177 145 122 255 
0.221914 -0.148043 1.87479 0 0 0 123 113 98 255 
0.671062 -0.0692587 1.9237 0 0 0 179 161 156 255 
0.168436 -0.14597 1.86564 0 0 0 131 122 108 255 
0.249769 -0.134617 1.88408 0 0 0 150 142 131 255 
0.311929 -0.125434 1.89275 0 0 0 129 101 92 255 
0.707974 -0.044212 1.92452 0 0 0 166 139 134 255 
0.735816 -0.0347685 1.92221 0 0 0 143 105 86 255 
0.735182 -0.0297091 1.92632 0 0 0 145 101 75 255 
0.265266 -0.109227 1.9025 0 0 0 133 113 106 255 
0.665152 -0.0411333 1.94535 0 0 0 150 99 64 255 
0.184392 -0.120826 1.88506 0 0 0 138 117 111 255 
0.671781 -0.0324172 1.94586 0 0 0 172 165 161 255 
0.185069 -0.0993781 1.90111 0 0 0 144 129 118 255 
0.192977 -0.0982174 1.9041 0 0 0 142 131 118 255 
0.332001 -0.0737375 1.92898 0 0 0 163 159 149 255 
0.12901 -0.0955892 1.89338 0 0 0 132 109 96 255 
0.465189 -0.0440192 1.97199 0 0 0 113 109 103 255 
0.332465 -0.0586021 1.92794 0 0 0 98 94 86 255 
0.117818 -0.0683107 1.91194 0 0 0 141 139 130 255 
0.576356 0.0404089 2.02577 0 0 0 123 132 132 255 
0.441297 0.115661 1.78295 0 0 0 88 85 89 255 
0.795651 0.17419 2.03841 0 0 0 122 128 128 255 
0.373727 0.187572 1.71755 0 0 0 109 162 197 255 
0.352934 0.186551 1.71057 0 0 0 22 104 154 255 
0.361533 0.190693 1.71463 0 0 0 105 166 202 255 
0.36903 0.2051 1.7352 0 0 0 131 175 199 255 
0.163782 0.122253 2.02692 0 0 0 28 22 29 255 
0.747968 0.265086 2.12094 0 0 0 110 129 118 255 
0.334938 0.210442 1.71948 0 0 0 99 161 184 255 
1.12522 0.376601 2.14514 0 0 0 82 82 79 255 
0.515469 0.232755 2.13761 0 0 0 89 132 169 255 
0.299315 0.212559 1.71715 0 0 0 17 96 148 255 
1.12376 0.400093 2.16265 0 0 0 66 64 62 255 
0.106952 0.148889 2.04167 0 0 0 121 99 93 255 
0.305336 0.231312 1.72561 0 0 0 165 183 190 255 
0.833242 0.340296 2.13902 0 0 0 144 100 91 255 
0.999586 0.390061 2.14852 0 0 0 94 62 53 255 
0.815668 0.345761 2.15626 0 0 0 168 137 130 255 
0.305909 0.243144 1.732 0 0 0 13 103 147 255 
0.541744 0.281544 2.20979 0 0 0 155 125 126 255 
0.377981 0.269173 1.78457 0 0 0 115 168 202 255 
0.363993 0.276476 1.77355 0 0 0 13 84 131 255 
0.0994002 0.205166 2.06498 0 0 0 97 86 85 255 
0.244204 0.257879 1.76163 0 0 0 2 142 180 255 
0.391249 0.299892 1.80843 0 0 0 183 202 219 255 
0.381106 0.298981 1.80014 0 0 0 172 194 204 255 
0.322877 0.288719 1.76227 0 0 0 69 124 162 255 
0.0920694 0.22173 2.07369 0 0 0 110 104 104 255 
0.314663 0.292987 1.76706 0 0 0 45 85 130 255 
0.319978 0.29955 1.77053 0 0 0 176 202 221 255 
0.0970739 0.239901 2.08992 0 0 0 71 60 51 255 
0.314273 0.30962 1.77829 0 0 0 75 102 122 255 
0.392335 0.332832 1.83419 0 0 0 179 205 217 255 
0.416394 0.35706 1.89315 0 0 0 142 166 184 255 
0.220515 0.31009 1.81459 0 0 0 81 95 116 255 
0.386406 0.357989 1.85097 0 0 0 114 151 171 255 
0.375864 0.376007 1.85017 0 0 0 93 128 145 255 
0.859578 0.535897 2.08133 0 0 0 46 76 110 255 
0.250076 0.357561 1.82513 0 0 0 107 128 139 255 
0.397741 0.399685 1.92095 0 0 0 93 142 176 255 
0.898325 0.551707 2.05126 0 0 0 82 81 100 255 
0.315574 0.380633 1.8207 0 0 0 162 195 223 255 
0.332365 0.384526 1.83123 0 0 0 123 149 168 255 
0.772241 0.531436 2.07021 0 0 0 72 147 191 255 
0.288135 0.38524 1.82443 0 0 0 174 190 199 255 
1.31043 -1.22356 3.56652 0 0 0 222 243 250 255 
1.17289 -1.17713 3.59191 0 0 0 80 104 115 255 
0.978744 -1.08281 3.4164 0 0 0 116 137 151 255 
1.18747 -1.14086 3.60312 0 0 0 69 87 100 255 
0.96075 -1.02611 3.36627 0 0 0 207 229 245 255 
0.458962 -0.370891 1.98229 0 0 0 173 197 205 255 
1.36496 -1.06899 3.76836 0 0 0 157 177 184 255 
0.459398 -0.348464 1.96319 0 0 0 64 60 66 255 
0.366666 -0.329143 1.91479 0 0 0 76 68 80 255 
0.509039 -0.308809 1.91802 0 0 0 84 74 75 255 
0.373787 -0.206437 1.84935 0 0 0 116 102 93 255 
0.304516 -0.209359 1.84504 0 0 0 130 109 107 255 
0.283815 -0.204924 1.84661 0 0 0 140 121 116 255 
0.222253 -0.203547 1.8401 0 0 0 138 107 102 255 
0.23828 -0.206084 1.84044 0 0 0 135 106 100 255 
0.334435 -0.191971 1.85757 0 0 0 191 176 167 255 
0.101603 -0.207278 1.80377 0 0 0 122 117 103 255 
0.196239 -0.203999 1.83747 0 0 0 130 115 103 255 
0.32286 -0.188214 1.85891 0 0 0 125 95 96 255 
0.21809 -0.201266 1.8419 0 0 0 137 107 103 255 
0.360881 -0.181393 1.86616 0 0 0 124 101 97 255 
0.154698 -0.202258 1.83088 0 0 0 167 148 141 255 
0.179541 -0.19914 1.83832 0 0 0 127 102 95 255 
0.270748 -0.18438 1.8571 0 0 0 196 180 170 255 
0.117447 -0.199399 1.81411 0 0 0 185 175 168 255 
0.132962 -0.19849 1.82516 0 0 0 138 122 116 255 
0.333542 -0.179849 1.86401 0 0 0 153 134 130 255 
0.283767 -0.180694 1.86218 0 0 0 126 90 90 255 
0.265254 -0.17709 1.86108 0 0 0 127 106 98 255 
0.115002 -0.191065 1.82016 0 0 0 119 99 92 255 
0.125102 -0.187493 1.82812 0 0 0 188 177 168 255 
0.644866 -0.113717 1.90235 0 0 0 184 166 165 255 
0.126796 -0.174296 1.84176 0 0 0 195 184 169 255 
0.15399 -0.172929 1.84676 0 0 0 119 104 93 255 
0.117454 -0.166615 1.84272 0 0 0 131 119 107 255 
0.64262 -0.0955587 1.9141 0 0 0 166 137 120 255 
0.126346 -0.170187 1.84471 0 0 0 170 160 148 255 
0.309531 -0.131119 1.88977 0 0 0 137 110 102 255 
0.672459 -0.0685537 1.92396 0 0 0 182 162 156 255 
0.16759 -0.145488 1.86554 0 0 0 131 121 107 255 
0.252013 -0.132184 1.88624 0 0 0 132 122 111 255 
0.149606 -0.145742 1.8668 0 0 0 127 113 101 255 
0.697875 -0.0586579 1.9177 0 0 0 149 99 64 255 
0.114216 -0.143024 1.85817 0 0 0 154 121 117 255 
0.239521 -0.110544 1.89853 0 0 0 135 113 105 255 
0.186918 -0.120156 1.88656 0 0 0 130 106 99 255 
0.261866 -0.104588 1.90543 0 0 0 129 112 104 255 
0.733258 -0.0173687 1.93479 0 0 0 173 157 151 255 
0.671663 -0.0270415 1.94801 0 0 0 156 125 107 255 
0.338909 -0.0738982 1.92716 0 0 0 117 111 102 255 
0.245093 -0.0720809 1.92277 0 0 0 129 123 118 255 
0.463485 -0.0412418 1.9782 0 0 0 34 32 30 255 
0.295072 -0.0583017 1.93715 0 0 0 137 131 124 255 
0.470095 -0.0249425 2.00454 0 0 0 38 40 40 255 
0.160151 -0.0538919 1.92279 0 0 0 125 121 111 255 
0.513737 0.0138036 2.05018 0 0 0 56 50 48 255 
0.565594 0.0308387 2.02171 0 0 0 65 79 82 255 
1.00509 0.131078 2.00414 0 0 0 111 121 125 255 
0.561384 0.0736411 2.05721 0 0 0 150 120 105 255 
0.741821 0.124396 2.02071 0 0 0 113 121 128 255 
0.799761 0.143824 2.02189 0 0 0 42 44 47 255 
0.441543 0.113295 1.78284 0 0 0 84 84 92 255 
0.763988 0.145134 2.02625 0 0 0 54 44 48 255 
0.745199 0.144218 2.03342 0 0 0 124 120 113 255 
0.0579099 0.0221398 1.94493 0 0 0 71 55 42 255 
0.733076 0.176851 2.06273 0 0 0 148 168 180 255 
0.79094 0.223192 2.07277 0 0 0 115 106 87 255 
0.374756 0.180166 1.71441 0 0 0 97 155 193 255 
0.349819 0.181165 1.70687 0 0 0 49 128 174 255 
0.124332 0.0928298 2.01556 0 0 0 96 85 86 255 
0.544333 0.201692 2.14416 0 0 0 135 145 151 255 
0.374882 0.206414 1.7367 0 0 0 154 179 205 255 
0.749934 0.266359 2.11942 0 0 0 120 138 125 255 
0.231416 0.184869 1.74166 0 0 0 119 158 166 255 
1.12514 0.375741 2.1445 0 0 0 73 76 75 255 
0.52368 0.230228 2.15338 0 0 0 116 138 157 255 
1.14767 0.390383 2.12234 0 0 0 90 91 81 255 
1.14842 0.401145 2.128 0 0 0 103 95 82 255 
0.105617 0.148365 2.04099 0 0 0 121 99 93 255 
0.216378 0.196072 1.76071 0 0 0 141 169 161 255 
0.745613 0.298168 2.14232 0 0 0 126 137 147 255 
0.340796 0.236631 1.73027 0 0 0 34 105 152 255 
0.124822 0.159369 2.04593 0 0 0 114 101 102 255 
0.188934 0.19061 1.85474 0 0 0 46 36 40 255 
0.934538 0.370689 2.14034 0 0 0 162 118 119 255 
0.18989 0.211386 1.87891 0 0 0 91 93 109 255 
0.628637 0.301451 2.17934 0 0 0 168 140 131 255 
0.378173 0.270173 1.7854 0 0 0 115 168 202 255 
0.363692 0.272199 1.77069 0 0 0 6 90 146 255 
0.102487 0.203819 2.0631 0 0 0 104 91 87 255 
1.00706 0.442709 2.18972 0 0 0 147 152 148 255 
0.115152 0.212461 2.07934 0 0 0 119 100 96 255 
0.324318 0.289914 1.76272 0 0 0 140 185 215 255 
0.0768378 0.2225 2.07551 0 0 0 55 43 35 255 
0.092298 0.223045 2.07416 0 0 0 119 112 112 255 
0.324912 0.299225 1.76949 0 0 0 184 204 216 255 
0.322466 0.311788 1.77786 0 0 0 47 80 126 255 
0.317669 0.314787 1.78079 0 0 0 39 84 127 255 
0.361892 0.34223 1.81987 0 0 0 118 136 153 255 
0.220678 0.30984 1.81431 0 0 0 81 95 116 255 
0.334336 0.340229 1.79605 0 0 0 139 155 164 255 
0.386357 0.364721 1.85724 0 0 0 158 179 188 255 
0.272514 0.335357 1.7974 0 0 0 173 194 201 255 
0.390359 0.374127 1.87605 0 0 0 156 177 189 255 
0.256221 0.360106 1.8234 0 0 0 96 117 134 255 
0.397538 0.401845 1.92241 0 0 0 116 146 168 255 
0.287718 0.378786 1.82101 0 0 0 174 192 197 255 
0.662909 0.512156 2.0905 0 0 0 113 157 181 255 
0.68791 0.520685 2.09551 0 0 0 82 107 129 255 
1.29212 -1.19153 3.56425 0 0 0 72 83 94 255 
1.38322 -1.1543 3.83413 0 0 0 133 153 160 255 
1.10554 -0.956602 3.44191 0 0 0 164 193 208 255 
0.363046 -0.206072 1.85069 0 0 0 116 99 91 255 
0.230061 -0.205122 1.83978 0 0 0 172 150 142 255 
0.332771 -0.176636 1.86656 0 0 0 126 111 107 255 
0.200361 -0.183932 1.85023 0 0 0 127 109 97 255 
0.27174 -0.177927 1.86166 0 0 0 156 141 130 255 
0.713037 -0.0987124 1.88676 0 0 0 175 152 141 255 
0.124509 -0.179705 1.8342 0 0 0 188 180 167 255 
0.137618 -0.180067 1.84166 0 0 0 155 123 120 255 
0.217328 -0.160533 1.86781 0 0 0 128 107 100 255 
0.0823572 -0.161212 1.83416 0 0 0 125 114 107 255 
0.252043 -0.132367 1.8861 0 0 0 132 122 111 255 
0.640827 -0.0604376 1.93616 0 0 0 167 151 141 255 
0.651083 -0.0406916 1.95062 0 0 0 175 163 164 255 
0.462382 -0.0592855 1.97211 0 0 0 179 170 162 255 
0.327984 -0.0702583 1.92692 0 0 0 179 175 167 255 
1.00701 0.13758 2.01786 0 0 0 57 58 61 255 
0.941242 0.165029 1.99448 0 0 0 54 43 42 255 
0.623241 0.0802845 2.03246 0 0 0 137 105 91 255 
0.563096 0.0741349 2.05778 0 0 0 161 122 94 255 
0.718763 0.120417 2.02727 0 0 0 105 128 141 255 
0.844234 0.155343 2.01547 0 0 0 48 68 87 255 
0.723781 0.141189 2.04005 0 0 0 61 79 91 255 
0.982165 0.204639 2.02153 0 0 0 128 137 148 255 
0.692115 0.176075 2.07598 0 0 0 70 71 74 255 
1.11906 0.300564 2.12128 0 0 0 115 85 68 255 
0.791076 0.243885 2.08587 0 0 0 51 50 53 255 
0.982872 0.286946 2.07747 0 0 0 107 148 155 255 
0.0219555 0.0872035 1.95779 0 0 0 69 57 45 255 
0.544529 0.207596 2.14867 0 0 0 138 156 160 255 
0.374127 0.210694 1.73922 0 0 0 174 193 206 255 
0.322046 0.20674 1.70935 0 0 0 88 148 181 255 
0.300679 0.201149 1.71217 0 0 0 0 96 152 255 
0.218194 0.183267 1.75159 0 0 0 12 68 128 255 
0.333536 0.219515 1.72385 0 0 0 168 185 203 255 
0.733018 0.291889 2.14322 0 0 0 141 157 166 255 
1.12467 0.393509 2.158 0 0 0 56 51 50 255 
0.100567 0.144896 2.04075 0 0 0 116 98 91 255 
0.338808 0.237048 1.73037 0 0 0 54 111 148 255 
0.92378 0.369006 2.14236 0 0 0 166 131 133 255 
0.54386 0.281816 2.20937 0 0 0 166 138 138 255 
0.147918 0.190363 2.05799 0 0 0 119 99 86 255 
0.275912 0.244603 1.74721 0 0 0 15 124 175 255 
0.113345 0.205403 2.0668 0 0 0 121 98 87 255 
0.389086 0.294319 1.80489 0 0 0 143 165 184 255 
0.0855026 0.229743 2.07959 0 0 0 109 97 95 255 
0.981762 0.471092 2.20727 0 0 0 138 82 72 255 
0.247159 0.29897 1.78806 0 0 0 156 184 207 255 
0.316353 0.316977 1.78235 0 0 0 37 84 125 255 
0.46811 0.369143 2.04827 0 0 0 168 174 177 255 
0.196827 0.293956 1.84184 0 0 0 135 159 161 255 
0.274183 0.331843 1.79476 0 0 0 173 194 204 255 
0.388338 0.373118 1.87149 0 0 0 156 177 189 255 
0.619925 0.443773 2.18547 0 0 0 64 57 60 255 
0.227791 0.343539 1.82886 0 0 0 30 73 123 255 
0.367187 0.381662 1.84066 0 0 0 40 85 139 255 
0.783761 0.507657 2.13651 0 0 0 164 188 208 255 
0.286126 0.362937 1.81234 0 0 0 180 192 207 255 
0.317811 0.372176 1.81728 0 0 0 152 187 215 255 
0.865127 0.537262 2.06922 0 0 0 54 66 85 255 
0.280155 0.378573 1.82273 0 0 0 180 196 202 255 
0.949394 -1.00626 3.34167 0 0 0 200 222 238 255 
1.36399 -1.11702 3.79061 0 0 0 154 172 185 255 
1.46865 -1.11276 3.85351 0 0 0 49 53 66 255 
1.10037 -0.945941 3.43072 0 0 0 166 193 207 255 
0.44376 -0.341605 1.94803 0 0 0 66 54 63 255 
0.304316 -0.208607 1.84537 0 0 0 130 109 107 255 
0.299956 -0.185902 1.85849 0 0 0 136 112 106 255 
0.280811 -0.180581 1.86163 0 0 0 137 98 97 255 
0.647107 -0.108357 1.90458 0 0 0 161 152 150 255 
0.221042 -0.161116 1.86723 0 0 0 130 108 100 255 
0.0723849 -0.161086 1.8196 0 0 0 122 107 96 255 
0.30804 -0.127871 1.89108 0 0 0 152 128 118 255 
0.112491 -0.136188 1.86235 0 0 0 134 118 105 255 
0.649835 -0.0418736 1.94954 0 0 0 175 163 164 255 
0.461167 -0.0588675 1.97146 0 0 0 179 170 162 255 
0.242469 -0.0647552 1.92667 0 0 0 135 128 127 255 
0.469037 -0.0362695 1.99592 0 0 0 35 39 43 255 
0.490221 0.0256421 2.00612 0 0 0 51 50 55 255 
0.751399 0.102293 1.9933 0 0 0 49 76 86 255 
0.804312 0.113288 1.99134 0 0 0 55 82 95 255 
0.925641 0.138903 1.98878 0 0 0 117 140 153 255 
0.107628 -0.0233346 1.93244 0 0 0 35 35 30 255 
0.95182 0.165301 1.98856 0 0 0 38 37 52 255 
0.729344 0.118112 2.02067 0 0 0 69 89 101 255 
0.838386 0.145282 2.01028 0 0 0 47 67 83 255 
0.924438 0.178175 2.01184 0 0 0 108 149 165 255 
0.56323 0.127297 2.07965 0 0 0 51 45 52 255 
0.0616212 0.0384088 1.9591 0 0 0 67 54 49 255 
0.725339 0.175454 2.06497 0 0 0 151 173 185 255 
0.391134 0.168335 1.71364 0 0 0 10 88 142 255 
0.803779 0.218189 2.05741 0 0 0 138 162 138 255 
0.143669 0.0766671 2.00346 0 0 0 26 21 24 255 
0.0867307 0.0716296 1.98797 0 0 0 43 33 32 255 
0.766776 0.223329 2.0865 0 0 0 124 144 120 255 
0.724435 0.220191 2.09421 0 0 0 85 95 93 255 
0.826292 0.254983 2.09081 0 0 0 41 45 59 255 
0.799156 0.255103 2.09245 0 0 0 43 46 57 255 
0.544854 0.209037 2.14954 0 0 0 138 156 160 255 
0.27671 0.200931 1.70803 0 0 0 156 167 169 255 
0.298233 0.205124 1.71373 0 0 0 11 95 153 255 
0.544002 0.219157 2.15825 0 0 0 137 152 155 255 
0.712181 0.271022 2.13207 0 0 0 159 178 185 255 
0.927938 0.338254 2.11976 0 0 0 47 42 48 255 
1.12564 0.395522 2.15853 0 0 0 95 88 83 255 
0.930038 0.372072 2.14451 0 0 0 153 118 119 255 
0.276516 0.245705 1.74673 0 0 0 15 124 175 255 
0.34257 0.297805 1.78059 0 0 0 176 206 215 255 
0.37562 0.319459 1.81952 0 0 0 180 201 218 255 
0.293069 0.304038 1.77381 0 0 0 180 195 206 255 
0.519477 0.382831 2.22279 0 0 0 173 174 179 255 
0.368912 0.360365 1.83018 0 0 0 180 198 211 255 
0.590584 0.42089 2.18384 0 0 0 186 189 193 255 
0.757647 0.494922 2.12557 0 0 0 75 91 103 255 
0.290215 -0.126266 1.89137 0 0 0 124 98 91 255 
0.45829 -0.0700933 2.05334 0 0 0 181 172 164 255 
0.900467 0.0862527 1.94731 0 0 0 153 95 62 255 
0.238262 -0.0159549 1.95267 0 0 0 31 28 32 255 
0.811311 0.119659 2.00263 0 0 0 54 75 84 255 
0.856335 0.125071 1.99645 0 0 0 141 169 182 255 
0.659478 0.0913015 2.02256 0 0 0 61 61 67 255 
0.591682 0.0752385 2.044 0 0 0 142 98 69 255 
0.572933 0.124457 2.07472 0 0 0 44 44 56 255 
0.676095 0.167982 2.0824 0 0 0 74 60 60 255 
0.959209 0.265525 2.05295 0 0 0 97 137 154 255 
0.215995 0.133604 1.76914 0 0 0 165 173 193 255 
0.66139 0.193745 2.1017 0 0 0 79 67 70 255 
0.946268 0.268564 2.05416 0 0 0 108 142 158 255 
0.805315 0.249974 2.08943 0 0 0 39 43 58 255 
0.712926 0.234559 2.1083 0 0 0 88 107 115 255 
0.212125 0.165818 1.74125 0 0 0 1 74 129 255 
0.358122 0.212675 1.72428 0 0 0 118 157 172 255 
0.699146 0.268395 2.13818 0 0 0 156 177 184 255 
0.927473 0.333122 2.11872 0 0 0 47 45 51 255 
0.0492336 0.126937 2.01216 0 0 0 43 34 30 255 
0.168418 0.248622 1.92735 0 0 0 133 108 91 255 
0.248017 0.262231 1.76285 0 0 0 24 145 171 255 
0.310615 -0.210738 1.83803 0 0 0 186 174 164 255 
1.27402 -0.0534075 1.72742 0 0 0 47 41 20 255 
1.28613 -0.0481524 1.7238 0 0 0 53 27 17 255 
1.0133 -0.114325 1.83034 0 0 0 76 82 66 255 
1.21614 -0.070523 1.78092 0 0 0 53 33 4 255 
1.29242 -0.0372847 1.70665 0 0 0 93 71 60 255 
1.18232 -0.0804131 1.80239 0 0 0 66 42 15 255 
1.26454 -0.0489943 1.73924 0 0 0 93 75 56 255 
1.00597 -0.10819 1.83634 0 0 0 73 42 18 255 
1.17272 -0.0790527 1.81572 0 0 0 43 23 5 255 
1.21454 -0.062557 1.78755 0 0 0 43 25 4 255 
1.21892 -0.0604679 1.78559 0 0 0 51 34 10 255 
0.308325 -0.18326 1.85977 0 0 0 183 158 148 255 
1.2851 -0.0328827 1.73056 0 0 0 67 30 6 255 
1.28994 -0.0279324 1.71977 0 0 0 99 72 67 255 
1.20958 -0.0594947 1.79456 0 0 0 129 110 81 255 
1.14626 -0.0735628 1.84091 0 0 0 60 38 15 255 
1.14893 -0.0752157 1.83926 0 0 0 33 13 7 255 
1.21177 -0.0536078 1.7961 0 0 0 39 18 14 255 
1.21916 -0.0489199 1.79026 0 0 0 24 18 4 255 
0.280105 -0.166221 1.83428 0 0 0 168 149 144 255 
1.21981 -0.0495603 1.78837 0 0 0 39 29 10 255 
1.2662 -0.0308368 1.75398 0 0 0 138 108 72 255 
1.13577 -0.0747898 1.84761 0 0 0 81 76 50 255 
1.28494 -0.021252 1.73808 0 0 0 74 39 19 255 
1.14148 -0.0711856 1.84446 0 0 0 129 110 53 255 
1.16965 -0.0611361 1.82577 0 0 0 125 89 61 255 
1.25874 -0.0303467 1.75846 0 0 0 46 37 24 255 
1.2904 -0.0165546 1.72843 0 0 0 104 72 55 255 
1.15842 -0.0645382 1.83706 0 0 0 136 112 87 255 
1.19619 -0.0507052 1.80878 0 0 0 28 11 9 255 
1.20961 -0.0445826 1.8036 0 0 0 56 38 27 255 
1.1902 -0.0481271 1.81441 0 0 0 144 114 68 255 
1.20212 -0.0426966 1.80716 0 0 0 123 102 75 255 
1.09382 -0.0822038 1.89637 0 0 0 111 92 67 255 
1.07207 -0.0862618 1.91234 0 0 0 54 23 6 255 
1.22272 -0.0314514 1.79148 0 0 0 87 77 66 255 
1.09162 -0.078196 1.89922 0 0 0 61 38 18 255 
1.1432 -0.058957 1.85813 0 0 0 120 104 87 255 
1.23174 -0.0266109 1.78919 0 0 0 134 112 56 255 
0.752933 -0.114208 1.9045 0 0 0 188 152 121 255 
0.794958 -0.105147 1.89621 0 0 0 177 140 116 255 
1.10245 -0.0716711 1.8907 0 0 0 67 30 29 255 
0.877903 -0.0885234 1.86892 0 0 0 164 137 113 255 
1.13945 -0.0567502 1.86632 0 0 0 27 19 6 255 
1.28397 -0.00480134 1.74822 0 0 0 86 56 32 255 
0.842903 -0.0915829 1.88011 0 0 0 179 144 119 255 
1.27235 -0.00268217 1.75509 0 0 0 76 72 56 255 
0.663224 -0.12398 1.93657 0 0 0 139 109 81 255 
0.735403 -0.111196 1.91484 0 0 0 167 146 127 255 
1.17847 -0.0382171 1.84442 0 0 0 50 40 23 255 
1.19787 -0.0292463 1.82094 0 0 0 97 86 74 255 
0.739395 -0.105978 1.91359 0 0 0 167 168 157 255 
1.2183 -0.0183427 1.80611 0 0 0 108 95 83 255 
0.691554 -0.113635 1.92909 0 0 0 161 128 113 255 
0.705284 -0.109337 1.92389 0 0 0 172 129 96 255 
0.751764 -0.100082 1.90873 0 0 0 186 150 142 255 
0.76542 -0.0993617 1.90719 0 0 0 170 140 127 255 
1.18982 -0.0290406 1.83086 0 0 0 143 116 99 255 
0.87659 -0.074737 1.87533 0 0 0 172 144 140 255 
0.928002 -0.0666249 1.86666 0 0 0 158 133 107 255 
0.9403 -0.0620318 1.86265 0 0 0 165 134 110 255 
1.10289 -0.0555835 1.896 0 0 0 43 29 15 255 
1.19644 -0.0237057 1.82415 0 0 0 56 37 21 255 
0.654729 -0.115644 1.94024 0 0 0 120 115 107 255 
0.671493 -0.111219 1.93212 0 0 0 126 115 108 255 
0.771326 -0.0924002 1.90527 0 0 0 126 102 93 255 
1.15764 -0.0333696 1.85693 0 0 0 77 54 31 255 
1.22114 -0.0119774 1.8096 0 0 0 100 87 64 255 
1.23742 -0.00543833 1.80343 0 0 0 45 26 12 255 
1.24555 -0.00142309 1.78933 0 0 0 123 112 90 255 
0.920677 -0.0616232 1.86756 0 0 0 132 111 91 255 
1.07079 -0.0599862 1.92648 0 0 0 48 25 4 255 
1.1113 -0.0444485 1.89211 0 0 0 79 48 25 255 
1.19008 -0.0183966 1.8336 0 0 0 101 79 60 255 
1.27293 0.0129037 1.77155 0 0 0 122 106 87 255 
1.28368 0.0159255 1.7648 0 0 0 120 99 94 255 
0.771749 -0.0840439 1.9074 0 0 0 131 104 90 255 
0.664345 0.0606741 1.39107 0 0 0 127 117 106 255 
0.893788 -0.0592837 1.87276 0 0 0 134 103 95 255 
1.09895 -0.0450659 1.90557 0 0 0 66 36 1 255 
1.26299 0.0102525 1.7859 0 0 0 48 27 4 255 
1.2896 0.020748 1.75943 0 0 0 136 112 75 255 
0.718092 -0.0902522 1.92105 0 0 0 174 153 133 255 
0.874112 -0.0605638 1.87847 0 0 0 178 148 139 255 
1.23435 0.000431174 1.80811 0 0 0 63 33 13 255 
1.24508 0.00806141 1.79361 0 0 0 91 86 68 255 
1.30066 0.0266201 1.75196 0 0 0 127 109 89 255 
0.688355 -0.0962994 1.92953 0 0 0 168 147 130 255 
0.702773 -0.0921974 1.92456 0 0 0 188 176 170 255 
0.750457 -0.0837964 1.91179 0 0 0 166 150 129 255 
0.790866 -0.0746687 1.90099 0 0 0 173 145 123 255 
0.916079 -0.0500187 1.87112 0 0 0 169 148 139 255 
1.28237 0.0212076 1.76698 0 0 0 62 46 29 255 
0.815027 -0.0680979 1.89238 0 0 0 166 142 123 255 
0.92462 -0.0475763 1.86907 0 0 0 141 122 120 255 
0.930389 -0.0471215 1.86623 0 0 0 177 154 155 255 
1.20917 -0.00247436 1.82643 0 0 0 57 38 22 255 
1.26064 0.0146173 1.78815 0 0 0 51 32 9 255 
1.29285 0.0288633 1.7632 0 0 0 90 61 28 255 
1.29565 0.0275778 1.75989 0 0 0 40 20 5 255 
1.2143 0.00277732 1.82127 0 0 0 92 83 69 255 
1.27317 0.0223189 1.7758 0 0 0 102 88 66 255 
1.30012 0.0313011 1.75456 0 0 0 82 62 31 255 
0.768079 -0.0729655 1.91126 0 0 0 140 120 101 255 
0.760973 -0.0710042 1.91281 0 0 0 163 123 101 255 
1.06619 -0.0405842 1.937 0 0 0 131 111 71 255 
1.09703 -0.028876 1.91309 0 0 0 105 67 46 255 
1.20699 0.00842292 1.83519 0 0 0 70 39 11 255 
1.08764 -0.0274482 1.91696 0 0 0 101 91 60 255 
1.09482 -0.02519 1.91567 0 0 0 141 115 65 255 
1.21561 0.0145869 1.82815 0 0 0 84 85 77 255 
1.30535 0.046194 1.75643 0 0 0 81 61 31 255 
1.11302 -0.0150644 1.90307 0 0 0 133 118 99 255 
1.138 -0.00664517 1.88367 0 0 0 29 28 29 255 
1.30532 0.0493576 1.7579 0 0 0 64 46 34 255 
1.14117 0.000593275 1.88405 0 0 0 110 96 78 255 
1.18955 0.0133864 1.85359 0 0 0 76 79 73 255 
1.22693 0.0296628 1.82988 0 0 0 79 67 57 255 
0.874256 -0.0296124 1.90238 0 0 0 169 155 134 255 
1.20768 0.0245847 1.84391 0 0 0 71 41 32 255 
0.889683 -0.0245555 1.89787 0 0 0 172 150 130 255 
0.903228 -0.0229822 1.89676 0 0 0 173 148 130 255 
0.917674 -0.0195856 1.8945 0 0 0 174 150 134 255 
1.25621 0.0423176 1.81234 0 0 0 96 82 68 255 
0.781607 -0.0428152 1.93046 0 0 0 128 97 87 255 
0.937382 -0.0143483 1.88997 0 0 0 167 132 106 255 
1.19847 0.0264073 1.85246 0 0 0 124 105 87 255 
1.21722 0.0347479 1.83353 0 0 0 128 112 98 255 
0.837004 -0.0304713 1.91446 0 0 0 133 120 114 255 
1.12374 0.00324638 1.91704 0 0 0 98 107 118 255 
0.680504 -0.0588614 1.9579 0 0 0 176 160 152 255 
1.21583 0.037948 1.83831 0 0 0 144 108 98 255 
1.23759 0.0444424 1.82307 0 0 0 56 56 53 255 
0.848108 -0.0230748 1.90828 0 0 0 175 165 169 255 
1.14461 0.0154602 1.89959 0 0 0 93 98 104 255 
1.13697 0.0170351 1.90709 0 0 0 30 38 45 255 
1.26518 0.0583222 1.80155 0 0 0 54 49 40 255 
0.833085 -0.0184406 1.91664 0 0 0 132 111 107 255 
1.12532 0.0161942 1.92005 0 0 0 127 135 144 255 
0.479805 -0.0943483 2.07592 0 0 0 212 213 207 255 
1.13546 0.022673 1.90884 0 0 0 24 32 39 255 
1.26587 0.0661948 1.80389 0 0 0 114 105 86 255 
1.29387 0.0724987 1.78277 0 0 0 41 47 34 255 
0.347808 -0.0885547 1.98224 0 0 0 150 146 136 255 
0.352904 -0.0871048 1.98183 0 0 0 190 186 176 255 
0.359501 -0.0871191 1.98406 0 0 0 123 117 106 255 
0.737943 -0.0326122 1.94279 0 0 0 139 103 75 255 
0.741691 -0.0318016 1.94224 0 0 0 147 107 71 255 
1.28211 0.0720468 1.79515 0 0 0 112 103 86 255 
1.12597 0.024321 1.9186 0 0 0 17 25 33 255 
1.15628 0.0337125 1.89736 0 0 0 98 107 109 255 
0.842743 -0.00644549 1.91813 0 0 0 182 154 152 255 
0.886615 0.000973141 1.90646 0 0 0 174 146 136 255 
1.13643 0.030834 1.90899 0 0 0 25 30 35 255 
1.22052 0.0546249 1.85318 0 0 0 101 106 116 255 
0.347671 -0.0804573 1.98014 0 0 0 93 90 82 255 
0.872523 -0.000160542 1.91139 0 0 0 182 166 150 255 
1.23315 0.0609622 1.84567 0 0 0 88 96 102 255 
1.30439 0.0860803 1.77795 0 0 0 136 107 87 255 
0.270748 -0.0814675 1.95775 0 0 0 105 96 88 255 
0.478195 -0.0883052 2.08654 0 0 0 75 70 61 255 
0.3476 -0.0759177 1.97878 0 0 0 94 93 86 255 
0.917305 0.0114371 1.90585 0 0 0 146 98 69 255 
1.13932 0.0380805 1.90778 0 0 0 125 131 134 255 
1.19398 0.0551617 1.87721 0 0 0 135 140 152 255 
0.35944 -0.0732058 1.9819 0 0 0 138 132 123 255 
1.15458 0.0450765 1.8998 0 0 0 122 128 131 255 
1.18673 0.0553817 1.8818 0 0 0 56 64 67 255 
1.23931 0.0703671 1.84503 0 0 0 42 50 56 255 
0.318235 -0.0737362 1.97554 0 0 0 102 93 85 255 
0.346704 -0.0710015 1.97767 0 0 0 113 112 103 255 
1.16635 0.0518623 1.89258 0 0 0 144 153 155 255 
1.20589 0.0631915 1.87075 0 0 0 102 109 124 255 
0.269612 -0.0741212 1.95469 0 0 0 132 123 117 255 
1.17857 0.0582954 1.88636 0 0 0 145 155 159 255 
1.20897 0.068097 1.86455 0 0 0 45 52 65 255 
1.19358 0.0648372 1.8787 0 0 0 128 135 146 255 
0.261483 -0.0643702 1.94798 0 0 0 181 170 165 255 
1.20541 0.0700095 1.87292 0 0 0 125 133 143 255 
1.24622 0.083348 1.84173 0 0 0 144 152 157 255 
1.30583 0.103705 1.79134 0 0 0 141 148 158 255 
1.21778 0.0782406 1.86011 0 0 0 149 155 162 255 
1.22962 0.0830022 1.8548 0 0 0 96 103 109 255 
1.23876 0.0838841 1.84796 0 0 0 41 47 52 255 
1.2403 0.0842078 1.84752 0 0 0 38 43 49 255 
1.25664 0.0882582 1.83822 0 0 0 80 88 93 255 
1.24545 0.0889263 1.84341 0 0 0 128 138 142 255 
1.27545 0.0947117 1.82231 0 0 0 36 45 54 255 
0.237239 -0.0557438 1.92691 0 0 0 139 133 124 255 
1.22975 0.0840721 1.85528 0 0 0 105 110 116 255 
1.26135 0.093353 1.83559 0 0 0 55 55 65 255 
1.27113 0.0961411 1.8272 0 0 0 138 148 156 255 
0.223999 -0.0524437 1.9162 0 0 0 181 175 166 255 
1.25539 0.0957374 1.84051 0 0 0 134 143 145 255 
1.26682 0.0979455 1.83223 0 0 0 33 39 49 255 
1.29013 0.108907 1.80619 0 0 0 96 108 116 255 
1.25741 0.0973797 1.83977 0 0 0 153 157 161 255 
1.2807 0.10322 1.81999 0 0 0 150 160 166 255 
1.31264 0.116078 1.79431 0 0 0 65 72 84 255 
1.26952 0.103114 1.82993 0 0 0 73 83 90 255 
1.28503 0.109942 1.81733 0 0 0 44 56 62 255 
1.29314 0.114566 1.80435 0 0 0 138 152 162 255 
1.32072 0.120607 1.7918 0 0 0 126 134 143 255 
1.27432 0.109641 1.82665 0 0 0 46 55 61 255 
1.28067 0.111459 1.82241 0 0 0 144 154 159 255 
0.668864 -0.021071 2.08033 0 0 0 185 141 103 255 
0.665243 -0.00266809 1.99424 0 0 0 168 124 84 255 
0.720901 0.0102899 1.97399 0 0 0 173 129 91 255 
1.32043 0.126709 1.79312 0 0 0 48 54 62 255 
1.30386 0.126692 1.80249 0 0 0 130 154 158 255 
1.31039 0.128982 1.79946 0 0 0 77 86 93 255 
0.46914 -0.0381591 2.07731 0 0 0 31 28 32 255 
1.31797 0.13408 1.79635 0 0 0 140 148 153 255 
0.752556 0.022288 1.96862 0 0 0 176 144 100 255 
0.476827 -0.0343327 2.07986 0 0 0 139 132 135 255 
0.999273 0.0738469 1.94185 0 0 0 56 18 6 255 
0.293004 -0.0271386 1.99238 0 0 0 99 99 100 255 
1.01121 0.08097 1.9495 0 0 0 92 79 58 255 
0.989206 0.0959094 1.95293 0 0 0 140 93 59 255 
1.1377 0.114999 1.97152 0 0 0 116 106 99 255 
1.00548 0.120575 1.99102 0 0 0 33 38 37 255 
0.473608 0.0396526 2.09548 0 0 0 20 27 40 255 
1.0168 0.128883 2.00327 0 0 0 116 111 70 255 
1.28581 0.193265 1.87351 0 0 0 112 90 87 255 
1.27134 0.189949 1.8804 0 0 0 89 89 92 255 
0.479119 0.0609905 2.12059 0 0 0 51 67 73 255 
1.21038 0.204199 1.95083 0 0 0 90 50 27 255 
0.752307 0.127843 2.03072 0 0 0 109 109 104 255 
0.432741 0.118436 1.80306 0 0 0 160 173 189 255 
0.740278 0.136504 2.03935 0 0 0 111 123 120 255 
1.22814 0.22287 1.94362 0 0 0 114 77 42 255 
0.470525 0.0925743 2.10609 0 0 0 136 129 132 255 
1.22134 0.225812 1.9466 0 0 0 157 125 81 255 
0.812207 0.159913 2.02925 0 0 0 126 131 124 255 
0.430176 0.139226 1.78993 0 0 0 124 162 208 255 
1.21148 0.237861 1.96171 0 0 0 151 107 69 255 
0.78812 0.168233 2.03999 0 0 0 107 109 106 255 
0.485521 0.116465 2.13652 0 0 0 128 130 130 255 
0.463074 0.118314 2.12057 0 0 0 56 53 59 255 
0.477767 0.12522 2.13007 0 0 0 49 50 57 255 
1.17599 0.241984 2.01181 0 0 0 121 77 34 255 
1.32761 0.290553 1.88143 0 0 0 128 91 67 255 
0.368793 0.168536 1.72837 0 0 0 13 95 147 255 
0.377042 0.169754 1.73078 0 0 0 78 164 209 255 
1.15135 0.256776 2.02525 0 0 0 107 40 3 255 
0.362492 0.171489 1.72441 0 0 0 35 109 175 255 
0.231126 0.162275 1.71556 0 0 0 112 152 191 255 
0.362394 0.179406 1.72205 0 0 0 35 103 142 255 
0.377126 0.182129 1.72953 0 0 0 104 172 214 255 
1.32599 0.313056 1.89531 0 0 0 144 126 73 255 
0.264196 0.172323 1.71006 0 0 0 65 137 170 255 
0.368478 0.187738 1.72658 0 0 0 27 100 145 255 
0.253447 0.177315 1.70554 0 0 0 161 178 197 255 
1.20994 0.306828 2.00824 0 0 0 126 86 32 255 
1.20259 0.308514 2.02656 0 0 0 173 129 84 255 
0.425152 0.205271 1.81396 0 0 0 102 159 193 255 
1.21113 0.322061 2.02065 0 0 0 175 125 80 255 
1.31993 0.348971 1.91158 0 0 0 127 117 60 255 
1.23011 0.331626 2.01001 0 0 0 110 66 21 255 
0.978861 0.289303 2.0613 0 0 0 129 153 160 255 
1.21782 0.330645 2.02281 0 0 0 96 38 2 255 
1.22891 0.333056 2.01201 0 0 0 128 85 38 255 
1.24679 0.344078 1.99475 0 0 0 75 78 50 255 
0.356813 0.223926 1.74258 0 0 0 102 126 146 255 
1.25207 0.353602 1.99598 0 0 0 141 136 91 255 
0.212753 0.208295 1.76283 0 0 0 48 78 107 255 
1.24425 0.369027 2.00861 0 0 0 110 64 22 255 
1.28742 0.37968 1.97056 0 0 0 135 105 84 255 
0.296406 0.233516 1.73527 0 0 0 65 107 127 255 
0.247487 0.229701 1.75194 0 0 0 118 117 106 255 
0.401078 0.251091 1.79996 0 0 0 100 153 192 255 
0.120797 0.202437 2.02286 0 0 0 93 72 60 255 
0.298551 0.24041 1.73848 0 0 0 140 169 194 255 
1.28405 0.399986 1.98431 0 0 0 88 115 100 255 
0.291446 0.244549 1.7379 0 0 0 55 136 167 255 
0.829515 0.349928 2.13434 0 0 0 166 134 130 255 
1.17438 0.41302 2.10955 0 0 0 94 83 78 255 
1.21324 0.422392 2.09978 0 0 0 69 70 76 255 
1.1726 0.423101 2.11388 0 0 0 80 73 62 255 
0.364091 0.289341 1.78244 0 0 0 63 87 113 255 
1.231 0.433682 2.06756 0 0 0 63 63 66 255 
1.23872 0.441549 2.06988 0 0 0 73 39 26 255 
1.24546 0.444899 2.06844 0 0 0 115 96 90 255 
1.20758 0.445298 2.08259 0 0 0 96 94 95 255 
0.217021 0.279985 1.80675 0 0 0 44 109 154 255 
0.363881 0.304039 1.78415 0 0 0 0 58 108 255 
1.22713 0.454491 2.07563 0 0 0 70 73 61 255 
0.23681 0.284795 1.77824 0 0 0 83 117 154 255 
0.289974 0.295628 1.76355 0 0 0 26 77 121 255 
0.387157 0.311818 1.81349 0 0 0 172 197 214 255 
1.24255 0.461278 2.07141 0 0 0 126 113 96 255 
1.25357 0.460442 2.06408 0 0 0 107 95 94 255 
1.26235 0.464876 2.05651 0 0 0 108 100 87 255 
0.386657 0.314009 1.81493 0 0 0 177 202 217 255 
0.268999 0.297998 1.77376 0 0 0 123 163 193 255 
1.26168 0.475703 2.06261 0 0 0 108 88 98 255 
1.27151 0.473019 2.05196 0 0 0 104 90 81 255 
0.241483 0.295779 1.78444 0 0 0 10 56 97 255 
1.2809 0.479022 2.0385 0 0 0 114 98 87 255 
0.289999 0.312946 1.77478 0 0 0 78 94 105 255 
1.28503 0.489271 2.03922 0 0 0 109 95 87 255 
0.341272 0.323049 1.78602 0 0 0 92 110 123 255 
0.388885 0.336573 1.82574 0 0 0 142 170 212 255 
0.345446 0.328312 1.79583 0 0 0 114 131 146 255 
0.361935 0.335299 1.80649 0 0 0 161 181 189 255 
0.395183 0.339803 1.83045 0 0 0 163 189 208 255 
0.210775 0.319635 1.81156 0 0 0 137 155 158 255 
0.342355 0.341374 1.79996 0 0 0 140 156 165 255 
0.379759 0.357191 1.82587 0 0 0 153 185 213 255 
0.267947 0.341174 1.78737 0 0 0 153 178 193 255 
0.387862 0.394003 1.8636 0 0 0 43 125 177 255 
