ply
format ascii 1.0
comment VCGLIB generated
element vertex 1013
property float x
property float y
property float z
property float nx
property float ny
property float nz
property uchar red
property uchar green
property uchar blue
property uchar alpha
element face 0
property list uchar int vertex_indices
end_header
0.250295 0.737022 1.21185 0 0 0 46 60 67 255 
0.290858 0.734908 1.19131 0 0 0 60 70 78 255 
0.169948 -0.0468885 1.55405 0 0 0 180 165 154 255 
1.039 0.057075 1.46845 0 0 0 47 30 27 255 
0.169816 -0.0313916 1.53999 0 0 0 161 141 131 255 
1.08918 0.158998 1.54523 0 0 0 83 57 45 255 
0.182629 0.103155 1.58222 0 0 0 180 170 158 255 
1.10915 0.264166 1.51965 0 0 0 137 147 151 255 
1.12207 0.27279 1.50621 0 0 0 28 36 41 255 
0.0612599 0.164713 1.55506 0 0 0 122 97 84 255 
0.466159 0.217154 1.45543 0 0 0 233 244 252 255 
0.492276 0.238172 1.403 0 0 0 225 239 251 255 
0.918923 0.323796 1.52475 0 0 0 54 70 79 255 
0.645669 0.303281 1.60483 0 0 0 169 125 85 255 
0.978456 0.363261 1.52698 0 0 0 41 43 38 255 
1.11865 0.38223 1.53894 0 0 0 89 66 65 255 
0.303823 0.26892 1.36411 0 0 0 11 72 129 255 
0.868376 0.361365 1.54226 0 0 0 144 170 185 255 
0.195551 0.277678 1.61563 0 0 0 103 90 87 255 
0.362688 0.280752 1.31266 0 0 0 21 88 147 255 
0.415191 0.288669 1.32081 0 0 0 11 87 138 255 
0.611066 0.338347 1.6178 0 0 0 50 38 40 255 
0.920281 0.378357 1.52384 0 0 0 140 145 146 255 
0.947833 0.379783 1.5194 0 0 0 39 44 51 255 
0.298856 0.273922 1.37839 0 0 0 7 72 123 255 
0.0781065 0.274509 1.59724 0 0 0 67 37 36 255 
0.526893 0.347029 1.54129 0 0 0 39 42 51 255 
1.09729 0.415172 1.53163 0 0 0 47 30 31 255 
0.311335 0.312012 1.36267 0 0 0 152 133 106 255 
0.705754 0.380924 1.56491 0 0 0 69 60 68 255 
0.00834075 0.303998 1.50034 0 0 0 120 86 73 255 
0.73201 0.444513 1.60292 0 0 0 78 93 97 255 
1.05909 0.527564 1.57702 0 0 0 91 91 77 255 
0.285498 0.398975 1.3931 0 0 0 14 63 115 255 
0.893 0.535032 1.53861 0 0 0 49 45 51 255 
1.06112 0.607868 1.57929 0 0 0 101 96 87 255 
0.4044 0.478064 1.35693 0 0 0 184 198 210 255 
0.490997 0.547639 1.55687 0 0 0 114 105 117 255 
0.237643 0.51162 1.506 0 0 0 149 113 108 255 
0.149539 0.537736 1.63049 0 0 0 96 81 80 255 
0.416496 0.546523 1.38079 0 0 0 162 176 167 255 
0.0979658 0.514249 1.23716 0 0 0 80 130 136 255 
0.590126 0.667814 1.4555 0 0 0 215 151 85 255 
0.714162 0.687558 1.4684 0 0 0 162 186 209 255 
0.451064 0.642215 1.42368 0 0 0 216 236 239 255 
0.602736 0.702098 1.39492 0 0 0 77 77 77 255 
0.548156 0.713983 1.36711 0 0 0 81 91 108 255 
0.604114 0.727404 1.34355 0 0 0 134 181 212 255 
0.931311 0.781353 1.32828 0 0 0 58 78 104 255 
0.641491 0.736856 1.30572 0 0 0 165 202 222 255 
0.791184 0.769595 1.26608 0 0 0 148 165 189 255 
0.970029 0.801973 1.26716 0 0 0 45 85 119 255 
0.334886 0.709031 1.29997 0 0 0 57 72 79 255 
0.259191 0.701698 1.29869 0 0 0 46 55 66 255 
0.422527 0.733652 1.23301 0 0 0 94 77 67 255 
0.940702 0.168143 1.48958 0 0 0 152 132 133 255 
0.100144 0.11315 1.53798 0 0 0 180 172 159 255 
0.500328 0.173318 1.5352 0 0 0 37 34 38 255 
0.175428 0.192434 1.58506 0 0 0 136 115 103 255 
0.684462 0.286613 1.6082 0 0 0 67 71 78 255 
0.228952 0.261085 1.60551 0 0 0 56 55 55 255 
0.805797 0.354213 1.56207 0 0 0 41 46 49 255 
0.298956 0.279691 1.37043 0 0 0 0 77 135 255 
0.790274 0.348649 1.56487 0 0 0 48 49 52 255 
0.36822 0.301677 1.32949 0 0 0 11 103 152 255 
0.692366 0.373048 1.60488 0 0 0 87 57 61 255 
0.408746 0.335547 1.31969 0 0 0 172 182 198 255 
0.926787 0.467042 1.54624 0 0 0 121 152 167 255 
0.695431 0.451597 1.61381 0 0 0 150 168 174 255 
0.719211 0.458229 1.56677 0 0 0 81 92 93 255 
0.440623 0.41986 1.3533 0 0 0 179 195 213 255 
0.412638 0.398904 1.34257 0 0 0 43 102 129 255 
0.440623 0.41986 1.3533 0 0 0 179 195 213 255 
0.891603 0.534895 1.53765 0 0 0 48 45 51 255 
0.304216 0.424895 1.36965 0 0 0 170 182 186 255 
0.405844 0.458276 1.35107 0 0 0 163 177 189 255 
0.953136 0.625754 1.57544 0 0 0 23 35 47 255 
0.395334 0.536802 1.37323 0 0 0 176 183 165 255 
0.0527126 0.447486 1.1645 0 0 0 126 193 214 255 
0.193919 0.563779 1.63276 0 0 0 135 126 130 255 
0.692538 0.670346 1.49345 0 0 0 65 80 90 255 
0.269628 0.580909 1.38375 0 0 0 106 163 189 255 
0.414484 0.579454 1.38568 0 0 0 1 100 144 255 
0.27185 0.566721 1.38765 0 0 0 3 95 144 255 
0.373655 0.577933 1.36095 0 0 0 18 81 131 255 
0.0548758 0.472347 1.1046 0 0 0 165 207 225 255 
0.57962 0.670823 1.44686 0 0 0 214 159 90 255 
0.612556 0.695847 1.40439 0 0 0 71 76 84 255 
0.912808 0.746495 1.41724 0 0 0 103 73 93 255 
0.50441 0.695185 1.41883 0 0 0 217 207 136 255 
0.61856 0.718963 1.37346 0 0 0 56 65 81 255 
0.815847 0.748041 1.34934 0 0 0 79 58 78 255 
0.522205 0.70861 1.35675 0 0 0 124 95 76 255 
1.20879 0.0161705 1.50102 0 0 0 44 61 57 255 
1.23972 0.0288877 1.47299 0 0 0 104 74 69 255 
1.23418 0.0394077 1.44253 0 0 0 46 29 37 255 
1.32712 0.0541067 1.45076 0 0 0 87 40 55 255 
1.32821 0.0618262 1.43934 0 0 0 74 33 47 255 
1.04655 0.00121601 1.54133 0 0 0 47 47 40 255 
1.40913 0.0978718 1.3581 0 0 0 102 87 78 255 
1.03486 0.0229759 1.46292 0 0 0 63 42 22 255 
1.40879 0.139911 1.26423 0 0 0 35 70 63 255 
1.42986 0.141706 1.27353 0 0 0 185 193 200 255 
1.42052 0.146673 1.27163 0 0 0 182 199 204 255 
1.03637 0.0813111 1.44789 0 0 0 77 71 94 255 
1.21524 0.12376 1.3831 0 0 0 110 120 126 255 
1.46924 0.188651 1.34787 0 0 0 98 104 101 255 
0.41624 -0.0200068 1.53742 0 0 0 134 118 114 255 
1.22891 0.154967 1.37845 0 0 0 93 86 72 255 
1.23648 0.156761 1.37232 0 0 0 53 54 43 255 
1.23289 0.161505 1.37947 0 0 0 29 25 17 255 
1.25744 0.168549 1.36106 0 0 0 117 103 76 255 
1.54819 0.21033 1.46302 0 0 0 115 138 136 255 
1.27095 0.17623 1.34308 0 0 0 107 92 81 255 
1.26222 0.177709 1.35276 0 0 0 60 33 15 255 
0.280156 -0.0187908 1.49342 0 0 0 185 157 155 255 
0.435773 0.0120425 1.54069 0 0 0 106 95 88 255 
1.2602 0.188562 1.35315 0 0 0 54 16 13 255 
1.40588 0.220893 1.30165 0 0 0 16 31 34 255 
1.26408 0.196304 1.35192 0 0 0 102 67 59 255 
1.25872 0.203991 1.35819 0 0 0 65 35 6 255 
1.46587 0.245417 1.35407 0 0 0 122 137 151 255 
1.25452 0.216893 1.35803 0 0 0 48 33 16 255 
1.47037 0.258786 1.37148 0 0 0 112 130 151 255 
0.807243 0.128196 1.52005 0 0 0 177 152 149 255 
1.07361 0.179081 1.52762 0 0 0 56 33 23 255 
1.26193 0.227115 1.3574 0 0 0 107 85 72 255 
0.741252 0.115926 1.54027 0 0 0 164 134 123 255 
0.75496 0.118034 1.54056 0 0 0 159 124 109 255 
1.21175 0.218499 1.40692 0 0 0 91 70 66 255 
0.795052 0.129239 1.52732 0 0 0 168 144 141 255 
0.947029 0.164224 1.47544 0 0 0 171 144 132 255 
1.17738 0.214059 1.4339 0 0 0 52 20 8 255 
1.25425 0.240186 1.37272 0 0 0 125 112 88 255 
1.49337 0.292727 1.4199 0 0 0 136 157 161 255 
0.934983 0.176187 1.47525 0 0 0 162 150 143 255 
1.26849 0.248225 1.35929 0 0 0 111 100 80 255 
0.916609 0.174389 1.47203 0 0 0 158 130 122 255 
1.26436 0.250249 1.37112 0 0 0 42 26 17 255 
2.32126 0.384124 2.70277 0 0 0 90 92 101 255 
1.40358 0.288386 1.32834 0 0 0 18 37 40 255 
1.32589 0.280495 1.31572 0 0 0 115 107 82 255 
1.26933 0.269674 1.36058 0 0 0 59 45 24 255 
0.243221 0.0552248 1.52094 0 0 0 191 167 161 255 
1.1587 0.24455 1.45571 0 0 0 40 34 29 255 
1.12082 0.237369 1.49198 0 0 0 120 103 76 255 
1.12815 0.238519 1.48114 0 0 0 90 74 71 255 
1.16515 0.24799 1.44758 0 0 0 61 59 61 255 
1.32576 0.286684 1.31786 0 0 0 94 87 64 255 
1.49108 0.308969 1.42494 0 0 0 119 176 178 255 
1.48976 0.311721 1.42697 0 0 0 120 178 180 255 
0.759536 0.171665 1.55149 0 0 0 161 153 148 255 
0.911868 0.202546 1.50033 0 0 0 167 153 139 255 
1.20825 0.267359 1.41692 0 0 0 55 57 51 255 
0.793349 0.17925 1.53871 0 0 0 182 165 162 255 
1.25708 0.289619 1.37685 0 0 0 58 34 33 255 
0.424613 0.114831 1.57504 0 0 0 157 150 147 255 
0.724605 0.182437 1.56364 0 0 0 171 158 155 255 
1.26209 0.298987 1.37309 0 0 0 128 119 100 255 
0.424796 0.124083 1.57635 0 0 0 187 180 178 255 
1.28144 0.306037 1.34887 0 0 0 113 97 76 255 
1.30712 0.315266 1.32793 0 0 0 36 45 57 255 
1.17506 0.287266 1.45369 0 0 0 29 37 46 255 
1.39565 0.335453 1.34142 0 0 0 24 49 60 255 
1.31553 0.321299 1.32186 0 0 0 144 118 84 255 
0.273013 0.104763 1.58463 0 0 0 116 108 104 255 
0.28888 0.109298 1.56078 0 0 0 117 113 105 255 
0.35516 0.123325 1.56745 0 0 0 166 162 155 255 
1.26483 0.320309 1.38118 0 0 0 132 146 156 255 
1.35309 0.339548 1.31157 0 0 0 118 140 103 255 
1.39927 0.354163 1.35499 0 0 0 61 73 65 255 
1.26836 0.328541 1.37535 0 0 0 43 52 65 255 
1.27011 0.334704 1.37071 0 0 0 101 108 125 255 
1.27162 0.340768 1.36457 0 0 0 35 40 56 255 
1.25796 0.339713 1.37709 0 0 0 140 160 168 255 
1.26708 0.344682 1.36862 0 0 0 122 129 143 255 
1.00838 0.31209 1.52144 0 0 0 67 53 47 255 
1.41616 0.426308 1.38939 0 0 0 50 55 65 255 
1.38966 0.430893 1.38125 0 0 0 44 46 62 255 
1.32408 0.418378 1.35595 0 0 0 67 68 62 255 
0.986706 0.354994 1.55232 0 0 0 118 127 136 255 
1.41559 0.446838 1.40083 0 0 0 56 64 80 255 
0.794354 0.326177 1.57668 0 0 0 87 116 132 255 
1.25707 0.423692 1.40383 0 0 0 149 135 106 255 
0.765922 0.340013 1.58947 0 0 0 92 111 121 255 
1.2571 0.446855 1.40297 0 0 0 146 93 79 255 
0.495025 0.278437 1.37572 0 0 0 81 118 140 255 
0.499173 0.283104 1.37765 0 0 0 84 128 164 255 
1.17595 0.447566 1.48271 0 0 0 167 136 95 255 
0.782717 0.377987 1.59215 0 0 0 131 126 123 255 
0.805607 0.388576 1.58391 0 0 0 115 120 119 255 
0.808483 0.387895 1.58306 0 0 0 108 113 112 255 
0.533444 0.334851 1.67285 0 0 0 133 133 140 255 
0.511199 0.330207 1.61423 0 0 0 54 58 71 255 
0.506046 0.328444 1.56948 0 0 0 48 57 71 255 
0.527459 0.345008 1.6782 0 0 0 51 53 62 255 
1.25948 0.493539 1.40573 0 0 0 127 97 80 255 
1.39934 0.55184 1.43259 0 0 0 56 62 92 255 
1.44208 0.56835 1.48543 0 0 0 144 174 202 255 
1.81248 0.697076 2.0506 0 0 0 84 116 144 255 
1.54388 0.607001 1.63657 0 0 0 106 130 159 255 
0.493122 0.355522 1.52833 0 0 0 67 119 155 255 
0.214325 0.29907 1.62287 0 0 0 83 82 87 255 
1.39923 0.569179 1.43916 0 0 0 49 52 58 255 
1.7933 0.720392 2.04171 0 0 0 110 145 168 255 
0.168796 0.297711 1.61256 0 0 0 76 70 74 255 
1.43499 0.588205 1.4809 0 0 0 173 210 232 255 
1.25038 0.547315 1.42552 0 0 0 121 119 88 255 
1.84058 0.746505 1.97239 0 0 0 173 208 219 255 
0.419495 0.344279 1.31922 0 0 0 134 175 193 255 
1.85267 0.751732 1.95628 0 0 0 163 192 208 255 
1.16248 0.546009 1.49219 0 0 0 110 71 39 255 
1.15341 0.547623 1.5091 0 0 0 120 64 38 255 
1.36815 0.589013 1.43452 0 0 0 34 62 79 255 
1.41485 0.602698 1.46338 0 0 0 162 195 216 255 
1.30328 0.589613 1.39502 0 0 0 168 117 89 255 
1.41406 0.622794 1.47175 0 0 0 158 184 199 255 
1.37659 0.641338 1.4425 0 0 0 35 57 64 255 
0.626705 0.513537 1.69497 0 0 0 150 112 106 255 
1.3467 0.656516 1.43844 0 0 0 23 45 68 255 
1.37805 0.666242 1.4589 0 0 0 55 67 73 255 
1.36511 0.675893 1.46609 0 0 0 86 115 102 255 
0.823109 0.567901 1.63488 0 0 0 171 137 133 255 
1.2848 0.693917 1.43908 0 0 0 60 87 90 255 
0.447262 0.484768 1.38332 0 0 0 161 187 217 255 
1.35938 0.760947 1.48306 0 0 0 50 84 102 255 
0.468196 0.55529 1.52382 0 0 0 87 82 98 255 
0.460328 0.554626 1.48118 0 0 0 115 154 180 255 
1.34736 0.798589 1.48302 0 0 0 71 110 111 255 
0.282915 0.501099 1.40533 0 0 0 100 152 182 255 
1.3263 0.799863 1.46515 0 0 0 132 188 178 255 
0.233553 0.533957 1.49076 0 0 0 90 87 92 255 
0.425417 0.596626 1.44225 0 0 0 44 126 166 255 
0.380611 0.57285 1.38343 0 0 0 136 146 166 255 
1.01217 0.770202 1.40811 0 0 0 112 126 138 255 
1.01847 0.772974 1.40345 0 0 0 139 148 161 255 
1.02524 0.776497 1.40159 0 0 0 115 113 132 255 
0.840779 0.744706 1.42044 0 0 0 110 118 148 255 
1.08461 0.80393 1.37101 0 0 0 67 129 152 255 
0.980635 0.781685 1.38899 0 0 0 66 94 119 255 
0.891817 0.767008 1.39377 0 0 0 22 90 129 255 
0.662047 0.725739 1.38832 0 0 0 48 97 137 255 
0.94465 0.797663 1.32093 0 0 0 57 96 122 255 
0.945134 0.800864 1.30449 0 0 0 102 141 165 255 
0.91841 0.795556 1.30661 0 0 0 127 136 153 255 
0.931149 0.808129 1.27776 0 0 0 111 147 167 255 
0.873699 0.806018 1.25339 0 0 0 148 156 164 255 
0.817443 0.795041 1.24746 0 0 0 87 142 177 255 
0.937882 0.82358 1.23151 0 0 0 167 199 206 255 
0.316317 0.711987 1.304 0 0 0 94 117 126 255 
0.98641 0.866101 1.14426 0 0 0 23 161 192 255 
0.972523 0.864788 1.13143 0 0 0 164 206 229 255 
0.967761 0.866247 1.11533 0 0 0 35 154 196 255 
1.22926 0.959692 1.13193 0 0 0 218 236 243 255 
0.906506 0.858576 1.09301 0 0 0 87 140 168 255 
0.638166 0.802025 1.13026 0 0 0 185 163 143 255 
0.36122 0.742332 1.18807 0 0 0 48 67 77 255 
0.877882 0.86108 1.06752 0 0 0 110 169 195 255 
0.881845 0.863635 1.06085 0 0 0 142 196 225 255 
0.905119 0.872132 1.04584 0 0 0 115 197 236 255 
0.857353 0.87019 1.03468 0 0 0 183 214 231 255 
0.858818 0.870851 1.03298 0 0 0 180 210 230 255 
1.05875 -0.00307595 1.55118 0 0 0 89 99 90 255 
1.05587 -0.00579609 1.59039 0 0 0 40 38 36 255 
1.40555 0.102442 1.35655 0 0 0 129 116 105 255 
1.29025 0.0999151 1.29635 0 0 0 16 19 28 255 
1.03606 0.0812224 1.44814 0 0 0 77 71 94 255 
1.20603 0.120348 1.38981 0 0 0 115 125 131 255 
1.45005 0.190539 1.3218 0 0 0 87 93 96 255 
1.58164 0.202947 1.51178 0 0 0 137 158 158 255 
1.25796 0.169907 1.3597 0 0 0 125 109 79 255 
1.27087 0.17529 1.34186 0 0 0 106 92 90 255 
1.26104 0.184032 1.3531 0 0 0 53 21 14 255 
1.37966 0.21709 1.26588 0 0 0 23 35 37 255 
1.35046 0.216934 1.29424 0 0 0 134 135 98 255 
1.26276 0.224749 1.35353 0 0 0 95 71 65 255 
1.11695 0.192635 1.49132 0 0 0 76 55 43 255 
1.2692 0.251274 1.35987 0 0 0 133 118 82 255 
1.29086 0.258059 1.34293 0 0 0 100 101 84 255 
1.31078 0.268038 1.32907 0 0 0 93 87 82 255 
1.39162 0.287772 1.31583 0 0 0 19 39 42 255 
0.338525 0.062115 1.55423 0 0 0 144 125 118 255 
1.31193 0.275315 1.33012 0 0 0 39 30 26 255 
1.13837 0.241225 1.47073 0 0 0 42 33 27 255 
0.789697 0.176097 1.53895 0 0 0 169 157 147 255 
1.4967 0.311824 1.43463 0 0 0 120 178 180 255 
1.25682 0.288147 1.37641 0 0 0 58 34 33 255 
2.04643 0.412664 2.3278 0 0 0 31 81 79 255 
1.31934 0.306881 1.32523 0 0 0 123 118 102 255 
1.28192 0.302068 1.35406 0 0 0 93 85 61 255 
1.26102 0.299157 1.3735 0 0 0 128 119 100 255 
1.30715 0.310271 1.3328 0 0 0 38 39 44 255 
1.31337 0.320599 1.32296 0 0 0 122 100 79 255 
1.29624 0.316427 1.33938 0 0 0 100 90 81 255 
1.19673 0.303132 1.42827 0 0 0 131 141 148 255 
1.25575 0.319829 1.39099 0 0 0 35 50 60 255 
1.38756 0.355728 1.34703 0 0 0 58 57 50 255 
1.00758 0.313402 1.52107 0 0 0 94 79 71 255 
0.537269 0.230011 1.61798 0 0 0 43 35 43 255 
1.41379 0.423469 1.3882 0 0 0 84 89 99 255 
0.980706 0.35026 1.55005 0 0 0 87 111 129 255 
1.32309 0.421022 1.35558 0 0 0 94 89 71 255 
1.41429 0.452534 1.40294 0 0 0 44 56 73 255 
0.5208 0.267238 1.47529 0 0 0 63 68 71 255 
1.2548 0.423442 1.40712 0 0 0 141 131 98 255 
1.26746 0.427323 1.3938 0 0 0 104 71 75 255 
0.537374 0.295373 1.65715 0 0 0 115 132 142 255 
0.828249 0.366027 1.57496 0 0 0 138 136 137 255 
0.488253 0.28177 1.36912 0 0 0 34 93 133 255 
0.7819 0.378787 1.59279 0 0 0 131 126 123 255 
1.37043 0.501342 1.39516 0 0 0 24 45 46 255 
1.95471 0.686357 2.14425 0 0 0 165 203 222 255 
0.509557 0.32977 1.60155 0 0 0 54 58 71 255 
1.25749 0.493939 1.40675 0 0 0 141 108 83 255 
0.516818 0.347854 1.66389 0 0 0 79 78 87 255 
1.80928 0.697321 2.05306 0 0 0 101 130 159 255 
1.43932 0.572828 1.48353 0 0 0 156 174 194 255 
1.8385 0.710699 2.03342 0 0 0 151 188 205 255 
0.795696 0.442901 1.61394 0 0 0 72 75 55 255 
1.39498 0.57065 1.43784 0 0 0 43 54 59 255 
1.78474 0.722515 2.03486 0 0 0 128 161 184 255 
1.4274 0.588788 1.47223 0 0 0 161 205 233 255 
1.3574 0.58728 1.4284 0 0 0 44 64 76 255 
1.36275 0.584399 1.43207 0 0 0 33 59 92 255 
1.31932 0.578295 1.39001 0 0 0 150 116 88 255 
1.3784 0.604052 1.4496 0 0 0 101 120 98 255 
1.29725 0.587572 1.39952 0 0 0 132 123 96 255 
1.33916 0.600849 1.41102 0 0 0 47 39 30 255 
1.40913 0.620644 1.46724 0 0 0 103 128 143 255 
1.82536 0.787095 1.88318 0 0 0 202 223 237 255 
1.37514 0.63963 1.44162 0 0 0 35 57 64 255 
1.79505 0.803893 1.89273 0 0 0 177 200 212 255 
1.29149 0.636748 1.41256 0 0 0 76 98 100 255 
1.37545 0.669667 1.46128 0 0 0 53 66 73 255 
0.270933 0.399306 1.40907 0 0 0 73 82 97 255 
0.48789 0.498952 1.67114 0 0 0 41 36 43 255 
1.1216 0.646215 1.55326 0 0 0 117 112 96 255 
1.34629 0.798234 1.4844 0 0 0 75 121 118 255 
0.416577 0.53145 1.38457 0 0 0 195 188 179 255 
0.358544 0.520318 1.36864 0 0 0 136 163 193 255 
0.737015 0.670783 1.57679 0 0 0 76 87 101 255 
1.25743 0.783813 1.47277 0 0 0 166 143 118 255 
1.32644 0.799091 1.46668 0 0 0 132 188 178 255 
0.678436 0.66463 1.55451 0 0 0 67 71 84 255 
0.424924 0.600365 1.44379 0 0 0 58 137 174 255 
0.946914 0.747118 1.43237 0 0 0 75 102 129 255 
0.694088 0.69928 1.48922 0 0 0 49 93 129 255 
0.657689 0.724771 1.38723 0 0 0 45 75 104 255 
0.81263 0.785209 1.26586 0 0 0 67 94 128 255 
0.918053 0.819627 1.2205 0 0 0 59 106 131 255 
0.752233 0.812022 1.19013 0 0 0 67 75 96 255 
0.963029 0.866336 1.11249 0 0 0 13 155 210 255 
1.24033 0.953325 1.14458 0 0 0 87 103 111 255 
0.264488 0.721422 1.17645 0 0 0 82 91 103 255 
0.80465 0.85036 1.06606 0 0 0 107 114 134 255 
0.90233 0.872044 1.04315 0 0 0 134 204 243 255 
1.24575 0.0421597 1.4219 0 0 0 39 74 68 255 
1.19542 0.0230967 1.49067 0 0 0 120 139 127 255 
1.32273 0.0553596 1.45729 0 0 0 156 47 72 255 
1.42166 0.133958 1.27021 0 0 0 166 177 178 255 
1.40192 0.143728 1.2571 0 0 0 27 64 60 255 
1.35411 0.14438 1.26156 0 0 0 119 121 97 255 
2.10047 0.208289 2.2821 0 0 0 139 173 169 255 
1.86382 0.223302 1.93477 0 0 0 106 130 127 255 
0.437499 -0.00247336 1.54066 0 0 0 182 169 164 255 
1.27071 0.175607 1.34353 0 0 0 107 92 81 255 
1.2202 0.168269 1.38811 0 0 0 113 93 56 255 
1.50294 0.215784 1.39697 0 0 0 7 19 23 255 
0.303141 -0.0101237 1.5063 0 0 0 178 173 161 255 
0.273233 -0.00741488 1.49124 0 0 0 131 99 96 255 
1.26361 0.193203 1.3534 0 0 0 62 23 16 255 
1.35463 0.217194 1.29415 0 0 0 139 142 93 255 
1.21825 0.192986 1.38999 0 0 0 98 71 44 255 
1.10337 0.167179 1.50661 0 0 0 61 47 36 255 
1.2564 0.214757 1.35849 0 0 0 52 34 14 255 
1.38123 0.246002 1.284 0 0 0 17 33 42 255 
1.49331 0.257049 1.38905 0 0 0 135 155 171 255 
1.38441 0.254868 1.29177 0 0 0 17 35 43 255 
0.806439 0.131571 1.52285 0 0 0 165 144 141 255 
0.879486 0.149755 1.49458 0 0 0 171 147 138 255 
0.344947 0.0536219 1.55435 0 0 0 122 105 97 255 
1.22848 0.236109 1.39857 0 0 0 100 81 67 255 
1.06118 0.197326 1.53701 0 0 0 107 89 67 255 
1.2087 0.242594 1.41207 0 0 0 145 118 88 255 
1.27078 0.254467 1.36086 0 0 0 129 112 75 255 
1.31551 0.267716 1.33082 0 0 0 89 86 84 255 
1.49744 0.297571 1.42758 0 0 0 128 152 156 255 
0.382686 0.0718681 1.56417 0 0 0 134 116 111 255 
1.14734 0.229632 1.46257 0 0 0 131 103 79 255 
1.23322 0.257554 1.39072 0 0 0 140 119 78 255 
1.32419 0.277409 1.3145 0 0 0 115 105 83 255 
2.65352 0.454112 3.2072 0 0 0 51 34 55 255 
1.31306 0.282169 1.32414 0 0 0 27 32 36 255 
0.914379 0.202967 1.50041 0 0 0 167 153 139 255 
1.00974 0.233078 1.49778 0 0 0 39 16 8 255 
1.24916 0.288456 1.38145 0 0 0 143 115 95 255 
1.30803 0.306646 1.33203 0 0 0 37 37 49 255 
1.126 0.26679 1.49056 0 0 0 131 143 151 255 
1.2831 0.300251 1.35275 0 0 0 143 117 87 255 
1.31983 0.30957 1.3249 0 0 0 122 115 97 255 
1.17759 0.283644 1.44655 0 0 0 29 34 43 255 
1.38375 0.329421 1.32619 0 0 0 26 54 86 255 
0.289909 0.110552 1.55634 0 0 0 117 113 105 255 
1.30281 0.318966 1.3336 0 0 0 94 79 70 255 
1.35336 0.341182 1.31071 0 0 0 118 140 103 255 
1.26607 0.338853 1.3738 0 0 0 121 131 147 255 
0.984317 0.314709 1.52507 0 0 0 141 91 64 255 
1.41129 0.411732 1.38517 0 0 0 135 144 157 255 
1.3294 0.394603 1.337 0 0 0 26 106 118 255 
0.541131 0.230351 1.63289 0 0 0 40 34 41 255 
0.49969 0.228329 1.39773 0 0 0 190 190 198 255 
1.00273 0.348828 1.55909 0 0 0 12 25 44 255 
1.32467 0.422001 1.35314 0 0 0 134 125 96 255 
0.661915 0.308223 1.62241 0 0 0 155 108 85 255 
0.943683 0.366766 1.53208 0 0 0 51 41 40 255 
1.26839 0.428329 1.39445 0 0 0 104 71 75 255 
1.32508 0.440489 1.34528 0 0 0 34 36 47 255 
0.521436 0.276036 1.48665 0 0 0 46 46 56 255 
0.828754 0.365011 1.57537 0 0 0 138 136 137 255 
1.25811 0.448739 1.4033 0 0 0 151 98 84 255 
0.855823 0.371969 1.56501 0 0 0 47 71 89 255 
0.750225 0.354438 1.59856 0 0 0 51 73 87 255 
1.25598 0.470968 1.40742 0 0 0 102 52 38 255 
1.4864 0.571966 1.53717 0 0 0 187 220 243 255 
0.518256 0.354276 1.67185 0 0 0 141 138 148 255 
0.491724 0.351702 1.50316 0 0 0 74 121 157 255 
1.82954 0.712884 2.02936 0 0 0 145 180 199 255 
1.78767 0.71212 2.03761 0 0 0 156 185 212 255 
1.86247 0.724299 1.98159 0 0 0 159 188 204 255 
1.81595 0.722797 2.02589 0 0 0 154 194 213 255 
1.24827 0.546482 1.4255 0 0 0 108 119 87 255 
1.42126 0.594912 1.46083 0 0 0 170 210 231 255 
1.3199 0.578767 1.38942 0 0 0 153 128 91 255 
1.17149 0.562497 1.49484 0 0 0 163 136 93 255 
1.32951 0.598618 1.39597 0 0 0 39 39 38 255 
1.79064 0.80965 1.88874 0 0 0 176 201 214 255 
0.455108 0.412754 1.35758 0 0 0 176 202 213 255 
1.23817 0.617336 1.44685 0 0 0 67 98 84 255 
0.254779 0.394076 1.48432 0 0 0 116 102 102 255 
1.29377 0.636392 1.40843 0 0 0 81 103 105 255 
0.686559 0.530749 1.67216 0 0 0 160 138 141 255 
0.488167 0.500538 1.66856 0 0 0 41 36 43 255 
1.28643 0.696923 1.43949 0 0 0 60 95 88 255 
0.477488 0.570547 1.62016 0 0 0 84 79 88 255 
1.17106 0.729198 1.53969 0 0 0 81 73 60 255 
1.12913 0.739983 1.56002 0 0 0 31 60 58 255 
0.46166 0.559816 1.48013 0 0 0 132 173 195 255 
0.626651 0.641508 1.66373 0 0 0 52 44 49 255 
1.3558 0.793581 1.49227 0 0 0 65 104 108 255 
1.33576 0.799695 1.47445 0 0 0 120 175 168 255 
0.430239 0.551797 1.40026 0 0 0 134 150 175 255 
0.237507 0.530792 1.48603 0 0 0 89 87 94 255 
0.795378 0.690365 1.5311 0 0 0 99 158 200 255 
0.157686 0.555731 1.6726 0 0 0 98 88 89 255 
1.29111 0.824231 1.44324 0 0 0 60 88 95 255 
0.382556 0.568961 1.38087 0 0 0 89 111 150 255 
0.651638 0.676696 1.53015 0 0 0 84 61 60 255 
0.97131 0.784606 1.37062 0 0 0 112 158 182 255 
1.1284 0.825589 1.33674 0 0 0 60 180 213 255 
0.657035 0.725493 1.38441 0 0 0 45 75 104 255 
0.788239 0.782445 1.28833 0 0 0 114 134 163 255 
0.804104 0.791635 1.25754 0 0 0 77 103 131 255 
0.992732 0.865707 1.15548 0 0 0 0 152 185 255 
0.76132 0.814007 1.18665 0 0 0 51 75 108 255 
0.739029 0.807704 1.18919 0 0 0 98 108 120 255 
0.963443 0.859084 1.12369 0 0 0 154 199 225 255 
0.962762 0.866471 1.1116 0 0 0 13 155 210 255 
0.884638 0.861695 1.07043 0 0 0 89 159 186 255 
0.772212 0.839006 1.07404 0 0 0 69 121 156 255 
0.874943 0.863211 1.0479 0 0 0 191 220 236 255 
0.803939 0.851063 1.06288 0 0 0 119 119 140 255 
0.882179 0.872936 1.03861 0 0 0 46 125 165 255 
1.15784 -0.0267551 1.65693 0 0 0 66 70 74 255 
1.17869 0.0319204 1.4786 0 0 0 15 19 32 255 
1.19048 0.0195084 1.48986 0 0 0 89 113 96 255 
0.541384 -0.103191 1.62739 0 0 0 64 62 71 255 
1.24222 0.0554434 1.40655 0 0 0 170 164 159 255 
0.598863 -0.074319 1.59917 0 0 0 73 89 94 255 
1.48925 0.137644 1.34402 0 0 0 29 34 54 255 
1.42193 0.138403 1.26995 0 0 0 155 171 171 255 
1.38173 0.153542 1.23748 0 0 0 31 46 57 255 
2.00105 0.216031 2.13713 0 0 0 138 168 163 255 
1.25823 0.172114 1.35934 0 0 0 124 107 77 255 
1.37228 0.203192 1.26297 0 0 0 16 27 40 255 
0.422405 0.00210325 1.53334 0 0 0 130 112 107 255 
1.02255 0.136281 1.4726 0 0 0 52 26 14 255 
1.10097 0.168434 1.50627 0 0 0 61 47 36 255 
1.36633 0.248075 1.2784 0 0 0 13 29 29 255 
1.01447 0.190983 1.48718 0 0 0 45 19 31 255 
1.37201 0.268929 1.28351 0 0 0 28 94 94 255 
1.30096 0.275336 1.33734 0 0 0 71 66 58 255 
1.32607 0.281003 1.31668 0 0 0 115 107 82 255 
1.36272 0.301565 1.2931 0 0 0 20 32 41 255 
2.52192 0.468436 3.02944 0 0 0 141 174 185 255 
0.787844 0.190595 1.53484 0 0 0 155 111 97 255 
0.850818 0.206159 1.51305 0 0 0 160 155 152 255 
0.94244 0.232251 1.49097 0 0 0 153 147 144 255 
1.19241 0.294656 1.43429 0 0 0 98 105 111 255 
1.30274 0.319453 1.33273 0 0 0 94 79 70 255 
1.3554 0.339906 1.30712 0 0 0 148 142 96 255 
1.26193 0.336591 1.37649 0 0 0 137 154 164 255 
0.259587 0.145924 1.57562 0 0 0 33 31 34 255 
0.211981 0.143836 1.551 0 0 0 43 40 42 255 
0.483832 0.220051 1.42178 0 0 0 222 236 246 255 
0.550203 0.232527 1.6415 0 0 0 38 36 33 255 
1.00347 0.345172 1.55339 0 0 0 15 27 45 255 
0.963327 0.352528 1.53536 0 0 0 119 142 149 255 
1.23325 0.421288 1.42411 0 0 0 115 106 85 255 
0.302066 0.214277 1.40007 0 0 0 198 203 209 255 
0.519179 0.270556 1.45309 0 0 0 45 46 54 255 
0.751109 0.331722 1.59577 0 0 0 100 127 139 255 
0.945191 0.37114 1.53181 0 0 0 50 41 40 255 
0.804199 0.369898 1.58276 0 0 0 37 40 49 255 
0.887592 0.382193 1.54603 0 0 0 48 87 111 255 
0.480059 0.287586 1.36329 0 0 0 13 83 157 255 
1.25647 0.496076 1.40799 0 0 0 145 115 88 255 
1.50411 0.590292 1.57076 0 0 0 160 182 210 255 
0.694587 0.412037 1.62322 0 0 0 65 62 70 255 
1.82994 0.718208 2.0259 0 0 0 137 174 192 255 
1.15547 0.525898 1.50124 0 0 0 162 121 72 255 
0.436754 0.342051 1.32608 0 0 0 146 173 186 255 
1.44786 0.594044 1.48743 0 0 0 175 210 231 255 
0.347863 0.353302 1.32893 0 0 0 7 122 164 255 
1.20333 0.578745 1.47103 0 0 0 122 102 68 255 
0.220946 0.369624 1.61145 0 0 0 141 123 120 255 
0.3657 0.363089 1.32135 0 0 0 62 166 199 255 
0.206423 0.368424 1.63077 0 0 0 143 121 113 255 
1.23173 0.611054 1.45256 0 0 0 60 98 80 255 
0.248561 0.394804 1.48503 0 0 0 139 118 111 255 
1.29561 0.63927 1.41244 0 0 0 81 103 105 255 
1.28821 0.702785 1.43424 0 0 0 54 92 84 255 
0.266982 0.461747 1.42236 0 0 0 38 75 111 255 
0.424997 0.533139 1.40267 0 0 0 171 148 147 255 
0.461603 0.561477 1.47894 0 0 0 131 173 195 255 
0.734765 0.670633 1.57771 0 0 0 70 82 93 255 
1.2572 0.782912 1.47319 0 0 0 166 143 118 255 
1.31617 0.80001 1.45056 0 0 0 162 213 206 255 
0.761316 0.682095 1.56066 0 0 0 168 191 207 255 
0.259422 0.557652 1.4757 0 0 0 21 108 151 255 
1.28745 0.821614 1.44529 0 0 0 53 80 88 255 
0.887558 0.745803 1.42635 0 0 0 84 117 144 255 
1.12537 0.821345 1.34447 0 0 0 85 174 201 255 
0.600212 0.706084 1.42102 0 0 0 76 77 82 255 
0.830265 0.757057 1.35729 0 0 0 62 58 85 255 
0.772219 0.803049 1.19928 0 0 0 102 125 141 255 
0.924447 0.845184 1.16359 0 0 0 99 163 199 255 
0.962769 0.858943 1.12307 0 0 0 141 186 213 255 
0.242189 0.692088 1.21746 0 0 0 36 50 62 255 
0.353472 0.73634 1.1942 0 0 0 64 80 91 255 
1.28236 0.115603 1.30785 0 0 0 19 71 115 255 
1.38462 0.154576 1.24009 0 0 0 31 46 57 255 
1.19453 0.115391 1.40482 0 0 0 115 125 129 255 
1.20804 0.12302 1.38693 0 0 0 137 147 153 255 
0.461967 -0.0210688 1.54229 0 0 0 172 160 157 255 
0.457976 0.0063273 1.54196 0 0 0 131 110 108 255 
1.35628 0.206696 1.2976 0 0 0 24 21 38 255 
1.25202 0.194477 1.36155 0 0 0 101 84 45 255 
0.404611 0.0608316 1.56782 0 0 0 139 117 115 255 
1.27528 0.25978 1.36136 0 0 0 132 110 72 255 
0.238824 0.0618491 1.52137 0 0 0 129 102 95 255 
0.942735 0.231238 1.49117 0 0 0 153 147 144 255 
0.537393 0.143533 1.63333 0 0 0 174 173 162 255 
1.18507 0.293857 1.44069 0 0 0 81 86 96 255 
0.465864 0.169817 1.48381 0 0 0 39 38 42 255 
0.368973 0.156802 1.59141 0 0 0 43 41 42 255 
0.225639 0.148186 1.56005 0 0 0 47 45 46 255 
0.926717 0.321218 1.52075 0 0 0 47 64 71 255 
1.0037 0.371926 1.55959 0 0 0 79 55 31 255 
0.931832 0.358765 1.53618 0 0 0 154 143 123 255 
1.25234 0.426335 1.40738 0 0 0 129 122 84 255 
0.950649 0.374767 1.528 0 0 0 37 40 49 255 
0.836391 0.361145 1.57433 0 0 0 86 91 99 255 
0.890481 0.38276 1.54522 0 0 0 50 89 113 255 
1.15924 0.429441 1.49388 0 0 0 142 103 64 255 
0.478836 0.295431 1.36221 0 0 0 1 84 153 255 
1.36904 0.507394 1.39472 0 0 0 26 41 48 255 
0.192615 0.271706 1.61152 0 0 0 109 97 97 255 
0.539591 0.355137 1.69792 0 0 0 40 38 46 255 
0.357835 0.306802 1.32867 0 0 0 66 108 146 255 
0.730934 0.460688 1.63891 0 0 0 80 98 111 255 
1.32421 0.612637 1.39273 0 0 0 30 41 50 255 
1.23306 0.611139 1.45148 0 0 0 60 98 80 255 
1.30443 0.641418 1.39958 0 0 0 70 95 78 255 
1.29755 0.679721 1.38785 0 0 0 24 34 52 255 
1.28962 0.704824 1.4346 0 0 0 52 101 89 255 
0.269453 0.459571 1.41716 0 0 0 44 80 109 255 
0.361674 0.468844 1.35582 0 0 0 46 90 126 255 
1.20011 0.745411 1.55833 0 0 0 151 153 87 255 
1.39023 0.79944 1.52417 0 0 0 209 241 251 255 
1.25998 0.785042 1.46846 0 0 0 167 129 111 255 
1.28593 0.818824 1.44767 0 0 0 52 80 85 255 
0.228988 0.550758 1.4958 0 0 0 223 234 242 255 
0.943392 0.746797 1.43289 0 0 0 84 104 132 255 
0.640109 0.685552 1.50895 0 0 0 76 58 64 255 
0.930339 0.761597 1.42426 0 0 0 48 69 104 255 
1.05178 0.807749 1.34799 0 0 0 63 120 156 255 
1.1118 0.829101 1.3297 0 0 0 51 168 205 255 
0.723389 0.744932 1.34037 0 0 0 79 69 86 255 
0.792521 0.802345 1.21772 0 0 0 40 69 98 255 
0.91151 0.326597 1.52711 0 0 0 53 70 85 255 
0.973794 0.330926 1.54261 0 0 0 67 65 64 255 
1.13704 0.411042 1.529 0 0 0 163 125 79 255 
1.13455 0.427323 1.51021 0 0 0 161 133 72 255 
0.627162 0.342126 1.62126 0 0 0 36 40 44 255 
0.957355 0.42752 1.5615 0 0 0 74 118 142 255 
0.291343 0.287039 1.38724 0 0 0 20 67 108 255 
0.928685 0.454378 1.54836 0 0 0 132 165 189 255 
0.682733 0.444187 1.64674 0 0 0 149 172 181 255 
0.213342 0.354882 1.6247 0 0 0 127 108 101 255 
1.17702 0.568372 1.48719 0 0 0 153 131 81 255 
1.22268 0.602748 1.46547 0 0 0 38 79 54 255 
0.414778 0.409918 1.34271 0 0 0 180 205 218 255 
0.370367 0.458452 1.34922 0 0 0 18 81 129 255 
1.00299 0.70634 1.71475 0 0 0 136 151 160 255 
0.375151 0.505291 1.35631 0 0 0 11 105 160 255 
0.492448 0.602622 1.72373 0 0 0 154 164 168 255 
1.18182 0.753099 1.52209 0 0 0 35 52 54 255 
0.593566 0.645211 1.64894 0 0 0 49 45 54 255 
0.699346 0.666496 1.54332 0 0 0 58 66 83 255 
0.206381 0.566886 1.55341 0 0 0 214 229 236 255 
0.917012 0.743387 1.43783 0 0 0 96 68 87 255 
0.374899 0.600922 1.36641 0 0 0 17 86 139 255 
0.549586 0.683509 1.49257 0 0 0 224 197 117 255 
0.620898 0.70434 1.43894 0 0 0 49 62 77 255 
0.614888 0.71534 1.41898 0 0 0 68 79 83 255 
0.444457 0.334656 1.31795 0 0 0 95 131 152 255 
0.223833 0.330691 1.59096 0 0 0 60 51 47 255 
0.303748 0.33753 1.36102 0 0 0 135 156 166 255 
0.179933 0.387101 1.59926 0 0 0 86 84 85 255 
0.163626 0.388678 1.59276 0 0 0 63 44 40 255 
0.37331 0.442846 1.32911 0 0 0 171 198 226 255 
0.304176 0.439157 1.36104 0 0 0 166 184 200 255 
0.277023 0.447676 1.37716 0 0 0 80 90 96 255 
0.493286 0.577023 1.71214 0 0 0 138 126 130 255 
0.581407 0.407498 1.60713 0 0 0 100 110 118 255 
0.200822 0.322251 1.57409 0 0 0 115 104 101 255 
0.572882 0.428312 1.59082 0 0 0 132 144 152 255 
0.428169 0.408223 1.34182 0 0 0 61 97 138 255 
0.164843 0.389011 1.59324 0 0 0 47 34 31 255 
0.178777 0.390222 1.60305 0 0 0 113 111 112 255 
0.178732 0.408727 1.61447 0 0 0 80 67 65 255 
0.293864 0.396616 1.33757 0 0 0 26 66 105 255 
0.327978 0.435238 1.3285 0 0 0 168 186 201 255 
0.493772 0.576998 1.70314 0 0 0 138 126 130 255 
0.195853 0.318112 1.57482 0 0 0 116 103 98 255 
0.305695 0.336362 1.36062 0 0 0 138 142 141 255 
0.738245 0.502679 1.60541 0 0 0 142 154 169 255 
0.496332 0.577197 1.69641 0 0 0 152 141 147 255 
0.379816 0.487874 1.35778 0 0 0 174 192 209 255 
0.312247 0.482724 1.36843 0 0 0 174 190 203 255 
0.554582 0.326779 1.43609 0 0 0 56 49 48 255 
0.718862 0.373964 1.58765 0 0 0 62 62 72 255 
0.211781 0.263228 1.56265 0 0 0 107 100 98 255 
0.205952 0.363055 1.69203 0 0 0 119 104 92 255 
0.730641 0.500339 1.59862 0 0 0 128 146 159 255 
0.169721 0.385426 1.59138 0 0 0 38 29 26 255 
0.330967 0.393047 1.31718 0 0 0 46 76 126 255 
0.37006 0.428797 1.32946 0 0 0 175 200 212 255 
0.290984 0.432328 1.35816 0 0 0 148 163 170 255 
0.525339 0.323984 1.29205 0 0 0 47 45 48 255 
0.44375 0.333708 1.31487 0 0 0 101 138 158 255 
0.690558 0.418866 1.61291 0 0 0 80 87 92 255 
0.42607 0.398644 1.329 0 0 0 168 203 210 255 
0.403033 0.416018 1.33642 0 0 0 184 204 211 255 
0.299639 0.394707 1.34364 0 0 0 13 52 111 255 
0.307564 0.429633 1.34688 0 0 0 168 186 199 255 
0.369837 0.482384 1.34809 0 0 0 18 82 134 255 
0.691968 0.383361 1.56997 0 0 0 95 65 73 255 
0.405696 0.307126 1.30174 0 0 0 2 89 147 255 
0.32812 0.30588 1.35705 0 0 0 175 173 119 255 
1.00588 0.368178 1.56458 0 0 0 115 120 88 255 
1.15982 0.461815 1.48181 0 0 0 157 102 69 255 
0.527025 0.344349 1.66321 0 0 0 64 56 62 255 
1.15368 0.46631 1.48497 0 0 0 129 84 47 255 
1.11575 0.49063 1.53457 0 0 0 167 122 78 255 
0.429974 0.295702 1.31728 0 0 0 70 143 180 255 
0.439174 0.300144 1.31758 0 0 0 45 117 147 255 
0.437851 0.319547 1.32341 0 0 0 104 154 179 255 
1.15313 0.528838 1.50678 0 0 0 144 83 35 255 
1.15085 0.541224 1.5093 0 0 0 163 92 50 255 
1.15409 0.549498 1.50517 0 0 0 109 48 16 255 
0.32964 0.338475 1.33043 0 0 0 51 99 122 255 
0.467902 0.388496 1.36849 0 0 0 169 192 215 255 
0.76221 0.54262 1.64468 0 0 0 139 86 72 255 
0.337043 0.361915 1.33234 0 0 0 42 136 167 255 
0.695201 0.534478 1.64854 0 0 0 169 133 125 255 
0.905559 0.585157 1.59377 0 0 0 158 127 117 255 
1.09127 0.62773 1.58233 0 0 0 57 38 21 255 
0.344326 0.39035 1.33312 0 0 0 73 123 163 255 
1.13313 0.653935 1.5218 0 0 0 114 103 100 255 
0.424361 0.450473 1.35507 0 0 0 158 172 184 255 
0.35893 0.43272 1.32988 0 0 0 143 154 166 255 
0.450439 0.483497 1.38466 0 0 0 133 169 197 255 
0.439204 0.47973 1.37143 0 0 0 124 146 166 255 
0.439366 0.517132 1.38776 0 0 0 96 147 183 255 
0.750653 0.673696 1.57589 0 0 0 86 94 100 255 
0.285978 0.509378 1.39108 0 0 0 110 126 132 255 
0.300931 0.50983 1.37241 0 0 0 68 102 134 255 
0.30729 0.511668 1.36999 0 0 0 84 129 166 255 
0.356298 0.525936 1.36241 0 0 0 147 186 185 255 
0.301836 0.514723 1.37135 0 0 0 54 91 119 255 
0.32295 0.517435 1.36807 0 0 0 92 138 160 255 
0.285191 0.520655 1.38918 0 0 0 179 193 203 255 
0.29678 0.515124 1.37346 0 0 0 177 187 212 255 
0.312639 0.516467 1.36936 0 0 0 80 117 146 255 
0.317714 0.518849 1.36869 0 0 0 162 183 195 255 
0.329865 0.520188 1.36459 0 0 0 141 178 207 255 
0.412531 0.545093 1.37265 0 0 0 133 146 144 255 
0.658055 0.671973 1.53426 0 0 0 50 61 61 255 
0.289676 0.519562 1.38176 0 0 0 115 131 151 255 
0.305723 0.518194 1.36608 0 0 0 154 185 200 255 
0.315889 0.52202 1.36725 0 0 0 181 192 208 255 
0.321645 0.521711 1.36665 0 0 0 96 131 159 255 
0.336226 0.524083 1.35701 0 0 0 38 125 146 255 
0.365513 0.532013 1.36156 0 0 0 109 140 125 255 
0.41545 0.551932 1.37406 0 0 0 127 166 190 255 
0.330617 0.527233 1.35682 0 0 0 119 187 224 255 
0.679302 0.683731 1.51626 0 0 0 118 134 154 255 
0.309125 0.525403 1.36508 0 0 0 45 94 122 255 
0.655625 0.680344 1.5145 0 0 0 47 62 71 255 
0.319734 0.530302 1.36365 0 0 0 155 190 209 255 
0.325694 0.531478 1.36076 0 0 0 119 150 167 255 
0.346374 0.534786 1.35467 0 0 0 77 117 112 255 
0.647467 0.677069 1.50927 0 0 0 76 105 105 255 
0.399161 0.55872 1.37578 0 0 0 99 136 150 255 
0.698494 0.694357 1.50957 0 0 0 93 116 141 255 
0.308236 0.53386 1.36829 0 0 0 109 158 187 255 
0.316497 0.534127 1.36509 0 0 0 103 135 171 255 
0.331378 0.538675 1.35832 0 0 0 107 158 191 255 
0.337252 0.539719 1.35878 0 0 0 58 114 132 255 
0.294354 0.535869 1.37405 0 0 0 6 107 139 255 
0.400609 0.564157 1.37278 0 0 0 83 85 87 255 
0.380456 0.559047 1.37191 0 0 0 108 139 146 255 
0.707453 0.6991 1.49061 0 0 0 100 129 163 255 
0.643992 0.6836 1.49091 0 0 0 133 126 136 255 
0.366172 0.556858 1.36599 0 0 0 92 124 137 255 
0.391341 0.567515 1.36788 0 0 0 173 175 149 255 
0.710527 0.699028 1.48118 0 0 0 175 202 230 255 
0.304723 0.546294 1.37646 0 0 0 114 134 145 255 
0.320644 0.549169 1.36842 0 0 0 119 135 132 255 
0.348157 0.55462 1.36751 0 0 0 127 148 144 255 
0.374 0.562434 1.3684 0 0 0 108 127 150 255 
0.648 0.688508 1.48819 0 0 0 172 175 186 255 
0.902852 0.736889 1.43532 0 0 0 142 92 116 255 
0.29968 0.546848 1.3727 0 0 0 69 80 110 255 
0.325798 0.552324 1.37028 0 0 0 132 132 120 255 
0.338988 0.554544 1.36796 0 0 0 121 138 131 255 
0.708135 0.700528 1.4719 0 0 0 70 105 129 255 
0.310954 0.549885 1.37175 0 0 0 131 136 132 255 
0.343475 0.557921 1.36752 0 0 0 126 104 78 255 
0.365691 0.563583 1.3659 0 0 0 90 88 99 255 
0.382212 0.569755 1.37134 0 0 0 157 147 146 255 
0.955466 0.750734 1.42175 0 0 0 68 112 139 255 
1.15063 0.430641 1.47556 0 0 0 142 74 53 255 
1.15906 0.461844 1.48264 0 0 0 157 102 69 255 
1.15845 0.49762 1.49345 0 0 0 86 20 19 255 
0.742527 0.505488 1.59985 0 0 0 139 155 155 255 
0.446126 0.446789 1.36737 0 0 0 77 95 109 255 
0.450297 0.457642 1.36941 0 0 0 184 199 206 255 
0.497488 0.576671 1.70316 0 0 0 160 155 151 255 
0.297172 0.44783 1.36583 0 0 0 35 70 109 255 
0.437936 0.516428 1.38665 0 0 0 58 134 170 255 
0.745156 0.673903 1.57601 0 0 0 70 78 84 255 
0.67128 0.666234 1.53556 0 0 0 141 153 188 255 
0.316234 0.520942 1.36784 0 0 0 164 176 192 255 
0.310248 0.524999 1.36535 0 0 0 66 88 118 255 
0.677332 0.683358 1.5157 0 0 0 116 132 151 255 
0.33948 0.530244 1.3532 0 0 0 178 188 201 255 
0.350769 0.532693 1.3548 0 0 0 55 112 105 255 
0.397355 0.564363 1.37586 0 0 0 100 93 71 255 
0.43746 0.598299 1.43095 0 0 0 56 100 131 255 
0.323211 0.55204 1.36997 0 0 0 156 148 132 255 
0.639876 0.686791 1.48359 0 0 0 183 179 190 255 
0.902178 0.737231 1.43405 0 0 0 144 113 133 255 
0.418313 0.130937 1.57214 0 0 0 119 109 103 255 
0.576321 0.237914 1.68311 0 0 0 96 47 25 255 
0.625312 0.250602 1.63329 0 0 0 70 77 81 255 
0.615445 0.298302 1.66162 0 0 0 160 115 79 255 
0.512658 0.255293 1.40874 0 0 0 49 67 85 255 
0.592735 0.313562 1.6606 0 0 0 167 117 86 255 
0.822173 0.36155 1.58525 0 0 0 51 42 48 255 
1.11597 0.427865 1.5434 0 0 0 51 35 29 255 
0.835523 0.370405 1.57672 0 0 0 127 125 112 255 
1.13423 0.478286 1.53209 0 0 0 114 48 23 255 
0.429055 0.29688 1.31559 0 0 0 96 155 192 255 
0.536914 0.463379 1.6989 0 0 0 118 120 115 255 
0.383707 0.348375 1.31334 0 0 0 68 117 152 255 
0.756755 0.546284 1.64415 0 0 0 174 142 130 255 
0.320717 0.364811 1.33586 0 0 0 4 119 167 255 
0.448359 0.408642 1.35498 0 0 0 57 78 117 255 
1.12072 0.647694 1.54834 0 0 0 118 103 83 255 
1.13267 0.654152 1.52277 0 0 0 114 103 100 255 
0.455431 0.449556 1.37346 0 0 0 194 201 224 255 
0.437909 0.470058 1.3653 0 0 0 34 75 120 255 
0.417439 0.462333 1.349 0 0 0 164 176 184 255 
0.270927 0.444359 1.38421 0 0 0 61 80 109 255 
0.300681 0.453344 1.36737 0 0 0 12 67 124 255 
0.444215 0.489791 1.3775 0 0 0 187 192 200 255 
1.10626 0.732414 1.5522 0 0 0 59 52 52 255 
0.391837 0.497962 1.35244 0 0 0 30 82 130 255 
0.355506 0.483935 1.33774 0 0 0 180 199 199 255 
0.417749 0.52932 1.37247 0 0 0 197 188 165 255 
0.287022 0.511039 1.38908 0 0 0 82 98 107 255 
0.302551 0.509525 1.3725 0 0 0 77 111 143 255 
0.432335 0.544362 1.37627 0 0 0 134 154 181 255 
0.298736 0.511217 1.37339 0 0 0 136 152 177 255 
0.358437 0.524814 1.36302 0 0 0 142 171 171 255 
0.340166 0.520007 1.35796 0 0 0 164 195 206 255 
0.417349 0.553839 1.37515 0 0 0 114 153 177 255 
0.664155 0.677116 1.52844 0 0 0 129 157 184 255 
0.339555 0.527657 1.35448 0 0 0 149 176 185 255 
0.350094 0.52846 1.35664 0 0 0 46 136 122 255 
0.679175 0.682847 1.51729 0 0 0 109 127 142 255 
0.318268 0.52704 1.3645 0 0 0 171 196 207 255 
0.279782 0.532 1.39342 0 0 0 101 139 168 255 
0.540416 0.16546 1.65381 0 0 0 184 178 169 255 
0.569552 0.239564 1.67799 0 0 0 56 40 36 255 
0.648238 0.295957 1.63773 0 0 0 163 123 92 255 
0.616998 0.297105 1.66116 0 0 0 159 122 93 255 
0.962162 0.358604 1.53025 0 0 0 84 84 78 255 
0.944961 0.360417 1.53662 0 0 0 136 123 105 255 
1.07335 0.533905 1.60936 0 0 0 106 93 66 255 
0.536757 0.460522 1.6999 0 0 0 102 105 103 255 
0.329756 0.33917 1.33084 0 0 0 51 99 122 255 
0.456333 0.413495 1.35805 0 0 0 184 198 202 255 
0.413668 0.399234 1.33036 0 0 0 55 115 152 255 
0.963777 0.635558 1.6137 0 0 0 28 32 38 255 
0.990453 0.694546 1.7021 0 0 0 145 145 142 255 
0.390729 0.452275 1.34086 0 0 0 186 202 208 255 
0.93284 0.695066 1.63733 0 0 0 144 111 102 255 
0.286019 0.443492 1.36865 0 0 0 167 180 177 255 
0.307359 0.466483 1.36662 0 0 0 162 181 198 255 
0.35237 0.471171 1.33903 0 0 0 181 197 197 255 
0.432271 0.526372 1.38575 0 0 0 176 154 162 255 
0.791007 0.685996 1.52613 0 0 0 56 146 185 255 
0.339582 0.519067 1.35836 0 0 0 163 186 211 255 
0.536229 0.171981 1.65526 0 0 0 37 31 24 255 
0.466604 0.169175 1.5883 0 0 0 42 37 36 255 
0.409922 0.162823 1.59539 0 0 0 45 43 39 255 
0.338633 0.156792 1.5789 0 0 0 35 35 35 255 
0.619323 0.253927 1.62538 0 0 0 53 76 85 255 
0.926806 0.36102 1.54138 0 0 0 140 140 128 255 
0.854779 0.368786 1.57335 0 0 0 56 65 78 255 
0.53333 0.329357 1.66795 0 0 0 129 130 138 255 
0.616819 0.339021 1.63715 0 0 0 44 42 43 255 
0.721048 0.393747 1.62645 0 0 0 68 60 68 255 
0.951544 0.471398 1.55899 0 0 0 145 162 184 255 
0.731488 0.44327 1.61538 0 0 0 86 96 100 255 
0.58729 0.434314 1.6954 0 0 0 149 156 157 255 
0.956219 0.495682 1.56411 0 0 0 120 141 155 255 
1.07609 0.537325 1.60865 0 0 0 132 93 68 255 
0.385723 0.337746 1.31381 0 0 0 173 187 198 255 
0.893363 0.527388 1.56152 0 0 0 66 50 49 255 
0.405573 0.408225 1.33311 0 0 0 182 195 221 255 
0.365608 0.417306 1.3247 0 0 0 158 173 178 255 
0.399102 0.41613 1.33623 0 0 0 192 203 203 255 
0.990649 0.694125 1.70235 0 0 0 145 145 142 255 
0.366737 0.464012 1.33974 0 0 0 23 85 139 255 
0.611892 0.630112 1.64996 0 0 0 53 49 53 255 
0.927475 0.326433 1.5314 0 0 0 50 57 65 255 
0.647341 0.304168 1.62427 0 0 0 179 134 88 255 
0.702231 0.311831 1.60973 0 0 0 76 59 58 255 
0.767698 0.323421 1.58901 0 0 0 86 103 112 255 
0.840738 0.344497 1.57407 0 0 0 58 66 71 255 
0.483187 0.249885 1.31066 0 0 0 226 244 247 255 
0.622107 0.339558 1.63882 0 0 0 43 43 43 255 
0.443761 0.277391 1.31975 0 0 0 194 202 222 255 
0.467064 0.293635 1.32555 0 0 0 0 85 145 255 
0.547181 0.369182 1.71228 0 0 0 42 46 52 255 
0.690221 0.409094 1.62777 0 0 0 85 60 59 255 
0.729595 0.459914 1.61059 0 0 0 89 91 102 255 
0.438618 0.334665 1.32573 0 0 0 155 175 187 255 
0.273914 0.103828 1.68198 0 0 0 80 76 68 255 
0.458921 0.180494 1.51017 0 0 0 112 114 113 255 
0.439492 0.176921 1.51305 0 0 0 93 93 88 255 
0.322141 0.164171 1.53968 0 0 0 92 64 71 255 
0.967701 0.414734 1.45483 0 0 0 54 51 55 255 
0.515202 0.282919 1.72334 0 0 0 125 124 121 255 
0.518418 0.309629 1.70323 0 0 0 120 118 114 255 
0.527908 0.319052 1.69731 0 0 0 49 51 48 255 
0.523001 0.326781 1.71171 0 0 0 54 58 57 255 
0.510508 0.333526 1.72917 0 0 0 122 126 125 255 
0.527677 0.347044 1.7167 0 0 0 19 30 33 255 
0.95713 0.506454 1.5149 0 0 0 111 131 141 255 
0.439903 0.296312 1.25352 0 0 0 27 89 143 255 
0.459033 0.309011 1.26973 0 0 0 15 73 106 255 
0.335681 0.279083 1.31121 0 0 0 111 141 174 255 
0.331636 0.284711 1.31952 0 0 0 105 131 139 255 
1.07046 0.59168 1.45102 0 0 0 80 78 74 255 
1.05025 0.6102 1.50597 0 0 0 54 52 52 255 
0.757774 0.520665 1.64932 0 0 0 98 102 110 255 
0.418772 0.344562 1.26691 0 0 0 90 94 114 255 
0.419747 0.342958 1.26462 0 0 0 90 94 114 255 
0.858926 0.570109 1.59942 0 0 0 134 106 99 255 
0.710277 0.54277 1.70715 0 0 0 143 102 95 255 
0.455636 0.385797 1.31632 0 0 0 65 102 145 255 
0.629626 0.512949 1.69471 0 0 0 149 114 108 255 
0.380277 0.369875 1.28439 0 0 0 122 160 189 255 
0.456348 0.423749 1.35979 0 0 0 144 171 191 255 
0.453645 0.464549 1.37959 0 0 0 125 160 181 255 
0.415603 0.468585 1.36668 0 0 0 143 158 174 255 
0.433117 0.495664 1.38614 0 0 0 69 94 120 255 
0.8519 0.707492 1.50032 0 0 0 68 73 81 255 
0.866462 0.711623 1.47724 0 0 0 39 38 49 255 
0.850475 0.711472 1.49789 0 0 0 65 51 68 255 
0.862466 0.745103 1.42339 0 0 0 68 93 117 255 
0.607976 0.704103 1.58787 0 0 0 74 38 30 255 
0.689587 0.71887 1.52735 0 0 0 23 47 55 255 
0.961219 0.764157 1.29687 0 0 0 64 94 116 255 
0.408364 0.596946 1.46251 0 0 0 52 104 148 255 
0.714973 0.722658 1.44804 0 0 0 91 159 183 255 
0.244333 0.534833 1.44171 0 0 0 77 81 85 255 
0.24079 0.543768 1.45539 0 0 0 159 175 184 255 
0.792955 0.750936 1.38266 0 0 0 62 89 117 255 
0.786789 0.753054 1.38035 0 0 0 21 42 79 255 
0.857867 0.772371 1.34167 0 0 0 42 101 134 255 
0.460383 0.709451 1.54743 0 0 0 140 84 35 255 
0.894384 0.786451 1.24587 0 0 0 101 121 137 255 
0.70399 0.772304 1.37915 0 0 0 106 90 116 255 
0.807782 0.78666 1.29724 0 0 0 114 151 173 255 
0.787982 0.776525 1.29033 0 0 0 119 131 145 255 
0.657317 0.76122 1.38185 0 0 0 118 163 202 255 
0.933513 0.808588 1.18059 0 0 0 154 168 174 255 
0.78299 0.794053 1.30132 0 0 0 93 146 165 255 
0.621571 0.773865 1.35876 0 0 0 70 94 117 255 
0.946116 0.83994 1.06737 0 0 0 71 125 169 255 
0.676708 0.80987 1.21931 0 0 0 49 42 42 255 
0.84786 0.837801 1.08421 0 0 0 53 78 97 255 
0.612393 0.83411 1.16434 0 0 0 114 91 72 255 
0.0399423 0.780776 1.41206 0 0 0 172 189 195 255 
0.282533 0.772184 1.20924 0 0 0 33 44 54 255 
0.0499119 0.786689 1.4015 0 0 0 25 42 46 255 
0.28656 0.77847 1.20327 0 0 0 175 186 193 255 
0.047247 0.785066 1.3881 0 0 0 170 185 188 255 
0.120929 0.790834 1.30684 0 0 0 26 41 46 255 
0.118847 0.787253 1.29169 0 0 0 166 186 191 255 
0.127366 0.795691 1.30053 0 0 0 151 163 167 255 
0.126933 0.79319 1.28232 0 0 0 40 53 59 255 
0.186707 0.80241 1.222 0 0 0 170 186 187 255 
0.185227 0.800034 1.20853 0 0 0 26 34 39 255 
0.191822 0.809861 1.21872 0 0 0 40 54 58 255 
0.190745 0.806708 1.20197 0 0 0 175 188 193 255 
0.242695 0.822035 1.15396 0 0 0 34 47 57 255 
0.247674 0.828648 1.15071 0 0 0 175 185 193 255 
0.242488 0.818676 1.13779 0 0 0 172 187 197 255 
0.246872 0.82489 1.13515 0 0 0 37 49 57 255 
0.322116 0.163942 1.53874 0 0 0 92 64 71 255 
0.853864 0.39887 1.52194 0 0 0 85 110 123 255 
0.955599 0.504291 1.51617 0 0 0 102 125 138 255 
0.330454 0.283547 1.31819 0 0 0 109 130 132 255 
0.582206 0.41763 1.7055 0 0 0 59 56 62 255 
0.203975 0.38948 1.53894 0 0 0 79 80 79 255 
0.281263 0.403148 1.38673 0 0 0 27 41 64 255 
0.45593 0.507219 1.54659 0 0 0 19 20 43 255 
0.456058 0.603269 1.836 0 0 0 67 60 63 255 
0.835078 0.701301 1.51598 0 0 0 177 196 206 255 
0.866451 0.712749 1.47747 0 0 0 39 38 49 255 
0.725955 0.695116 1.53196 0 0 0 153 164 193 255 
0.642174 0.688908 1.60232 0 0 0 81 52 44 255 
0.707646 0.721754 1.54829 0 0 0 132 174 203 255 
0.247488 0.526355 1.43825 0 0 0 66 68 73 255 
0.738224 0.736537 1.48857 0 0 0 1 66 113 255 
0.357967 0.562937 1.37679 0 0 0 91 123 131 255 
0.239657 0.545649 1.45624 0 0 0 169 185 194 255 
0.650809 0.725419 1.51125 0 0 0 141 162 181 255 
0.679529 0.751512 1.50751 0 0 0 108 167 193 255 
0.619338 0.734823 1.51073 0 0 0 132 144 157 255 
0.932969 0.80922 1.18291 0 0 0 147 159 165 255 
0.645738 0.766628 1.37577 0 0 0 90 145 174 255 
0.787718 0.800504 1.24127 0 0 0 119 117 123 255 
0.925458 0.822537 1.10683 0 0 0 79 135 165 255 
0.724535 0.806614 1.19269 0 0 0 40 47 60 255 
0.249483 0.710539 1.33173 0 0 0 36 41 49 255 
0.601683 0.837163 1.16097 0 0 0 95 75 60 255 
0.0333687 0.778003 1.41657 0 0 0 162 174 180 255 
0.0416246 0.783008 1.41796 0 0 0 172 188 194 255 
0.281827 0.771481 1.21196 0 0 0 33 44 54 255 
0.288259 0.779796 1.20468 0 0 0 177 189 195 255 
0.054195 0.787881 1.40103 0 0 0 29 44 49 255 
0.045909 0.782659 1.3808 0 0 0 118 130 134 255 
0.0559687 0.787319 1.37986 0 0 0 163 183 186 255 
0.11748 0.787081 1.29044 0 0 0 167 187 192 255 
0.485541 0.818979 1.05817 0 0 0 171 188 192 255 
0.185824 0.802309 1.22768 0 0 0 175 192 194 255 
0.185013 0.799428 1.206 0 0 0 28 35 39 255 
0.192772 0.807973 1.20118 0 0 0 175 191 196 255 
0.416437 0.846069 1.03754 0 0 0 182 192 199 255 
0.973442 0.354697 1.43741 0 0 0 67 90 95 255 
0.322368 0.165358 1.54141 0 0 0 92 64 71 255 
0.538459 0.242074 1.64864 0 0 0 93 104 112 255 
0.651781 0.293221 1.59526 0 0 0 120 86 64 255 
0.789696 0.36096 1.54709 0 0 0 35 27 22 255 
0.856957 0.399894 1.51848 0 0 0 110 137 149 255 
0.518133 0.308999 1.70443 0 0 0 120 118 114 255 
0.956188 0.503736 1.51494 0 0 0 96 124 136 255 
0.32912 0.281631 1.31723 0 0 0 106 120 139 255 
0.465069 0.337043 1.27862 0 0 0 115 141 159 255 
1.04882 0.608966 1.50806 0 0 0 28 29 32 255 
0.29612 0.340074 1.36914 0 0 0 121 128 142 255 
0.380832 0.369288 1.28056 0 0 0 122 160 189 255 
0.428265 0.399445 1.30771 0 0 0 149 165 192 255 
0.418977 0.519698 1.78083 0 0 0 80 63 64 255 
0.645484 0.687143 1.60355 0 0 0 101 57 45 255 
0.263112 0.503808 1.41725 0 0 0 104 113 113 255 
0.97064 0.755521 1.31785 0 0 0 33 65 90 255 
0.731654 0.718195 1.44745 0 0 0 1 40 94 255 
0.241945 0.524866 1.44088 0 0 0 59 59 62 255 
0.796844 0.770832 1.33 0 0 0 23 42 52 255 
0.765102 0.770587 1.32283 0 0 0 124 130 135 255 
0.933045 0.809216 1.18446 0 0 0 147 159 165 255 
0.792883 0.78563 1.26973 0 0 0 76 132 152 255 
0.628375 0.769587 1.36406 0 0 0 145 177 201 255 
0.915841 0.829421 1.14408 0 0 0 11 67 105 255 
