ply
format ascii 1.0
comment VCGLIB generated
element vertex 1034
property float x
property float y
property float z
property float nx
property float ny
property float nz
property uchar red
property uchar green
property uchar blue
property uchar alpha
element face 0
property list uchar int vertex_indices
end_header
1.47616 -0.0816343 4.03076 0 0 0 175 175 174 255
1.12019 -0.112927 4.09888 0 0 0 46 46 46 255
1.45085 -0.0801699 4.04219 0 0 0 168 161 154 255
1.71432 -0.421702 4.16985 0 0 0 40 69 116 255
1.56846 -0.257966 4.11227 0 0 0 39 37 37 255
0.957969 -0.241988 4.15238 0 0 0 44 43 44 255
0.968881 -0.0961877 4.10231 0 0 0 218 217 216 255
1.37348 0.243461 3.91015 0 0 0 192 189 186 255
1.34706 -0.495117 4.25618 0 0 0 29 28 25 255
1.175 -0.00562048 4.02723 0 0 0 45 46 46 255
0.891076 -0.505157 4.27439 0 0 0 52 52 53 255
0.996016 -0.104592 4.09038 0 0 0 66 65 64 255
1.04064 0.181644 3.97341 0 0 0 207 206 206 255
1.21201 0.16389 3.95848 0 0 0 151 151 152 255
1.07261 -0.397482 4.21006 0 0 0 34 34 34 255
1.04708 -0.391393 4.23117 0 0 0 34 34 34 255
0.927848 -0.381976 4.22559 0 0 0 52 52 52 255
1.18609 0.151194 3.9877 0 0 0 167 146 112 255
1.14918 0.0103201 4.04006 0 0 0 46 46 46 255
1.62674 -0.124605 4.03065 0 0 0 68 85 108 255
1.44391 -0.218063 4.08705 0 0 0 188 188 188 255
1.34448 0.127371 3.97448 0 0 0 142 140 143 255
1.51259 0.0553226 3.96846 0 0 0 139 138 138 255
1.16287 -0.577062 4.30579 0 0 0 34 32 31 255
1.03146 0.0409848 4.02166 0 0 0 211 210 210 255
0.89299 -0.373916 4.24303 0 0 0 54 54 54 255
1.49628 -0.53499 4.24598 0 0 0 194 194 194 255
1.31024 -0.637518 4.31105 0 0 0 49 41 33 255
1.5933 -0.265806 4.09877 0 0 0 38 39 39 255
1.33705 0.0987007 3.97414 0 0 0 140 140 142 255
1.10571 -0.28373 4.15802 0 0 0 33 34 34 255
1.34338 -0.645838 4.30265 0 0 0 26 27 41 255
1.07864 -0.282916 4.17054 0 0 0 34 34 34 255
1.23314 -0.293391 4.16959 0 0 0 43 43 43 255
1.25722 -0.298257 4.15056 0 0 0 33 37 34 255
0.771388 -0.319649 4.21472 0 0 0 96 97 98 255
1.55576 -0.407319 4.16042 0 0 0 177 177 177 255
1.23049 -0.321503 4.17974 0 0 0 39 39 38 255
1.11283 -0.25379 4.15654 0 0 0 33 33 33 255
1.46714 -0.658406 4.30163 0 0 0 116 118 122 255
1.29377 -0.181058 4.09356 0 0 0 43 44 44 255
1.19867 -0.461557 4.23749 0 0 0 24 21 27 255
1.70997 -0.448576 4.1768 0 0 0 111 78 51 255
1.26752 -0.18023 4.10551 0 0 0 43 43 43 255
1.03898 -0.570982 4.29307 0 0 0 33 32 31 255
1.16 -0.597826 4.31713 0 0 0 30 27 23 255
1.0437 -0.413699 4.24642 0 0 0 30 29 27 255
1.61697 -0.727552 4.31182 0 0 0 190 190 190 255
1.18756 -0.582631 4.29519 0 0 0 26 19 25 255
1.63703 0.0244119 3.9825 0 0 0 39 38 53 255
0.592587 0.245729 3.53109 0 0 0 106 115 125 255
1.07434 0.322037 3.90229 0 0 0 139 121 126 255
1.64277 -0.733919 4.30394 0 0 0 188 190 189 255
1.15514 -0.00464384 4.03518 0 0 0 46 46 46 255
1.50199 -0.520853 4.24131 0 0 0 195 195 195 255
0.699123 -0.603323 4.35603 0 0 0 214 214 214 255
0.733524 -0.483387 4.27947 0 0 0 44 44 44 255
1.13074 -0.720475 4.36261 0 0 0 30 31 32 255
1.40851 -0.369387 4.16075 0 0 0 191 190 190 255
1.68982 -0.420884 4.17772 0 0 0 37 38 37 255
1.24523 0.273077 3.90021 0 0 0 178 180 181 255
0.886193 -0.527132 4.28515 0 0 0 53 53 53 255
0.82965 -0.639773 4.358 0 0 0 216 216 217 255
1.73684 -0.882571 4.37152 0 0 0 186 186 184 255
1.5039 -0.548623 4.24665 0 0 0 194 194 195 255
1.08589 -0.25288 4.1694 0 0 0 37 36 37 255
1.60898 -0.854981 4.36211 0 0 0 190 191 190 255
1.1981 -0.438196 4.23591 0 0 0 26 30 30 255
1.53684 0.200393 3.9026 0 0 0 127 119 105 255
1.45819 -0.0514462 4.04226 0 0 0 150 151 155 255
0.998375 -0.686834 4.36726 0 0 0 32 37 33 255
0.97011 -0.0732748 4.11289 0 0 0 219 218 218 255
1.01054 -0.533212 4.30721 0 0 0 47 47 47 255
0.54205 0.246218 3.58357 0 0 0 42 39 37 255
1.29093 -0.782486 4.34284 0 0 0 29 27 28 255
0.899791 -0.350715 4.23893 0 0 0 54 54 54 255
1.1496 0.0250712 4.04148 0 0 0 47 47 46 255
1.38285 -0.339291 4.17548 0 0 0 123 127 138 255
0.947629 0.353045 3.89864 0 0 0 201 200 199 255
0.573476 0.238003 3.55782 0 0 0 68 68 68 255
1.0415 0.209283 3.97317 0 0 0 203 203 203 255
0.803065 -0.199978 4.16526 0 0 0 202 214 217 255
1.61507 -0.699526 4.30643 0 0 0 190 190 191 255
1.56935 -0.235637 4.11456 0 0 0 39 39 39 255
0.912687 0.237449 3.96547 0 0 0 181 193 203 255
0.842746 -0.0380584 4.08766 0 0 0 215 224 224 255
1.39984 -0.8305 4.33941 0 0 0 29 29 29 255
-0.203626 0.150739 3.973 0 0 0 197 196 196 255
-0.293799 0.391258 3.65458 0 0 0 155 127 112 255
-0.338474 0.368538 3.68552 0 0 0 200 201 201 255
-0.0810321 0.100801 3.77749 0 0 0 124 146 146 255
0.87414 0.0809932 4.02384 0 0 0 218 217 217 255
0.578804 0.278487 3.561 0 0 0 136 148 160 255
1.26796 -0.150802 4.10734 0 0 0 43 43 43 255
1.30246 -0.758542 4.34984 0 0 0 28 28 29 255
0.573893 0.0452085 3.68629 0 0 0 61 72 64 255
-0.146917 0.320478 3.6712 0 0 0 139 156 161 255
1.41884 -0.809331 4.35103 0 0 0 32 32 32 255
0.478177 0.0632059 3.72637 0 0 0 176 176 176 255
0.576826 0.330089 3.55719 0 0 0 222 222 223 255
-0.379606 0.244278 3.72681 0 0 0 130 131 131 255
0.0856056 0.117765 3.712 0 0 0 105 106 103 255
-0.422072 0.261087 3.71844 0 0 0 35 35 34 255
2.05079 -0.213689 4.00004 0 0 0 26 31 32 255
2.23449 -0.134976 3.94975 0 0 0 178 178 179 255
2.08171 -0.21603 4.01309 0 0 0 32 33 33 255
1.71642 -0.276035 4.055 0 0 0 37 34 34 255
2.08289 -0.0718655 3.92284 0 0 0 190 192 192 255
1.84157 0.121454 3.87389 0 0 0 46 46 46 255
2.04776 -0.234505 4.00179 0 0 0 62 39 30 255
1.79821 -0.749931 4.29338 0 0 0 27 28 29 255
1.66212 0.0424241 3.94956 0 0 0 55 55 54 255
1.74778 -0.285076 4.06786 0 0 0 37 35 32 255
1.77899 -0.162016 4.0075 0 0 0 39 39 38 255
1.99453 -0.52403 4.17327 0 0 0 29 44 72 255
1.90167 -0.197161 4.01418 0 0 0 36 36 37 255
2.01483 -0.527169 4.17258 0 0 0 30 30 30 255
1.78119 0.0065545 3.91219 0 0 0 30 33 38 255
1.81373 -0.000769589 3.93415 0 0 0 37 36 37 255
1.90859 -0.930181 4.34832 0 0 0 58 57 57 255
1.93024 -0.178446 4.00199 0 0 0 39 36 36 255
1.71148 -0.298608 4.08603 0 0 0 41 39 37 255
1.78498 -0.0187359 3.94425 0 0 0 39 38 34 255
1.89611 -0.344908 4.07341 0 0 0 38 50 63 255
2.07976 -0.243511 4.01492 0 0 0 32 32 32 255
2.0724 -0.823807 4.2845 0 0 0 59 59 58 255
1.94863 -0.81256 4.29788 0 0 0 22 22 24 255
1.92062 -0.803613 4.29805 0 0 0 11 10 11 255
2.25887 -0.742646 4.2353 0 0 0 17 16 16 255
1.95021 -0.78604 4.29166 0 0 0 10 10 10 255
1.92296 -0.783132 4.29141 0 0 0 29 27 26 255
1.74599 -0.299842 4.08378 0 0 0 36 42 68 255
2.13828 -0.688174 4.22934 0 0 0 48 49 52 255
2.14216 -0.537309 4.17224 0 0 0 32 33 33 255
1.76981 -0.741476 4.29187 0 0 0 80 49 47 255
1.96033 -0.0644991 3.94544 0 0 0 34 34 31 255
1.96239 -0.037498 3.94415 0 0 0 24 29 32 255
1.86526 -0.335655 4.065 0 0 0 34 34 32 255
2.27452 0.00570463 3.91172 0 0 0 171 173 173 255
1.9296 -0.056037 3.9345 0 0 0 23 31 35 255
2.26845 -0.116487 3.9605 0 0 0 159 135 94 255
1.82988 -0.601713 4.22814 0 0 0 23 24 29 255
1.95152 -0.6612 4.23691 0 0 0 83 61 33 255
1.9851 -0.647093 4.22787 0 0 0 27 24 24 255
1.07077 -0.429768 4.27586 0 0 0 157 135 102 255
2.20271 -0.249876 3.98831 0 0 0 195 195 195 255
1.95746 -0.638399 4.22626 0 0 0 27 31 30 255
1.86897 -0.314435 4.06575 0 0 0 36 46 35 255
1.93172 -0.1992 4.02445 0 0 0 30 33 39 255
1.89956 -0.317045 4.078 0 0 0 32 33 35 255
1.82916 -0.627982 4.23626 0 0 0 46 62 59 255
2.17013 -0.546532 4.16764 0 0 0 36 36 36 255
1.80216 -0.625136 4.2378 0 0 0 35 29 24 255
1.89717 -0.169941 3.98183 0 0 0 48 77 80 255
2.19889 -0.272284 4.01088 0 0 0 195 195 195 255
2.13717 -0.560313 4.18433 0 0 0 38 39 40 255
2.01607 -0.501544 4.16589 0 0 0 37 31 30 255
1.65358 -0.558724 4.23229 0 0 0 128 128 128 255
2.05531 -0.361734 4.10591 0 0 0 32 32 31 255
2.02225 -0.375502 4.11573 0 0 0 33 32 32 255
2.11583 -0.0798449 3.94044 0 0 0 192 195 195 255
1.86589 -0.481211 4.17692 0 0 0 27 21 26 255
1.78118 -0.134674 4.00665 0 0 0 36 37 38 255
2.028 -0.353549 4.10515 0 0 0 26 24 29 255
1.8344 -0.480543 4.17962 0 0 0 29 24 24 255
2.07963 -0.0926619 3.94863 0 0 0 121 124 136 255
1.86854 -0.466914 4.17074 0 0 0 32 30 29 255
2.17353 -0.413243 4.12011 0 0 0 34 40 44 255
1.75051 -0.159492 4.0022 0 0 0 36 36 36 255
1.84083 -0.45882 4.17063 0 0 0 31 30 30 255
2.11329 -0.100835 3.9686 0 0 0 193 193 193 255
1.67706 0.17119 3.91999 0 0 0 46 46 46 255
0.616024 0.233404 3.50934 0 0 0 104 114 126 255
2.05514 -0.382725 4.11559 0 0 0 31 31 31 255
2.06694 -0.847643 4.29621 0 0 0 61 61 59 255
2.20263 -0.395472 4.10791 0 0 0 121 125 135 255
1.81451 -0.0202896 3.9554 0 0 0 38 38 39 255
2.16444 -0.569564 4.17801 0 0 0 32 32 32 255
1.98533 -0.668814 4.23875 0 0 0 37 37 38 255
2.10075 -0.833351 4.28648 0 0 0 65 66 66 255
2.33067 -0.460035 4.11987 0 0 0 193 192 191 255
2.09869 -0.848811 4.29447 0 0 0 68 67 67 255
1.75313 -0.132142 4.00376 0 0 0 41 40 40 255
2.20192 -0.421861 4.11648 0 0 0 111 114 116 255
2.14067 0.0370287 3.88063 0 0 0 190 191 190 255
2.3955 -0.172057 3.99312 0 0 0 33 32 32 255
2.23864 -0.258884 4.01338 0 0 0 195 194 192 255
2.10842 -0.707149 4.24158 0 0 0 38 43 45 255
1.32117 -0.929103 4.14445 0 0 0 39 40 41 255
2.13575 -0.708887 4.23653 0 0 0 28 34 41 255
1.9834 -0.64449 4.22721 0 0 0 41 30 29 255
2.07604 -0.242715 4.01178 0 0 0 32 32 32 255
1.71423 -0.303873 4.08933 0 0 0 39 37 37 255
1.07247 -0.430879 4.27635 0 0 0 148 121 85 255
1.89261 -0.198887 4.02772 0 0 0 25 25 26 255
0.614987 0.23389 3.50561 0 0 0 90 94 97 255
2.01916 -0.504626 4.16713 0 0 0 41 32 30 255
1.8957 -0.316122 4.07368 0 0 0 32 32 32 255
1.85463 -0.338163 4.05762 0 0 0 23 27 35 255
2.1101 -0.105555 3.97424 0 0 0 191 192 192 255
2.08142 -0.0694891 3.91891 0 0 0 190 192 192 255
1.91431 -0.934565 4.35169 0 0 0 58 57 56 255
1.8913 -0.349086 4.06607 0 0 0 23 24 31 255
2.01608 -0.528047 4.17248 0 0 0 31 31 29 255
1.10548 -0.124509 4.14032 0 0 0 167 167 167 255
1.94895 -0.813664 4.29816 0 0 0 33 35 37 255
1.91669 -0.810877 4.29979 0 0 0 12 10 10 255
1.77648 -0.0210916 3.95323 0 0 0 40 39 39 255
1.95242 -0.789681 4.29192 0 0 0 11 11 11 255
0.991583 0.0565969 4.09098 0 0 0 166 165 166 255
2.13602 -0.536965 4.17309 0 0 0 32 32 31 255
2.01852 -0.381547 4.11827 0 0 0 63 68 45 255
1.7972 -0.751628 4.29424 0 0 0 35 37 31 255
1.83274 -0.601569 4.22867 0 0 0 23 24 29 255
1.74168 -0.156733 4.00067 0 0 0 35 41 40 255
2.08134 -0.101847 3.95968 0 0 0 108 114 116 255
1.76392 -0.74135 4.29103 0 0 0 186 171 131 255
1.77862 0.010129 3.90859 0 0 0 28 35 34 255
1.78014 -0.134798 4.00806 0 0 0 36 36 37 255
2.11346 -0.080228 3.94134 0 0 0 194 194 193 255
2.13668 -0.563106 4.18549 0 0 0 39 39 38 255
2.05528 -0.357645 4.10426 0 0 0 32 32 31 255
1.79755 -0.622676 4.23782 0 0 0 38 46 43 255
1.97411 0.0898157 3.90848 0 0 0 42 41 42 255
1.92952 -0.209576 4.03812 0 0 0 35 29 26 255
1.83558 -0.45845 4.17056 0 0 0 34 32 33 255
1.86596 -0.485655 4.17908 0 0 0 44 55 44 255
1.83324 -0.475438 4.17748 0 0 0 29 24 24 255
1.8688 -0.468039 4.17111 0 0 0 31 31 30 255
2.03952 -0.23974 3.99815 0 0 0 58 59 37 255
1.74749 -0.280686 4.06205 0 0 0 37 35 32 255
1.71011 -0.269941 4.04788 0 0 0 44 44 41 255
2.07917 -0.209623 4.01249 0 0 0 32 32 32 255
1.96176 -0.0323438 3.94519 0 0 0 24 29 32 255
1.67568 0.170925 3.91952 0 0 0 49 47 47 255
2.06457 -0.850886 4.29696 0 0 0 60 60 60 255
1.81642 0.000930927 3.92896 0 0 0 37 36 37 255
1.98373 -0.525814 4.17452 0 0 0 30 28 35 255
2.04412 -0.214719 3.99987 0 0 0 37 33 26 255
2.20436 -0.280251 4.06562 0 0 0 195 195 195 255
1.93022 -0.175671 3.99221 0 0 0 39 36 36 255
2.27188 -0.119935 3.96521 0 0 0 175 172 166 255
2.25565 -0.741745 4.23499 0 0 0 17 17 17 255
1.7773 -0.167402 4.00739 0 0 0 39 39 39 255
1.98326 -0.670352 4.23995 0 0 0 39 39 39 255
2.19038 -0.247375 3.97974 0 0 0 195 195 195 255
2.27523 0.009895 3.91168 0 0 0 171 173 173 255
2.20749 -0.401173 4.10833 0 0 0 120 124 132 255
1.92372 -0.0623097 3.93371 0 0 0 70 45 32 255
1.95837 -0.064829 3.94267 0 0 0 37 37 36 255
1.83168 -0.632728 4.23751 0 0 0 34 43 47 255
2.22986 -0.142417 3.94842 0 0 0 181 180 178 255
2.2337 -0.258235 4.01092 0 0 0 195 195 195 255
2.13803 -0.681323 4.22712 0 0 0 28 31 33 255
1.93595 -0.028424 3.94073 0 0 0 36 35 35 255
2.17297 -0.422758 4.1222 0 0 0 32 32 32 255
2.1025 -0.825459 4.28468 0 0 0 65 65 65 255
2.39499 -0.174943 3.99438 0 0 0 32 32 32 255
1.29325 -2.10573 4.59635 0 0 0 22 21 21 255
1.45278 -2.0772 4.53613 0 0 0 143 146 150 255
1.38489 -2.33788 4.67342 0 0 0 126 128 129 255
1.17846 -2.54293 4.7814 0 0 0 0 20 21 255
1.37986 -2.07815 4.52359 0 0 0 128 129 129 255
1.3493 -2.09776 4.55435 0 0 0 39 38 45 255
1.53681 -2.34806 4.64563 0 0 0 180 176 173 255
2.1832 -2.33579 4.51061 0 0 0 169 170 171 255
1.37631 -2.1226 4.55689 0 0 0 117 118 119 255
1.22731 -2.17907 4.60885 0 0 0 19 19 19 255
1.91768 -2.05416 4.42448 0 0 0 60 75 65 255
0.576463 -2.89046 5.16283 0 0 0 112 90 64 255
0.530291 -2.89007 5.17486 0 0 0 138 136 134 255
1.17322 -2.41518 4.74739 0 0 0 22 21 21 255
1.39747 -2.15536 4.5437 0 0 0 123 124 127 255
1.20855 -2.23018 4.63237 0 0 0 19 19 19 255
1.72533 -2.15692 4.5358 0 0 0 43 42 42 255
1.39432 -2.6319 4.76352 0 0 0 28 29 29 255
2.05884 -2.33286 4.53691 0 0 0 20 55 132 255
1.19329 -2.27718 4.69048 0 0 0 19 19 19 255
1.49755 -2.23533 4.59449 0 0 0 127 139 146 255
1.13888 -2.69427 4.87172 0 0 0 99 103 105 255
1.44074 -2.31482 4.62371 0 0 0 178 179 179 255
1.37415 -2.31057 4.6787 0 0 0 123 125 127 255
1.12299 -2.62688 4.85786 0 0 0 161 163 164 255
1.27906 -1.91221 4.50332 0 0 0 70 82 89 255
1.39297 -1.98359 4.48126 0 0 0 145 145 145 255
1.55323 -1.98448 4.50836 0 0 0 158 159 159 255
1.43724 -2.02655 4.56777 0 0 0 151 150 146 255
1.31665 -2.02753 4.53916 0 0 0 16 17 17 255
1.48571 -2.0229 4.52971 0 0 0 157 157 156 255
1.3428 -2.05452 4.55815 0 0 0 33 36 39 255
1.90612 -2.35796 4.58472 0 0 0 76 77 77 255
1.38681 -2.13879 4.55806 0 0 0 114 115 116 255
1.30209 -2.34756 4.70549 0 0 0 23 23 22 255
1.79328 -0.773017 4.30729 0 0 0 116 174 174 255
1.41424 -2.04048 4.5725 0 0 0 149 150 151 255
2.05925 -2.37232 4.5691 0 0 0 67 128 182 255
1.39126 -2.11326 4.55775 0 0 0 129 130 130 255
1.26685 -2.31982 4.66867 0 0 0 20 19 20 255
1.33245 -2.18085 4.6545 0 0 0 24 24 24 255
1.72802 -2.32895 4.64621 0 0 0 31 38 46 255
1.32894 -2.07371 4.56406 0 0 0 20 21 23 255
1.47223 -2.04108 4.52964 0 0 0 158 159 159 255
2.17648 -2.30379 4.49455 0 0 0 171 171 171 255
1.14766 -2.61173 4.85152 0 0 0 97 100 104 255
1.86581 -2.31799 4.56499 0 0 0 71 72 73 255
1.28397 -2.49242 4.74794 0 0 0 12 12 12 255
1.36679 -2.62072 4.77178 0 0 0 25 25 25 255
2.16413 -2.21375 4.43691 0 0 0 26 26 26 255
2.2029 -2.27528 4.47206 0 0 0 25 25 24 255
2.04096 -0.976391 4.36039 0 0 0 164 163 169 255
2.10365 -2.24482 4.52358 0 0 0 133 156 156 255
1.70526 -2.29125 4.61415 0 0 0 32 32 32 255
2.08195 -2.29947 4.56535 0 0 0 91 99 101 255
1.8198 -2.18153 4.53516 0 0 0 67 74 90 255
2.18148 -2.22439 4.42763 0 0 0 24 25 25 255
1.6212 -2.29062 4.63149 0 0 0 167 167 168 255
1.31931 -1.97925 4.51751 0 0 0 18 18 18 255
2.11279 -2.21497 4.49399 0 0 0 131 128 129 255
1.30996 -2.49256 4.73215 0 0 0 15 15 15 255
1.45793 -2.18114 4.57939 0 0 0 167 167 168 255
1.45504 -2.49914 4.74295 0 0 0 162 165 168 255
1.40325 -2.49098 4.70539 0 0 0 38 53 43 255
1.27779 -1.92113 4.50605 0 0 0 17 19 26 255
1.54701 -1.988 4.50089 0 0 0 61 133 158 255
0.521654 -2.88531 5.17129 0 0 0 148 144 140 255
1.40421 -2.16392 4.58128 0 0 0 123 124 127 255
1.22867 -2.17691 4.60715 0 0 0 19 19 19 255
1.3751 -2.07957 4.52453 0 0 0 123 125 126 255
1.79471 -0.772855 4.30666 0 0 0 116 174 174 255
1.15985 -0.614577 4.31696 0 0 0 30 20 24 255
1.34124 -2.05516 4.55843 0 0 0 23 25 29 255
1.31117 -2.04618 4.54352 0 0 0 12 13 14 255
1.18416 -2.54586 4.77627 0 0 0 0 20 22 255
1.35703 -2.09575 4.55347 0 0 0 72 108 117 255
1.42753 -2.03586 4.59978 0 0 0 150 148 150 255
1.39367 -1.98661 4.48058 0 0 0 145 145 145 255
1.37365 -2.31897 4.69675 0 0 0 60 96 118 255
2.16759 -2.3077 4.50091 0 0 0 169 171 171 255
1.12702 -2.62731 4.85182 0 0 0 161 163 165 255
1.49217 -2.23346 4.59569 0 0 0 95 104 115 255
1.43288 -2.31923 4.63873 0 0 0 176 176 177 255
1.45277 -2.07723 4.53617 0 0 0 143 146 150 255
1.33636 -2.18546 4.6447 0 0 0 24 24 24 255
1.29763 -2.09543 4.58323 0 0 0 21 20 20 255
1.20604 -2.23735 4.63399 0 0 0 19 19 19 255
1.48411 -2.02248 4.52799 0 0 0 157 157 156 255
1.44368 -2.48804 4.72606 0 0 0 159 160 160 255
2.18711 -2.34797 4.52802 0 0 0 168 169 169 255
2.10161 -2.31576 4.53207 0 0 0 157 158 158 255
1.18023 -2.41838 4.74771 0 0 0 22 22 22 255
1.1967 -2.27963 4.6926 0 0 0 18 18 19 255
1.33665 -2.26467 4.63593 0 0 0 23 24 24 255
1.20969 -0.955897 4.43965 0 0 0 65 67 67 255
1.37205 -2.14668 4.5775 0 0 0 106 107 109 255
1.89938 -2.35787 4.58646 0 0 0 81 80 78 255
1.53775 -2.35546 4.65098 0 0 0 177 174 173 255
2.05415 -2.33434 4.53901 0 0 0 150 148 71 255
2.18497 -2.26392 4.44908 0 0 0 26 28 29 255
2.08506 -2.39667 4.54906 0 0 0 71 67 66 255
1.39583 -2.3433 4.66844 0 0 0 130 131 131 255
1.47966 -0.0839284 4.05637 0 0 0 107 110 112 255
1.80797 -0.596862 4.22857 0 0 0 193 192 191 255
0.698399 -0.601327 4.36596 0 0 0 157 154 147 255
1.22313 -0.467674 4.24711 0 0 0 67 67 67 255
1.62985 -0.123807 4.05493 0 0 0 195 195 195 255
1.53802 -0.404747 4.18192 0 0 0 30 30 30 255
1.34426 -0.933618 4.09983 0 0 0 45 46 46 255
0.836536 -0.639097 4.34818 0 0 0 145 145 149 255
1.21946 -0.989285 4.36524 0 0 0 17 17 18 255
1.21571 -1.00457 4.35873 0 0 0 18 18 19 255
1.10923 -1.07825 4.47223 0 0 0 176 176 177 255
1.12267 -0.115495 4.10981 0 0 0 83 82 83 255
1.46254 -0.0486283 4.04592 0 0 0 106 109 111 255
1.13916 -0.141054 4.12364 0 0 0 84 84 85 255
1.29871 -0.160648 4.11267 0 0 0 88 88 88 255
0.938476 -0.21098 4.1703 0 0 0 68 69 69 255
0.925901 -0.357134 4.23595 0 0 0 64 63 62 255
1.59587 -0.231519 4.10511 0 0 0 196 197 197 255
1.32468 -2.13014 4.5885 0 0 0 160 160 159 255
2.08514 -0.212134 4.04786 0 0 0 25 25 26 255
0.954924 -0.243881 4.18755 0 0 0 68 68 68 255
1.41959 -0.222998 4.12065 0 0 0 31 26 18 255
1.8133 -0.0202857 3.99551 0 0 0 173 172 173 255
1.234 -0.322035 4.18339 0 0 0 81 80 80 255
1.26734 -0.174118 4.11963 0 0 0 84 84 85 255
1.03584 -0.534811 4.30154 0 0 0 53 54 54 255
0.765758 -0.315439 4.24236 0 0 0 165 165 165 255
1.66295 0.0179226 3.99405 0 0 0 128 50 32 255
1.29698 -0.180188 4.12336 0 0 0 87 86 86 255
1.48603 -0.0556187 4.04555 0 0 0 183 191 193 255
1.10642 -0.284892 4.1888 0 0 0 76 76 76 255
0.903337 -0.349826 4.23177 0 0 0 64 63 63 255
1.79889 0.0146332 3.98224 0 0 0 164 145 102 255
1.63061 -0.0900087 4.04151 0 0 0 195 195 195 255
1.4411 -0.222945 4.11851 0 0 0 35 35 35 255
1.75445 -0.153592 4.05263 0 0 0 176 178 178 255
1.23747 -0.294733 4.17127 0 0 0 81 81 81 255
1.38183 -0.359888 4.17924 0 0 0 86 81 75 255
2.10293 -0.0658977 3.98999 0 0 0 27 29 29 255
0.891635 -0.500005 4.30608 0 0 0 149 146 144 255
1.40608 -0.367551 4.18061 0 0 0 48 47 47 255
0.857049 -0.524192 4.31724 0 0 0 155 155 155 255
1.25611 -0.327666 4.19029 0 0 0 80 81 81 255
1.74538 -0.303449 4.1165 0 0 0 26 27 27 255
1.05501 -0.392286 4.23791 0 0 0 61 63 64 255
1.53381 -0.378418 4.16965 0 0 0 26 27 26 255
0.730697 -0.482053 4.31246 0 0 0 145 145 146 255
1.41419 -0.344495 4.17155 0 0 0 53 52 53 255
1.5623 -0.376147 4.16813 0 0 0 38 39 42 255
1.07307 -0.420525 4.24801 0 0 0 60 59 60 255
1.91186 -0.167851 4.04597 0 0 0 24 29 107 255
0.861902 -0.495157 4.30699 0 0 0 157 157 157 255
1.5602 -0.404936 4.17967 0 0 0 34 38 39 255
1.90573 -0.319583 4.10927 0 0 0 75 116 145 255
1.35203 -0.479226 4.23422 0 0 0 85 87 87 255
1.03594 -0.569571 4.31672 0 0 0 52 52 52 255
1.45154 -0.199014 4.10902 0 0 0 40 62 77 255
2.11734 -0.0957018 3.99538 0 0 0 26 26 26 255
1.20079 -0.432254 4.22766 0 0 0 65 66 66 255
1.34858 -0.50835 4.24762 0 0 0 82 82 83 255
1.01274 -0.533557 4.30488 0 0 0 51 52 53 255
0.886705 -0.52189 4.31255 0 0 0 151 149 146 255
1.72347 -0.303646 4.11835 0 0 0 26 26 26 255
4.70652 -0.69144 4.09315 0 0 0 150 153 154 255
1.42232 -0.195426 4.11117 0 0 0 32 33 33 255
1.20049 -0.466432 4.24895 0 0 0 65 65 65 255
1.97044 -0.0605976 3.99508 0 0 0 166 166 167 255
2.21727 -0.249344 4.05215 0 0 0 119 63 29 255
2.05599 -0.234398 4.05929 0 0 0 149 117 74 255
1.47078 -2.14202 4.57733 0 0 0 161 164 163 255
1.08489 -0.2524 4.16973 0 0 0 78 77 77 255
1.8744 -0.313718 4.1092 0 0 0 32 25 24 255
0.934278 -0.244649 4.18382 0 0 0 66 67 67 255
1.98065 0.0925244 3.92565 0 0 0 162 162 162 255
0.959035 -0.210387 4.1735 0 0 0 73 73 73 255
0.901453 -0.38125 4.25261 0 0 0 147 132 114 255
1.87612 -0.341691 4.11781 0 0 0 109 42 24 255
2.23073 -0.868116 4.30018 0 0 0 45 31 30 255
1.26938 -0.154799 4.10897 0 0 0 87 88 88 255
1.38331 -0.338387 4.17143 0 0 0 85 80 74 255
1.03483 -1.14107 4.19761 0 0 0 188 189 190 255
1.6079 -1.99458 4.50351 0 0 0 150 148 151 255
1.1462 -0.998991 4.30472 0 0 0 165 163 162 255
1.11289 -1.43305 4.18577 0 0 0 159 159 158 255
1.1667 -0.950553 4.35866 0 0 0 151 151 151 255
4.73145 -0.741837 4.11805 0 0 0 131 151 150 255
2.9029 -1.37011 4.06861 0 0 0 160 160 160 255
2.90456 -1.34573 4.06536 0 0 0 159 160 160 255
2.23914 -0.278133 4.05644 0 0 0 26 26 26 255
0.795591 -0.19408 4.21204 0 0 0 160 160 160 255
1.90628 -0.316478 4.10828 0 0 0 75 116 145 255
1.35097 -0.469808 4.22875 0 0 0 86 87 87 255
2.2051 -0.253322 4.05316 0 0 0 146 157 156 255
1.04121 -0.568293 4.31738 0 0 0 52 52 52 255
0.818335 -0.638622 4.37898 0 0 0 147 146 146 255
1.14357 -0.143348 4.12702 0 0 0 84 84 84 255
0.934379 -0.211242 4.1701 0 0 0 67 67 67 255
1.78844 0.0107842 3.98349 0 0 0 170 172 173 255
1.47781 -0.0870147 4.05707 0 0 0 95 99 103 255
0.961352 -0.240273 4.18735 0 0 0 69 69 69 255
1.81981 -0.0179329 3.99477 0 0 0 173 172 172 255
0.767248 -0.317674 4.24377 0 0 0 164 165 165 255
1.29796 -0.183362 4.12445 0 0 0 87 86 86 255
1.10861 -0.253147 4.17202 0 0 0 79 80 79 255
1.08324 -0.251565 4.16997 0 0 0 76 76 78 255
1.75362 -0.160933 4.05435 0 0 0 78 117 153 255
1.90014 -0.351661 4.11922 0 0 0 23 23 23 255
1.96942 -0.0280373 3.98403 0 0 0 133 79 42 255
1.11357 -1.07904 4.47458 0 0 0 176 179 178 255
1.41977 -0.185703 4.10579 0 0 0 22 27 31 255
1.93467 -0.0540026 3.99548 0 0 0 24 24 24 255
1.10893 -0.290187 4.19223 0 0 0 75 76 76 255
0.897947 -0.351029 4.23195 0 0 0 65 65 65 255
1.5293 -0.377169 4.16828 0 0 0 27 26 25 255
1.76008 -0.125964 4.04479 0 0 0 177 177 177 255
1.41729 -0.226449 4.12401 0 0 0 51 62 43 255
1.44297 -0.226417 4.12089 0 0 0 34 35 35 255
1.23086 -0.295965 4.17019 0 0 0 81 81 81 255
1.44912 -0.0789529 4.05871 0 0 0 41 40 40 255
1.60594 -0.0864446 4.04185 0 0 0 195 195 195 255
1.21263 -1.00031 4.36425 0 0 0 21 19 18 255
0.921734 -0.389916 4.2571 0 0 0 126 115 98 255
1.7822 -0.168812 4.05512 0 0 0 177 177 177 255
1.57416 -0.226663 4.10519 0 0 0 195 195 195 255
1.2622 -0.176755 4.12091 0 0 0 84 84 85 255
1.25999 -0.325145 4.18939 0 0 0 80 81 81 255
2.1138 -0.103737 3.99833 0 0 0 25 25 26 255
1.0451 -0.395948 4.23596 0 0 0 60 61 61 255
1.90547 -0.171543 4.04626 0 0 0 24 24 25 255
1.60452 -0.12633 4.05858 0 0 0 196 195 195 255
1.63026 -0.12626 4.05612 0 0 0 195 195 195 255
0.731734 -0.4904 4.31515 0 0 0 145 145 145 255
0.923776 -0.352391 4.2331 0 0 0 63 64 64 255
1.59529 -0.2701 4.11809 0 0 0 195 195 195 255
1.33839 -0.935454 4.10352 0 0 0 44 44 45 255
1.38379 -0.329159 4.16873 0 0 0 87 84 80 255
1.78909 -0.134589 4.04457 0 0 0 176 176 175 255
1.9046 -0.204244 4.0605 0 0 0 168 166 159 255
2.08847 -0.0708007 3.99067 0 0 0 81 34 29 255
1.07369 -0.427069 4.25124 0 0 0 59 58 60 255
0.861625 -0.488337 4.30319 0 0 0 158 157 157 255
1.93839 -0.201336 4.05935 0 0 0 170 170 171 255
1.60265 -0.235284 4.10618 0 0 0 197 197 197 255
1.71935 -0.273276 4.10417 0 0 0 26 25 25 255
1.75435 -0.278086 4.10614 0 0 0 104 64 34 255
1.41298 -0.371015 4.1818 0 0 0 46 46 46 255
1.19924 -0.431513 4.22688 0 0 0 65 66 65 255
1.37555 -0.364286 4.1816 0 0 0 92 90 88 255
1.87703 -0.307694 4.10638 0 0 0 32 25 24 255
0.85619 -0.531139 4.32038 0 0 0 138 150 154 255
1.71747 -0.306777 4.11884 0 0 0 26 26 26 255
0.883167 -0.531521 4.31769 0 0 0 154 152 151 255
1.75152 -0.304377 4.11687 0 0 0 26 27 26 255
0.959035 -0.210387 4.1735 0 0 0 73 73 73 255
1.33935 -0.507317 4.24446 0 0 0 80 81 81 255
0.69821 -0.59865 4.36445 0 0 0 157 154 147 255
1.56335 -0.374526 4.16718 0 0 0 38 39 42 255
1.22629 -0.473703 4.24748 0 0 0 68 68 68 255
1.008 -0.534878 4.30333 0 0 0 51 51 51 255
1.87063 -0.343195 4.11809 0 0 0 175 174 163 255
1.52581 -0.403445 4.17901 0 0 0 29 29 28 255
1.94077 -0.175747 4.04882 0 0 0 172 172 172 255
1.45116 -0.0540794 4.04962 0 0 0 47 60 81 255
4.69974 -0.689663 4.08599 0 0 0 92 119 142 255
1.15854 -0.950835 4.35201 0 0 0 167 164 158 255
2.23164 -0.287924 4.06069 0 0 0 141 131 106 255
1.82156 0.014175 3.98044 0 0 0 24 24 24 255
1.13962 -1.00917 4.31218 0 0 0 166 167 163 255
2.27882 0.0109675 3.93091 0 0 0 159 160 162 255
1.26513 -0.153585 4.10745 0 0 0 85 86 87 255
2.15145 0.0435076 3.9176 0 0 0 161 161 160 255
1.79596 -0.600975 4.22888 0 0 0 192 193 192 255
1.46746 -2.12554 4.56594 0 0 0 155 158 159 255
1.12105 -0.140833 4.12095 0 0 0 64 75 82 255
1.49412 0.0936351 3.98618 0 0 0 87 87 86 255
1.15307 0.00759488 4.05799 0 0 0 64 63 63 255
1.18268 0.00222346 4.06067 0 0 0 69 69 71 255
1.52566 0.082256 3.98932 0 0 0 86 86 85 255
1.21512 0.140433 4.00157 0 0 0 87 87 87 255
1.19418 0.173869 3.9845 0 0 0 88 88 88 255
1.48505 0.0702814 3.99505 0 0 0 87 86 86 255
0.972077 -0.0738658 4.10852 0 0 0 137 137 139 255
1.51693 0.0585764 3.9967 0 0 0 84 84 84 255
1.00137 -0.079338 4.11252 0 0 0 153 155 157 255
1.33211 -2.14739 4.5836 0 0 0 120 121 122 255
1.85276 0.129117 3.91461 0 0 0 183 182 181 255
1.30654 -0.0102817 4.04616 0 0 0 84 84 84 255
0.967562 -0.0944134 4.12141 0 0 0 161 157 152 255
1.33659 -0.0149266 4.05012 0 0 0 87 87 87 255
0.997023 -0.0998559 4.12496 0 0 0 141 144 145 255
1.30559 -0.0380463 4.05699 0 0 0 81 81 80 255
1.48015 -2.07759 4.54576 0 0 0 145 144 144 255
1.66822 0.0479356 3.98458 0 0 0 96 96 96 255
1.32834 -0.0447651 4.06347 0 0 0 81 81 81 255
1.0703 0.203386 3.984 0 0 0 71 68 68 255
1.24795 0.289171 3.92968 0 0 0 82 83 82 255
1.04779 0.210741 3.98148 0 0 0 138 139 139 255
1.0673 0.178206 3.99943 0 0 0 117 85 66 255
1.7897 -0.0120058 3.99344 0 0 0 197 199 199 255
1.37208 0.251815 3.97348 0 0 0 87 87 86 255
1.21644 0.167495 3.98984 0 0 0 88 87 87 255
1.18614 0.144652 3.99532 0 0 0 87 88 88 255
1.55352 0.203099 3.92075 0 0 0 90 90 90 255
1.60198 -0.110428 4.05142 0 0 0 86 87 87 255
1.03592 0.0620424 4.05339 0 0 0 139 139 138 255
1.34431 0.128972 3.9841 0 0 0 95 94 94 255
1.00385 0.0455654 4.05617 0 0 0 145 141 139 255
1.36594 0.128858 3.98516 0 0 0 89 88 88 255
1.0332 0.0407407 4.06118 0 0 0 138 138 138 255
1.34271 0.103249 3.99802 0 0 0 93 91 91 255
1.67366 0.176519 3.96007 0 0 0 101 101 101 255
1.36577 0.0965571 4.00142 0 0 0 88 87 87 255
1.18626 0.0225957 4.04913 0 0 0 73 72 73 255
1.26385 -0.297904 4.17677 0 0 0 58 59 59 255
2.09071 -0.0900386 3.99759 0 0 0 31 31 31 255
1.56614 -0.256416 4.11765 0 0 0 77 76 77 255
1.07965 -0.397434 4.2406 0 0 0 147 150 152 255
1.90359 -0.19048 4.05385 0 0 0 198 198 198 255
1.04747 -0.420838 4.24781 0 0 0 151 151 150 255
2.27893 -0.113047 3.98898 0 0 0 173 168 147 255
1.15191 -0.117663 4.11693 0 0 0 105 104 104 255
1.23015 -0.440314 4.23315 0 0 0 53 53 52 255
1.99082 -0.497775 4.16641 0 0 0 190 190 190 255
1.0062 -0.55954 4.31684 0 0 0 29 29 30 255
1.37994 -0.483746 4.23505 0 0 0 46 46 46 255
1.14998 -0.114191 4.11395 0 0 0 104 106 105 255
1.11296 -0.14195 4.11932 0 0 0 26 25 23 255
1.46008 -2.05398 4.53954 0 0 0 136 141 143 255
1.78166 -0.0135605 3.99133 0 0 0 196 197 197 255
1.34791 -2.07647 4.56147 0 0 0 144 144 143 255
1.03219 0.0323854 4.064 0 0 0 139 138 138 255
2.1265 -0.0750286 3.9904 0 0 0 31 30 30 255
1.26948 -0.298711 4.17987 0 0 0 58 58 59 255
2.08773 -0.0954112 3.99835 0 0 0 30 30 30 255
1.56381 -0.258615 4.11758 0 0 0 75 75 76 255
1.08131 -0.400969 4.24394 0 0 0 147 150 152 255
1.04174 -0.421074 4.24699 0 0 0 150 151 151 255
1.33113 -0.0506908 4.0667 0 0 0 81 81 81 255
0.899242 -0.510794 4.3133 0 0 0 31 31 38 255
1.1904 -0.618016 4.31606 0 0 0 88 121 107 255
2.09025 -0.243203 4.05756 0 0 0 182 183 183 255
1.38416 -0.483894 4.23635 0 0 0 46 46 46 255
1.63483 0.0253185 3.99535 0 0 0 90 91 91 255
1.67385 0.0438843 3.98489 0 0 0 95 96 96 255
1.30381 -0.0427025 4.05832 0 0 0 80 80 80 255
1.00024 -0.100332 4.12474 0 0 0 139 141 143 255
1.30498 -0.00954903 4.04506 0 0 0 83 83 83 255
1.51787 0.0547095 3.99796 0 0 0 84 84 83 255
0.99572 -0.070544 4.10701 0 0 0 152 152 154 255
1.4817 0.0608503 3.99685 0 0 0 86 86 86 255
1.18383 -0.00369812 4.06408 0 0 0 69 69 71 255
1.14811 0.00236395 4.06077 0 0 0 63 63 63 255
1.49051 0.0967085 3.98513 0 0 0 87 87 86 255
1.18669 0.0277851 4.04592 0 0 0 73 72 73 255
1.66913 0.170322 3.96405 0 0 0 96 97 98 255
1.37038 0.100612 4.00056 0 0 0 88 87 87 255
1.37375 0.124507 3.98821 0 0 0 88 88 87 255
1.00488 0.0406039 4.05848 0 0 0 156 149 144 255
1.00697 0.0732637 4.04484 0 0 0 136 136 136 255
1.21121 0.133664 4.00257 0 0 0 88 88 87 255
1.18425 0.141366 3.99608 0 0 0 86 86 88 255
1.22198 0.161365 3.99358 0 0 0 87 87 86 255
1.19378 0.176174 3.98296 0 0 0 88 88 88 255
1.36924 0.251356 3.97475 0 0 0 87 88 88 255
1.06711 0.179385 3.99875 0 0 0 117 85 66 255
1.07048 0.209428 3.98049 0 0 0 73 68 69 255
1.25443 0.281465 3.93329 0 0 0 81 81 83 255
0.966164 -0.101345 4.12412 0 0 0 174 172 169 255
1.52812 0.0831136 3.98952 0 0 0 86 86 85 255
1.34043 -0.0147091 4.05279 0 0 0 87 86 86 255
1.85525 0.123226 3.91884 0 0 0 185 184 182 255
0.892064 -0.370057 4.24341 0 0 0 113 112 112 255
1.30686 -0.937509 4.29762 0 0 0 0 0 0 255
1.16075 0.0266014 4.04124 0 0 0 84 84 84 255
1.23163 -0.926018 4.4279 0 0 0 132 132 131 255
1.215 -0.92931 4.43997 0 0 0 144 141 138 255
1.30574 -0.95295 4.31993 0 0 0 0 0 0 255
1.20347 -0.985072 4.46813 0 0 0 162 162 161 255
1.11559 -1.00601 4.54409 0 0 0 184 184 184 255
1.26592 -0.975859 4.35995 0 0 0 158 154 151 255
1.19971 -1.0145 4.47493 0 0 0 160 165 168 255
1.07661 -0.270671 4.17791 0 0 0 56 57 58 255
1.08452 -0.281588 4.18652 0 0 0 56 57 58 255
0.599908 0.247593 3.62877 0 0 0 166 165 165 255
0.546502 0.250839 3.66234 0 0 0 148 151 152 255
1.64574 0.0524294 3.98042 0 0 0 181 181 181 255
2.06383 -0.210986 4.05021 0 0 0 163 162 158 255
0.28484 0.183226 3.65661 0 0 0 102 74 53 255
1.07587 -0.281655 4.1859 0 0 0 55 55 54 255
0.887404 -0.37325 4.24558 0 0 0 113 114 114 255
1.21308 -0.929773 4.44271 0 0 0 154 150 146 255
1.18993 -1.01613 4.49635 0 0 0 142 149 154 255
1.20798 -0.985867 4.46895 0 0 0 167 165 163 255
1.30888 -0.952315 4.31805 0 0 0 0 0 0 255
1.15481 0.0300799 4.03809 0 0 0 84 84 84 255
1.30895 -0.653067 4.30788 0 0 0 32 33 33 255
1.11429 -1.00784 4.54419 0 0 0 179 182 183 255
0.771859 -0.316777 4.21237 0 0 0 155 160 160 255
1.45774 -0.0721239 4.0432 0 0 0 216 216 216 255
1.90693 -0.338099 4.12208 0 0 0 190 189 189 255
1.94548 -0.029312 3.97747 0 0 0 165 165 162 255
-1.22637 -0.719061 4.67244 0 0 0 187 186 187 255
0.738284 -0.485326 4.34011 0 0 0 59 85 106 255
0.929161 -0.227331 4.15931 0 0 0 29 29 30 255
1.32911 -0.944164 4.22094 0 0 0 196 196 196 255
1.04597 0.185414 3.99413 0 0 0 163 163 164 255
0.554492 0.245857 3.65124 0 0 0 160 160 160 255
1.38482 0.259722 3.96482 0 0 0 37 38 37 255
-1.64757 -0.313253 4.60049 0 0 0 34 35 34 255
1.69179 0.175039 3.96748 0 0 0 179 172 162 255
1.64423 -0.104483 4.06325 0 0 0 46 46 46 255
0.810555 -0.197255 4.19735 0 0 0 34 33 32 255
1.64313 -0.100756 4.0571 0 0 0 46 46 46 255
1.90939 -0.338229 4.12105 0 0 0 190 189 189 255
0.732975 -0.483534 4.33551 0 0 0 35 30 39 255
0.970394 -0.228011 4.1942 0 0 0 167 167 167 255
1.18666 -0.455429 4.23082 0 0 0 0 0 0 255
0.771882 -0.318155 4.21362 0 0 0 158 160 160 255
1.71093 -0.291569 4.10907 0 0 0 42 43 43 255
1.13103 -0.730398 4.39363 0 0 0 152 152 152 255
1.68602 0.171004 3.96654 0 0 0 182 180 179 255
0.595664 0.249001 3.56326 0 0 0 161 161 160 255
1.07314 0.333162 3.91603 0 0 0 35 34 33 255
-0.420127 0.261782 3.70602 0 0 0 216 216 216 255
0.568456 0.240132 3.5402 0 0 0 160 160 160 255
-0.297663 0.394502 3.67146 0 0 0 42 43 42 255
-0.149478 0.321397 3.66372 0 0 0 193 193 193 255
0.574141 0.281545 3.53689 0 0 0 160 160 160 255
-0.104206 0.118925 3.78193 0 0 0 201 201 201 255
-0.342568 0.369113 3.69809 0 0 0 49 46 45 255
1.33238 0.11247 3.98477 0 0 0 197 196 196 255
1.10553 -0.127299 4.09719 0 0 0 213 213 213 255
1.22167 -0.309518 4.174 0 0 0 37 37 36 255
0.597098 0.248138 3.56636 0 0 0 161 160 160 255
-2.68954 -0.882245 4.98024 0 0 0 189 188 188 255
1.35451 -0.0368842 4.11204 0 0 0 139 138 138 255
-1.96041 -0.590325 4.72595 0 0 0 35 37 37 255
-2.20506 -0.574683 4.94893 0 0 0 21 21 18 255
-2.19435 -0.592209 4.9698 0 0 0 20 21 21 255
-2.22996 -0.566516 4.92425 0 0 0 29 29 29 255
-2.67647 -0.94445 5.04082 0 0 0 36 31 30 255
-2.17809 -0.601203 4.99587 0 0 0 20 17 18 255
-0.364937 0.720657 3.53384 0 0 0 60 60 60 255
0.60663 0.0618306 3.56209 0 0 0 207 207 206 255
-0.418191 0.304834 3.62862 0 0 0 153 153 152 255
-0.236379 0.165515 4.05841 0 0 0 92 102 113 255
-0.383857 0.820155 3.59539 0 0 0 55 46 51 255
-0.256837 0.361314 3.69595 0 0 0 160 160 159 255
-0.407846 0.259523 3.70042 0 0 0 83 87 114 255
0.933853 0.356426 3.85702 0 0 0 125 140 149 255
0.545667 0.0642765 3.50656 0 0 0 93 95 97 255
0.541768 0.312314 3.47254 0 0 0 35 29 45 255
-0.734012 0.409134 3.75287 0 0 0 30 29 28 255
-0.414199 0.278704 3.60941 0 0 0 105 125 146 255
0.514492 0.0725005 3.90895 0 0 0 32 32 32 255
0.668902 0.0953918 3.74661 0 0 0 206 207 206 255
-0.301986 0.377107 3.68966 0 0 0 152 152 152 255
0.114061 0.0705508 3.77424 0 0 0 31 30 28 255
-0.304855 0.278312 3.65795 0 0 0 144 147 149 255
-0.324656 0.273474 3.58999 0 0 0 88 84 83 255
0.0917808 0.075225 3.67928 0 0 0 151 153 153 255
0.625794 0.123828 3.60638 0 0 0 207 207 208 255
0.0844764 0.086339 3.67814 0 0 0 152 152 152 255
-0.185338 0.612344 3.4195 0 0 0 90 92 94 255
-1.93016 -0.555588 4.7211 0 0 0 144 157 161 255
-0.260714 0.282276 3.65408 0 0 0 154 153 153 255
-2.67044 -0.922674 4.9885 0 0 0 135 58 54 255
-1.92976 -0.560634 4.51903 0 0 0 26 24 20 255
-0.179151 0.277983 3.67154 0 0 0 147 151 155 255
-0.200256 0.171145 3.97396 0 0 0 144 140 140 255
-0.367768 0.747764 3.54374 0 0 0 57 59 59 255
0.658249 0.113794 3.72465 0 0 0 206 205 205 255
-0.53968 0.324313 3.6825 0 0 0 182 182 183 255
-0.542515 0.7539 3.69829 0 0 0 168 168 167 255
0.589009 0.0716124 3.56706 0 0 0 204 205 206 255
-0.410962 0.881457 3.53755 0 0 0 55 54 53 255
-0.423431 0.798908 3.47679 0 0 0 60 59 59 255
0.658155 0.283581 3.62119 0 0 0 202 202 202 255
-0.375015 0.355048 3.66276 0 0 0 147 148 149 255
-0.342131 0.253032 3.59495 0 0 0 149 148 146 255
-0.247965 0.264577 3.67262 0 0 0 154 154 154 255
-0.366842 0.335662 3.65727 0 0 0 135 144 148 255
-0.463892 0.278949 3.6003 0 0 0 174 172 167 255
0.596572 0.136977 3.71889 0 0 0 110 118 148 255
0.660329 0.31053 3.50447 0 0 0 190 190 190 255
-0.167241 0.613273 3.41436 0 0 0 124 127 129 255
-0.0140736 0.637832 3.51255 0 0 0 150 149 144 255
-0.205303 0.335335 3.55416 0 0 0 163 159 157 255
-0.615459 0.606345 3.71447 0 0 0 172 173 173 255
-0.290537 0.28278 3.72565 0 0 0 159 160 159 255
-0.0491994 0.618638 3.53022 0 0 0 138 138 138 255
-0.0994499 0.280995 3.67192 0 0 0 115 94 76 255
-0.0270606 0.641642 3.46036 0 0 0 148 148 148 255
-1.91015 -0.552846 4.4527 0 0 0 23 25 27 255
0.623384 0.118695 3.62254 0 0 0 208 208 208 255
-2.6938 -0.884631 4.9789 0 0 0 197 194 191 255
-0.414212 0.276605 3.61259 0 0 0 125 134 153 255
0.93128 0.360363 3.86309 0 0 0 155 153 127 255
-0.312221 0.279353 3.65061 0 0 0 142 133 123 255
-0.30985 0.378556 3.73255 0 0 0 152 152 152 255
-1.96391 -0.591503 4.71861 0 0 0 22 21 26 255
1.11223 -0.249296 4.232 0 0 0 53 27 22 255
1.28548 -0.190267 4.11827 0 0 0 164 163 162 255
-0.244752 0.164029 4.06706 0 0 0 73 73 74 255
-0.729712 0.40573 3.75319 0 0 0 30 29 29 255
1.35651 -0.0409336 4.11409 0 0 0 139 138 138 255
0.557367 0.0821285 3.53792 0 0 0 96 100 102 255
0.494046 0.0387684 3.86848 0 0 0 32 29 26 255
-2.18951 -0.593434 4.95053 0 0 0 20 20 22 255
-2.17883 -0.606953 5.00363 0 0 0 21 18 18 255
0.603601 0.0697949 3.60629 0 0 0 206 206 206 255
0.0565406 0.736167 3.55032 0 0 0 136 137 138 255
0.431803 -0.127651 3.95893 0 0 0 203 203 202 255
0.605887 0.0527031 3.52038 0 0 0 207 207 207 255
-0.227793 0.188633 4.0105 0 0 0 151 150 149 255
-0.34272 0.251542 3.58863 0 0 0 104 127 146 255
-0.25451 0.365325 3.71686 0 0 0 160 160 159 255
-0.188444 0.617958 3.42701 0 0 0 85 88 89 255
0.657222 0.285589 3.60942 0 0 0 202 202 202 255
0.599031 0.133669 3.74087 0 0 0 104 107 110 255
-0.326306 0.266385 3.55229 0 0 0 144 124 91 255
0.781214 0.337698 3.68536 0 0 0 190 190 189 255
0.662068 0.0980943 3.72026 0 0 0 205 205 205 255
-0.232322 0.328059 3.6169 0 0 0 149 148 147 255
-0.408436 0.880776 3.53891 0 0 0 54 54 54 255
-1.70464 -1.36632 3.78285 0 0 0 93 93 93 255
1.40523 -0.488309 4.30518 0 0 0 30 33 40 255
1.33871 -0.495949 4.23446 0 0 0 25 24 28 255
0.794132 -0.603526 4.19168 0 0 0 99 99 99 255
1.19052 -0.451683 4.23108 0 0 0 31 32 30 255
1.50966 -0.207292 4.25923 0 0 0 32 32 32 255
1.8478 -0.140038 4.2579 0 0 0 170 179 182 255
1.63098 -0.856931 4.42121 0 0 0 91 92 93 255
1.44654 -0.682138 4.28462 0 0 0 29 28 28 255
1.19249 -0.575757 4.28523 0 0 0 29 29 31 255
1.967 -0.332891 4.33279 0 0 0 186 186 186 255
1.13458 -0.585239 4.23489 0 0 0 33 33 32 255
1.52056 -0.666928 4.35374 0 0 0 30 30 29 255
0.786758 -0.315519 4.2393 0 0 0 221 221 221 255
-1.84114 -1.33321 3.79657 0 0 0 74 75 75 255
1.71726 -0.106513 4.23457 0 0 0 48 44 42 255
1.0884 -0.395955 4.26087 0 0 0 32 33 34 255
1.77188 -0.769862 4.35867 0 0 0 108 130 139 255
0.996285 -0.665089 4.28974 0 0 0 200 200 200 255
-1.48196 -1.45456 3.79157 0 0 0 37 39 39 255
1.85882 -0.765764 4.44138 0 0 0 180 181 183 255
1.96487 -0.487557 4.39552 0 0 0 77 118 155 255
0.861224 -0.510472 4.19523 0 0 0 206 207 206 255
1.97593 -0.953229 4.51277 0 0 0 147 148 150 255
-1.8516 -1.07349 4.222 0 0 0 26 26 25 255
1.98622 -0.686367 4.36341 0 0 0 177 174 171 255
1.02872 -0.4125 4.19104 0 0 0 37 38 38 255
1.65684 -0.592943 4.29391 0 0 0 37 38 41 255
2.10898 -0.868397 4.43155 0 0 0 84 81 82 255
-1.61401 -1.41198 3.81653 0 0 0 102 102 103 255
1.838 -0.298305 4.31906 0 0 0 40 40 40 255
-1.47119 -1.48405 3.7957 0 0 0 20 20 21 255
1.76092 -0.30729 4.23689 0 0 0 171 177 180 255
1.67414 -0.0960365 4.21142 0 0 0 178 177 176 255
2.07417 -0.673374 4.44747 0 0 0 81 68 60 255
0.880701 -0.483169 4.24564 0 0 0 209 208 209 255
1.21263 -0.467547 4.20912 0 0 0 65 73 48 255
-1.66601 -1.38968 3.78609 0 0 0 97 96 96 255
1.87231 -0.493942 4.30116 0 0 0 67 53 50 255
1.81354 -0.0167812 4.05483 0 0 0 60 107 149 255
1.62579 -0.398141 4.32039 0 0 0 128 132 135 255
1.11414 -0.95236 4.1814 0 0 0 76 83 88 255
2.12697 -0.535134 4.41271 0 0 0 41 42 42 255
1.72941 -0.870597 4.35591 0 0 0 21 21 20 255
1.55642 -0.407171 4.25087 0 0 0 29 31 32 255
0.687131 -0.578914 4.24783 0 0 0 34 35 36 255
1.74198 -0.57961 4.38406 0 0 0 195 195 195 255
1.64628 -0.69981 4.38431 0 0 0 78 79 80 255
1.982 -0.796835 4.45576 0 0 0 202 202 202 255
1.42945 -0.340667 4.28514 0 0 0 25 26 29 255
1.64321 -0.125456 4.149 0 0 0 188 186 183 255
-1.52333 -1.45469 3.78744 0 0 0 107 107 106 255
0.986763 -0.540466 4.23025 0 0 0 113 113 120 255
1.42935 -0.372422 4.23306 0 0 0 23 25 27 255
-1.51596 -1.21548 4.1745 0 0 0 196 196 196 255
2.05326 -0.544612 4.35299 0 0 0 184 185 186 255
1.32389 -0.606741 4.32068 0 0 0 24 27 30 255
1.55521 -0.0637772 4.2105 0 0 0 183 183 183 255
1.96626 -0.365824 4.28926 0 0 0 175 181 184 255
1.87639 -0.150782 4.26052 0 0 0 184 184 185 255
1.62299 -0.727939 4.3428 0 0 0 96 95 96 255
1.75879 -0.427268 4.351 0 0 0 187 184 183 255
1.4806 -0.0834528 4.11922 0 0 0 175 176 178 255
-1.88634 -1.0684 4.2058 0 0 0 39 35 34 255
-1.81346 -1.35613 3.82379 0 0 0 77 78 80 255
2.00881 -0.343443 4.34576 0 0 0 130 87 57 255
1.28817 -0.915952 4.03643 0 0 0 89 89 90 255
1.67576 -0.711459 4.38675 0 0 0 91 90 89 255
1.01192 -0.55736 4.21751 0 0 0 190 200 204 255
1.04338 -0.536773 4.26958 0 0 0 200 200 200 255
-1.69059 -1.39544 3.79338 0 0 0 95 94 94 255
1.56523 -0.52924 4.33713 0 0 0 27 28 30 255
1.78728 -0.438301 4.35162 0 0 0 179 172 163 255
1.66833 -0.252739 4.28582 0 0 0 188 188 188 255
1.45751 -0.351715 4.28688 0 0 0 41 28 27 255
-1.44356 -0.959614 3.90077 0 0 0 86 65 55 255
1.72063 -0.449271 4.29843 0 0 0 194 194 194 255
1.30156 -0.634335 4.27496 0 0 0 31 29 28 255
1.80419 -0.163289 4.19392 0 0 0 184 183 182 255
1.61198 -0.263797 4.23414 0 0 0 188 188 188 255
1.84004 -0.63913 4.36158 0 0 0 197 197 197 255
-1.73121 -1.38166 3.79813 0 0 0 95 94 93 255
1.39272 -0.362563 4.22747 0 0 0 27 25 25 255
1.65218 0.0232997 4.02514 0 0 0 170 173 175 255
1.94944 -0.819869 4.42204 0 0 0 194 195 195 255
2.01628 -0.810239 4.46689 0 0 0 188 185 183 255
1.09244 -0.689742 4.22721 0 0 0 196 195 193 255
1.35067 -0.617451 4.31783 0 0 0 27 28 28 255
1.53651 -0.517909 4.33513 0 0 0 31 32 31 255
1.93647 -0.354605 4.28487 0 0 0 101 120 140 255
1.90454 -0.628172 4.40497 0 0 0 197 197 197 255
1.51029 -0.545441 4.28334 0 0 0 28 29 34 255
1.86147 -0.616372 4.3901 0 0 0 197 197 197 255
0.833326 -0.505045 4.17838 0 0 0 148 149 156 255
1.87205 -0.651544 4.36988 0 0 0 197 196 197 255
-1.76292 -1.07657 4.15214 0 0 0 25 26 26 255
1.52676 -0.556625 4.2739 0 0 0 64 46 34 255
1.64134 -0.739753 4.33749 0 0 0 94 94 93 255
-1.53583 -1.42985 3.79405 0 0 0 105 105 104 255
-1.16997 -1.24704 4.15761 0 0 0 180 184 186 255
1.5019 -0.0931997 4.10614 0 0 0 182 182 182 255
2.17071 -0.725799 4.42549 0 0 0 107 65 50 255
1.67812 0.0132636 4.02526 0 0 0 180 175 159 255
1.21258 -0.430362 4.27283 0 0 0 41 34 31 255
1.31875 -0.645728 4.26734 0 0 0 59 51 35 255
1.63308 -0.280358 4.21349 0 0 0 189 189 188 255
1.41362 -0.786872 4.31231 0 0 0 76 78 79 255
1.0085 -0.520337 4.27607 0 0 0 208 208 207 255
1.5069 -0.0554735 4.19274 0 0 0 178 178 180 255
0.809289 -0.198771 4.16853 0 0 0 223 223 223 255
-1.65021 -1.40144 3.80963 0 0 0 96 96 95 255
1.98287 -0.840235 4.42687 0 0 0 189 188 184 255
1.36964 -1.57139 4.21542 0 0 0 98 98 99 255
0.945373 -1.66077 4.26857 0 0 0 102 103 103 255
-1.18159 -1.37998 4.07441 0 0 0 198 198 198 255
2.18241 -0.854949 4.49497 0 0 0 175 183 189 255
-1.75621 -1.36431 3.79953 0 0 0 88 88 87 255
1.83514 -0.178932 4.18071 0 0 0 56 63 75 255
2.07987 -0.522714 4.39053 0 0 0 187 186 181 255
-1.62838 -1.42524 3.80084 0 0 0 105 104 104 255
1.276 -0.737784 4.27249 0 0 0 34 35 35 255
2.08844 -0.55763 4.36747 0 0 0 49 46 46 255
0.44103 -0.92241 4.00011 0 0 0 178 180 168 255
2.06153 -0.974147 4.43605 0 0 0 156 157 161 255
1.28033 -0.767299 4.29541 0 0 0 26 24 24 255
0.350137 -0.919668 3.97577 0 0 0 187 188 188 255
-1.42698 -1.32128 4.22115 0 0 0 200 201 200 255
1.63055 -0.242886 4.27872 0 0 0 188 188 188 255
1.74677 -0.466842 4.28915 0 0 0 195 195 195 255
0.954349 -1.25398 4.08321 0 0 0 104 103 103 255
-1.61307 -1.23402 4.15564 0 0 0 39 69 111 255
-1.44795 -1.48382 3.74161 0 0 0 20 33 59 255
0.946215 -1.2632 4.03559 0 0 0 104 103 103 255
-1.77648 -1.16809 4.20415 0 0 0 27 27 30 255
1.1815 -1.55991 4.17897 0 0 0 20 21 22 255
1.05559 -1.36007 3.9635 0 0 0 99 107 111 255
0.923864 -1.27431 4.10046 0 0 0 106 106 107 255
-1.32697 -1.53546 3.99474 0 0 0 138 150 156 255
0.959474 -1.40069 3.97836 0 0 0 101 101 101 255
1.76364 -0.770528 4.34859 0 0 0 39 47 70 255
2.0934 -0.86675 4.41526 0 0 0 93 89 85 255
1.9165 -0.35445 4.27184 0 0 0 107 64 54 255
1.64704 -0.587657 4.28379 0 0 0 35 36 36 255
1.61956 -0.39215 4.31685 0 0 0 69 91 117 255
1.40163 -0.482122 4.30355 0 0 0 25 29 30 255
1.73461 -0.580204 4.37257 0 0 0 192 193 193 255
1.28141 -0.635991 4.26427 0 0 0 29 28 29 255
0.977536 -0.54808 4.20972 0 0 0 145 176 183 255
1.79437 -0.169179 4.17772 0 0 0 185 185 184 255
2.02067 -0.813018 4.46759 0 0 0 183 180 178 255
1.35147 -0.615006 4.3226 0 0 0 27 28 28 255
1.59615 -0.263938 4.22546 0 0 0 185 186 187 255
1.53426 -0.410678 4.22002 0 0 0 39 38 32 255
1.94037 -0.824305 4.41299 0 0 0 189 190 191 255
1.8606 -0.496368 4.28629 0 0 0 165 133 81 255
1.0274 -0.417361 4.18023 0 0 0 35 37 37 255
1.95624 -0.488842 4.38564 0 0 0 47 50 67 255
1.46714 -0.350052 4.298 0 0 0 41 28 27 255
-1.45015 -0.971291 3.91192 0 0 0 183 179 172 255
0.686138 -0.583492 4.24511 0 0 0 25 26 28 255
1.71809 0.0342007 4.08856 0 0 0 62 64 79 255
-1.73565 -1.37922 3.7995 0 0 0 95 94 94 255
1.08598 -0.397752 4.2491 0 0 0 32 32 32 255
1.49674 -0.546476 4.2755 0 0 0 39 36 29 255
1.03973 -0.522887 4.2966 0 0 0 202 202 202 255
1.50334 -0.208671 4.24889 0 0 0 30 28 31 255
1.54807 -0.0682351 4.19602 0 0 0 182 183 184 255
1.57209 -0.533953 4.33437 0 0 0 28 31 35 255
1.46761 -0.0841551 4.11666 0 0 0 128 134 140 255
-1.45726 -0.943522 3.89479 0 0 0 146 115 87 255
1.12265 -0.588427 4.21502 0 0 0 32 32 32 255
1.04619 -0.536047 4.26872 0 0 0 200 200 200 255
1.71143 -0.106783 4.22779 0 0 0 148 99 54 255
1.19533 -0.578792 4.28667 0 0 0 28 26 29 255
1.82091 -0.638567 4.35043 0 0 0 197 197 199 255
1.62107 -0.129061 4.12027 0 0 0 188 188 188 255
0.777105 -0.312113 4.2361 0 0 0 220 220 221 255
1.84382 -0.299163 4.32109 0 0 0 40 40 40 255
1.68347 -0.714994 4.38671 0 0 0 91 90 90 255
1.61074 -0.728163 4.34069 0 0 0 96 96 96 255
1.71295 -0.456452 4.28566 0 0 0 196 195 194 255
2.07908 -0.673341 4.45121 0 0 0 81 68 60 255
2.0463 -0.544166 4.35238 0 0 0 165 176 181 255
1.75218 -0.31005 4.22441 0 0 0 88 105 124 255
0.885399 -0.486263 4.25031 0 0 0 208 207 207 255
-1.48147 -1.45745 3.79147 0 0 0 29 32 36 255
1.4272 -0.676009 4.26326 0 0 0 31 31 30 255
0.797582 -0.609737 4.19388 0 0 0 81 77 75 255
1.79198 -0.443161 4.34735 0 0 0 186 182 178 255
-1.52413 -1.45724 3.79071 0 0 0 107 107 106 255
1.97326 -0.688969 4.35026 0 0 0 187 182 178 255
0.815977 -0.503899 4.16108 0 0 0 191 187 180 255
1.96438 -0.948386 4.5004 0 0 0 142 144 145 255
1.85085 -0.764501 4.43039 0 0 0 177 177 179 255
1.88046 -0.154181 4.25634 0 0 0 183 184 183 255
1.24668 -0.446447 4.26356 0 0 0 24 24 25 255
1.17972 -0.452718 4.22486 0 0 0 31 30 30 255
1.32066 -0.499164 4.20772 0 0 0 27 27 26 255
1.89899 -0.62593 4.40516 0 0 0 196 197 197 255
1.52217 -0.669079 4.35715 0 0 0 25 25 23 255
1.62722 -0.856315 4.41616 0 0 0 92 92 91 255
1.28818 -0.915947 4.03641 0 0 0 89 89 90 255
1.58004 -0.376829 4.29791 0 0 0 32 33 35 255
1.09118 -0.686266 4.23251 0 0 0 197 196 196 255
1.32139 -0.646536 4.25858 0 0 0 71 60 37 255
-1.47652 -0.97767 3.91606 0 0 0 193 193 192 255
1.8322 -0.142383 4.24163 0 0 0 178 173 163 255
1.48906 -0.0953769 4.09055 0 0 0 181 181 181 255
1.52772 -0.558931 4.27022 0 0 0 48 37 30 255
-1.47764 -0.959455 3.9117 0 0 0 193 192 189 255
-1.69834 -1.40064 3.8032 0 0 0 94 94 93 255
1.98015 -0.84013 4.42453 0 0 0 191 191 191 255
1.12397 -0.953125 4.22083 0 0 0 87 91 96 255
1.41887 -0.337058 4.28021 0 0 0 28 27 27 255
1.7212 -0.872276 4.35605 0 0 0 52 29 19 255
-1.70229 -1.36966 3.78119 0 0 0 95 95 95 255
1.20445 -0.471064 4.1933 0 0 0 25 25 28 255
1.85971 -0.610792 4.39364 0 0 0 197 197 197 255
1.74495 -0.430714 4.33763 0 0 0 193 192 192 255
1.64287 -0.740763 4.33605 0 0 0 94 93 93 255
1.96583 -0.327383 4.33745 0 0 0 184 186 186 255
1.96456 -0.79665 4.44221 0 0 0 199 200 200 255
1.22009 -0.42725 4.29157 0 0 0 41 34 31 255
-1.75359 -1.07707 4.15069 0 0 0 29 36 48 255
1.5239 -0.520555 4.31962 0 0 0 30 30 30 255
1.96502 -0.366963 4.28544 0 0 0 152 165 174 255
-1.83878 -1.3351 3.79909 0 0 0 75 76 77 255
1.64448 -0.236858 4.29962 0 0 0 188 188 188 255
1.3855 -0.37032 4.20803 0 0 0 24 25 26 255
1.0076 -0.560084 4.20216 0 0 0 115 106 134 255
1.63438 -0.70108 4.37285 0 0 0 88 89 91 255
1.50329 -0.0569542 4.18563 0 0 0 175 176 177 255
-1.47019 -1.48444 3.79746 0 0 0 20 20 21 255
-1.88735 -1.07331 4.206 0 0 0 35 37 42 255
1.74385 -0.468798 4.27982 0 0 0 195 195 195 255
-1.18547 -1.3717 4.07112 0 0 0 199 198 198 255
1.82109 -0.180913 4.16494 0 0 0 43 43 46 255
1.00284 -0.515516 4.2705 0 0 0 204 206 208 255
-1.53108 -1.1896 4.17472 0 0 0 195 195 195 255
1.61949 -0.283408 4.19614 0 0 0 189 189 189 255
1.25912 -0.765719 4.29233 0 0 0 34 33 32 255
2.18952 -0.862682 4.50258 0 0 0 175 181 185 255
2.05499 -0.97195 4.43024 0 0 0 153 155 156 255
1.41465 -0.382297 4.19926 0 0 0 31 26 26 255
-1.43134 -1.31302 4.21612 0 0 0 199 199 199 255
-1.63096 -1.42616 3.80345 0 0 0 104 104 105 255
1.40273 -0.778956 4.29889 0 0 0 75 76 76 255
-1.48513 -1.24106 4.16119 0 0 0 197 197 197 255
-1.51877 -1.2137 4.17197 0 0 0 195 195 195 255
