ply
format ascii 1.0
comment VCGLIB generated
element vertex 1035
property float x
property float y
property float z
property float nx
property float ny
property float nz
property uchar red
property uchar green
property uchar blue
property uchar alpha
element face 0
property list uchar int vertex_indices
end_header
-3.8705 -0.0244885 10.5643 0 0 0 7 6 7 255
-0.498077 1.29986 10.7436 0 0 0 132 133 130 255
-3.89735 0.0629228 10.5482 0 0 0 5 5 5 255
-0.42612 0.071943 10.0498 0 0 0 127 106 71 255
-0.978063 3.37126 8.52938 0 0 0 35 33 32 255
-0.0486155 3.76406 7.65166 0 0 0 31 31 30 255
-0.400901 2.61143 9.79074 0 0 0 160 160 160 255
-0.752007 0.439693 10.3653 0 0 0 32 31 29 255
-0.706133 0.932496 10.6181 0 0 0 68 69 71 255
-0.880896 0.862228 10.7766 0 0 0 21 19 18 255
-0.95429 0.943401 10.885 0 0 0 45 36 27 255
-0.859592 0.972931 10.8055 0 0 0 18 23 28 255
-0.796208 0.485936 10.4341 0 0 0 29 28 28 255
-0.392933 0.905329 10.4856 0 0 0 151 150 150 255
-0.761633 0.532855 10.4034 0 0 0 49 48 121 255
-0.886992 0.793031 10.7238 0 0 0 45 37 120 255
-0.412684 0.406197 10.2009 0 0 0 148 148 147 255
-1.07883 0.30127 10.7313 0 0 0 16 17 21 255
-0.7478 0.395225 10.3438 0 0 0 144 145 145 255
-4.25817 2.64658 10.8992 0 0 0 173 169 162 255
-3.45534 -0.670814 10.9886 0 0 0 53 50 43 255
-0.735444 0.841699 10.5848 0 0 0 136 139 143 255
-1.05777 0.363669 10.7249 0 0 0 39 43 43 255
-3.84376 -0.0562024 10.5813 0 0 0 126 61 39 255
-1.00413 -1.46773 11.3211 0 0 0 11 11 12 255
-3.8378 0.0158472 10.6054 0 0 0 141 141 141 255
-0.935218 0.781181 10.7711 0 0 0 89 66 25 255
-0.6513 -0.111721 9.98121 0 0 0 74 60 64 255
-0.99347 -0.122117 10.206 0 0 0 44 54 49 255
-0.523099 0.194128 10.0934 0 0 0 156 156 155 255
-4.15332 1.4086 10.6001 0 0 0 169 169 169 255
-0.876708 0.325941 10.3799 0 0 0 138 138 138 255
-0.736283 0.549571 10.3956 0 0 0 146 144 143 255
-4.26934 0.215648 10.0355 0 0 0 7 8 8 255
-0.908022 0.28956 10.3827 0 0 0 99 82 65 255
-1.11577 0.175066 10.6954 0 0 0 32 31 32 255
-1.10444 0.384563 10.8119 0 0 0 35 34 32 255
-1.07873 0.310581 10.7363 0 0 0 16 17 21 255
-0.745449 0.82894 10.5819 0 0 0 146 145 119 255
-0.656135 0.652097 10.397 0 0 0 147 148 148 255
0.784134 3.64905 7.36101 0 0 0 161 161 162 255
-1.07454 0.445669 10.7986 0 0 0 26 24 31 255
-0.906894 3.159 9.11066 0 0 0 161 163 161 255
-0.437273 3.08722 9.0445 0 0 0 29 30 31 255
-0.754952 0.39286 10.3485 0 0 0 42 126 143 255
-1.0155 -1.48055 11.3568 0 0 0 5 4 5 255
-0.742595 0.558711 10.4043 0 0 0 146 144 144 255
-3.46598 -0.68942 10.9709 0 0 0 59 56 53 255
-3.8409 -0.0510725 10.5788 0 0 0 126 61 39 255
2.71963 0.528532 10.0728 0 0 0 64 62 62 255
-0.883407 0.329096 10.3861 0 0 0 132 134 135 255
-0.23891 -2.14689 11.9696 0 0 0 63 61 59 255
-0.282552 -2.12928 11.9623 0 0 0 72 74 74 255
-0.764083 -2.00376 11.829 0 0 0 36 26 22 255
-0.72163 -1.99262 11.8504 0 0 0 29 20 28 255
-0.910518 1.2669 11.0501 0 0 0 122 120 113 255
-1.01032 0.283477 10.5537 0 0 0 133 138 140 255
-1.55015 -1.87586 11.5564 0 0 0 18 22 25 255
-0.868845 -0.111957 10.108 0 0 0 87 89 82 255
-0.337308 0.479144 10.2593 0 0 0 62 60 74 255
-0.946026 0.455514 10.5414 0 0 0 138 145 151 255
-4.38245 0.0736511 9.85896 0 0 0 41 44 45 255
-1.07769 0.516176 10.8595 0 0 0 148 146 148 255
3.7481 1.0371 10.2754 0 0 0 80 73 61 255
-0.898565 -0.0849749 10.134 0 0 0 139 117 78 255
-4.31077 0.303029 10.0195 0 0 0 145 148 136 255
-0.846973 0.730631 10.6256 0 0 0 74 74 75 255
0.353289 0.125811 10.5968 0 0 0 95 110 117 255
-1.01685 -0.183116 10.1974 0 0 0 92 117 103 255
-3.96257 -0.0703883 10.4092 0 0 0 63 59 60 255
-4.53641 1.49274 10.5277 0 0 0 178 178 177 255
2.52445 -1.00101 13.0604 0 0 0 133 134 132 255
-0.879625 2.66997 9.94469 0 0 0 167 167 168 255
-0.827543 0.599686 10.471 0 0 0 75 78 82 255
-4.45807 -0.560017 9.56524 0 0 0 57 59 60 255
-0.817002 -0.139773 10.0488 0 0 0 78 71 64 255
-0.649461 -0.0540904 10.0022 0 0 0 86 84 84 255
-1.02352 0.919152 11.0803 0 0 0 151 152 148 255
-3.28755 -0.095264 11.2539 0 0 0 80 73 65 255
-0.927716 -0.153066 10.1456 0 0 0 67 80 113 255
3.05513 -0.468275 11.5725 0 0 0 41 41 40 255
-4.45851 -0.368214 9.595 0 0 0 45 47 47 255
-0.384144 -2.12572 11.9414 0 0 0 45 52 58 255
-3.31657 -0.114619 11.234 0 0 0 114 112 112 255
5.14745 -0.758677 11.9075 0 0 0 56 55 56 255
-0.620742 -2.04215 11.8633 0 0 0 21 62 96 255
-4.91481 0.254545 9.95395 0 0 0 72 74 80 255
-0.882138 1.31238 11.0462 0 0 0 131 104 121 255
-0.290358 0.487605 10.3569 0 0 0 62 60 74 255
-1.08267 0.493386 10.8625 0 0 0 126 48 75 255
-1.5237 -1.90619 11.5803 0 0 0 79 49 28 255
-0.84367 2.67131 9.98197 0 0 0 93 128 144 255
2.41832 2.12931 9.84828 0 0 0 189 189 189 255
-0.54113 0.723305 10.4144 0 0 0 154 154 153 255
-4.45362 -0.378918 9.59888 0 0 0 47 48 48 255
-3.43961 -1.02811 10.8694 0 0 0 55 55 55 255
-4.60438 -1.19451 9.13677 0 0 0 10 11 14 255
3.38022 -0.16174 10.1404 0 0 0 86 109 115 255
0.345632 0.117967 10.5856 0 0 0 66 83 87 255
-0.737243 -2.0028 11.8428 0 0 0 20 19 18 255
-4.37813 0.0717714 9.86642 0 0 0 43 44 45 255
-3.96971 -0.0701716 10.4021 0 0 0 76 69 65 255
-4.44881 -0.563688 9.57609 0 0 0 57 58 59 255
-1.12663 0.236685 10.727 0 0 0 29 29 32 255
-4.46821 -0.473381 9.55045 0 0 0 59 58 59 255
-4.00163 -0.103054 10.3672 0 0 0 55 67 86 255
-4.56988 1.44883 10.328 0 0 0 176 177 177 255
2.50065 -1.01917 13.0336 0 0 0 134 134 134 255
-3.53186 -1.06379 10.7669 0 0 0 78 65 54 255
-0.512743 0.962085 10.5246 0 0 0 161 161 161 255
3.04596 -0.472178 11.6107 0 0 0 42 39 39 255
2.69637 0.44333 10.0789 0 0 0 78 111 114 255
0.0246673 0.658429 10.4363 0 0 0 95 94 92 255
-0.952336 0.465749 10.5633 0 0 0 82 104 122 255
3.39368 -1.28307 11.9833 0 0 0 22 24 25 255
4.14178 -1.36184 11.8014 0 0 0 176 178 177 255
-0.978299 -0.16235 10.1803 0 0 0 88 102 112 255
-5.09154 -1.07762 9.2785 0 0 0 124 109 91 255
-0.902153 -1.95592 11.7886 0 0 0 119 93 68 255
-0.953694 0.978094 10.9613 0 0 0 95 98 73 255
-0.989308 -1.96147 11.7824 0 0 0 30 31 32 255
-0.553355 -0.0559478 9.97767 0 0 0 101 80 81 255
-4.32543 0.248001 9.94497 0 0 0 84 149 163 255
-0.846755 -1.99451 11.8134 0 0 0 127 101 65 255
-5.07827 -0.629083 9.59184 0 0 0 34 31 29 255
-5.02635 -0.628559 9.48614 0 0 0 37 50 82 255
-1.17089 -1.27748 10.8514 0 0 0 72 68 53 255
-5.14781 -1.09877 9.41294 0 0 0 136 136 137 255
-0.768553 -2.89821 11.4506 0 0 0 109 92 83 255
-0.856412 -1.94132 11.8155 0 0 0 22 22 23 255
0.231681 0.051133 10.3463 0 0 0 177 178 178 255
-0.700738 -0.05398 10.0168 0 0 0 157 157 157 255
-0.755168 -0.133259 10.0258 0 0 0 88 88 87 255
-5.01092 -0.557731 9.49384 0 0 0 33 27 24 255
-1.04184 0.578184 10.8489 0 0 0 64 65 63 255
-4.88375 0.271035 10 0 0 0 12 11 11 255
-2.96338 -2.40195 11.1894 0 0 0 89 89 90 255
-0.5326 -0.110524 9.95945 0 0 0 44 41 50 255
-1.03777 0.642437 10.8964 0 0 0 64 62 83 255
0.610858 -2.38856 12.2241 0 0 0 89 90 90 255
-0.785773 -3.06471 11.3203 0 0 0 144 140 140 255
-0.492149 -2.4145 11.6112 0 0 0 148 148 148 255
-1.06227 -0.0729669 10.3193 0 0 0 65 73 101 255
-0.63914 -2.37815 11.7583 0 0 0 64 117 79 255
-5.05376 -0.560617 9.48402 0 0 0 22 23 24 255
-0.869285 -0.142107 10.0928 0 0 0 88 88 89 255
2.73347 -0.427611 10.7739 0 0 0 63 65 67 255
-0.973565 -2.20612 11.6646 0 0 0 145 146 147 255
-0.573828 -2.3296 11.583 0 0 0 146 146 147 255
-0.648519 0.0191103 10.0461 0 0 0 162 163 164 255
-0.700236 0.175446 10.145 0 0 0 143 142 143 255
-0.880757 0.685137 10.6056 0 0 0 161 160 160 255
-0.289903 -2.53429 12.3451 0 0 0 90 139 100 255
-4.29623 0.177933 10.0171 0 0 0 106 124 139 255
-0.99719 -1.92471 11.7772 0 0 0 30 31 32 255
2.33575 0.213893 11.2687 0 0 0 64 78 119 255
-0.513048 -2.06985 11.8916 0 0 0 36 45 58 255
-5.11226 -1.09402 9.14771 0 0 0 64 82 92 255
-4.76949 1.00549 10.3292 0 0 0 160 160 160 255
-0.967636 0.956567 10.9462 0 0 0 70 59 61 255
-0.395255 0.608693 10.3293 0 0 0 56 62 87 255
-1.17107 -1.28084 10.8589 0 0 0 63 72 76 255
1.52054 -2.71999 12.4511 0 0 0 90 90 91 255
-2.96207 -2.40604 11.1537 0 0 0 105 94 90 255
-5.09724 -1.09161 9.34845 0 0 0 101 121 130 255
-5.03994 -0.551889 9.5012 0 0 0 26 31 44 255
-0.829983 -0.0676606 10.0835 0 0 0 140 140 142 255
-0.858724 -1.94855 11.8144 0 0 0 43 28 21 255
-1.04184 0.578184 10.8489 0 0 0 64 65 63 255
-5.07108 -0.640239 9.48395 0 0 0 34 30 28 255
-0.588696 0.0831039 10.0781 0 0 0 138 111 83 255
-4.8276 -1.47973 8.98621 0 0 0 47 26 33 255
-4.36529 -0.538929 9.76036 0 0 0 45 46 47 255
-0.485217 1.49046 10.8112 0 0 0 186 185 185 255
0.20594 0.055802 10.321 0 0 0 175 175 176 255
-0.772283 -0.132211 10.0301 0 0 0 88 88 88 255
-0.975145 -2.21674 11.6881 0 0 0 146 147 147 255
-5.15006 -1.10201 9.42306 0 0 0 134 135 136 255
-2.75959 -1.19944 11.7595 0 0 0 67 69 73 255
-3.02366 -1.91003 11.1983 0 0 0 58 45 37 255
-0.214399 0.0823614 10.0774 0 0 0 134 132 132 255
-4.0995 0.00647644 10.2214 0 0 0 167 167 166 255
2.79006 -0.436539 10.8278 0 0 0 63 63 64 255
-0.40533 -2.39385 11.6571 0 0 0 144 144 142 255
-4.36414 -0.352417 9.70088 0 0 0 65 65 63 255
-4.32328 0.250599 9.95418 0 0 0 84 149 163 255
-5.01233 -0.566495 9.4823 0 0 0 74 42 35 255
-0.808506 -3.06321 11.3076 0 0 0 148 148 133 255
2.33489 0.217529 11.268 0 0 0 64 78 119 255
-5.08117 -1.11386 9.31373 0 0 0 130 122 123 255
-0.483002 -2.08686 11.9137 0 0 0 26 25 27 255
4.69969 -0.848041 11.9849 0 0 0 195 195 193 255
-0.887956 -2.24596 11.6626 0 0 0 148 148 148 255
-0.868777 -0.14019 10.0929 0 0 0 88 88 89 255
-0.468376 3.11507 9.02631 0 0 0 204 204 204 255
-0.862223 2.42913 10.2544 0 0 0 52 52 53 255
0.00177754 3.08564 8.92409 0 0 0 213 213 214 255
-1.04028 0.380965 10.7046 0 0 0 181 182 183 255
0.0855201 2.34156 10.1171 0 0 0 51 41 33 255
1.11423 2.2493 10.0614 0 0 0 178 178 179 255
2.0083 2.16445 9.90433 0 0 0 220 220 221 255
-0.325055 0.400954 10.2287 0 0 0 129 127 127 255
-4.91318 0.283524 9.9667 0 0 0 19 20 21 255
-0.453392 2.89376 9.41669 0 0 0 150 161 170 255
-0.000495986 3.02095 8.85172 0 0 0 213 212 213 255
-0.970971 0.92917 10.9317 0 0 0 161 155 145 255
0.719425 -2.43304 12.2346 0 0 0 121 135 128 255
-4.94883 0.265027 9.94068 0 0 0 17 17 17 255
0.0234761 2.81813 9.38775 0 0 0 50 49 50 255
-5.11687 -1.03119 9.1076 0 0 0 35 33 33 255
0.978163 3.25268 8.42308 0 0 0 51 51 51 255
1.03197 3.25648 8.35267 0 0 0 79 59 54 255
-0.50406 3.08235 8.87587 0 0 0 208 208 208 255
-0.830905 -0.105372 10.0749 0 0 0 112 103 88 255
0.476031 -2.37082 12.1833 0 0 0 110 109 109 255
-4.81691 1.01106 10.3616 0 0 0 185 187 187 255
0.527666 -1.47123 10.8265 0 0 0 60 58 56 255
0.374722 -2.33836 12.1829 0 0 0 110 110 110 255
0.468521 -2.3319 12.1886 0 0 0 109 109 109 255
-0.340096 0.00586426 10.0232 0 0 0 148 126 93 255
0.839423 -2.45385 12.2347 0 0 0 116 137 131 255
-1.10685 -1.29872 10.9338 0 0 0 212 212 213 255
-0.845349 0.645009 11.8655 0 0 0 172 173 174 255
-3.95283 0.0356119 10.4812 0 0 0 130 128 128 255
-1.13409 0.0607638 10.5901 0 0 0 105 96 103 255
-0.933332 0.9731 10.8916 0 0 0 124 138 160 255
-0.508025 -2.41591 11.7837 0 0 0 168 169 169 255
-0.00153331 -2.76393 11.6702 0 0 0 110 110 110 255
0.827125 -2.41688 12.2571 0 0 0 133 125 113 255
0.751148 -2.40498 12.2723 0 0 0 110 116 120 255
0.03927 -2.76598 11.6729 0 0 0 109 110 110 255
2.89834 -0.473832 10.6116 0 0 0 168 168 168 255
-1.10432 -0.881033 11.0981 0 0 0 168 168 169 255
2.52863 0.126317 10.2685 0 0 0 123 124 111 255
-0.901912 1.3501 11.1105 0 0 0 180 156 121 255
0.451473 -2.36102 12.1746 0 0 0 109 109 110 255
-1.03788 0.893853 11.1021 0 0 0 179 181 181 255
-0.882327 2.4339 10.2161 0 0 0 52 52 53 255
-4.94696 0.269733 9.94186 0 0 0 17 17 17 255
-0.910384 0.79718 10.7454 0 0 0 186 186 186 255
3.38824 -0.191886 10.1463 0 0 0 102 102 102 255
0.00225344 3.09186 8.94554 0 0 0 212 212 212 255
-0.942333 0.671063 11.7095 0 0 0 62 62 81 255
2.10872 2.1621 9.98069 0 0 0 220 220 221 255
-5.12398 -1.03554 9.10793 0 0 0 45 44 40 255
1.04401 2.25647 10.0028 0 0 0 176 176 177 255
0.120412 2.33171 10.1639 0 0 0 56 57 59 255
0.0247216 2.82121 9.4033 0 0 0 52 51 50 255
4.81499 -1.75997 11.2102 0 0 0 79 91 102 255
-0.455575 2.90318 9.44661 0 0 0 141 143 145 255
0.00568203 3.01711 8.86682 0 0 0 213 212 213 255
-0.734954 1.4565 10.9573 0 0 0 212 211 211 255
-2.03769 1.0629 13.3537 0 0 0 30 28 26 255
5.32151 -1.04857 11.9285 0 0 0 100 94 83 255
-4.80627 1.00976 10.3775 0 0 0 184 185 185 255
-1.07366 -0.895098 11.1548 0 0 0 167 167 168 255
0.750871 -2.40087 12.2721 0 0 0 110 116 120 255
0.819267 -2.43854 12.2477 0 0 0 137 122 111 255
-0.899662 1.34187 11.1007 0 0 0 179 178 149 255
-4.61445 2.40552 11.267 0 0 0 216 216 216 255
-0.540822 1.2984 10.7599 0 0 0 208 207 208 255
0.507235 2.99271 8.86071 0 0 0 216 216 216 255
1.04402 2.50661 9.60956 0 0 0 205 205 205 255
-0.490583 3.12665 8.95928 0 0 0 193 196 199 255
-0.543922 3.31458 8.42825 0 0 0 216 215 215 255
-0.459097 3.36687 8.62545 0 0 0 213 214 215 255
0.000778695 3.31061 8.54303 0 0 0 216 216 216 255
0.4597 3.23265 8.35017 0 0 0 206 205 205 255
-1.05583 0.659045 10.9166 0 0 0 181 180 161 255
-0.523263 0.160835 10.0828 0 0 0 137 132 126 255
-0.0329059 3.28394 8.41063 0 0 0 216 216 216 255
-0.804144 3.21261 9.22 0 0 0 188 189 188 255
0.495146 3.26923 8.49615 0 0 0 217 217 216 255
-0.858159 0.849867 10.7493 0 0 0 191 191 192 255
-1.01372 0.418101 10.6762 0 0 0 182 185 185 255
-0.989619 0.298738 10.5277 0 0 0 171 168 166 255
-1.05746 0.33 10.7029 0 0 0 176 135 89 255
-4.86983 0.310633 10.0334 0 0 0 51 51 51 255
-1.03977 -0.0558532 10.2998 0 0 0 111 111 111 255
3.37618 0.344826 12.3935 0 0 0 32 37 45 255
-0.859642 0.613545 10.5344 0 0 0 132 132 132 255
-0.986578 0.762685 10.8909 0 0 0 111 112 114 255
-0.637547 0.0598605 10.0752 0 0 0 139 155 149 255
-1.12146 0.412245 10.8714 0 0 0 73 71 69 255
-4.67737 1.64761 10.8125 0 0 0 216 216 216 255
-1.05818 0.105769 10.5263 0 0 0 192 193 193 255
-1.1044 0.184651 10.692 0 0 0 76 76 75 255
0.503488 3.27048 8.52443 0 0 0 216 216 216 255
0.458969 3.24285 8.35228 0 0 0 206 205 205 255
-0.819156 3.19276 9.21047 0 0 0 187 187 186 255
1.26176 2.16033 9.74988 0 0 0 190 190 190 255
0.00580178 3.31007 8.56284 0 0 0 216 216 216 255
3.37242 0.339761 12.4005 0 0 0 33 33 33 255
-0.87374 1.28576 11.1102 0 0 0 197 197 196 255
-1.04135 -0.0560947 10.3016 0 0 0 112 112 112 255
-0.271779 0.570876 10.3073 0 0 0 188 188 188 255
-1.0564 0.662164 10.9211 0 0 0 179 181 181 255
-0.452536 3.37016 8.65042 0 0 0 215 216 215 255
-0.0334478 3.28046 8.40636 0 0 0 216 216 216 255
-1.12108 0.40674 10.8655 0 0 0 73 71 68 255
-0.994265 0.298024 10.5355 0 0 0 175 174 173 255
1.98757 2.64435 9.1963 0 0 0 136 89 153 255
3.48672 2.30194 9.37898 0 0 0 177 177 179 255
2.53383 2.87443 8.67679 0 0 0 51 53 53 255
2.47281 2.83785 8.7348 0 0 0 190 186 184 255
1.42823 2.21022 9.92034 0 0 0 94 80 78 255
0.937226 3.4453 7.89029 0 0 0 187 187 187 255
0.980292 3.46823 8.01367 0 0 0 53 51 49 255
2.47792 2.59974 9.14321 0 0 0 179 180 180 255
2.50157 2.61792 9.05786 0 0 0 188 188 189 255
3.02691 2.80733 8.72821 0 0 0 68 55 48 255
6.879 0.867875 10.8477 0 0 0 82 83 86 255
3.91047 2.47027 8.97338 0 0 0 189 189 189 255
0.442162 3.48274 7.93884 0 0 0 46 47 47 255
3.0049 2.8097 8.60865 0 0 0 51 73 115 255
0.476584 3.50511 8.05866 0 0 0 150 108 69 255
2.06409 2.20039 9.96219 0 0 0 16 22 23 255
-0.88787 0.968524 10.8468 0 0 0 47 41 40 255
-0.986675 2.88367 9.33629 0 0 0 46 46 46 255
0.461431 3.76872 7.62477 0 0 0 188 188 187 255
3.39744 2.03504 9.81952 0 0 0 141 161 166 255
2.90995 2.55 9.06761 0 0 0 189 190 190 255
3.00644 2.57964 9.02093 0 0 0 191 192 192 255
3.4015 2.75551 8.62051 0 0 0 39 39 40 255
-0.442822 0.612458 10.3491 0 0 0 165 165 165 255
-0.564927 0.629871 10.3768 0 0 0 175 157 84 255
-0.89764 -0.119594 10.1247 0 0 0 46 46 47 255
-0.371291 0.596829 10.3178 0 0 0 121 119 117 255
2.97712 2.32612 9.51316 0 0 0 81 71 87 255
2.46156 3.09369 8.30403 0 0 0 185 185 185 255
1.9817 2.89439 8.66496 0 0 0 195 195 195 255
2.04294 2.90844 8.81768 0 0 0 195 195 195 255
2.98066 2.34259 9.40647 0 0 0 110 129 160 255
2.07161 3.16433 8.32393 0 0 0 44 50 48 255
3.47705 2.53323 9.08479 0 0 0 191 190 189 255
2.02004 3.15072 8.39109 0 0 0 144 170 180 255
1.48593 2.94761 8.71439 0 0 0 200 199 198 255
3.46816 2.53026 8.94258 0 0 0 191 191 190 255
0.0599162 2.35281 10.1001 0 0 0 188 188 188 255
1.59523 -2.10629 12.7404 0 0 0 29 19 49 255
1.5396 3.19785 8.43758 0 0 0 54 54 54 255
1.51495 3.20536 8.32693 0 0 0 184 184 184 255
3.38965 2.27272 9.43161 0 0 0 174 174 174 255
1.56883 3.45376 8.03562 0 0 0 43 43 43 255
1.04353 3.23899 8.39081 0 0 0 183 183 184 255
1.0023 3.22882 8.46086 0 0 0 56 57 56 255
3.84676 0.574767 10.0603 0 0 0 68 77 76 255
-0.0588672 0.570475 10.3637 0 0 0 117 118 118 255
-0.374648 0.49889 10.3025 0 0 0 130 126 124 255
-0.424795 0.419757 10.2397 0 0 0 146 145 142 255
0.0546907 -0.540862 9.92239 0 0 0 91 81 65 255
-0.423727 1.51627 10.7977 0 0 0 195 195 195 255
-0.968129 0.476081 10.5953 0 0 0 120 118 113 255
0.0313423 -0.458552 9.91811 0 0 0 53 52 52 255
-1.06041 0.855465 11.1254 0 0 0 41 52 57 255
-0.849009 2.67402 9.93673 0 0 0 188 188 188 255
-0.381363 0.676341 10.3461 0 0 0 156 153 151 255
-0.883929 1.40166 11.1307 0 0 0 110 93 61 255
3.81748 2.21466 9.2794 0 0 0 129 131 131 255
0.0728954 0.345797 10.2743 0 0 0 67 68 86 255
-1.04328 0.252136 10.638 0 0 0 60 55 50 255
-0.649068 1.29788 10.772 0 0 0 131 125 137 255
-0.568798 0.0258811 10.0345 0 0 0 97 94 154 255
-0.483133 2.37849 10.1691 0 0 0 51 52 50 255
6.55477 -0.627945 10.339 0 0 0 54 58 62 255
-0.34429 0.146067 10.0754 0 0 0 174 174 174 255
3.79662 0.360583 10.0337 0 0 0 73 70 62 255
1.76142 -2.09416 12.7671 0 0 0 69 69 70 255
-0.767253 1.64963 11.1713 0 0 0 63 64 64 255
2.06392 2.19366 9.94539 0 0 0 18 23 23 255
1.94668 3.12338 8.23266 0 0 0 44 50 48 255
2.46646 2.83288 8.74716 0 0 0 194 193 192 255
-0.426509 0.606209 10.3388 0 0 0 161 160 160 255
2.482 2.5904 9.14921 0 0 0 179 179 178 255
2.50407 2.60988 9.04091 0 0 0 188 188 189 255
3.02925 2.81821 8.75957 0 0 0 184 182 182 255
2.99451 2.82362 8.59101 0 0 0 154 175 181 255
0.485886 3.50185 8.09019 0 0 0 184 184 185 255
0.443874 3.49095 7.95234 0 0 0 46 46 46 255
2.04471 2.90781 8.85079 0 0 0 195 195 195 255
-0.594233 0.634242 10.3931 0 0 0 171 170 171 255
2.90637 2.53622 9.07501 0 0 0 189 189 189 255
3.0146 2.57006 9.01387 0 0 0 192 192 192 255
2.03566 2.91542 8.72017 0 0 0 195 195 194 255
2.01613 3.15005 8.40208 0 0 0 54 73 107 255
2.97803 2.32401 9.53159 0 0 0 123 88 72 255
2.98007 2.34342 9.40262 0 0 0 110 129 160 255
3.47911 2.5262 9.08676 0 0 0 189 191 191 255
6.88774 0.845614 10.8758 0 0 0 88 85 85 255
3.46543 2.53606 8.94341 0 0 0 191 191 190 255
3.88974 0.605565 10.0881 0 0 0 68 77 76 255
3.36243 2.26694 9.4454 0 0 0 171 171 173 255
3.50354 2.29201 9.36826 0 0 0 175 175 176 255
3.84181 2.46266 8.96866 0 0 0 189 189 189 255
-0.665569 0.673912 10.4356 0 0 0 145 95 55 255
3.3147 2.03686 9.69933 0 0 0 167 167 167 255
1.68436 -2.14497 12.888 0 0 0 35 85 58 255
0.989597 3.4814 8.04566 0 0 0 184 178 150 255
0.938095 3.43712 7.89035 0 0 0 181 183 185 255
1.03567 3.2434 8.50274 0 0 0 107 67 57 255
1.04164 3.24171 8.3844 0 0 0 183 183 184 255
1.54476 3.2063 8.47447 0 0 0 49 49 51 255
1.60838 3.23422 8.40751 0 0 0 184 185 183 255
1.53265 2.95362 8.76206 0 0 0 202 202 202 255
-0.987063 2.88617 9.33737 0 0 0 46 46 46 255
0.0428084 -0.525468 9.91228 0 0 0 91 81 65 255
3.8161 2.21932 9.28909 0 0 0 128 128 129 255
3.73673 0.509926 9.98537 0 0 0 61 72 66 255
-0.386098 0.683934 10.3493 0 0 0 163 161 158 255
0.250155 -1.0628 9.94135 0 0 0 51 50 52 255
-0.698942 1.45488 10.9281 0 0 0 150 119 112 255
1.7598 -2.09818 12.7547 0 0 0 72 72 67 255
-0.423727 1.51627 10.7977 0 0 0 195 195 195 255
7.96226 0.534535 10.5525 0 0 0 141 121 96 255
-1.04465 0.251258 10.6406 0 0 0 50 56 61 255
-1.06732 0.841288 11.1289 0 0 0 44 34 44 255
1.45403 2.21447 10.0099 0 0 0 159 159 158 255
-0.886403 1.40061 11.1319 0 0 0 110 110 111 255
2.70956 0.384779 11.7372 0 0 0 121 120 120 255
6.86839 -2.32232 9.40433 0 0 0 96 96 96 255
5.57541 -2.54116 10.9402 0 0 0 137 137 137 255
0.897273 -0.654819 10.9821 0 0 0 169 169 169 255
5.87274 -2.37623 10.4896 0 0 0 34 34 36 255
-0.524584 0.0955108 10.0645 0 0 0 74 71 51 255
5.74912 -2.55957 10.871 0 0 0 24 22 20 255
6.70737 -1.23786 9.74548 0 0 0 96 96 96 255
6.7641 -2.17411 9.43653 0 0 0 96 96 97 255
-1.78997 -3.48572 10.8365 0 0 0 96 96 95 255
5.79692 -2.45322 10.8066 0 0 0 37 49 57 255
1.95851 3.62889 8.25004 0 0 0 173 144 93 255
6.84013 -1.00784 9.918 0 0 0 94 94 94 255
6.11784 -2.33226 10.1281 0 0 0 155 154 154 255
5.73455 -2.53953 10.5919 0 0 0 87 88 88 255
1.08736 2.29121 10.0672 0 0 0 182 186 186 255
5.74495 -2.41827 10.5092 0 0 0 35 35 35 255
5.9578 -2.34475 10.4004 0 0 0 155 156 156 255
6.01768 -2.31303 10.347 0 0 0 156 156 157 255
6.18248 -2.28431 10.3169 0 0 0 150 156 154 255
6.1697 -2.20405 10.2034 0 0 0 152 153 154 255
6.03506 -2.26918 10.3532 0 0 0 156 156 157 255
-0.739785 0.777585 12.1419 0 0 0 0 82 110 255
5.51612 -2.59435 10.9522 0 0 0 0 0 0 255
5.58343 -2.5535 10.8806 0 0 0 138 138 135 255
5.82476 -2.50464 10.8105 0 0 0 60 61 63 255
5.77008 -2.38478 10.5764 0 0 0 39 37 34 255
5.88927 -2.33229 10.4955 0 0 0 35 36 36 255
5.6483 -2.4854 10.807 0 0 0 56 47 35 255
5.79655 -2.41049 10.6728 0 0 0 89 93 96 255
5.53677 -2.54906 10.993 0 0 0 0 0 0 255
5.60131 -2.50734 10.9187 0 0 0 137 137 137 255
5.76665 -2.48154 10.8943 0 0 0 52 42 30 255
5.50958 -2.5867 11.1065 0 0 0 39 37 36 255
-0.930603 -0.179818 10.1363 0 0 0 16 10 10 255
6.1526 -2.17111 10.0948 0 0 0 109 94 98 255
6.12433 -2.27925 10.0758 0 0 0 154 154 155 255
-1.76878 -3.51058 10.8724 0 0 0 96 96 95 255
5.73391 -2.53846 10.5974 0 0 0 82 85 86 255
0.498554 -0.592691 10.5614 0 0 0 165 165 166 255
6.00279 -2.3067 10.3677 0 0 0 157 157 156 255
-0.137619 0.501142 10.3151 0 0 0 78 82 83 255
5.54681 -2.58148 10.8892 0 0 0 137 138 138 255
5.51067 -2.59479 10.9591 0 0 0 57 56 22 255
5.75809 -2.38608 10.5844 0 0 0 84 76 51 255
5.78788 -2.47794 10.8215 0 0 0 19 26 40 255
5.6151 -2.51039 10.9108 0 0 0 137 138 137 255
6.73512 -2.15696 9.4473 0 0 0 96 96 96 255
5.94477 -2.35574 10.4019 0 0 0 156 155 155 255
6.17383 -2.20853 10.2043 0 0 0 152 153 153 255
2.73367 0.392023 11.7805 0 0 0 118 120 122 255
5.76806 -2.40146 10.5132 0 0 0 35 35 35 255
-0.730691 0.78743 12.1449 0 0 0 0 82 110 255
5.74611 -2.55264 10.7466 0 0 0 63 62 60 255
5.80587 -2.43431 10.6772 0 0 0 91 95 96 255
5.46643 -2.59367 11.1071 0 0 0 67 65 64 255
5.87826 -2.36948 10.5153 0 0 0 33 34 34 255
5.76726 -2.49533 10.9065 0 0 0 66 59 49 255
5.73372 -2.60099 10.7079 0 0 0 63 62 64 255
6.12383 -2.34389 10.1318 0 0 0 157 154 155 255
-3.03499 -0.335033 11.6119 0 0 0 74 71 66 255
-0.504956 -0.057305 9.9755 0 0 0 67 61 78 255
-3.33078 -2.94093 11.2774 0 0 0 49 46 42 255
-3.91886 0.0478893 10.5658 0 0 0 7 6 6 255
-0.688997 0.902045 10.6114 0 0 0 45 48 49 255
-3.16555 -0.509499 11.4206 0 0 0 57 94 110 255
5.93884 -2.83881 10.0139 0 0 0 109 108 108 255
5.27184 -2.61075 11.157 0 0 0 42 43 42 255
-3.88252 -0.0879691 10.6524 0 0 0 11 17 29 255
-3.90175 -0.0367927 10.5621 0 0 0 11 11 15 255
-3.9437 -0.0375853 10.4839 0 0 0 41 44 40 255
5.25229 -2.64212 11.2136 0 0 0 41 40 39 255
-0.532861 0.849635 10.4968 0 0 0 156 178 179 255
-0.673976 -0.0827804 9.99751 0 0 0 54 56 57 255
5.54681 -3.24371 10.6303 0 0 0 193 191 187 255
5.46376 -2.65008 11.0766 0 0 0 173 174 172 255
-3.45642 -0.675022 10.9994 0 0 0 82 83 77 255
0.134196 -3.3515 11.6583 0 0 0 152 152 151 255
0.256907 -3.37955 11.6897 0 0 0 77 72 59 255
-2.64712 -3.51502 11.1981 0 0 0 104 108 157 255
-2.98782 -2.39207 11.0672 0 0 0 110 154 165 255
5.2133 -2.71315 11.0753 0 0 0 41 42 42 255
5.50183 -3.23428 10.652 0 0 0 194 190 188 255
5.98384 -3.0138 10.0825 0 0 0 137 104 88 255
6.07552 -2.54357 10.2525 0 0 0 109 107 108 255
0.178201 -3.41345 11.6703 0 0 0 151 149 133 255
-3.87398 -0.0659382 10.5946 0 0 0 33 32 22 255
-2.64807 -3.504 11.208 0 0 0 113 100 149 255
-3.45896 -0.684209 11.0014 0 0 0 76 78 79 255
-3.00023 -2.38729 11.0648 0 0 0 113 109 122 255
-3.91969 -0.0419121 10.6083 0 0 0 36 28 23 255
5.49428 -3.04857 10.525 0 0 0 174 174 174 255
-3.89748 -0.0282612 10.5772 0 0 0 10 11 13 255
-4.02525 0.398332 10.6756 0 0 0 29 16 15 255
2.38979 -0.963191 12.8759 0 0 0 168 168 168 255
0.102582 0.363769 10.3688 0 0 0 191 191 191 255
-3.01835 -0.337906 11.6434 0 0 0 73 70 68 255
-3.97918 -0.0991251 10.4294 0 0 0 78 112 117 255
5.20563 -2.73 11.0774 0 0 0 39 39 40 255
5.51592 -3.26109 10.6586 0 0 0 174 179 184 255
-0.767742 -1.0105 11.8103 0 0 0 36 36 37 255
5.2578 -2.59988 11.1596 0 0 0 39 41 41 255
-3.18367 -0.513237 11.4064 0 0 0 62 63 63 255
5.95145 -2.8385 10.0308 0 0 0 113 108 109 255
5.94487 -2.79102 9.84761 0 0 0 111 111 111 255
-0.214487 0.761644 10.4182 0 0 0 164 162 160 255
1.58024 3.25067 8.4692 0 0 0 52 51 51 255
-0.646794 -0.131881 9.95871 0 0 0 50 75 145 255
-0.0349717 0.436393 10.3389 0 0 0 185 184 184 255
-0.479405 0.413226 10.2613 0 0 0 187 180 186 255
-0.22538 0.662025 10.3572 0 0 0 172 169 167 255
-0.843338 0.509281 10.422 0 0 0 104 46 43 255
-0.50119 -0.11738 9.96058 0 0 0 161 154 118 255
1.57275 -2.24296 12.6832 0 0 0 73 68 64 255
-0.412352 -0.0967053 9.98773 0 0 0 106 116 126 255
-0.160488 -2.69721 12.353 0 0 0 37 44 48 255
-0.611338 -0.107347 9.98464 0 0 0 80 69 93 255
5.86635 -2.56885 10.9405 0 0 0 111 111 110 255
0.299518 0.272733 10.6548 0 0 0 104 116 119 255
-0.378342 0.00177315 10.0153 0 0 0 103 103 103 255
-0.464294 -3.37976 11.4774 0 0 0 146 147 147 255
-3.90229 0.0365031 10.4231 0 0 0 14 16 22 255
-0.0204977 -2.49029 11.9688 0 0 0 39 39 40 255
0.413064 -2.56451 12.0148 0 0 0 167 167 167 255
-0.358592 -2.40249 11.9576 0 0 0 19 20 21 255
-3.44877 -1.01874 10.768 0 0 0 154 157 159 255
-3.3955 -0.49691 11.0318 0 0 0 141 145 147 255
-0.689637 -0.146431 9.99913 0 0 0 42 121 133 255
-3.44419 -1.05533 10.8934 0 0 0 140 144 150 255
-0.210512 0.649333 10.3474 0 0 0 172 169 167 255
-0.466621 2.84858 9.4355 0 0 0 48 49 48 255
-3.39429 -0.509 11.025 0 0 0 155 157 151 255
1.572 -2.23594 12.6765 0 0 0 73 68 64 255
-3.03963 -0.762046 11.368 0 0 0 138 138 142 255
-3.86826 0.0298903 10.4335 0 0 0 30 32 43 255
0.352909 -3.09639 11.9004 0 0 0 169 169 169 255
1.58882 3.24602 8.50606 0 0 0 72 61 55 255
-0.617626 0.345897 10.2166 0 0 0 181 181 181 255
-0.0349717 0.436393 10.3389 0 0 0 185 184 184 255
0.496118 2.31133 10.007 0 0 0 114 110 95 255
-0.488912 0.429767 10.2613 0 0 0 83 161 189 255
-0.157201 -3.49686 11.5518 0 0 0 43 42 42 255
0.263479 0.301341 10.5937 0 0 0 106 119 128 255
-0.859497 2.67751 9.99399 0 0 0 200 199 195 255
5.44306 -2.61329 11.1767 0 0 0 109 110 110 255
1.96619 2.90182 8.65745 0 0 0 50 50 50 255
2.45764 2.13578 9.88848 0 0 0 203 202 201 255
1.9538 2.88637 8.73433 0 0 0 52 52 52 255
-0.56168 -0.0867025 9.96729 0 0 0 141 128 128 255
-3.09334 1.54015 11.9496 0 0 0 215 215 214 255
2.48267 2.60978 9.04713 0 0 0 52 52 52 255
-0.632316 0.186468 10.1192 0 0 0 152 141 96 255
0.0688288 1.64069 10.8999 0 0 0 209 209 209 255
0.143636 0.394396 10.4281 0 0 0 111 112 116 255
-0.690637 0.14855 10.1269 0 0 0 141 137 138 255
-0.0972889 -3.1319 11.6019 0 0 0 168 168 169 255
0.0521925 1.59559 10.8638 0 0 0 209 209 209 255
-0.389517 -0.101729 9.95322 0 0 0 96 76 73 255
-2.89799 -1.53104 11.3267 0 0 0 189 189 189 255
-0.491686 -0.087928 9.96097 0 0 0 111 97 88 255
-0.372513 -3.21234 11.5439 0 0 0 50 71 82 255
-0.612205 -0.0814733 9.98266 0 0 0 82 28 84 255
-2.64121 -3.0161 11.1722 0 0 0 159 160 160 255
-0.606412 -2.00685 11.8758 0 0 0 11 12 12 255
0.0372992 0.999397 10.6168 0 0 0 172 170 167 255
-0.395624 -0.160765 9.9416 0 0 0 83 79 77 255
-2.64116 -0.95791 11.8431 0 0 0 119 138 141 255
-0.385364 -2.65497 11.6984 0 0 0 77 84 84 255
0.505455 -2.90736 11.9425 0 0 0 101 128 159 255
-0.107481 -3.08805 11.6546 0 0 0 61 120 160 255
1.94902 2.89036 8.74627 0 0 0 54 55 53 255
1.48119 -2.70545 12.4361 0 0 0 108 107 107 255
-0.859497 2.67751 9.99399 0 0 0 200 199 195 255
0.0331203 2.56514 9.80726 0 0 0 58 57 57 255
-0.683074 0.856558 10.5665 0 0 0 58 67 106 255
0.547464 -0.83111 10.8961 0 0 0 68 68 68 255
-2.65033 -3.02476 11.1827 0 0 0 159 159 159 255
-3.06707 1.50048 11.9515 0 0 0 214 214 214 255
-2.54027 -0.66629 12.0954 0 0 0 99 99 98 255
5.46061 -2.60401 11.1838 0 0 0 109 110 110 255
-0.444907 0.0227211 10.0198 0 0 0 151 89 132 255
3.82447 1.0714 10.4607 0 0 0 169 169 168 255
0.103384 0.643503 10.4776 0 0 0 148 147 146 255
-3.21882 -0.525101 11.1515 0 0 0 87 71 68 255
-3.17522 -0.512264 11.1836 0 0 0 150 153 136 255
-2.90655 -1.54685 11.3222 0 0 0 190 189 190 255
-2.88644 -1.44827 11.344 0 0 0 190 191 192 255
5.86551 -2.8661 11.0048 0 0 0 114 146 166 255
-3.38931 -0.594194 10.8941 0 0 0 81 77 76 255
-3.16929 -0.957409 11.119 0 0 0 82 80 76 255
3.43659 2.03648 9.79956 0 0 0 207 207 208 255
-0.0346892 0.764173 10.4452 0 0 0 189 189 188 255
2.99836 2.35145 9.43164 0 0 0 196 198 198 255
0.349233 -2.31049 12.1626 0 0 0 164 164 163 255
0.0456239 0.621137 10.4422 0 0 0 195 195 195 255
-0.530488 -0.140213 9.96427 0 0 0 57 58 57 255
-0.0180893 0.737687 10.4418 0 0 0 190 189 190 255
-0.529696 0.0483561 10.0477 0 0 0 138 119 98 255
5.64316 -2.48792 10.8161 0 0 0 154 151 157 255
0.000771193 0.720776 10.4532 0 0 0 190 191 191 255
-0.408677 -2.4436 11.8021 0 0 0 10 10 9 255
6.09723 -0.234892 11.6894 0 0 0 64 65 65 255
0.18943 0.593133 10.5125 0 0 0 188 188 188 255
-0.307639 -2.4701 11.8197 0 0 0 63 66 67 255
0.154519 0.557678 10.4919 0 0 0 189 191 189 255
-0.218677 0.180846 10.0968 0 0 0 90 87 109 255
-0.661677 -2.2584 11.7463 0 0 0 142 142 142 255
0.170243 0.335549 10.4205 0 0 0 115 113 110 255
-0.575025 0.579751 10.3698 0 0 0 99 102 99 255
3.00262 2.34774 9.43829 0 0 0 195 195 195 255
-0.0495458 0.768544 10.4402 0 0 0 174 188 189 255
-0.518019 0.839441 10.4792 0 0 0 160 160 146 255
-0.00925427 0.713283 10.4381 0 0 0 193 192 190 255
0.148838 0.554915 10.4883 0 0 0 192 192 192 255
0.19151 0.580074 10.5165 0 0 0 188 188 188 255
4.95258 -1.8019 11.3314 0 0 0 99 101 102 255
3.44699 2.28991 9.46637 0 0 0 217 216 216 255
6.01153 -2.38461 10.609 0 0 0 155 168 159 255
5.91235 -2.42887 10.6828 0 0 0 133 162 168 255
3.92995 2.4854 8.97998 0 0 0 47 47 48 255
6.22503 -2.31129 10.3606 0 0 0 133 169 172 255
3.43007 2.52985 9.03363 0 0 0 200 200 200 255
2.45214 2.84582 8.61515 0 0 0 41 41 42 255
2.39222 2.82633 8.63963 0 0 0 46 46 46 255
2.97818 2.82281 8.60798 0 0 0 52 46 45 255
2.92376 2.80583 8.64594 0 0 0 48 48 53 255
3.46169 2.78895 8.57041 0 0 0 47 47 47 255
3.41423 2.77422 8.60976 0 0 0 46 46 46 255
2.97872 2.58257 9.01018 0 0 0 215 215 215 255
3.46459 2.55221 8.96308 0 0 0 54 54 53 255
5.64153 -2.57183 11.0253 0 0 0 155 153 138 255
5.94197 -2.44767 10.6388 0 0 0 109 134 164 255
5.82429 -2.51841 11.0296 0 0 0 103 104 104 255
6.09346 -2.33354 10.5171 0 0 0 126 158 170 255
6.31175 -2.20918 10.2678 0 0 0 109 109 110 255
0.425743 -2.636 12.0314 0 0 0 44 52 57 255
-0.881767 -1.92304 11.7828 0 0 0 156 156 156 255
0.542883 -2.63173 12.0662 0 0 0 81 84 87 255
-0.194322 0.751952 10.4109 0 0 0 73 65 66 255
6.19924 -2.31003 10.4036 0 0 0 140 167 168 255
0.423075 -2.68668 12.0386 0 0 0 18 20 26 255
0.820622 -2.72694 12.1098 0 0 0 35 34 34 255
5.99448 -2.37299 10.5335 0 0 0 108 108 109 255
5.40384 -2.63995 11.3119 0 0 0 162 163 163 255
6.01139 -2.35698 10.4858 0 0 0 111 136 167 255
6.15848 -2.31852 10.4273 0 0 0 112 112 114 255
5.61235 -2.55298 11.0724 0 0 0 157 157 158 255
5.9503 -2.3944 10.6843 0 0 0 155 121 111 255
5.69186 -2.50735 10.9962 0 0 0 103 103 104 255
-0.227438 -2.48256 11.8426 0 0 0 18 22 27 255
0.450126 -2.68766 12.043 0 0 0 70 72 72 255
0.552615 2.29698 10.1112 0 0 0 215 215 214 255
6.26287 -2.22308 10.2989 0 0 0 157 158 128 255
5.66355 -2.49095 10.7854 0 0 0 103 105 104 255
-0.411797 -2.34068 11.79 0 0 0 107 108 108 255
6.13541 -2.35402 10.4351 0 0 0 166 169 148 255
3.90295 2.73393 8.50105 0 0 0 58 58 58 255
3.92967 2.24642 9.34848 0 0 0 212 211 211 255
6.22508 -2.32613 10.5497 0 0 0 121 151 170 255
-0.402322 -2.3983 11.8016 0 0 0 109 109 108 255
6.11891 -2.39701 10.5453 0 0 0 124 159 170 255
-0.669122 -2.32575 11.7125 0 0 0 108 108 107 255
-0.547233 0.743896 10.4293 0 0 0 209 209 209 255
-0.758588 -2.3395 11.7104 0 0 0 104 106 108 255
-0.763076 -1.96982 11.8159 0 0 0 66 66 66 255
5.51605 -2.56898 11.1245 0 0 0 163 161 161 255
-0.619637 -2.28322 11.7746 0 0 0 109 109 109 255
-0.330801 -2.37264 11.8087 0 0 0 104 96 69 255
0.6572 -2.71942 12.0914 0 0 0 41 38 35 255
1.51897 0.229068 13.5881 0 0 0 95 99 99 255
-0.549175 -2.40797 11.7682 0 0 0 113 111 110 255
0.297255 -2.59394 11.9999 0 0 0 23 22 21 255
6.28703 -2.29637 10.2256 0 0 0 108 108 109 255
6.35862 -2.24413 10.2217 0 0 0 104 94 57 255
-0.859956 -2.32213 11.6903 0 0 0 106 105 105 255
0.770929 -2.67989 12.1185 0 0 0 33 32 33 255
0.0890371 -2.52917 11.9385 0 0 0 28 25 24 255
0.585152 -2.34687 12.2053 0 0 0 17 18 19 255
0.312318 -2.65421 11.9908 0 0 0 23 22 22 255
-0.547007 -2.294 11.7366 0 0 0 109 108 108 255
-0.0226342 -2.48661 11.9405 0 0 0 30 30 29 255
0.0816542 -2.48347 11.9396 0 0 0 24 25 24 255
-0.160448 -2.41636 11.8635 0 0 0 35 37 35 255
2.45528 2.63183 9.081 0 0 0 213 212 212 255
-0.489013 -2.04515 11.91 0 0 0 102 106 107 255
0.526587 -2.60224 12.0767 0 0 0 0 71 74 255
-0.655857 -2.29996 11.6996 0 0 0 107 107 109 255
-0.523651 -2.37182 11.7569 0 0 0 108 107 108 255
3.83079 2.71061 8.44526 0 0 0 153 103 69 255
0.836276 -2.69878 12.1226 0 0 0 35 34 34 255
-0.987122 -1.55626 11.2183 0 0 0 57 54 52 255
2.63158 -1.20958 15.4967 0 0 0 69 67 66 255
0.120771 -2.78935 11.8361 0 0 0 29 61 111 255
1.78643 0.160651 13.6683 0 0 0 81 79 80 255
0.431695 -2.56853 12.0797 0 0 0 23 23 21 255
3.40968 2.77407 8.61407 0 0 0 46 47 47 255
6.30723 -2.21081 10.2814 0 0 0 110 110 108 255
3.90045 2.2399 9.33125 0 0 0 212 211 211 255
3.46343 2.79043 8.56358 0 0 0 47 47 47 255
3.42885 2.28346 9.45289 0 0 0 219 218 217 255
3.49243 2.30454 9.40098 0 0 0 214 213 213 255
3.92881 2.49682 8.98971 0 0 0 47 48 48 255
2.4576 2.84552 8.60815 0 0 0 41 41 42 255
3.4112 2.51925 9.03117 0 0 0 202 202 201 255
2.91359 2.80348 8.65786 0 0 0 46 46 46 255
2.39048 2.82459 8.64371 0 0 0 44 45 46 255
3.47265 2.55248 8.97432 0 0 0 54 54 53 255
-0.233815 -2.47718 11.8441 0 0 0 16 16 17 255
-0.196702 0.74736 10.4085 0 0 0 89 89 90 255
2.91762 2.54528 9.06513 0 0 0 216 216 216 255
2.97927 2.58114 9.01375 0 0 0 214 216 215 255
3.83666 2.71626 8.44287 0 0 0 153 103 69 255
2.9766 2.82275 8.60955 0 0 0 91 73 61 255
0.530577 2.29593 10.0954 0 0 0 215 216 215 255
2.44333 2.59284 9.14274 0 0 0 210 210 210 255
-0.839953 0.484304 10.4031 0 0 0 116 120 126 255
2.90912 2.82665 8.6358 0 0 0 49 50 51 255
-0.144766 -2.43173 11.8686 0 0 0 35 37 36 255
-0.479225 0.116868 10.0551 0 0 0 202 202 202 255
1.50503 0.212846 13.619 0 0 0 100 114 135 255
5.95189 0.32002 12.2539 0 0 0 56 58 58 255
-0.812326 -2.31265 11.717 0 0 0 104 105 104 255
0.0299105 1.15529 10.6746 0 0 0 13 13 11 255
-1.55391 -1.8345 11.6013 0 0 0 96 98 98 255
-0.411091 -2.34349 11.7909 0 0 0 107 108 109 255
0.439749 -2.63345 12.044 0 0 0 44 52 57 255
0.454681 -2.69043 12.0446 0 0 0 32 46 58 255
-0.864785 -2.31134 11.688 0 0 0 105 105 105 255
2.74014 0.515803 10.0762 0 0 0 0 0 0 255
0.201897 -2.5567 11.9819 0 0 0 18 18 17 255
-0.543514 -2.40986 11.7641 0 0 0 130 119 111 255
-0.995127 -1.55621 11.2166 0 0 0 63 62 60 255
-0.328405 -2.38502 11.8306 0 0 0 106 104 103 255
-0.775135 -2.33005 11.722 0 0 0 107 107 107 255
0.0691948 -2.48608 11.9242 0 0 0 25 25 25 255
1.67835 -1.59462 13.0447 0 0 0 224 224 226 255
0.807686 -2.73129 12.1047 0 0 0 36 34 34 255
-0.659203 -2.37031 11.7227 0 0 0 100 99 101 255
-0.627508 -2.37618 11.7275 0 0 0 100 105 110 255
-0.3265 -2.44207 11.8402 0 0 0 24 23 23 255
3.53176 2.81191 8.69802 0 0 0 182 134 69 255
5.84824 -2.4087 10.7257 0 0 0 152 152 154 255
0.0252232 -2.50013 11.9347 0 0 0 44 59 58 255
-0.330501 -2.41221 11.8337 0 0 0 24 24 24 255
-0.227576 -2.12231 11.9893 0 0 0 71 65 62 255
-0.344578 0.0554738 10.051 0 0 0 74 66 63 255
-0.60888 -2.30928 11.7555 0 0 0 98 99 101 255
0.589504 -2.6576 12.0948 0 0 0 34 35 36 255
-0.36435 0.393165 10.1435 0 0 0 195 195 195 255
-1.03989 -2.18367 11.6829 0 0 0 95 95 95 255
-0.493039 -2.31599 11.771 0 0 0 98 98 100 255
0.0810396 -2.57273 11.9417 0 0 0 32 32 32 255
0.194495 -2.6139 11.9154 0 0 0 29 32 33 255
2.87946 0.251147 12.6056 0 0 0 148 142 134 255
-0.172301 0.0586075 10.076 0 0 0 0 0 36 255
0.691291 -2.6913 12.1045 0 0 0 36 36 36 255
0.690153 -2.64898 12.124 0 0 0 37 36 37 255
-1.006 -2.26643 11.6313 0 0 0 96 95 95 255
0.640174 -2.36914 12.2353 0 0 0 38 38 39 255
-0.356519 0.0454124 10.0461 0 0 0 60 61 60 255
-0.67315 -2.36988 11.7432 0 0 0 105 111 101 255
-0.637119 -2.37457 11.7208 0 0 0 101 98 98 255
-1.04123 -2.19371 11.6773 0 0 0 95 94 94 255
2.93626 2.32416 9.50959 0 0 0 196 197 197 255
-1.07492 -1.50811 11.5863 0 0 0 31 31 30 255
0.988137 2.51738 9.61813 0 0 0 188 188 189 255
-0.607756 -2.32793 11.7644 0 0 0 100 100 98 255
-0.3294 -2.42992 11.8419 0 0 0 26 25 25 255
-0.162919 0.0468624 10.0774 0 0 0 0 0 40 255
2.89059 0.258614 12.6536 0 0 0 133 137 147 255
3.89209 1.09063 10.5267 0 0 0 166 166 160 255
0.636305 -2.36283 12.2358 0 0 0 36 36 38 255
0.758751 -2.71746 12.1045 0 0 0 37 37 38 255
1.96329 -1.4306 13.0316 0 0 0 56 70 84 255
5.56939 -2.53357 10.8924 0 0 0 95 96 95 255
5.70602 -2.48813 10.8279 0 0 0 129 114 106 255
5.70587 -2.47971 10.7856 0 0 0 119 147 156 255
5.8816 -2.41733 10.5773 0 0 0 101 103 111 255
2.9965 2.55825 9.06925 0 0 0 202 203 203 255
-1.02671 -1.47661 11.3769 0 0 0 31 32 32 255
5.75402 -2.42236 10.7402 0 0 0 127 132 131 255
6.02424 -2.35535 10.4353 0 0 0 101 102 102 255
-0.879908 -1.541 11.2711 0 0 0 55 61 65 255
5.13653 0.107055 12.138 0 0 0 164 160 157 255
6.0821 -2.26086 10.1882 0 0 0 23 22 23 255
5.89951 -2.33988 10.5028 0 0 0 101 101 100 255
5.93313 -2.37522 10.5278 0 0 0 113 111 107 255
0.459831 -2.58346 12.0574 0 0 0 36 33 30 255
5.94703 -2.29583 10.357 0 0 0 99 99 98 255
-0.14213 0.0912909 10.0922 0 0 0 191 190 191 255
5.59293 -2.54114 10.8509 0 0 0 96 95 95 255
6.15882 -2.1774 10.0903 0 0 0 48 37 45 255
0.507217 -2.33366 12.2059 0 0 0 34 12 0 255
6.13946 -2.34203 10.0847 0 0 0 44 76 88 255
5.51857 -2.5138 10.9515 0 0 0 94 94 94 255
5.93739 -2.40094 10.4956 0 0 0 155 143 116 255
-0.289594 -2.41996 11.8407 0 0 0 106 125 123 255
5.33806 -2.61926 11.2115 0 0 0 152 152 152 255
5.94904 -2.32609 10.5227 0 0 0 100 100 101 255
-0.79852 -2.23602 11.7095 0 0 0 95 96 95 255
6.01179 -2.29013 10.2556 0 0 0 101 101 100 255
3.82409 0.978493 10.1924 0 0 0 66 64 64 255
0.327729 -2.6501 12.0045 0 0 0 130 99 57 255
5.81666 -2.49437 10.5734 0 0 0 120 102 101 255
-1.00319 -1.88543 11.757 0 0 0 89 80 78 255
6.03228 -2.26696 10.2157 0 0 0 98 97 96 255
5.39747 -2.57961 11.1012 0 0 0 150 151 149 255
3.51596 2.29283 9.43948 0 0 0 209 209 209 255
3.00399 2.55902 9.06716 0 0 0 202 203 203 255
-0.163454 0.527835 10.2988 0 0 0 197 197 197 255
3.48352 2.51918 9.03219 0 0 0 188 188 188 255
2.90333 2.5788 9.00049 0 0 0 203 203 202 255
5.81548 -2.4008 10.5829 0 0 0 126 137 128 255
5.72117 -2.43197 10.7189 0 0 0 107 134 152 255
-0.89153 -1.55281 11.2763 0 0 0 41 45 48 255
-0.0991832 0.802979 10.4279 0 0 0 200 201 201 255
6.07002 -2.284 10.1945 0 0 0 25 24 24 255
5.94836 -2.30057 10.3667 0 0 0 100 100 101 255
0.124056 1.14755 10.715 0 0 0 51 37 62 255
2.80347 0.539513 10.0352 0 0 0 195 195 195 255
4.99782 0.0861655 11.9403 0 0 0 172 171 170 255
0.145823 0.478127 10.4402 0 0 0 24 22 21 255
-0.0987362 0.768221 10.4194 0 0 0 199 199 199 255
3.16113 -0.494931 11.2411 0 0 0 37 37 38 255
-0.80655 -2.24298 11.6966 0 0 0 94 95 94 255
3.24265 -0.532058 11.5913 0 0 0 38 39 39 255
5.04803 -0.763972 11.8198 0 0 0 214 213 212 255
0.821677 0.414731 13.4096 0 0 0 196 197 197 255
2.46305 2.38812 9.49651 0 0 0 190 191 192 255
6.02636 -2.28572 10.3198 0 0 0 98 97 96 255
0.684077 -2.75547 12.0816 0 0 0 42 45 46 255
3.42652 2.32004 9.41779 0 0 0 181 181 181 255
0.0190385 1.04723 10.6253 0 0 0 202 202 203 255
2.48494 2.12162 9.88759 0 0 0 192 191 190 255
2.74776 0.444527 10.1382 0 0 0 180 180 180 255
2.9333 2.5914 9.00019 0 0 0 208 208 208 255
2.14972 -1.4604 13.5858 0 0 0 89 92 97 255
2.91 -0.494427 10.7141 0 0 0 114 105 105 255
2.8009 -0.433085 10.9185 0 0 0 137 132 130 255
3.46032 -0.26941 10.1546 0 0 0 77 67 54 255
5.43742 0.134171 12.582 0 0 0 43 43 46 255
0.351882 -2.56217 12.0473 0 0 0 18 19 19 255
-5.04527e-05 -2.55355 11.9545 0 0 0 100 106 119 255
0.28224 -2.54403 12.0013 0 0 0 21 21 20 255
5.75249 -2.52555 10.5544 0 0 0 150 147 146 255
5.48674 -2.59071 10.8959 0 0 0 140 153 153 255
6.18787 -2.27941 10.1031 0 0 0 121 112 104 255
5.68415 -2.55488 10.6126 0 0 0 153 153 153 255
-0.436674 -2.43202 11.8433 0 0 0 96 96 96 255
6.97217 0.855575 10.8254 0 0 0 77 79 84 255
-0.183438 -2.50255 11.8827 0 0 0 114 114 103 255
6.63446 -0.644883 10.3349 0 0 0 82 76 72 255
-0.273705 -2.09347 11.965 0 0 0 57 52 56 255
5.64578 -2.45022 10.7713 0 0 0 141 136 154 255
3.44507 -0.258262 10.2446 0 0 0 48 48 47 255
0.826298 0.408177 13.4111 0 0 0 197 196 192 255
5.49133 -2.59317 10.8938 0 0 0 133 152 152 255
3.00893 2.10811 9.84471 0 0 0 205 205 205 255
5.73985 -2.52818 10.5473 0 0 0 148 150 149 255
5.44363 0.146681 12.5791 0 0 0 43 43 46 255
2.80065 -0.433554 10.9354 0 0 0 125 135 136 255
2.90553 -0.510064 10.7348 0 0 0 125 142 142 255
2.44009 2.38715 9.50693 0 0 0 188 187 187 255
5.68991 -2.56417 10.6293 0 0 0 155 154 153 255
6.96341 0.840133 10.8297 0 0 0 71 72 73 255
6.17128 -2.28943 10.1022 0 0 0 153 154 155 255
6.02998 -2.27231 10.3412 0 0 0 96 97 97 255
6.01689 -2.309 10.3253 0 0 0 97 98 96 255
3.87444 0.974279 10.3218 0 0 0 0 0 12 255
3.79573 1.00676 10.2968 0 0 0 167 166 165 255
2.934 2.36433 9.4461 0 0 0 207 206 205 255
0.766674 0.484778 13.3809 0 0 0 196 197 196 255
4.17546 -1.36179 11.8152 0 0 0 64 66 67 255
3.57831 -1.29714 12.2577 0 0 0 151 151 151 255
5.40794 -2.6098 10.9726 0 0 0 135 155 155 255
-0.0843503 0.0581924 10.1164 0 0 0 188 189 190 255
6.25692 -2.17784 10.1536 0 0 0 96 97 97 255
-0.399686 -2.65893 11.655 0 0 0 96 96 96 255
2.15686 -1.4653 13.5977 0 0 0 87 89 86 255
6.0622 -2.52717 10.226 0 0 0 151 157 150 255
2.15594 -1.40277 13.7879 0 0 0 203 201 202 255
6.63938 -0.647681 10.3312 0 0 0 77 73 68 255
2.51113 2.6236 9.07924 0 0 0 189 189 189 255
2.57282 0.137765 10.3273 0 0 0 166 166 166 255
-0.640966 -2.32757 11.7294 0 0 0 128 127 128 255
2.74659 -0.162235 11.7949 0 0 0 119 98 71 255
-0.483183 -2.38166 11.7571 0 0 0 83 83 83 255
1.47326 2.67107 9.20791 0 0 0 175 144 66 255
3.43866 2.80207 8.54208 0 0 0 167 173 174 255
3.38724 2.79729 8.56079 0 0 0 27 27 28 255
0.0874734 2.59212 9.72161 0 0 0 180 181 181 255
0.0445583 2.58134 9.72377 0 0 0 179 180 180 255
3.4592 2.77946 8.57521 0 0 0 171 173 174 255
3.39529 2.77432 8.59977 0 0 0 27 27 28 255
1.96052 2.67547 9.1037 0 0 0 40 41 48 255
2.00954 2.67786 9.11203 0 0 0 169 155 129 255
1.95583 2.64099 9.16111 0 0 0 34 34 35 255
2.01887 2.64517 9.16576 0 0 0 180 181 181 255
3.88343 2.73155 8.48493 0 0 0 29 28 28 255
3.40569 2.80682 8.53976 0 0 0 28 28 29 255
0.596312 2.52465 9.71577 0 0 0 33 33 33 255
2.48387 2.63616 9.05628 0 0 0 189 189 189 255
0.29369 -2.54564 13.8152 0 0 0 13 12 12 255
3.83375 0.994508 10.2845 0 0 0 28 35 36 255
2.57187 -0.0582524 11.4591 0 0 0 104 102 91 255
2.54021 -0.0378109 11.424 0 0 0 101 86 74 255
0.543365 2.50698 9.74436 0 0 0 174 174 173 255
3.00971 2.31308 9.46455 0 0 0 160 161 161 255
3.48515 2.32691 9.38321 0 0 0 184 183 183 255
-0.869306 2.46585 10.3015 0 0 0 32 31 31 255
2.45618 2.59961 9.12533 0 0 0 189 189 189 255
1.06033 2.51082 9.63012 0 0 0 33 32 72 255
1.00256 2.50105 9.64017 0 0 0 32 32 32 255
1.01826 2.48025 9.68756 0 0 0 32 32 32 255
1.08133 2.48318 9.69305 0 0 0 36 62 154 255
-0.406347 2.34917 10.1588 0 0 0 187 189 189 255
0.106903 2.33867 10.1453 0 0 0 174 175 176 255
-0.689751 -2.27292 11.7526 0 0 0 97 97 98 255
-1.56047 -1.87031 11.5662 0 0 0 73 72 73 255
2.96049 2.35135 9.52754 0 0 0 0 0 159 255
1.12109 -2.35236 14.5782 0 0 0 25 24 23 255
0.511358 2.53167 9.68351 0 0 0 172 173 173 255
0.536039 2.54648 9.66771 0 0 0 172 172 172 255
0.564954 2.55383 9.66597 0 0 0 37 34 33 255
0.116523 2.569 9.78478 0 0 0 181 181 181 255
1.52158 2.67596 9.21886 0 0 0 32 30 29 255
1.5448 2.69119 9.20364 0 0 0 30 30 29 255
-1.01543 -1.9366 11.7409 0 0 0 99 113 128 255
-1.09582 -1.24665 11.991 0 0 0 88 92 92 255
1.06032 2.51083 9.63012 0 0 0 33 32 72 255
2.9658 2.32768 9.52582 0 0 0 0 0 158 255
3.48518 2.3269 9.38322 0 0 0 184 183 183 255
3.38374 2.77189 8.61193 0 0 0 27 27 27 255
4.5482 0.0498146 11.2767 0 0 0 188 186 187 255
2.91282 0.0235604 12.2871 0 0 0 119 98 71 255
-1.56729 -1.8866 11.5547 0 0 0 73 71 71 255
2.00697 2.68091 9.10659 0 0 0 169 155 129 255
1.93861 2.6662 9.11592 0 0 0 36 36 37 255
3.8647 2.73897 8.49004 0 0 0 29 29 30 255
2.0185 2.64173 9.17148 0 0 0 179 180 181 255
0.517791 2.53964 9.6762 0 0 0 172 173 173 255
2.4942 2.6372 9.05847 0 0 0 189 189 189 255
0.590464 2.51689 9.74378 0 0 0 40 38 36 255
0.538417 2.50485 9.74839 0 0 0 176 175 174 255
-0.857493 2.42293 10.2622 0 0 0 32 32 32 255
2.46016 2.59221 9.13992 0 0 0 188 188 188 255
1.00947 2.47324 9.69805 0 0 0 32 32 32 255
-0.421444 2.34695 10.1555 0 0 0 179 180 183 255
3.45983 2.77681 8.58115 0 0 0 25 73 144 255
0.110956 2.34355 10.1324 0 0 0 174 175 176 255
3.02915 2.3268 9.49153 0 0 0 160 160 160 255
0.0412788 2.54524 9.79836 0 0 0 180 179 179 255
0.0974252 2.55 9.81495 0 0 0 180 180 180 255
1.96676 2.63087 9.17864 0 0 0 34 36 36 255
0.569384 2.55172 9.67153 0 0 0 38 34 33 255
2.42703 2.62557 9.07233 0 0 0 189 191 190 255
2.50853 2.59581 9.12222 0 0 0 189 189 189 255
0.990813 2.49877 9.64167 0 0 0 32 32 33 255
1.0856 2.47759 9.70613 0 0 0 36 78 162 255
3.40421 2.57269 8.986 0 0 0 187 186 186 255
-1.09937 -1.26008 11.9843 0 0 0 96 90 84 255
5.28591 -0.956712 12.1155 0 0 0 76 76 75 255
0.543394 2.77805 9.24815 0 0 0 41 95 165 255
0.500706 2.76508 9.25003 0 0 0 82 59 46 255
3.97408 3.14563 8.24114 0 0 0 175 175 176 255
0.560954 2.74973 9.30502 0 0 0 96 44 66 255
0.503704 2.73152 9.30645 0 0 0 174 174 174 255
2.45538 2.8728 8.62927 0 0 0 174 174 174 255
2.41494 2.86662 8.63969 0 0 0 174 174 174 255
-0.864669 2.66584 9.90427 0 0 0 152 152 154 255
2.48064 2.84608 8.68026 0 0 0 174 174 174 255
2.42638 2.83729 8.6937 0 0 0 174 174 174 255
0.982462 2.7344 9.20279 0 0 0 177 176 176 255
-0.396587 2.63305 9.76212 0 0 0 174 174 175 255
1.04636 2.71727 9.25693 0 0 0 176 176 176 255
-0.45221 2.61119 9.78296 0 0 0 174 174 174 255
2.95196 2.83319 8.58392 0 0 0 174 174 174 255
-0.423876 2.58271 9.84075 0 0 0 174 174 174 255
2.90523 2.80148 8.63859 0 0 0 184 185 185 255
1.51182 2.71586 9.15365 0 0 0 177 177 176 255
1.4691 2.7053 9.15955 0 0 0 176 175 174 255
2.96381 2.79967 8.63219 0 0 0 173 173 174 255
0.0375305 2.7759 9.36521 0 0 0 173 174 174 255
2.89955 2.82715 8.60083 0 0 0 184 181 176 255
0.848159 0.371756 13.3757 0 0 0 193 193 192 255
4.03332 -0.219618 10.5799 0 0 0 192 192 193 255
0.983249 2.71018 9.24753 0 0 0 175 174 176 255
5.23144 -0.0483603 12.1672 0 0 0 92 92 91 255
1.02567 2.74456 9.19842 0 0 0 176 176 174 255
2.0398 2.18387 9.93778 0 0 0 181 181 181 255
1.92212 2.90682 8.68556 0 0 0 188 189 191 255
1.98197 2.90893 8.68464 0 0 0 167 167 168 255
1.93073 2.8745 8.73654 0 0 0 185 188 190 255
1.07855 2.25642 10.0225 0 0 0 173 174 174 255
1.99101 2.87813 8.73711 0 0 0 158 160 161 255
-3.10386 1.56576 11.987 0 0 0 174 174 174 255
0.757178 -2.45064 12.2572 0 0 0 145 145 144 255
-3.05006 1.47702 12.023 0 0 0 166 165 166 255
0.851752 -2.43205 12.271 0 0 0 145 145 145 255
3.507 -0.262501 10.2385 0 0 0 65 115 159 255
-0.0984193 0.0218403 10.0929 0 0 0 60 58 53 255
0.354032 -2.48647 13.3261 0 0 0 0 0 0 255
-2.49706 -0.708916 12.0715 0 0 0 189 190 191 255
1.95135 -1.4123 12.9285 0 0 0 139 140 139 255
2.88189 2.8287 8.60236 0 0 0 183 184 184 255
0.0248894 2.76802 9.37042 0 0 0 172 172 173 255
1.47559 2.71688 9.14636 0 0 0 176 176 176 255
-0.373521 2.59425 9.83479 0 0 0 176 175 177 255
-0.426682 2.58265 9.84198 0 0 0 175 174 174 255
1.90544 2.9006 8.69524 0 0 0 183 184 184 255
1.51568 2.71464 9.15548 0 0 0 177 177 176 255
1.44756 2.69843 9.16587 0 0 0 153 161 167 255
2.91155 2.79038 8.65545 0 0 0 184 183 184 255
1.97047 2.91266 8.68027 0 0 0 165 166 167 255
0.08896 2.79911 9.35415 0 0 0 174 174 174 255
-0.0490493 0.450887 10.3246 0 0 0 32 28 26 255
1.93124 2.91537 8.67323 0 0 0 192 191 161 255
