ply
format ascii 1.0
comment VCGLIB generated
element vertex 1039
property float x
property float y
property float z
property float nx
property float ny
property float nz
property uchar red
property uchar green
property uchar blue
property uchar alpha
element face 0
property list uchar int vertex_indices
end_header
-0.494014 1.52648 6.27748 0 0 0 162 177 181 255
-0.506343 1.11946 7.58287 0 0 0 26 32 37 255
-1.3951 1.48663 6.46029 0 0 0 156 174 180 255
-0.431706 1.53052 6.35184 0 0 0 162 176 178 255
-1.1136 1.29482 7.04917 0 0 0 157 173 179 255
-1.33748 1.48077 6.49761 0 0 0 154 162 165 255
-0.319188 1.16159 7.27395 0 0 0 162 177 182 255
-0.687433 0.983814 8.12061 0 0 0 50 59 61 255
0.0166538 1.22717 7.30156 0 0 0 114 123 124 255
-0.753874 1.48996 6.43958 0 0 0 32 38 45 255
-0.207576 1.32272 6.82593 0 0 0 162 175 178 255
-1.58936 1.43406 6.63996 0 0 0 62 70 74 255
-1.05417 1.29825 7.15928 0 0 0 159 173 177 255
-0.984226 1.19047 7.36589 0 0 0 28 39 48 255
-0.655061 1.24153 7.29368 0 0 0 164 169 171 255
-0.575662 1.13155 7.51174 0 0 0 31 37 43 255
-0.721343 1.22207 7.15728 0 0 0 157 166 170 255
-0.469156 1.26704 7.01525 0 0 0 30 32 34 255
-0.0987519 1.47492 6.40223 0 0 0 168 175 177 255
-1.00341 1.4296 6.57397 0 0 0 159 170 173 255
-1.31412 1.23185 7.26365 0 0 0 68 85 91 255
-0.945142 1.4313 6.65056 0 0 0 146 158 167 255
-0.403634 1.2568 7.07596 0 0 0 160 173 177 255
-1.26457 1.39143 6.75114 0 0 0 38 46 53 255
-1.0279 1.03748 7.92456 0 0 0 23 24 24 255
-0.365383 1.42012 6.55172 0 0 0 36 36 38 255
-1.19646 1.38387 6.80687 0 0 0 57 65 73 255
-0.29066 1.40214 6.61229 0 0 0 111 118 122 255
-0.611461 1.36957 6.69157 0 0 0 156 167 171 255
0.616408 1.49285 6.47643 0 0 0 163 171 177 255
-2.29518 0.63319 6.56395 0 0 0 77 101 87 255
-2.49685 -0.949985 6.19859 0 0 0 127 150 129 255
-1.72368 1.52466 6.23882 0 0 0 84 99 103 255
-0.405116 -1.06295 7.50749 0 0 0 74 69 66 255
1.70627 0.286355 6.75611 0 0 0 125 138 142 255
1.18306 1.32369 6.83198 0 0 0 54 53 56 255
-1.22266 1.63612 6.06062 0 0 0 159 170 169 255
-0.389234 1.6641 5.85732 0 0 0 162 175 180 255
-2.17747 0.0996741 6.78732 0 0 0 147 150 155 255
-1.27479 1.62666 6.01609 0 0 0 158 175 177 255
-1.47403 -0.241445 7.90903 0 0 0 153 152 155 255
-0.911782 0.932187 8.14164 0 0 0 113 127 129 255
1.41108 0.17695 6.64697 0 0 0 61 107 146 255
0.647663 1.19324 7.0437 0 0 0 112 123 124 255
-1.20296 1.14352 7.46261 0 0 0 93 102 104 255
-2.33749 -0.457454 6.05922 0 0 0 139 154 130 255
-1.72016 -0.500827 7.15663 0 0 0 131 145 111 255
-1.47328 1.3421 6.86009 0 0 0 85 100 103 255
-2.28495 -0.0252563 6.3714 0 0 0 56 61 65 255
-2.28216 -0.137842 6.10321 0 0 0 106 128 107 255
-2.3033 -0.404247 5.97891 0 0 0 123 136 114 255
-2.14619 -0.146056 6.50982 0 0 0 106 127 97 255
-2.2946 -0.00251536 6.4356 0 0 0 93 93 94 255
1.0955 0.687501 8.5986 0 0 0 76 68 69 255
-2.07907 -0.197102 6.67045 0 0 0 136 154 122 255
-2.28878 0.655878 6.65576 0 0 0 149 162 164 255
-2.33793 -0.523473 6.04632 0 0 0 110 140 110 255
1.1862 0.126983 6.73156 0 0 0 129 142 149 255
0.161998 -1.05127 7.69656 0 0 0 125 123 121 255
-1.40607 -0.531821 7.56995 0 0 0 119 133 101 255
1.66957 1.018 7.08622 0 0 0 50 136 182 255
1.02025 -1.1145 7.75202 0 0 0 156 153 154 255
0.988425 -1.11653 7.7569 0 0 0 152 151 152 255
1.07925 -1.13397 7.74406 0 0 0 150 150 150 255
1.20861 0.13797 6.84244 0 0 0 32 88 135 255
1.54168 0.207732 6.66598 0 0 0 83 102 130 255
0.701719 -1.2768 7.67269 0 0 0 73 70 69 255
1.16375 0.552197 7.10948 0 0 0 102 157 196 255
1.72166 0.321258 6.76054 0 0 0 167 212 233 255
0.209638 -1.24512 7.41611 0 0 0 88 88 87 255
1.52431 0.277745 6.74594 0 0 0 76 100 134 255
1.46818 0.024034 6.54878 0 0 0 6 134 173 255
1.0764 -1.10967 7.73332 0 0 0 142 142 142 255
1.8144 0.378173 6.81814 0 0 0 63 108 148 255
1.50048 0.043813 6.56117 0 0 0 144 203 226 255
0.332399 -1.31285 7.70915 0 0 0 102 99 100 255
0.265865 -1.2873 7.69801 0 0 0 98 96 96 255
0.244864 -1.23883 7.6516 0 0 0 176 173 167 255
0.67351 -1.27196 7.6424 0 0 0 65 64 61 255
1.11119 -1.10698 7.71953 0 0 0 155 152 151 255
1.14372 0.182116 6.99114 0 0 0 64 94 121 255
1.26641 -1.14067 7.74095 0 0 0 148 145 146 255
1.16188 0.218087 6.98548 0 0 0 39 78 119 255
1.70756 0.0171794 6.62566 0 0 0 82 116 151 255
0.991518 -1.13432 7.75606 0 0 0 105 107 111 255
0.137449 1.12072 7.50552 0 0 0 139 157 164 255
1.54064 0.211905 6.66785 0 0 0 101 119 147 255
0.989083 -1.10594 7.75005 0 0 0 152 151 152 255
1.52354 0.271021 6.74549 0 0 0 117 137 146 255
1.09819 -1.11506 7.73025 0 0 0 118 118 118 255
0.058114 -1.04085 7.70679 0 0 0 95 95 95 255
1.46573 0.0151036 6.5518 0 0 0 119 148 156 255
0.420523 1.81284 6.0559 0 0 0 157 189 194 255
2.89882 0.702347 5.21622 0 0 0 92 92 92 255
1.73289 -1.22606 7.81267 0 0 0 45 46 41 255
1.97809 -1.0119 7.57915 0 0 0 45 48 52 255
0.770766 1.3769 6.80413 0 0 0 171 175 176 255
0.108687 1.82608 6.3988 0 0 0 48 47 52 255
1.74419 -1.05197 7.42447 0 0 0 36 33 37 255
0.176011 -1.04459 7.73551 0 0 0 122 114 106 255
2.30203 -1.66653 10.5275 0 0 0 164 175 178 255
1.24025 -1.35186 7.77873 0 0 0 71 69 64 255
1.26909 -1.33348 7.68767 0 0 0 73 72 63 255
1.46652 0.559038 6.82489 0 0 0 75 86 99 255
0.535043 -1.30876 7.68743 0 0 0 54 65 53 255
1.07826 0.709759 7.67571 0 0 0 174 181 184 255
1.80093 0.627335 6.89341 0 0 0 121 176 206 255
1.02011 -1.81079 7.41443 0 0 0 97 77 68 255
1.85217 0.717473 6.90778 0 0 0 6 97 147 255
0.266518 -1.04565 7.71777 0 0 0 115 113 113 255
0.350472 -1.07123 7.69774 0 0 0 118 118 115 255
0.425836 -1.21896 7.59735 0 0 0 79 71 63 255
0.959747 -1.47755 7.60669 0 0 0 90 61 50 255
1.15599 -1.92019 7.41498 0 0 0 108 76 63 255
0.842837 -1.82847 7.41155 0 0 0 164 152 141 255
3.13783 0.750253 4.70299 0 0 0 93 89 98 255
2.92364 0.700403 5.15909 0 0 0 171 180 179 255
0.688984 -1.45163 7.55117 0 0 0 86 68 60 255
1.28557 -1.95669 7.39754 0 0 0 119 77 69 255
1.15954 -1.84148 7.43768 0 0 0 107 88 78 255
2.23363 -1.70639 11.2674 0 0 0 28 53 59 255
1.0954 -1.87009 7.39519 0 0 0 161 153 145 255
1.87147 0.741573 6.90496 0 0 0 134 164 182 255
0.917144 -1.80682 7.43067 0 0 0 110 75 64 255
1.73464 -1.05164 7.43308 0 0 0 36 33 39 255
2.88751 0.702288 5.21821 0 0 0 122 126 127 255
1.22592 -1.9601 7.41108 0 0 0 111 83 74 255
1.15401 -1.92247 7.4166 0 0 0 123 95 84 255
2.3267 -1.62646 10.7882 0 0 0 20 29 36 255
1.10979 -1.87695 7.39479 0 0 0 163 154 146 255
2.24188 -1.69222 11.2009 0 0 0 28 53 59 255
1.73353 -1.20946 7.76077 0 0 0 45 46 41 255
0.848228 -1.83639 7.40983 0 0 0 163 154 146 255
2.29678 -1.67279 10.4886 0 0 0 162 179 185 255
0.774876 1.37875 6.80303 0 0 0 171 175 176 255
0.911289 -1.81006 7.42634 0 0 0 115 78 66 255
0.819209 -1.7937 7.39612 0 0 0 121 81 66 255
1.07396 0.714908 7.69135 0 0 0 170 172 173 255
1.86292 0.741001 6.90724 0 0 0 123 159 182 255
1.7881 0.720586 6.93503 0 0 0 1 97 151 255
2.92072 0.702373 5.16672 0 0 0 171 175 176 255
1.97354 -1.01071 7.557 0 0 0 49 72 78 255
2.44269 -0.148319 7.89057 0 0 0 93 107 109 255
0.104178 1.82527 6.40539 0 0 0 58 58 62 255
0.957729 -1.48325 7.60777 0 0 0 126 77 57 255
5.06308 -0.833729 6.31276 0 0 0 26 27 29 255
1.54215 0.0104003 6.60395 0 0 0 51 117 153 255
4.66949 -0.997259 6.75382 0 0 0 125 144 149 255
0.0547947 1.3735 6.82105 0 0 0 32 32 36 255
4.82135 -0.95173 6.60944 0 0 0 26 30 33 255
4.59499 -1.03723 6.87803 0 0 0 123 139 145 255
0.307612 1.42433 6.65639 0 0 0 166 185 193 255
4.88957 -0.913702 6.49387 0 0 0 24 28 43 255
4.90623 -0.911692 6.4817 0 0 0 21 30 43 255
4.70545 -1.10013 6.79965 0 0 0 124 126 128 255
4.62394 -1.1374 6.8767 0 0 0 115 120 123 255
4.86489 -0.893663 6.49047 0 0 0 121 134 135 255
1.03925 1.42823 6.63301 0 0 0 25 33 44 255
4.61232 -1.14185 6.90477 0 0 0 114 124 128 255
5.01146 -0.872368 6.35952 0 0 0 128 141 144 255
0.636414 1.62752 6.11555 0 0 0 55 43 47 255
4.90824 -0.875631 6.44307 0 0 0 128 142 142 255
4.94051 -0.867523 6.37148 0 0 0 126 147 149 255
4.98582 -0.862791 6.35288 0 0 0 11 30 33 255
5.05105 -0.859076 6.35166 0 0 0 125 134 135 255
0.398353 1.57149 6.19973 0 0 0 169 190 194 255
2.02727 -0.473947 6.94245 0 0 0 36 60 93 255
0.433034 1.58537 6.30476 0 0 0 174 182 187 255
0.100205 1.38395 6.88364 0 0 0 33 42 48 255
0.161444 1.50263 6.28973 0 0 0 36 35 43 255
0.205625 1.50346 6.33973 0 0 0 29 41 42 255
-0.248357 1.19013 7.50446 0 0 0 169 178 180 255
5.03169 -0.825328 6.31671 0 0 0 114 139 145 255
1.53976 0.0278757 6.61077 0 0 0 13 104 153 255
5.08451 -0.805864 6.2509 0 0 0 118 142 145 255
-0.321231 1.03028 7.79363 0 0 0 49 53 56 255
5.04093 -0.812312 6.2927 0 0 0 121 118 119 255
4.61918 -1.05507 6.84881 0 0 0 15 14 17 255
4.93842 -0.973834 6.46987 0 0 0 126 144 145 255
4.75363 -0.960214 6.66212 0 0 0 120 125 126 255
4.88125 -0.938828 6.52031 0 0 0 128 133 137 255
5.12606 -0.811548 6.22577 0 0 0 125 136 139 255
1.10726 -1.85158 7.46577 0 0 0 156 152 147 255
0.5295 -1.55878 7.54766 0 0 0 158 152 147 255
-0.33428 1.02256 7.76975 0 0 0 57 66 70 255
1.22169 -1.34653 7.74828 0 0 0 82 80 77 255
1.76635 0.412196 6.80508 0 0 0 50 93 124 255
4.99784 -0.931518 6.41563 0 0 0 31 34 39 255
1.58993 0.0230986 6.60436 0 0 0 42 92 116 255
0.771131 -1.32025 7.62344 0 0 0 61 59 55 255
4.93572 -0.846189 6.3636 0 0 0 101 112 114 255
1.21997 -1.3239 7.7499 0 0 0 53 51 48 255
1.88185 0.231523 6.84459 0 0 0 88 103 109 255
0.767484 -1.27573 7.62557 0 0 0 55 54 52 255
5.1722 -0.733339 6.05796 0 0 0 128 147 149 255
4.80361 -0.988446 6.6424 0 0 0 129 138 143 255
1.25258 -1.83195 7.45592 0 0 0 65 61 60 255
0.667427 -1.3083 7.71304 0 0 0 41 42 39 255
5.20841 -0.835654 6.09528 0 0 0 133 144 147 255
0.321844 -1.28026 7.59719 0 0 0 91 88 85 255
4.71581 -0.977744 6.70445 0 0 0 115 132 141 255
4.83933 -0.912525 6.55399 0 0 0 116 134 136 255
5.10853 -0.778937 6.19544 0 0 0 119 138 143 255
4.76618 -1.00886 6.71111 0 0 0 105 144 151 255
4.77468 -0.929657 6.58387 0 0 0 107 118 119 255
0.00283836 -1.20375 7.52305 0 0 0 46 50 48 255
1.10233 -1.95865 7.47937 0 0 0 160 154 153 255
0.0239572 -1.2128 7.61333 0 0 0 66 65 63 255
4.86763 -0.970718 6.60987 0 0 0 101 110 111 255
3.16031 0.769634 4.68879 0 0 0 166 183 192 255
0.590434 -1.2565 7.66588 0 0 0 50 51 51 255
4.98436 -0.829537 6.3308 0 0 0 91 97 102 255
0.343011 -1.24822 7.59829 0 0 0 156 153 145 255
0.987825 -1.32155 7.73831 0 0 0 156 151 146 255
1.508 0.0372578 6.61133 0 0 0 151 176 183 255
1.05689 -1.48524 7.61055 0 0 0 90 72 68 255
0.634232 1.61777 6.07918 0 0 0 38 48 56 255
0.0373328 1.37642 6.83749 0 0 0 31 34 41 255
-0.207127 1.15811 7.39184 0 0 0 169 175 178 255
4.8883 -0.910826 6.48684 0 0 0 24 28 43 255
0.156702 1.50003 6.29477 0 0 0 31 32 41 255
0.117496 1.36785 6.80879 0 0 0 35 56 62 255
0.300275 1.42815 6.66037 0 0 0 165 189 194 255
0.210989 1.49949 6.35032 0 0 0 75 85 86 255
5.04444 -0.850726 6.34807 0 0 0 74 75 82 255
0.39499 1.57073 6.19836 0 0 0 170 191 195 255
0.439017 1.58474 6.31181 0 0 0 142 154 163 255
1.02786 1.42073 6.654 0 0 0 55 69 71 255
4.97143 -0.855979 6.35996 0 0 0 19 21 24 255
4.61591 -1.13228 6.90397 0 0 0 114 124 128 255
1.2273 -1.32831 7.68848 0 0 0 82 80 77 255
5.11959 -0.796907 6.21886 0 0 0 114 142 151 255
4.88433 -0.942 6.5314 0 0 0 37 42 59 255
2.02306 -0.478531 6.93681 0 0 0 119 140 149 255
5.00664 -0.892987 6.3745 0 0 0 119 126 128 255
1.5455 -0.024164 6.59086 0 0 0 129 168 184 255
4.87092 -0.901389 6.5076 0 0 0 101 130 138 255
5.08685 -0.814327 6.25465 0 0 0 122 145 149 255
4.69585 -1.10073 6.79813 0 0 0 127 134 134 255
4.81709 -0.93914 6.59151 0 0 0 26 30 33 255
1.25036 -1.83512 7.4592 0 0 0 129 122 120 255
-0.342765 1.02378 7.80582 0 0 0 57 66 70 255
4.59528 -1.03375 6.8677 0 0 0 123 139 145 255
4.8006 -0.984233 6.64096 0 0 0 82 95 104 255
4.9582 -0.950417 6.40257 0 0 0 58 72 76 255
5.17782 -0.743773 6.06749 0 0 0 123 150 153 255
5.16287 -0.776225 6.15629 0 0 0 100 132 145 255
4.65928 -0.991752 6.75718 0 0 0 111 131 140 255
4.74622 -0.964432 6.67564 0 0 0 61 79 88 255
0.0356887 -1.20351 7.54074 0 0 0 65 66 67 255
1.20871 -1.84158 7.48115 0 0 0 110 100 97 255
4.7812 -0.942075 6.60206 0 0 0 82 103 110 255
4.94463 -0.872703 6.38407 0 0 0 82 96 100 255
4.91176 -0.880841 6.45459 0 0 0 95 107 118 255
5.0361 -0.822292 6.30819 0 0 0 114 139 145 255
4.7096 -0.983655 6.71615 0 0 0 101 111 120 255
4.83041 -0.922472 6.56308 0 0 0 57 79 87 255
4.92994 -0.986376 6.47782 0 0 0 61 76 81 255
2.93855 0.88036 4.49148 0 0 0 162 186 183 255
5.20754 -0.8313 6.11392 0 0 0 106 126 136 255
0.415616 -1.86999 7.32091 0 0 0 162 153 150 255
3.16068 0.766232 4.69449 0 0 0 158 175 183 255
-0.000928871 -1.20475 7.53009 0 0 0 88 96 93 255
4.85102 -0.96435 6.60421 0 0 0 89 109 109 255
1.16281 0.106766 6.91882 0 0 0 13 58 102 255
0.57103 -1.49301 7.63216 0 0 0 115 81 69 255
0.25015 -1.24736 7.59399 0 0 0 155 153 149 255
5.09739 -0.842761 6.29773 0 0 0 60 82 88 255
0.991004 -1.35289 7.92187 0 0 0 35 33 32 255
1.91205 0.356424 6.86968 0 0 0 170 191 198 255
1.36872 0.501962 6.85952 0 0 0 26 64 113 255
-0.0511954 1.23274 7.31496 0 0 0 40 40 42 255
1.07048 -1.30059 7.67915 0 0 0 44 50 48 255
-0.222056 1.56033 6.92618 0 0 0 154 163 170 255
0.216039 1.27838 7.1019 0 0 0 160 178 182 255
0.975713 -1.32191 7.92729 0 0 0 67 70 67 255
1.00593 1.81937 5.54987 0 0 0 68 80 92 255
0.72269 1.78852 5.6964 0 0 0 44 50 66 255
0.774351 1.77891 5.7088 0 0 0 38 50 60 255
1.76034 -1.10477 7.74782 0 0 0 55 57 63 255
0.232165 -1.28593 7.6355 0 0 0 57 58 50 255
1.75763 -1.08405 7.75643 0 0 0 92 90 91 255
0.468097 1.76666 5.96907 0 0 0 160 169 174 255
1.57286 0.352199 6.73443 0 0 0 159 172 186 255
-0.270602 1.35256 7.17061 0 0 0 150 176 181 255
-0.259451 1.38073 7.27407 0 0 0 171 176 178 255
1.10361 -1.29491 7.67081 0 0 0 65 67 66 255
-0.334228 1.18867 7.51017 0 0 0 161 183 187 255
1.64623 0.381882 6.73871 0 0 0 55 80 94 255
1.16406 -1.33267 7.73191 0 0 0 156 153 147 255
1.1376 -1.36796 7.7858 0 0 0 62 71 68 255
1.27913 -1.30228 7.68397 0 0 0 78 90 86 255
1.47913 0.0130504 6.60366 0 0 0 22 122 154 255
0.500593 -1.28643 7.5937 0 0 0 74 72 72 255
0.415593 -1.06657 7.78374 0 0 0 115 112 109 255
1.75675 0.47078 6.83016 0 0 0 123 151 157 255
3.35856 0.886508 4.59168 0 0 0 103 138 131 255
1.82694 0.327408 6.80167 0 0 0 66 90 122 255
1.87841 0.285889 6.8565 0 0 0 67 92 121 255
0.40685 -1.29411 7.63452 0 0 0 62 65 61 255
1.09415 -1.33157 7.62217 0 0 0 56 52 49 255
1.76384 -0.0366882 6.63375 0 0 0 62 79 117 255
1.09016 -1.32708 7.91183 0 0 0 79 77 75 255
0.214604 -1.21773 7.6706 0 0 0 80 80 79 255
0.0590202 -1.34254 7.99677 0 0 0 45 53 46 255
0.961291 -1.40696 7.93999 0 0 0 94 96 92 255
1.17211 -1.28705 7.72383 0 0 0 92 91 91 255
-0.195859 1.35105 7.14049 0 0 0 171 176 178 255
1.75195 -1.10851 7.7401 0 0 0 29 32 40 255
0.476421 1.77585 5.97119 0 0 0 171 185 189 255
0.761265 1.79866 5.74195 0 0 0 38 50 60 255
0.723717 1.78092 5.68946 0 0 0 43 49 61 255
0.244849 -1.28344 7.61859 0 0 0 143 143 136 255
1.49884 0.215239 6.67122 0 0 0 94 115 133 255
0.948442 -1.42397 8.07264 0 0 0 86 90 90 255
3.35794 0.888689 4.5898 0 0 0 103 138 131 255
1.79059 1.02294 7.03339 0 0 0 154 185 203 255
1.81376 0.315342 7.05244 0 0 0 137 158 163 255
0.111027 -1.30688 7.82715 0 0 0 45 53 46 255
1.2462 -1.40408 7.91118 0 0 0 116 119 113 255
1.87844 0.285963 6.85665 0 0 0 67 92 121 255
1.53357 0.518687 6.80184 0 0 0 155 179 185 255
0.97992 -1.34172 7.67223 0 0 0 83 85 81 255
3.13863 0.646446 4.97189 0 0 0 112 126 118 255
1.93407 0.318751 6.87713 0 0 0 140 168 188 255
0.939845 -1.34187 8.04058 0 0 0 84 85 80 255
1.46359 0.917552 6.97143 0 0 0 30 87 117 255
1.764 -0.0365619 6.63402 0 0 0 62 79 117 255
-0.507987 1.2848 7.2817 0 0 0 31 36 46 255
0.0498003 1.80776 5.88899 0 0 0 173 184 187 255
0.327608 1.84107 5.67878 0 0 0 33 35 36 255
0.276467 1.84781 5.66993 0 0 0 31 38 48 255
0.606027 1.87449 5.46887 0 0 0 168 189 199 255
-0.413995 1.44333 6.85479 0 0 0 39 43 46 255
0.550865 1.87845 5.45219 0 0 0 164 192 201 255
1.77872 0.453109 6.83069 0 0 0 0 29 99 255
0.797876 1.93936 5.32622 0 0 0 41 43 46 255
-0.146588 1.48978 6.65846 0 0 0 162 184 191 255
-0.596225 1.14397 7.69473 0 0 0 23 26 34 255
-0.518354 1.13585 7.71814 0 0 0 29 48 55 255
-0.777998 1.09395 7.90155 0 0 0 167 175 178 255
0.118768 1.53156 6.46789 0 0 0 27 35 40 255
0.185287 1.53455 6.4823 0 0 0 22 34 43 255
-0.277573 1.60296 6.47184 0 0 0 28 40 46 255
0.38653 1.57783 6.27845 0 0 0 163 185 189 255
-0.0694295 1.64134 6.25609 0 0 0 164 188 194 255
-0.00675465 1.64129 6.25837 0 0 0 164 177 180 255
0.90546 1.67274 5.91316 0 0 0 158 186 195 255
-0.683339 0.982927 8.12504 0 0 0 42 44 45 255
0.202608 1.68571 6.057 0 0 0 25 34 39 255
0.264857 1.6887 6.0706 0 0 0 20 38 48 255
0.478812 1.73014 5.85106 0 0 0 156 185 191 255
-0.425367 1.28574 7.28424 0 0 0 25 33 40 255
1.34078 0.240488 6.73859 0 0 0 146 165 172 255
-0.354231 1.43597 6.8719 0 0 0 46 52 53 255
-0.696561 1.24355 7.48011 0 0 0 163 172 174 255
-0.767426 1.24117 7.46358 0 0 0 148 172 178 255
1.7798 0.245791 6.73752 0 0 0 138 178 242 255
0.358195 2.0287 5.34742 0 0 0 30 46 55 255
1.51336 0.271279 6.67367 0 0 0 44 47 61 255
1.60416 -0.0277542 6.58445 0 0 0 11 81 137 255
1.92207 0.372504 6.88415 0 0 0 132 162 172 255
-0.384089 -1.07877 7.67665 0 0 0 144 145 138 255
0.603187 2.07012 5.17014 0 0 0 45 79 95 255
1.34226 1.61455 6.01782 0 0 0 64 88 102 255
-1.05119 1.0487 8.0825 0 0 0 48 67 75 255
1.50597 0.553826 6.81317 0 0 0 141 164 179 255
1.62852 0.627721 6.83927 0 0 0 146 170 187 255
1.66699 0.509443 6.80408 0 0 0 69 93 101 255
0.956441 -1.05183 7.54699 0 0 0 125 123 123 255
1.50454 -0.00653323 6.5951 0 0 0 142 177 190 255
1.84608 -1.11967 12.1507 0 0 0 41 49 52 255
-0.510927 1.14172 7.70732 0 0 0 29 48 55 255
-0.861432 1.09873 7.8621 0 0 0 159 183 192 255
0.88973 1.67809 5.91402 0 0 0 167 195 204 255
1.7789 0.24311 6.73649 0 0 0 20 62 125 255
-0.782134 1.08938 7.90474 0 0 0 102 104 108 255
0.47164 1.72933 5.85437 0 0 0 159 189 200 255
-0.00862179 1.63557 6.26662 0 0 0 154 171 179 255
0.0541358 1.80751 5.88835 0 0 0 173 184 187 255
0.181633 1.53141 6.48617 0 0 0 60 73 75 255
-0.397263 -1.09592 7.69157 0 0 0 152 145 141 255
0.33173 1.84016 5.68174 0 0 0 52 58 60 255
0.271152 1.8477 5.66925 0 0 0 25 39 51 255
-1.04465 1.04661 8.08567 0 0 0 64 85 93 255
-0.504968 1.28906 7.26527 0 0 0 27 33 42 255
0.111395 1.52915 6.47525 0 0 0 44 42 45 255
0.604232 1.87417 5.473 0 0 0 155 173 183 255
-0.772962 1.24661 7.45249 0 0 0 156 182 190 255
-0.688536 1.24965 7.47381 0 0 0 163 172 174 255
0.549304 1.87832 5.45172 0 0 0 163 194 203 255
-0.425357 1.44327 6.85447 0 0 0 31 38 44 255
0.820646 1.91659 5.25653 0 0 0 35 38 46 255
-0.355549 1.4352 6.87936 0 0 0 97 110 115 255
-0.153827 1.4837 6.66909 0 0 0 160 184 192 255
-0.696764 0.980826 8.13125 0 0 0 83 94 98 255
-0.431861 1.2803 7.29312 0 0 0 87 105 112 255
0.361307 2.02686 5.35167 0 0 0 46 55 57 255
0.204087 1.68595 6.058 0 0 0 25 34 39 255
-0.086262 1.63673 6.26864 0 0 0 158 186 195 255
0.374398 1.57844 6.27242 0 0 0 162 193 201 255
-0.602625 1.14091 7.70906 0 0 0 55 54 57 255
0.311802 2.02011 5.38461 0 0 0 166 194 204 255
0.599532 2.07056 5.1711 0 0 0 52 95 112 255
1.66891 0.50413 6.80577 0 0 0 154 178 186 255
1.33287 1.61495 6.01924 0 0 0 79 103 116 255
1.51467 0.263732 6.72802 0 0 0 124 128 143 255
0.624464 0.814218 8.39758 0 0 0 29 33 39 255
1.82941 -1.13838 12.2085 0 0 0 25 48 56 255
-0.896573 0.947179 8.29369 0 0 0 95 113 119 255
-0.363997 -1.0304 7.64234 0 0 0 19 16 14 255
1.66191 -0.0184267 6.6008 0 0 0 8 50 104 255
1.73654 0.0152726 6.63496 0 0 0 37 62 100 255
0.876213 1.28647 7.05736 0 0 0 46 48 53 255
1.66054 0.0296965 6.62875 0 0 0 5 63 123 255
1.7629 1.02948 6.987 0 0 0 85 101 116 255
1.67838 1.05809 6.9986 0 0 0 163 177 183 255
0.36503 1.18357 7.39966 0 0 0 60 62 63 255
1.4949 0.0551839 6.61684 0 0 0 5 101 144 255
1.61581 0.665866 6.85781 0 0 0 14 107 151 255
1.81757 0.0194084 6.68115 0 0 0 86 81 92 255
1.46183 0.835973 6.94026 0 0 0 35 74 105 255
1.74202 0.485777 6.83593 0 0 0 129 147 161 255
1.86875 -0.0469882 6.68347 0 0 0 3 80 138 255
1.51484 -0.0285946 6.58999 0 0 0 12 90 132 255
1.58484 -0.0183084 6.58896 0 0 0 17 67 101 255
1.84533 0.734944 6.95022 0 0 0 15 100 149 255
1.78225 -0.00741081 6.64813 0 0 0 61 59 96 255
1.76149 0.750901 6.94931 0 0 0 143 167 184 255
1.8504 0.792223 6.97144 0 0 0 41 65 103 255
1.63379 -0.0457805 6.58735 0 0 0 135 154 167 255
1.13102 0.830573 7.25909 0 0 0 162 166 170 255
1.43449 -0.105966 6.57018 0 0 0 133 118 85 255
2.84432 0.897249 4.54398 0 0 0 60 73 80 255
1.43432 -0.148291 6.55897 0 0 0 127 117 92 255
2.93988 0.864943 4.52578 0 0 0 157 169 166 255
2.80808 1.00866 4.45598 0 0 0 92 59 71 255
2.97853 1.023 4.43239 0 0 0 98 102 101 255
2.71141 0.749088 4.84753 0 0 0 25 64 82 255
1.31413 -0.149277 6.60592 0 0 0 12 39 82 255
3.1614 0.938168 4.47986 0 0 0 56 66 83 255
2.82495 0.996441 4.46193 0 0 0 68 56 54 255
3.19401 0.917087 4.50568 0 0 0 136 152 165 255
1.8305 -0.0889804 6.64288 0 0 0 123 147 165 255
3.37188 0.866831 4.65233 0 0 0 112 138 130 255
1.52618 -0.120596 6.54653 0 0 0 14 41 84 255
2.81413 0.985464 4.46904 0 0 0 145 160 163 255
1.38407 0.0338455 6.63982 0 0 0 141 159 157 255
1.32351 -0.175319 6.60538 0 0 0 105 113 125 255
0.86966 1.28551 7.071 0 0 0 43 47 51 255
1.65326 0.0277366 6.62999 0 0 0 9 58 106 255
1.8452 0.733616 6.95017 0 0 0 3 88 137 255
1.68154 0.0293838 6.62747 0 0 0 118 137 150 255
1.60274 0.659393 6.85565 0 0 0 5 109 153 255
1.45744 0.0343419 6.62405 0 0 0 129 161 169 255
0.634362 0.803736 8.19964 0 0 0 39 42 46 255
1.72576 -0.0850207 6.61734 0 0 0 3 92 141 255
3.15833 0.936994 4.48069 0 0 0 92 98 109 255
1.50266 -0.0302199 6.57599 0 0 0 37 89 115 255
1.87038 -0.0517702 6.68237 0 0 0 44 85 109 255
2.8778 1.23244 4.36414 0 0 0 41 63 91 255
3.38915 1.20623 4.50053 0 0 0 124 116 117 255
3.0739 0.945262 4.45224 0 0 0 159 165 166 255
2.71881 0.766703 4.8122 0 0 0 127 161 164 255
1.45449 0.828704 6.93928 0 0 0 30 73 104 255
1.77688 -0.0171379 6.63604 0 0 0 84 81 117 255
2.88538 1.26028 4.36212 0 0 0 131 148 154 255
1.75029 0.756161 6.93944 0 0 0 138 163 179 255
3.18969 0.917979 4.50727 0 0 0 139 156 169 255
3.3703 0.863413 4.65653 0 0 0 68 100 95 255
5.19965 -0.80645 6.31865 0 0 0 99 122 124 255
1.60432 -0.115711 6.55829 0 0 0 119 115 130 255
1.66201 0.0497735 6.64071 0 0 0 138 151 158 255
5.12802 -0.798914 6.34484 0 0 0 71 100 104 255
5.13736 -0.794302 6.32684 0 0 0 92 106 114 255
1.41634 -0.126955 6.56282 0 0 0 30 38 47 255
5.19322 -0.753478 6.21137 0 0 0 102 120 125 255
5.21386 -0.743934 6.17802 0 0 0 19 26 35 255
1.4456 0.800153 6.93324 0 0 0 113 158 194 255
2.75961 0.986852 4.48538 0 0 0 24 72 70 255
2.95654 0.847945 4.54402 0 0 0 140 164 162 255
2.76431 1.04619 4.44385 0 0 0 38 58 84 255
3.08131 0.970314 4.45185 0 0 0 59 65 71 255
1.44397 0.0470172 6.63156 0 0 0 48 95 98 255
1.42237 0.573531 6.86721 0 0 0 115 129 133 255
1.63231 0.0286159 6.63123 0 0 0 78 123 183 255
2.01758 -0.547131 7.20724 0 0 0 15 70 114 255
0.858365 1.51867 6.3819 0 0 0 159 163 164 255
1.27507 1.4713 6.47104 0 0 0 155 157 161 255
1.69038 0.0588143 6.64815 0 0 0 3 97 140 255
1.87605 -0.00929603 6.70321 0 0 0 12 76 112 255
1.2898 -0.17651 6.6233 0 0 0 94 97 101 255
1.64314 0.607978 6.83906 0 0 0 137 158 171 255
1.5802 -0.00233448 6.60175 0 0 0 125 154 170 255
3.0003 0.965734 4.48354 0 0 0 159 159 163 255
3.00633 1.00502 4.43148 0 0 0 83 89 84 255
1.61218 -0.162206 6.53071 0 0 0 129 121 120 255
1.50276 -0.152404 6.53502 0 0 0 125 110 104 255
1.52119 -0.14657 6.53924 0 0 0 128 115 99 255
2.86851 0.888353 4.53077 0 0 0 60 77 73 255
1.29208 -0.143849 6.62531 0 0 0 114 112 87 255
1.46807 -0.00613349 6.59793 0 0 0 67 91 96 255
1.45532 -0.128489 6.55988 0 0 0 41 36 26 255
2.99176 1.05102 4.41589 0 0 0 72 79 89 255
1.57512 -0.124672 6.56006 0 0 0 135 125 99 255
1.20552 0.58294 7.07065 0 0 0 30 61 92 255
1.78129 0.6493 6.89854 0 0 0 0 103 154 255
2.83581 0.913016 4.54347 0 0 0 124 144 135 255
2.82336 0.893899 4.54562 0 0 0 137 161 153 255
1.59587 -0.0587141 6.57121 0 0 0 87 131 164 255
2.67657 1.02314 4.5452 0 0 0 18 35 45 255
2.70808 0.775787 4.80523 0 0 0 142 173 179 255
1.19904 -0.188644 6.67437 0 0 0 130 121 94 255
3.05237 1.03745 4.42443 0 0 0 157 176 183 255
1.20183 0.453916 6.99534 0 0 0 28 53 70 255
1.61207 0.715661 6.87336 0 0 0 44 105 135 255
1.39875 -0.110753 6.5739 0 0 0 119 112 89 255
1.17815 0.573227 7.10546 0 0 0 116 136 138 255
1.55894 -0.0488633 6.57361 0 0 0 5 81 135 255
1.88164 0.763304 6.75961 0 0 0 121 153 180 255
1.27349 -0.129722 6.64391 0 0 0 127 122 97 255
1.58561 -0.168822 6.52366 0 0 0 5 40 94 255
1.36443 0.791326 6.95592 0 0 0 68 139 173 255
2.87212 0.851176 4.5257 0 0 0 105 139 136 255
1.47049 0.692434 6.87536 0 0 0 90 162 203 255
3.16027 0.878638 4.45808 0 0 0 148 167 171 255
3.18321 0.729064 4.81548 0 0 0 132 151 163 255
2.89139 1.0794 4.39784 0 0 0 122 67 65 255
3.02344 1.02522 4.42706 0 0 0 73 73 88 255
3.0628 1.0484 4.42007 0 0 0 53 64 79 255
1.35376 -0.171102 6.58709 0 0 0 108 113 106 255
1.73076 0.0726237 6.66023 0 0 0 6 83 128 255
2.78689 1.02795 4.43913 0 0 0 60 70 78 255
2.77595 1.06829 4.43233 0 0 0 39 59 79 255
1.36218 0.82934 6.98213 0 0 0 86 92 108 255
1.03863 -0.486054 7.06563 0 0 0 99 102 101 255
1.46127 -0.0558808 6.58309 0 0 0 5 82 133 255
1.29645 0.904749 7.08014 0 0 0 14 67 108 255
5.24732 -0.724347 6.13576 0 0 0 91 97 102 255
1.69641 0.0731125 6.65282 0 0 0 81 148 180 255
1.52818 -0.104572 6.55516 0 0 0 119 108 81 255
1.19806 0.241593 6.90193 0 0 0 41 57 68 255
3.13028 1.10796 4.41218 0 0 0 153 174 177 255
1.81657 -0.0689257 6.64728 0 0 0 79 71 101 255
2.74954 0.981185 4.49536 0 0 0 108 137 143 255
2.98303 1.08282 4.39814 0 0 0 64 86 100 255
1.56455 -0.164638 6.52732 0 0 0 107 113 136 255
3.47596 1.09398 4.59327 0 0 0 111 132 141 255
3.15632 0.433034 7.32572 0 0 0 150 150 150 255
1.30713 0.802198 7.032 0 0 0 6 79 130 255
0.857006 1.52062 6.38177 0 0 0 135 138 140 255
1.6682 0.000213507 6.60447 0 0 0 143 157 166 255
1.46291 0.312236 6.74739 0 0 0 141 166 171 255
2.76043 0.979596 4.49174 0 0 0 26 70 65 255
2.82107 0.896096 4.547 0 0 0 94 147 138 255
2.70917 0.777167 4.79379 0 0 0 142 173 179 255
3.00322 1.00283 4.43356 0 0 0 149 154 150 255
2.99454 1.02238 4.42656 0 0 0 166 178 167 255
2.95245 0.849246 4.53972 0 0 0 140 165 164 255
1.5014 -0.148631 6.53641 0 0 0 68 73 88 255
2.83556 0.911833 4.54248 0 0 0 135 154 146 255
1.56272 -0.129622 6.5434 0 0 0 133 119 96 255
3.15956 0.878526 4.45979 0 0 0 146 167 171 255
1.6037 -0.160461 6.53777 0 0 0 32 53 96 255
2.86859 0.889406 4.53089 0 0 0 60 77 73 255
1.20582 0.575077 7.06824 0 0 0 47 72 98 255
2.77194 0.993574 4.47853 0 0 0 100 136 135 255
3.05117 1.03498 4.42434 0 0 0 142 161 171 255
1.60252 -0.121751 6.55431 0 0 0 44 43 77 255
1.8841 -0.00892965 6.71514 0 0 0 8 75 113 255
2.43816 -0.104694 8.0691 0 0 0 86 104 108 255
3.02349 1.02753 4.42691 0 0 0 73 73 88 255
2.9929 1.0509 4.41651 0 0 0 72 79 89 255
3.10413 0.953836 4.45292 0 0 0 89 103 110 255
1.19846 0.460982 7.00531 0 0 0 66 97 116 255
1.49952 -0.108195 6.55253 0 0 0 80 80 92 255
2.67238 1.0215 4.54785 0 0 0 32 29 37 255
2.99966 0.968885 4.48065 0 0 0 159 159 163 255
1.45144 -0.0207805 6.5931 0 0 0 128 154 157 255
3.17903 0.726336 4.82498 0 0 0 132 144 151 255
3.29972 1.21666 4.37529 0 0 0 132 154 169 255
1.04357 -0.485246 7.06814 0 0 0 99 102 101 255
3.14227 1.03383 4.43183 0 0 0 60 57 85 255
1.47436 0.696048 6.87656 0 0 0 90 162 203 255
1.44597 0.790917 6.92933 0 0 0 94 158 204 255
3.06379 1.04836 4.41984 0 0 0 53 64 79 255
2.89028 0.895239 4.53399 0 0 0 144 161 157 255
2.78683 1.15292 4.39392 0 0 0 144 150 148 255
1.52791 0.0732668 6.63573 0 0 0 93 150 190 255
1.2896 0.907251 7.0869 0 0 0 36 85 105 255
2.89822 0.94135 4.47084 0 0 0 107 136 128 255
3.31349 1.19682 4.37601 0 0 0 160 188 201 255
3.58098 -0.326195 7.52753 0 0 0 82 117 130 255
1.59299 -0.063134 6.5666 0 0 0 18 90 146 255
1.1733 0.565742 7.10614 0 0 0 124 133 141 255
3.1317 1.10659 4.41379 0 0 0 152 174 177 255
3.10694 1.02722 4.42955 0 0 0 46 60 81 255
5.11951 -0.344479 6.1333 0 0 0 126 108 48 255
3.32617 1.72484 4.65878 0 0 0 37 72 90 255
1.30322 0.804062 7.03239 0 0 0 11 79 122 255
1.66041 -0.07074 6.56802 0 0 0 78 141 172 255
1.13952 0.226517 6.98283 0 0 0 38 46 62 255
3.27748 1.21806 4.39175 0 0 0 58 62 65 255
4.57412 -1.12397 6.92998 0 0 0 108 123 129 255
4.91057 -0.878279 6.55554 0 0 0 118 132 145 255
4.77743 -0.989754 6.70015 0 0 0 107 118 130 255
1.72688 -1.19987 7.78765 0 0 0 40 49 61 255
5.15442 -0.802809 6.22377 0 0 0 114 128 145 255
4.83606 -0.914952 6.66461 0 0 0 119 137 151 255
4.96975 -0.934145 6.45606 0 0 0 14 17 26 255
1.30045 -1.01763 7.37296 0 0 0 94 99 113 255
1.01822 -0.934051 7.27168 0 0 0 40 43 56 255
0.898771 1.68106 5.96187 0 0 0 162 184 202 255
2.08585 -0.137679 7.44024 0 0 0 156 175 202 255
4.9582 -0.957747 6.47182 0 0 0 125 132 142 255
1.00442 -0.879065 7.20347 0 0 0 153 154 161 255
0.683268 1.62342 6.13171 0 0 0 61 62 66 255
0.167102 -1.04032 7.64944 0 0 0 127 123 120 255
1.39107 0.571099 6.88466 0 0 0 136 147 172 255
4.6748 -1.08752 6.82884 0 0 0 116 122 131 255
5.19951 -0.848717 6.16854 0 0 0 124 137 146 255
5.05989 -0.831426 6.37196 0 0 0 15 23 46 255
4.82561 -0.963365 6.64201 0 0 0 120 136 150 255
0.955703 -0.955489 7.33573 0 0 0 121 124 123 255
4.81476 -0.954115 6.68594 0 0 0 15 29 43 255
4.58846 -1.11878 6.91141 0 0 0 123 132 136 255
4.91606 -0.985629 6.53498 0 0 0 117 131 144 255
1.24649 -1.02746 7.44398 0 0 0 43 48 56 255
1.17246 -1.04838 7.51991 0 0 0 45 45 54 255
1.08881 -1.02035 7.46289 0 0 0 39 39 53 255
4.65325 -0.990385 6.86388 0 0 0 123 140 162 255
0.35561 -1.03323 7.67755 0 0 0 119 124 120 255
4.74909 -0.968116 6.77892 0 0 0 120 139 150 255
5.03 -0.868208 6.39358 0 0 0 118 129 145 255
5.10458 -0.84929 6.31478 0 0 0 15 20 34 255
0.366593 -1.05108 7.66063 0 0 0 120 121 122 255
4.78738 -0.940619 6.72211 0 0 0 122 137 150 255
4.86648 -0.914317 6.61591 0 0 0 121 136 146 255
0.828981 1.92177 5.13307 0 0 0 91 97 117 255
0.960159 -0.989892 7.37372 0 0 0 122 122 122 255
1.0402 -0.991862 7.37558 0 0 0 115 114 117 255
4.97348 -0.876803 6.46788 0 0 0 8 21 39 255
5.13255 -0.842624 6.32266 0 0 0 127 132 158 255
1.10344 -1.09332 7.6385 0 0 0 118 117 122 255
5.07626 -0.824085 6.34431 0 0 0 111 132 150 255
4.948 -0.864421 6.50249 0 0 0 118 135 150 255
1.22192 -1.06891 7.53451 0 0 0 112 114 118 255
5.03874 -0.830018 6.41097 0 0 0 111 129 143 255
4.88749 -0.914529 6.5722 0 0 0 16 25 56 255
4.74187 -1.00831 6.76258 0 0 0 117 129 140 255
0.282139 -1.02038 7.65961 0 0 0 120 125 126 255
4.60316 -1.09221 6.89537 0 0 0 24 29 36 255
0.499675 -1.04252 7.6945 0 0 0 105 104 109 255
5.04503 -0.843698 6.3831 0 0 0 22 27 40 255
4.583 -1.01785 6.93274 0 0 0 120 132 141 255
5.21104 -0.796804 6.15729 0 0 0 26 33 63 255
4.8784 -0.894675 6.6183 0 0 0 97 118 134 255
4.99545 -0.850325 6.44985 0 0 0 107 128 149 255
0.261861 -1.05029 7.65274 0 0 0 117 120 122 255
0.198573 -1.03846 7.63632 0 0 0 119 119 119 255
1.06238 -0.977722 7.32998 0 0 0 108 109 112 255
1.16622 0.12507 6.92015 0 0 0 41 65 128 255
1.16901 1.33268 6.82019 0 0 0 102 114 130 255
0.545676 -1.50851 7.45701 0 0 0 161 153 146 255
4.64333 -1.08043 6.88321 0 0 0 16 26 34 255
4.86843 -0.942139 6.59689 0 0 0 106 117 133 255
5.13688 -0.814519 6.29806 0 0 0 23 29 52 255
4.98837 -0.898317 6.43393 0 0 0 103 113 121 255
0.443362 -1.05866 7.66443 0 0 0 124 123 121 255
0.08708 -0.998376 7.6379 0 0 0 114 112 114 255
0.116896 -1.01603 7.62394 0 0 0 114 119 117 255
0.16759 -1.01172 7.65842 0 0 0 116 117 108 255
1.78269 1.04635 7.03322 0 0 0 170 186 212 255
0.0677694 -1.01492 7.63407 0 0 0 111 111 113 255
0.538487 -1.05255 7.70912 0 0 0 111 116 115 255
5.06135 -0.853103 6.3363 0 0 0 92 112 129 255
0.198849 -1.00976 7.64647 0 0 0 110 117 112 255
4.57078 -1.0249 6.95641 0 0 0 124 133 144 255
1.47876 -0.124213 6.5489 0 0 0 17 54 131 255
0.351455 -1.17902 7.54164 0 0 0 93 96 95 255
1.00435 -1.27221 7.63087 0 0 0 158 157 156 255
2.11073 -0.493821 7.6596 0 0 0 30 42 64 255
0.973536 -1.4368 7.54279 0 0 0 108 98 92 255
5.23839 -0.761541 6.13504 0 0 0 18 24 42 255
4.47582 -1.48176 6.94476 0 0 0 117 103 75 255
0.536397 -1.53446 7.44245 0 0 0 99 89 81 255
4.79591 -1.40992 6.50805 0 0 0 115 95 32 255
1.18816 -1.28722 7.62796 0 0 0 160 161 156 255
0.443802 -1.03004 7.6759 0 0 0 101 105 105 255
0.430564 -1.19052 7.57655 0 0 0 93 94 89 255
4.70921 -0.977407 6.81484 0 0 0 129 136 144 255
0.312343 -1.29089 7.64642 0 0 0 68 74 72 255
0.429233 -1.26422 7.55297 0 0 0 88 92 86 255
4.605 -1.03234 6.90401 0 0 0 27 31 59 255
2.07707 -0.501212 7.32535 0 0 0 160 179 200 255
0.499477 -1.06836 7.67768 0 0 0 105 104 105 255
4.10408 0.114725 7.37554 0 0 0 129 148 171 255
4.64501 -1.03081 6.89038 0 0 0 29 41 66 255
0.536654 -1.08415 7.70761 0 0 0 111 107 110 255
0.26783 -1.21354 7.51201 0 0 0 160 156 156 255
1.10865 -1.26321 7.61281 0 0 0 77 81 83 255
0.271946 -1.23522 7.49054 0 0 0 92 95 95 255
4.77582 -1.41812 6.53296 0 0 0 98 91 72 255
1.01484 -1.25055 7.65929 0 0 0 74 74 74 255
3.48334 -1.20229 7.12805 0 0 0 124 97 72 255
0.286733 -1.16874 7.52827 0 0 0 82 83 84 255
1.27904 -1.31017 7.63246 0 0 0 98 99 99 255
0.994675 -1.3015 7.58943 0 0 0 82 89 89 255
1.19085 -1.30983 7.56318 0 0 0 92 92 92 255
5.24298 -0.738477 6.16044 0 0 0 112 123 137 255
2.10759 -0.0323268 7.55976 0 0 0 121 127 136 255
0.347057 -1.24157 7.5946 0 0 0 159 158 154 255
5.10375 -0.802747 6.37102 0 0 0 13 25 43 255
0.400032 -1.12029 7.37254 0 0 0 80 83 82 255
4.83559 -1.39271 6.45814 0 0 0 112 96 49 255
0.684352 1.62349 6.13178 0 0 0 61 62 66 255
5.1052 -0.807434 6.35858 0 0 0 43 56 71 255
0.894823 1.68588 5.96311 0 0 0 166 190 207 255
0.993996 1.82232 5.59244 0 0 0 65 79 102 255
1.47909 -0.128743 6.5484 0 0 0 19 57 133 255
4.57329 -1.02243 6.95685 0 0 0 124 133 144 255
5.09683 -0.858503 6.31957 0 0 0 16 23 36 255
2.9801 -1.26414 7.34786 0 0 0 112 96 90 255
1.11044 0.861585 7.58869 0 0 0 177 187 197 255
5.03474 -0.832507 6.41901 0 0 0 106 126 140 255
4.9485 -0.865799 6.49963 0 0 0 121 137 150 255
5.1612 -0.818703 6.25605 0 0 0 95 111 127 255
5.12418 -0.835829 6.32181 0 0 0 115 120 145 255
4.97168 -0.870508 6.46913 0 0 0 23 31 46 255
4.98446 -0.900968 6.44203 0 0 0 104 114 122 255
4.71454 -1.00618 6.79075 0 0 0 49 59 72 255
4.82885 -0.921736 6.67182 0 0 0 101 118 132 255
5.18094 -0.793413 6.12837 0 0 0 55 63 85 255
5.0646 -0.848604 6.33485 0 0 0 92 112 129 255
5.02759 -0.867382 6.40453 0 0 0 98 110 131 255
4.96778 -0.938733 6.45571 0 0 0 55 64 79 255
4.78574 -0.9462 6.71846 0 0 0 121 138 146 255
4.88374 -0.922989 6.57328 0 0 0 17 26 44 255
4.81063 -0.952004 6.6871 0 0 0 24 29 42 255
4.74756 -0.976485 6.77557 0 0 0 119 137 148 255
4.65211 -0.998563 6.86104 0 0 0 120 139 162 255
4.82786 -0.965727 6.64195 0 0 0 92 103 120 255
4.77895 -0.981896 6.70348 0 0 0 107 118 130 255
5.15789 -0.8362 6.129 0 0 0 71 90 111 255
4.95355 -0.956723 6.47588 0 0 0 122 136 156 255
4.90975 -0.986866 6.54034 0 0 0 89 105 125 255
4.66357 -1.08462 6.84884 0 0 0 112 123 138 255
4.57674 -1.11633 6.92644 0 0 0 108 123 129 255
0.989746 -0.935948 7.38489 0 0 0 103 107 114 255
0.271578 -1.01706 7.66605 0 0 0 118 119 118 255
4.99997 -0.852436 6.44926 0 0 0 96 119 145 255
1.7239 -1.18146 7.72887 0 0 0 40 49 61 255
1.24844 -1.02904 7.42965 0 0 0 57 64 75 255
0.826964 1.93059 5.25761 0 0 0 116 119 132 255
1.20747 -1.06756 7.54658 0 0 0 85 86 95 255
1.10372 -1.08859 7.6377 0 0 0 118 117 122 255
2.09135 -0.141481 7.46042 0 0 0 156 175 202 255
1.17156 -1.05651 7.52452 0 0 0 31 35 53 255
1.08399 -1.02093 7.44661 0 0 0 31 39 57 255
1.04947 -0.974383 7.33622 0 0 0 115 114 117 255
0.963378 -0.982477 7.36373 0 0 0 122 122 122 255
0.535274 -1.05629 7.68105 0 0 0 131 130 128 255
0.34738 -1.05076 7.69982 0 0 0 122 116 116 255
2.10725 -0.489329 7.66957 0 0 0 21 33 61 255
1.29687 -1.04812 7.47436 0 0 0 94 99 113 255
5.04675 -0.844586 6.37094 0 0 0 18 26 38 255
0.431187 -1.05668 7.66743 0 0 0 92 89 90 255
0.169428 -1.02891 7.65213 0 0 0 128 126 122 255
0.10706 -1.01388 7.62631 0 0 0 98 108 112 255
0.259549 -1.05092 7.65505 0 0 0 106 101 108 255
0.0708084 -1.02606 7.63384 0 0 0 108 108 112 255
4.70845 -0.984134 6.80812 0 0 0 126 132 139 255
4.74281 -1.01341 6.76399 0 0 0 90 102 113 255
4.15375 0.0906393 7.52634 0 0 0 121 142 163 255
0.553143 -1.54109 7.44276 0 0 0 134 137 133 255
2.8067 0.992536 4.47208 0 0 0 148 164 177 255
0.553774 -1.50631 7.4551 0 0 0 161 153 146 255
5.23147 -0.787891 6.14192 0 0 0 60 75 113 255
2.06947 -0.498367 7.30572 0 0 0 149 169 196 255
3.00307 0.944707 4.49486 0 0 0 94 76 85 255
0.594919 -1.43755 7.52461 0 0 0 118 99 89 255
5.10718 -1.19506 6.15765 0 0 0 95 87 53 255
5.23843 -0.761576 6.13511 0 0 0 18 24 42 255
0.431457 -1.03328 7.67878 0 0 0 49 50 55 255
5.12123 -1.18875 6.13917 0 0 0 110 92 42 255
5.11984 -0.969485 6.23977 0 0 0 108 96 55 255
0.946811 -1.56441 7.49612 0 0 0 102 89 85 255
0.519637 -1.5128 7.44835 0 0 0 110 98 93 255
3.40569 1.2064 4.49449 0 0 0 99 88 92 255
4.77636 -1.41627 6.53416 0 0 0 98 91 72 255
4.82582 -1.08501 6.57806 0 0 0 47 46 45 255
1.22987 0.77428 7.06241 0 0 0 107 141 185 255
5.24301 -0.733491 6.16418 0 0 0 101 122 138 255
1.18137 -1.32432 7.60773 0 0 0 156 159 158 255
4.4801 -1.47546 6.93393 0 0 0 117 103 75 255
4.47648 -1.24736 7.00583 0 0 0 108 99 70 255
3.20818 -0.31778 7.7369 0 0 0 137 157 176 255
1.01225 -1.24088 7.63368 0 0 0 80 81 79 255
-0.00433112 -1.00609 7.65083 0 0 0 131 125 128 255
1.19113 -1.26226 7.66434 0 0 0 40 41 43 255
0.523204 1.71935 5.6949 0 0 0 167 173 196 255
1.287 -1.29397 7.69015 0 0 0 98 100 100 255
0.47979 1.73295 5.69634 0 0 0 161 180 203 255
0.376991 -1.6197 7.45281 0 0 0 104 87 84 255
-0.0040056 -1.03302 7.63255 0 0 0 120 115 122 255
0.333917 -1.06857 7.68967 0 0 0 113 109 113 255
0.249679 -1.24267 7.5343 0 0 0 77 84 83 255
0.883637 1.28063 7.01713 0 0 0 51 54 62 255
0.260001 1.28583 7.09903 0 0 0 169 175 191 255
0.724468 -1.25943 7.66707 0 0 0 77 77 79 255
1.10786 0.79407 8.00725 0 0 0 37 49 83 255
0.193793 1.29284 7.14717 0 0 0 159 173 188 255
1.19767 -0.168371 6.69651 0 0 0 38 53 67 255
1.08505 -1.30121 7.70507 0 0 0 66 66 68 255
1.59674 0.203357 6.67936 0 0 0 83 93 112 255
0.352023 1.43439 6.59556 0 0 0 167 168 179 255
0.0965503 -1.05116 7.65149 0 0 0 96 97 100 255
0.299385 1.44342 6.59971 0 0 0 155 168 190 255
0.604386 1.85914 5.21563 0 0 0 169 175 199 255
0.592935 1.47838 6.55518 0 0 0 60 65 89 255
0.917789 -1.06635 7.6752 0 0 0 140 135 138 255
0.799141 1.536 6.37037 0 0 0 168 190 216 255
0.571541 1.86356 5.20825 0 0 0 156 172 191 255
1.06678 1.58338 6.22623 0 0 0 52 52 61 255
0.916536 -1.09295 7.68776 0 0 0 139 130 145 255
0.432722 1.58816 6.31423 0 0 0 160 164 175 255
0.393851 1.58892 6.15424 0 0 0 165 176 192 255
5.1221 -0.800765 6.31647 0 0 0 123 136 152 255
1.07539 -1.47068 7.60748 0 0 0 100 93 95 255
1.01095 -0.96092 7.51544 0 0 0 30 33 47 255
0.775659 -1.26849 7.64711 0 0 0 62 71 75 255
0.467707 -1.42252 7.58554 0 0 0 106 101 101 255
4.89281 -1.4295 6.36507 0 0 0 34 31 13 255
2.8491 -1.23959 7.44071 0 0 0 116 90 70 255
3.10745 1.16436 4.37667 0 0 0 143 160 186 255
0.774577 -1.30247 7.61723 0 0 0 66 74 77 255
1.24072 0.583819 7.02371 0 0 0 137 152 174 255
0.352633 1.428 6.74092 0 0 0 153 154 166 255
0.286552 1.44341 6.72065 0 0 0 154 171 190 255
0.600826 1.47292 6.5584 0 0 0 49 57 77 255
0.800285 1.53859 6.39442 0 0 0 173 195 220 255
1.05426 1.5853 6.19424 0 0 0 108 113 122 255
0.441091 1.57999 6.30466 0 0 0 166 173 184 255
0.379507 1.58773 6.30571 0 0 0 147 165 192 255
0.529523 1.72089 5.69619 0 0 0 179 188 203 255
0.477316 1.72856 5.69333 0 0 0 153 172 196 255
0.916059 -1.06578 7.67448 0 0 0 142 134 147 255
0.612083 1.85302 5.21415 0 0 0 170 181 197 255
0.566199 1.8657 5.20704 0 0 0 158 180 204 255
1.24675 -1.28839 7.6244 0 0 0 88 90 93 255
-0.000211488 -1.01483 7.64111 0 0 0 135 129 133 255
4.09967 -0.595343 7.18148 0 0 0 117 129 137 255
1.58697 0.205777 6.66869 0 0 0 160 175 195 255
0.258324 1.28425 7.15838 0 0 0 125 128 146 255
0.193716 1.29408 7.13401 0 0 0 156 172 191 255
1.14774 0.21311 6.96773 0 0 0 23 38 88 255
3.35057 1.19933 4.46167 0 0 0 174 196 225 255
1.04904 -0.923435 7.31409 0 0 0 162 167 177 255
1.28698 -1.28936 7.68433 0 0 0 98 100 100 255
5.09141 -0.789765 6.29309 0 0 0 112 135 161 255
0.453093 -1.43097 7.58779 0 0 0 89 76 73 255
4.12112 -0.298359 7.2822 0 0 0 117 127 135 255
0.00266036 2.01862 4.86955 0 0 0 71 79 102 255
1.11755 0.755654 8.44231 0 0 0 37 47 71 255
-0.155199 1.08501 7.76929 0 0 0 52 54 68 255
-0.264971 1.1909 7.52532 0 0 0 170 173 183 255
-0.334341 1.19276 7.53316 0 0 0 151 159 174 255
0.127359 1.54729 6.48403 0 0 0 58 58 70 255
-0.00757797 1.23492 7.37946 0 0 0 55 57 70 255
0.166748 1.53262 6.48995 0 0 0 52 55 63 255
-0.141367 1.50185 6.66257 0 0 0 158 171 193 255
-0.085232 1.48478 6.68025 0 0 0 167 175 191 255
0.00387544 1.63155 6.24187 0 0 0 165 171 193 255
-0.066869 1.2516 7.31611 0 0 0 57 57 73 255
0.0364895 1.40125 6.91314 0 0 0 69 71 85 255
0.461099 1.33843 6.97713 0 0 0 67 70 76 255
0.0762136 1.38537 6.91881 0 0 0 44 53 69 255
-0.179765 1.34205 7.11232 0 0 0 180 181 183 255
-0.239859 1.34692 7.12357 0 0 0 159 176 196 255
1.69573 0.146287 7.23822 0 0 0 28 45 131 255
0.995271 -1.08603 7.6901 0 0 0 125 125 128 255
0.934109 -1.0618 7.60975 0 0 0 131 132 134 255
0.688737 2.04075 5.13238 0 0 0 85 103 136 255
0.39974 1.99209 5.2132 0 0 0 49 56 79 255
0.436728 1.98508 5.22427 0 0 0 59 62 88 255
0.137036 1.94909 5.37511 0 0 0 173 190 214 255
0.184929 1.93899 5.40378 0 0 0 168 174 195 255
-0.0831987 1.88513 5.35925 0 0 0 66 69 93 255
0.311265 1.84548 5.62887 0 0 0 51 53 80 255
0.349609 1.83689 5.63974 0 0 0 56 61 86 255
0.048368 1.79608 5.80414 0 0 0 162 175 200 255
0.0980148 1.79112 5.81897 0 0 0 171 183 200 255
-0.176088 1.74191 5.97774 0 0 0 56 59 78 255
0.217158 1.69451 6.05893 0 0 0 48 49 63 255
0.256148 1.69191 6.06834 0 0 0 57 68 93 255
-0.398593 -1.13053 7.73686 0 0 0 158 153 154 255
-0.0492098 1.64714 6.22946 0 0 0 167 184 206 255
1.86832 0.757361 6.96643 0 0 0 146 166 204 255
3.15362 1.09391 4.42649 0 0 0 174 194 226 255
0.656213 1.2303 7.23302 0 0 0 68 74 92 255
2.01812 -1.07405 7.38361 0 0 0 115 114 124 255
0.126453 1.54559 6.4845 0 0 0 76 81 96 255
-0.254848 1.34991 7.1386 0 0 0 170 183 206 255
-0.174275 1.32851 7.14504 0 0 0 168 173 197 255
0.0750912 1.38117 6.91757 0 0 0 142 153 170 255
0.454823 1.34354 6.97649 0 0 0 65 67 73 255
0.0276345 1.40049 6.91062 0 0 0 41 42 58 255
-0.0698827 1.24206 7.33153 0 0 0 59 64 76 255
-0.00906918 1.23608 7.37983 0 0 0 81 86 100 255
-0.345216 1.18854 7.57524 0 0 0 105 111 132 255
-0.267456 1.17966 7.54648 0 0 0 111 113 125 255
0.309579 1.83715 5.63197 0 0 0 57 61 80 255
-0.0787168 1.48326 6.68035 0 0 0 85 88 114 255
-0.160766 1.09217 7.75867 0 0 0 37 41 58 255
-0.146069 1.5037 6.66358 0 0 0 169 183 206 255
0.166797 1.53838 6.49183 0 0 0 52 55 63 255
0.00836162 1.63169 6.24278 0 0 0 165 171 193 255
0.191853 1.93526 5.40744 0 0 0 175 186 211 255
-0.0553704 1.65009 6.22283 0 0 0 172 189 210 255
0.258392 1.68185 6.07017 0 0 0 120 131 156 255
0.211665 1.69525 6.05688 0 0 0 39 43 60 255
0.134521 1.9476 5.37545 0 0 0 172 188 212 255
0.441861 1.98176 5.22656 0 0 0 40 50 74 255
0.39753 1.99022 5.2135 0 0 0 50 56 70 255
0.0948186 1.79084 5.81786 0 0 0 160 171 188 255
1.32039 0.225394 6.75974 0 0 0 157 176 197 255
0.69164 2.03884 5.12961 0 0 0 49 62 92 255
1.71962 0.491902 6.82932 0 0 0 165 179 209 255
0.0440963 1.79744 5.80208 0 0 0 167 184 211 255
0.349462 1.83534 5.64024 0 0 0 48 55 77 255
0.0105656 2.03734 5.15945 0 0 0 71 79 102 255
-0.405942 -1.12695 7.73472 0 0 0 137 128 131 255
1.00344 -1.09256 7.67085 0 0 0 106 101 114 255
1.09494 0.759513 8.31926 0 0 0 46 50 67 255
1.00362 -1.06422 7.68587 0 0 0 120 120 123 255
2.02905 -1.09799 7.42292 0 0 0 106 104 114 255
0.647326 1.23521 7.11208 0 0 0 150 167 190 255
0.58347 0.808423 8.3869 0 0 0 46 52 69 255
1.04074 -0.881352 7.28999 0 0 0 24 31 42 255
-0.260839 1.60314 6.45917 0 0 0 39 44 50 255
0.379955 1.59518 6.30175 0 0 0 153 172 181 255
0.438597 1.58349 6.31556 0 0 0 163 172 175 255
0.521907 1.73699 5.88655 0 0 0 152 162 168 255
0.472417 1.73843 5.87674 0 0 0 145 166 174 255
0.728654 1.788 5.70734 0 0 0 36 42 49 255
-0.211515 1.75102 6.00373 0 0 0 41 48 49 255
0.505405 1.33073 6.99193 0 0 0 51 62 74 255
1.22252 -0.181423 6.66713 0 0 0 126 122 78 255
-0.116446 1.89982 5.58338 0 0 0 47 48 54 255
0.6132 1.87467 5.46124 0 0 0 152 175 183 255
0.263069 2.08889 5.06218 0 0 0 70 86 101 255
0.557553 1.88045 5.45035 0 0 0 145 176 184 255
-0.35755 1.85051 5.77664 0 0 0 136 148 157 255
0.894358 1.6893 5.95215 0 0 0 147 182 192 255
-0.280406 2.00334 5.407 0 0 0 76 96 117 255
0.523434 1.73212 5.88795 0 0 0 145 155 161 255
0.464023 1.74372 5.86916 0 0 0 146 172 183 255
0.724245 1.79204 5.70337 0 0 0 37 42 49 255
-0.259877 1.59114 6.5667 0 0 0 26 43 47 255
-0.21932 1.74961 6.00811 0 0 0 35 39 42 255
0.635139 1.63278 6.11681 0 0 0 40 43 46 255
0.610087 1.87286 5.46133 0 0 0 79 96 109 255
0.55285 1.88177 5.44451 0 0 0 147 178 187 255
0.885692 1.68865 5.9518 0 0 0 152 188 197 255
-0.117498 1.8982 5.58383 0 0 0 92 107 113 255
0.441852 1.58714 6.31562 0 0 0 163 172 175 255
0.509637 1.32921 6.99108 0 0 0 87 106 117 255
0.256266 2.0866 5.05001 0 0 0 42 56 72 255
0.37198 1.59095 6.30155 0 0 0 121 140 154 255
-0.278624 1.99853 5.40825 0 0 0 33 52 73 255
1.56819 -0.0156414 6.60313 0 0 0 139 167 180 255
3.8703 1.37905 4.9731 0 0 0 82 114 126 255
3.03103 0.832582 4.59913 0 0 0 106 159 164 255
1.13092 0.162135 6.97959 0 0 0 71 95 110 255
1.11682 0.0797193 6.98795 0 0 0 109 115 117 255
1.88471 -0.0412647 6.70706 0 0 0 102 130 148 255
1.03564 1.82447 5.6078 0 0 0 34 57 73 255
0.576506 0.810121 8.36205 0 0 0 25 35 39 255
1.63487 0.0480949 6.6439 0 0 0 2 52 108 255
1.33201 0.180895 6.71839 0 0 0 118 132 155 255
0.979935 1.41776 6.62638 0 0 0 145 167 173 255
1.25827 0.404714 6.87737 0 0 0 36 57 80 255
0.571981 1.86817 5.45896 0 0 0 35 43 53 255
0.318006 1.82351 5.63829 0 0 0 146 166 171 255
0.433805 1.99871 5.21821 0 0 0 138 156 165 255
1.08055 0.77888 8.29951 0 0 0 32 37 44 255
1.45381 0.420957 6.78464 0 0 0 31 50 83 255
1.11423 0.158026 6.99506 0 0 0 102 113 114 255
1.10628 0.280627 7.06316 0 0 0 103 113 115 255
1.31526 0.898528 7.05383 0 0 0 112 133 149 255
1.12406 0.83007 7.65452 0 0 0 163 168 168 255
7.85717 0.710942 7.80036 0 0 0 134 157 169 255
1.16092 0.206763 6.95533 0 0 0 12 30 45 255
1.2168 0.241525 6.88073 0 0 0 28 42 65 255
0.648132 1.23583 7.13833 0 0 0 34 45 48 255
1.23784 1.46678 6.4665 0 0 0 10 31 47 255
1.43421 -0.165443 6.54012 0 0 0 113 104 84 255
1.32468 -0.174523 6.57702 0 0 0 104 102 112 255
1.36201 -0.170242 6.58276 0 0 0 115 107 98 255
0.705816 1.39086 6.79815 0 0 0 150 162 165 255
5.83454 0.227636 6.26903 0 0 0 8 44 36 255
1.09886 0.19991 7.02846 0 0 0 97 116 129 255
1.25141 -0.168277 6.64064 0 0 0 101 99 85 255
7.81343 0.760757 7.8398 0 0 0 36 38 45 255
5.33098 0.325658 6.1175 0 0 0 109 111 62 255
0.272388 2.08224 5.03745 0 0 0 74 79 82 255
-0.0745143 1.89294 5.5944 0 0 0 25 44 49 255
4.05903 -0.0696033 7.25251 0 0 0 97 122 134 255
0.413006 1.97471 5.22803 0 0 0 151 166 169 255
0.695293 2.03434 5.10512 0 0 0 42 56 68 255
9.00232 0.279041 8.69218 0 0 0 65 84 100 255
1.20399 -0.151981 6.70489 0 0 0 106 106 93 255
1.63362 0.062651 6.65176 0 0 0 101 126 140 255
1.15135 0.112944 6.94788 0 0 0 35 59 97 255
1.98537 -0.44572 6.77109 0 0 0 103 125 137 255
1.13151 1.33515 6.77829 0 0 0 91 111 116 255
1.1288 0.850164 7.7001 0 0 0 165 165 165 255
0.740075 1.76652 5.72083 0 0 0 152 171 179 255
1.03875 1.82206 5.61017 0 0 0 33 48 61 255
1.37589 1.61709 6.11048 0 0 0 46 59 65 255
0.695463 1.38722 6.79337 0 0 0 151 163 167 255
1.23421 1.46417 6.46626 0 0 0 16 38 56 255
7.85804 0.696229 7.80847 0 0 0 142 167 180 255
1.82828 0.38744 6.83161 0 0 0 12 37 63 255
1.32342 0.176328 6.73218 0 0 0 56 66 101 255
-0.072986 1.89215 5.59446 0 0 0 50 69 74 255
0.403096 1.96981 5.22638 0 0 0 151 166 168 255
0.695906 2.03018 5.10841 0 0 0 25 42 53 255
0.312218 1.81884 5.63683 0 0 0 150 170 176 255
1.01465 1.82571 5.60069 0 0 0 32 49 64 255
0.569552 1.8609 5.46105 0 0 0 21 31 42 255
1.33407 -0.170552 6.56968 0 0 0 112 103 105 255
3.03547 0.856387 4.51733 0 0 0 100 138 137 255
9.28023 0.196934 8.91413 0 0 0 144 166 187 255
1.11985 0.0832067 6.98419 0 0 0 109 115 117 255
1.10625 0.276413 7.05718 0 0 0 108 119 120 255
3.59788 -0.320508 7.47087 0 0 0 98 130 142 255
0.648146 1.23582 7.13843 0 0 0 34 45 48 255
1.09409 0.209174 7.03032 0 0 0 93 100 125 255
