ply
format ascii 1.0
comment VCGLIB generated
element vertex 1011
property float x
property float y
property float z
property float nx
property float ny
property float nz
property uchar red
property uchar green
property uchar blue
property uchar alpha
element face 0
property list uchar int vertex_indices
end_header
0.151567 0.463585 2.49488 0 0 0 125 131 138 255
0.595994 0.732349 2.58448 0 0 0 164 160 159 255
0.0713168 0.212135 2.4506 0 0 0 24 72 113 255
0.255309 0.203143 2.41036 0 0 0 75 115 150 255
1.09793 0.196732 2.73102 0 0 0 130 127 121 255
0.777164 0.679781 2.61168 0 0 0 175 183 193 255
0.908731 0.784415 2.2563 0 0 0 42 54 74 255
-0.136579 -0.0523679 2.72935 0 0 0 75 67 58 255
0.163344 0.373575 2.47958 0 0 0 123 127 126 255
-0.0116968 -0.155664 2.72859 0 0 0 143 109 89 255
0.571024 0.707891 2.56653 0 0 0 108 83 41 255
-0.198929 0.597062 2.32532 0 0 0 175 183 192 255
-0.222101 0.580979 2.27803 0 0 0 132 144 149 255
0.0857708 -0.257212 2.78063 0 0 0 127 97 87 255
0.271617 0.160059 2.42171 0 0 0 79 134 187 255
-0.344519 0.532412 2.22098 0 0 0 92 97 99 255
0.544406 0.294692 2.96526 0 0 0 125 132 132 255
-0.0849024 0.0142716 2.7606 0 0 0 97 97 97 255
0.135687 0.410329 2.48132 0 0 0 170 177 177 255
0.791501 0.649086 2.64781 0 0 0 130 137 153 255
-0.166129 -0.0443551 2.71645 0 0 0 106 97 82 255
-0.0830314 -0.276322 2.74761 0 0 0 150 128 114 255
0.0583939 -0.252575 2.78397 0 0 0 142 110 93 255
0.166141 0.400806 2.45606 0 0 0 137 142 140 255
1.11442 0.269575 2.81887 0 0 0 120 133 146 255
0.228592 0.214348 2.40154 0 0 0 11 87 141 255
-0.626225 0.23006 2.70899 0 0 0 147 142 144 255
1.33218 -0.0501916 2.52177 0 0 0 35 29 33 255
0.0991393 0.422969 2.517 0 0 0 34 48 69 255
0.343542 0.222175 2.51753 0 0 0 168 169 173 255
0.351523 -0.0765861 2.9661 0 0 0 178 161 151 255
0.331764 0.442414 2.54561 0 0 0 132 143 158 255
0.849048 0.83253 2.17927 0 0 0 59 65 85 255
0.162435 0.87609 2.1785 0 0 0 199 208 210 255
1.35586 -0.0668342 2.50792 0 0 0 126 126 126 255
1.41112 -0.0303392 2.41779 0 0 0 98 101 110 255
-0.695023 0.188533 2.64361 0 0 0 153 162 115 255
-0.563075 -0.140395 2.73175 0 0 0 136 143 116 255
1.05779 0.813716 2.18699 0 0 0 130 166 183 255
1.33659 -0.0694478 2.50835 0 0 0 137 139 141 255
1.22607 -0.0724453 2.65365 0 0 0 146 146 147 255
-0.482146 -0.249014 2.70538 0 0 0 165 163 164 255
0.3178 0.355827 2.49756 0 0 0 169 175 178 255
1.30642 -0.053699 2.5697 0 0 0 32 34 35 255
0.0746325 0.578959 2.58722 0 0 0 182 192 193 255
-0.587995 0.28723 2.75809 0 0 0 171 169 171 255
0.0166573 0.845551 2.21576 0 0 0 37 40 47 255
1.2531 -0.0628871 2.63936 0 0 0 125 125 125 255
1.29437 -0.0514663 2.57307 0 0 0 120 121 121 255
1.31324 -0.0484763 2.56514 0 0 0 130 139 138 255
-0.488749 -0.272301 2.70681 0 0 0 157 162 158 255
1.36243 -0.0366386 2.49757 0 0 0 26 25 25 255
1.3904 -0.0290552 2.4566 0 0 0 23 26 31 255
0.909246 0.815422 2.25934 0 0 0 60 63 85 255
-0.663537 0.178334 2.64367 0 0 0 144 155 101 255
0.41101 0.143957 3.00561 0 0 0 158 154 151 255
0.168655 0.348501 2.43625 0 0 0 73 111 160 255
-0.242516 0.590511 2.56127 0 0 0 143 148 146 255
1.25277 -0.0967704 2.63518 0 0 0 137 138 138 255
-0.594088 0.185583 2.76371 0 0 0 142 150 104 255
1.22599 -0.102995 2.65753 0 0 0 143 148 146 255
1.40989 -0.0158176 2.4224 0 0 0 131 134 138 255
1.40843 -0.0243894 2.42986 0 0 0 139 140 144 255
1.06182 0.804441 2.20063 0 0 0 190 204 207 255
1.09049 0.817095 2.23978 0 0 0 170 178 182 255
1.33631 -0.0364466 2.50669 0 0 0 122 123 130 255
1.35502 -0.0343929 2.50334 0 0 0 128 135 135 255
-0.168212 0.58974 2.27296 0 0 0 147 154 161 255
0.303678 0.34462 2.48967 0 0 0 62 70 86 255
1.29624 -0.0635624 2.57532 0 0 0 133 134 133 255
-0.567045 0.030583 2.81159 0 0 0 122 134 95 255
-0.308501 0.605713 2.09663 0 0 0 87 75 81 255
0.0585744 0.819631 2.30291 0 0 0 198 207 208 255
0.109096 0.859385 2.30382 0 0 0 55 41 44 255
0.33124 0.303496 2.4907 0 0 0 147 154 165 255
0.0727766 0.826661 2.32595 0 0 0 196 202 202 255
0.333383 0.860362 2.15703 0 0 0 115 112 112 255
0.392025 0.117453 3.0725 0 0 0 180 175 163 255
-0.65979 0.202393 2.64934 0 0 0 137 145 109 255
0.0633448 0.836737 2.33651 0 0 0 44 37 42 255
0.00137454 0.854243 2.22178 0 0 0 194 203 204 255
0.253039 0.847503 2.25629 0 0 0 53 57 62 255
-0.101621 0.835521 2.18241 0 0 0 57 57 58 255
0.383613 0.886191 2.09768 0 0 0 69 69 74 255
-0.0581307 0.867683 2.15491 0 0 0 193 197 198 255
-0.0848319 0.868497 2.16195 0 0 0 193 203 202 255
0.0581913 0.874495 2.18567 0 0 0 196 202 204 255
0.0442608 0.868806 2.16509 0 0 0 198 204 205 255
-0.0213486 0.847939 2.25247 0 0 0 40 39 46 255
-0.075646 0.860993 2.17077 0 0 0 36 46 54 255
0.197346 0.867821 2.16782 0 0 0 198 201 203 255
1.40449 -0.0726315 2.39271 0 0 0 119 101 74 255
-0.673209 0.114873 2.63011 0 0 0 157 160 124 255
0.0619034 0.824452 2.34466 0 0 0 46 48 54 255
-0.617341 0.227474 2.72127 0 0 0 26 28 31 255
-0.179027 0.572667 2.25504 0 0 0 143 139 136 255
0.893213 0.624541 2.66408 0 0 0 109 115 134 255
0.1287 0.846588 2.26307 0 0 0 188 191 193 255
-0.458442 -0.360236 2.78822 0 0 0 161 154 143 255
1.39844 -0.0226758 2.43995 0 0 0 117 132 138 255
0.0412777 0.874806 2.21358 0 0 0 38 44 47 255
1.32697 -0.145546 2.51528 0 0 0 141 104 63 255
0.14767 0.541563 2.52441 0 0 0 166 175 174 255
1.32095 -0.154665 2.52025 0 0 0 49 22 9 255
0.539076 0.869136 2.1619 0 0 0 66 74 98 255
1.05602 0.818257 2.22169 0 0 0 51 66 81 255
0.285836 0.550261 2.52376 0 0 0 63 84 105 255
-0.725109 0.143728 2.59458 0 0 0 130 129 105 255
0.408983 0.120053 3.06417 0 0 0 43 57 66 255
-0.30904 0.578523 2.08938 0 0 0 133 128 128 255
0.0164967 -0.278511 2.76438 0 0 0 183 169 157 255
-0.652364 0.221822 2.6497 0 0 0 116 128 91 255
0.429925 0.214253 3.0178 0 0 0 19 19 19 255
0.246999 0.236287 2.4118 0 0 0 76 106 144 255
0.267215 0.571245 2.53411 0 0 0 134 139 136 255
1.08675 0.789145 2.22632 0 0 0 124 146 157 255
-0.607693 0.141671 2.70439 0 0 0 122 137 107 255
-0.27224 0.603248 2.7004 0 0 0 126 134 135 255
1.40526 -0.0725233 2.39291 0 0 0 119 101 74 255
-0.308885 0.605425 2.09298 0 0 0 83 85 86 255
-0.693536 0.184607 2.64018 0 0 0 143 144 118 255
0.169994 0.225586 2.39892 0 0 0 2 75 130 255
-0.608412 0.142371 2.70185 0 0 0 142 148 109 255
-0.721114 0.14414 2.59446 0 0 0 130 129 105 255
-0.244386 0.588399 2.55993 0 0 0 102 112 114 255
1.09136 0.791118 2.2247 0 0 0 142 163 172 255
0.326548 0.297748 2.49881 0 0 0 177 181 185 255
-0.184539 0.649035 2.23383 0 0 0 132 142 131 255
-0.592977 0.182995 2.7661 0 0 0 138 144 102 255
0.408019 0.1175 3.05908 0 0 0 59 56 49 255
-0.489199 -0.271677 2.70794 0 0 0 157 162 158 255
1.41253 -0.0152388 2.39713 0 0 0 33 31 41 255
-0.660588 0.217113 2.64926 0 0 0 141 154 104 255
1.22204 -0.104455 2.65855 0 0 0 118 116 117 255
1.25003 -0.0981607 2.63906 0 0 0 96 94 97 255
0.0393252 0.867477 2.16625 0 0 0 197 206 207 255
-0.0758809 0.859735 2.17168 0 0 0 37 43 51 255
1.38917 -0.0338343 2.46462 0 0 0 28 28 28 255
0.202624 0.868312 2.18736 0 0 0 192 201 203 255
0.159587 0.872943 2.17825 0 0 0 200 209 211 255
0.337846 0.135852 2.46978 0 0 0 162 178 209 255
0.229144 0.167917 2.35874 0 0 0 67 132 187 255
-0.675362 0.117997 2.62303 0 0 0 146 144 130 255
0.329997 0.862465 2.1572 0 0 0 119 115 117 255
1.33573 -0.0705956 2.51904 0 0 0 84 84 86 255
0.0612037 0.560619 2.60839 0 0 0 71 63 68 255
0.381605 0.567005 2.71348 0 0 0 179 180 181 255
1.35303 -0.0673798 2.5097 0 0 0 122 125 124 255
0.0871609 0.201702 2.41552 0 0 0 150 155 165 255
0.331383 0.441013 2.53213 0 0 0 172 180 182 255
-0.580859 0.15413 2.74996 0 0 0 89 96 82 255
0.217711 0.344983 2.45232 0 0 0 184 191 191 255
0.873674 0.807513 2.20201 0 0 0 120 140 158 255
0.00177438 0.855282 2.22034 0 0 0 194 203 204 255
0.0972585 0.422628 2.51845 0 0 0 78 85 101 255
-0.101804 0.833583 2.18341 0 0 0 82 83 84 255
-0.647154 0.395485 2.66244 0 0 0 172 178 180 255
0.0188374 0.841802 2.21765 0 0 0 85 86 86 255
-0.036958 0.869896 2.33257 0 0 0 46 40 45 255
0.716508 0.688231 2.57024 0 0 0 59 64 82 255
0.13509 0.847933 2.24682 0 0 0 50 48 50 255
0.10826 0.856299 2.27534 0 0 0 44 46 50 255
0.25234 0.84527 2.25546 0 0 0 53 52 54 255
-0.048139 0.822344 2.27259 0 0 0 65 63 63 255
1.40844 -0.0185935 2.42524 0 0 0 138 140 142 255
-0.309213 0.578935 2.09106 0 0 0 133 128 128 255
0.0707188 0.830338 2.33904 0 0 0 188 196 198 255
0.0550185 0.817524 2.30447 0 0 0 197 206 207 255
-0.633778 0.164758 2.66598 0 0 0 136 144 110 255
-0.663626 0.17729 2.64233 0 0 0 148 165 109 255
-0.625881 -0.0433356 2.68589 0 0 0 129 143 84 255
0.413775 0.0275859 2.8971 0 0 0 90 73 60 255
1.04726 0.809128 2.19979 0 0 0 50 59 76 255
0.847004 0.832446 2.18138 0 0 0 57 65 83 255
0.119857 0.846388 2.2719 0 0 0 201 208 210 255
1.2227 -0.0727939 2.65293 0 0 0 123 129 132 255
1.25132 -0.067467 2.64086 0 0 0 60 69 71 255
0.850676 0.820312 2.1906 0 0 0 142 156 169 255
-0.423788 0.322372 2.857 0 0 0 123 128 128 255
1.39457 -0.0309705 2.44207 0 0 0 60 68 72 255
-0.561572 -0.139405 2.73435 0 0 0 136 143 116 255
0.344001 0.21966 2.51754 0 0 0 169 172 175 255
-0.485507 -0.249373 2.70431 0 0 0 164 162 163 255
0.0703572 0.578889 2.58921 0 0 0 191 189 189 255
0.34828 -0.0790846 2.96858 0 0 0 178 161 149 255
-0.585447 0.28803 2.76285 0 0 0 183 185 185 255
1.067 0.812426 2.20291 0 0 0 180 184 184 255
-0.170105 0.589621 2.27343 0 0 0 151 155 162 255
0.896209 0.80702 2.21833 0 0 0 57 60 82 255
-0.269702 0.602246 2.69052 0 0 0 121 134 137 255
1.07808 0.807276 2.21368 0 0 0 171 181 185 255
1.05267 0.79883 2.18392 0 0 0 156 170 170 255
1.35365 -0.0378687 2.50677 0 0 0 94 98 100 255
1.12037 0.714864 2.46731 0 0 0 39 87 130 255
-0.352114 0.972749 2.06538 0 0 0 41 50 56 255
-0.178911 0.909657 2.16789 0 0 0 186 202 210 255
0.0830321 0.958072 2.00198 0 0 0 183 207 213 255
0.561056 1.01842 1.76654 0 0 0 193 213 218 255
0.433881 0.996447 1.73589 0 0 0 182 211 219 255
-0.204006 1.00722 1.89292 0 0 0 38 56 64 255
0.148788 1.01812 1.78387 0 0 0 183 207 213 255
-0.218444 1.004 1.88338 0 0 0 45 55 65 255
-0.203457 0.979266 2.05281 0 0 0 178 196 199 255
-0.0830377 1.0067 1.87454 0 0 0 44 51 62 255
-0.297259 0.99582 2.00108 0 0 0 183 207 215 255
0.0132753 0.959871 1.89991 0 0 0 186 202 206 255
-0.0448137 0.910595 2.17022 0 0 0 182 200 203 255
-0.0364625 0.909385 2.13279 0 0 0 181 204 212 255
0.427966 0.962904 1.89668 0 0 0 181 205 210 255
-0.0167499 0.995715 1.73578 0 0 0 192 207 213 255
0.00698852 1.024 1.80118 0 0 0 186 207 213 255
0.220076 1.00952 1.86371 0 0 0 185 209 215 255
-0.0602878 0.997863 1.8769 0 0 0 46 51 55 255
-0.067594 0.995332 1.88118 0 0 0 190 209 212 255
-0.0512872 0.912406 2.16271 0 0 0 39 48 57 255
-0.144501 0.973833 1.93854 0 0 0 182 207 214 255
0.0967406 0.90239 2.14078 0 0 0 53 63 74 255
0.076098 0.98662 1.84015 0 0 0 51 56 60 255
0.058662 1.00087 1.85738 0 0 0 39 53 62 255
0.18537 0.9157 2.04896 0 0 0 187 207 214 255
-0.133805 0.960873 1.92176 0 0 0 34 55 65 255
0.0106549 0.924025 2.05895 0 0 0 186 210 216 255
0.0442206 0.924205 2.07087 0 0 0 187 206 211 255
-0.3382 0.945839 2.01182 0 0 0 189 203 206 255
0.15206 0.919134 2.03996 0 0 0 186 211 216 255
-0.19013 0.921886 2.18993 0 0 0 45 47 54 255
-0.160415 0.898716 2.11769 0 0 0 39 38 41 255
0.267562 1.00669 1.75086 0 0 0 184 210 216 255
-0.306044 0.912083 2.15406 0 0 0 59 65 67 255
-0.128628 0.92882 2.07915 0 0 0 176 205 212 255
0.205313 0.997614 1.86541 0 0 0 54 61 73 255
0.141652 0.965765 1.90983 0 0 0 185 205 210 255
-0.0579579 0.964395 2.01535 0 0 0 189 205 206 255
0.513294 0.936181 1.95143 0 0 0 66 93 106 255
-0.0993825 0.931142 2.07586 0 0 0 184 205 209 255
-0.00864287 0.979894 1.93088 0 0 0 193 212 217 255
-0.269349 0.941149 2.11387 0 0 0 184 202 207 255
-0.246345 0.914421 2.04002 0 0 0 185 204 208 255
0.365225 0.940527 1.97059 0 0 0 58 75 85 255
-0.321665 0.965125 2.03663 0 0 0 40 40 40 255
-0.115637 0.94025 2.08194 0 0 0 54 51 56 255
-0.126129 0.959821 1.90485 0 0 0 188 203 205 255
-0.179748 0.921601 2.16179 0 0 0 178 198 203 255
0.493845 0.982852 1.81755 0 0 0 52 71 83 255
0.503792 0.967647 1.78741 0 0 0 65 73 82 255
0.224843 0.946115 1.98166 0 0 0 63 76 85 255
0.32612 0.909031 2.03059 0 0 0 184 206 214 255
-0.0560873 0.949723 2.0112 0 0 0 183 197 199 255
0.572747 0.991111 1.70805 0 0 0 185 207 211 255
-0.212624 1.00263 1.89876 0 0 0 188 202 207 255
0.450411 0.949545 1.87307 0 0 0 179 210 217 255
0.0791813 0.951747 2.00408 0 0 0 47 59 69 255
-0.187629 0.946414 1.997 0 0 0 34 47 57 255
-0.257212 0.985384 1.96129 0 0 0 186 202 208 255
-0.198917 0.943027 2.00275 0 0 0 185 202 208 255
0.0643831 0.978296 1.83561 0 0 0 184 205 212 255
-0.207647 0.972536 2.04728 0 0 0 35 45 57 255
-0.0757776 1.00963 1.8714 0 0 0 187 206 211 255
0.102707 0.91879 1.90994 0 0 0 53 58 65 255
0.121524 1.00733 1.76013 0 0 0 187 211 217 255
-0.215568 1.01576 1.89135 0 0 0 180 201 206 255
-0.0661947 0.964649 2.04321 0 0 0 48 57 64 255
-0.0452331 0.949923 2.00583 0 0 0 41 48 55 255
0.351569 0.989882 1.83354 0 0 0 63 71 81 255
0.292798 1.00416 1.75804 0 0 0 187 208 213 255
0.0683457 1.00238 1.85175 0 0 0 180 202 209 255
-0.34151 0.977877 2.04631 0 0 0 182 205 211 255
0.102235 0.896944 2.14021 0 0 0 178 195 199 255
-0.00800905 1.0149 1.79944 0 0 0 38 63 77 255
0.216376 0.984814 1.84493 0 0 0 189 210 217 255
-0.137969 0.987364 1.94618 0 0 0 46 48 50 255
0.580283 0.939898 1.82671 0 0 0 94 100 105 255
0.185534 0.868846 2.19212 0 0 0 53 75 88 255
-0.274694 0.981307 1.97286 0 0 0 37 51 58 255
0.152261 0.977742 1.91828 0 0 0 62 62 68 255
0.008894 0.988052 1.94459 0 0 0 49 54 58 255
0.239111 0.896311 2.1171 0 0 0 60 73 82 255
0.257216 0.892806 2.1012 0 0 0 68 77 83 255
-0.236786 0.895367 2.22844 0 0 0 43 42 42 255
0.11287 0.898775 2.12901 0 0 0 58 60 60 255
0.642954 0.976847 1.79808 0 0 0 86 95 101 255
-0.0932828 0.887007 2.19785 0 0 0 35 45 53 255
0.301676 0.919877 2.04656 0 0 0 181 204 209 255
-0.472708 0.971601 2.07864 0 0 0 73 89 93 255
-0.117396 0.930602 2.09444 0 0 0 31 59 71 255
0.152695 0.962507 1.91452 0 0 0 41 64 77 255
-0.0108981 1.0263 1.78997 0 0 0 44 51 59 255
-0.258986 0.929539 2.09378 0 0 0 35 48 62 255
-0.100123 0.886016 2.20302 0 0 0 68 70 69 255
0.384685 0.92928 1.94048 0 0 0 65 67 71 255
-0.15008 1.02372 1.82042 0 0 0 37 60 72 255
0.129928 1.02014 1.77152 0 0 0 55 52 53 255
0.273434 1.01554 1.74949 0 0 0 53 54 56 255
0.22528 0.986897 1.8276 0 0 0 57 61 67 255
-0.263282 0.94134 2.08638 0 0 0 41 44 44 255
-0.280524 0.994339 1.96746 0 0 0 48 50 56 255
0.240653 0.943219 1.97106 0 0 0 60 73 83 255
0.317457 0.291945 2.49268 0 0 0 133 171 194 255
0.169701 0.91856 2.05862 0 0 0 50 73 85 255
-0.585617 0.699928 2.3181 0 0 0 175 188 193 255
0.285671 0.96519 1.9024 0 0 0 185 209 215 255
-0.386742 0.922648 2.04796 0 0 0 60 59 62 255
0.134904 1.00851 1.78389 0 0 0 42 59 74 255
0.276718 0.999746 1.75546 0 0 0 47 69 83 255
-0.869471 0.37867 2.57562 0 0 0 167 177 181 255
-0.446571 1.01616 2.06207 0 0 0 52 86 99 255
0.438372 0.953187 1.8853 0 0 0 52 72 86 255
-0.328809 0.98561 1.83688 0 0 0 66 76 82 255
0.428531 1.02048 1.76222 0 0 0 66 66 70 255
0.564131 1.00628 1.72514 0 0 0 51 53 59 255
0.362446 0.972408 1.80505 0 0 0 67 70 72 255
0.440166 0.962812 1.87704 0 0 0 59 68 75 255
0.00570939 0.968923 1.93445 0 0 0 34 65 79 255
0.309809 0.415542 2.51092 0 0 0 5 72 122 255
0.0187742 0.938528 2.07923 0 0 0 60 61 64 255
0.140461 0.424399 2.48053 0 0 0 17 28 72 255
0.383638 -0.0576603 2.80705 0 0 0 54 55 56 255
0.456138 0.904888 2.00539 0 0 0 99 108 110 255
0.0196962 0.929853 2.08979 0 0 0 32 53 67 255
0.312304 0.909329 2.03569 0 0 0 59 75 88 255
0.92181 0.938108 1.82835 0 0 0 115 120 126 255
0.170124 0.928486 2.05031 0 0 0 63 68 74 255
0.0903787 0.364739 2.51379 0 0 0 147 156 166 255
0.29343 0.968531 1.89776 0 0 0 73 74 76 255
0.0415142 0.887154 2.20344 0 0 0 41 47 52 255
-1.04731 0.58563 2.64379 0 0 0 118 145 139 255
-0.918122 0.29217 2.62617 0 0 0 129 139 115 255
-0.850078 0.290499 2.62266 0 0 0 114 115 118 255
0.191952 0.482963 2.49848 0 0 0 148 163 167 255
-0.201899 0.600532 2.48937 0 0 0 175 195 198 255
-0.935186 0.563894 2.57303 0 0 0 66 78 72 255
0.453285 0.949858 1.87366 0 0 0 179 210 217 255
-0.114959 0.977237 1.95298 0 0 0 186 207 212 255
-0.155442 0.983378 1.94663 0 0 0 187 211 216 255
-0.27819 0.980108 1.9727 0 0 0 34 57 65 255
-0.310603 0.90635 2.15777 0 0 0 83 92 94 255
0.499128 0.966031 1.79714 0 0 0 192 215 218 255
0.0266408 0.972085 1.93276 0 0 0 191 208 211 255
-0.178895 0.922026 2.15996 0 0 0 178 198 203 255
-0.00864287 0.979894 1.93088 0 0 0 193 212 217 255
0.0813223 0.949283 2.01338 0 0 0 184 200 204 255
0.14501 0.92479 2.04379 0 0 0 189 213 220 255
-0.132068 0.957722 1.9154 0 0 0 34 55 65 255
0.62993 0.963215 1.76123 0 0 0 96 101 106 255
0.181734 0.918274 2.03615 0 0 0 178 198 205 255
0.00196658 0.931749 2.06319 0 0 0 187 211 216 255
0.160281 0.965847 1.91211 0 0 0 173 191 199 255
0.0409781 0.926414 2.0682 0 0 0 182 201 206 255
0.130137 0.97245 1.91095 0 0 0 191 215 221 255
0.00725378 0.966571 1.93365 0 0 0 26 53 68 255
0.512553 0.933732 1.95067 0 0 0 67 78 85 255
-0.342012 0.979198 2.04605 0 0 0 188 203 207 255
-0.443383 0.941105 1.96562 0 0 0 73 89 93 255
-0.248545 0.922322 2.05602 0 0 0 183 195 196 255
0.307678 0.965521 1.90252 0 0 0 168 189 196 255
0.272522 0.964865 1.89038 0 0 0 187 212 218 255
-0.258356 0.928754 2.09332 0 0 0 32 43 56 255
-0.197597 0.977324 2.04516 0 0 0 187 202 205 255
-0.136109 0.938189 2.08237 0 0 0 184 208 216 255
-0.324242 0.943781 1.99418 0 0 0 47 49 49 255
-0.348516 0.969872 2.0634 0 0 0 40 48 54 255
-0.287346 0.950743 2.14434 0 0 0 182 206 212 255
0.259977 1.01436 1.75822 0 0 0 190 216 221 255
0.382334 0.933873 1.95354 0 0 0 65 79 86 255
0.363837 0.942852 1.97449 0 0 0 53 71 80 255
0.145229 1.00756 1.78365 0 0 0 39 59 74 255
0.120228 0.859351 2.26068 0 0 0 187 208 213 255
0.310314 0.421788 2.51238 0 0 0 16 75 130 255
0.412922 0.957678 1.86994 0 0 0 190 214 219 255
-0.187451 0.941985 1.99173 0 0 0 47 47 47 255
0.437453 0.999239 1.74267 0 0 0 175 205 213 255
-0.0978449 0.932363 2.09021 0 0 0 182 203 209 255
0.420144 1.0199 1.77117 0 0 0 188 211 216 255
-0.21709 0.967977 2.05406 0 0 0 38 42 53 255
-0.215762 1.01771 1.88948 0 0 0 181 200 205 255
0.277971 0.989977 1.72298 0 0 0 178 198 203 255
0.567163 0.990078 1.70866 0 0 0 185 207 211 255
0.544686 1.00186 1.72071 0 0 0 195 217 223 255
0.422307 0.997217 1.74742 0 0 0 43 68 84 255
-0.0932828 0.887007 2.19785 0 0 0 35 45 53 255
-0.194945 0.999685 1.86947 0 0 0 56 58 59 255
-0.233016 1.01421 1.91319 0 0 0 38 49 52 255
0.239441 0.895047 2.116 0 0 0 60 73 82 255
-0.234804 0.893276 2.22726 0 0 0 87 92 93 255
-0.038973 0.944735 1.98351 0 0 0 41 48 55 255
0.0906091 0.907728 2.15447 0 0 0 42 54 66 255
-0.192655 0.934465 1.98594 0 0 0 189 209 215 255
0.0718134 1.00432 1.85137 0 0 0 180 202 209 255
-0.05719 0.995975 1.85519 0 0 0 46 51 55 255
-0.084272 1.00653 1.87492 0 0 0 39 51 55 255
-0.208124 1.00083 1.89842 0 0 0 189 208 214 255
0.119426 0.892905 2.10737 0 0 0 58 60 60 255
0.219332 1.01209 1.86716 0 0 0 182 206 212 255
0.0821561 0.959201 2.00131 0 0 0 169 196 206 255
-0.0330661 0.896137 2.13409 0 0 0 186 207 211 255
0.0613657 1.00365 1.88634 0 0 0 44 53 61 255
-0.0710362 0.993708 1.88195 0 0 0 187 209 215 255
0.0660011 0.975046 1.83103 0 0 0 187 210 216 255
-0.0470134 0.917337 2.17791 0 0 0 39 48 57 255
-0.0205914 0.895394 2.10738 0 0 0 45 47 49 255
-0.178383 0.908075 2.16848 0 0 0 187 207 214 255
0.0979022 0.941027 1.98791 0 0 0 62 67 73 255
0.382726 1.01697 1.91421 0 0 0 67 70 72 255
0.0756335 0.952432 2.01156 0 0 0 41 51 59 255
0.212347 0.985374 1.84911 0 0 0 187 207 214 255
0.347344 0.989791 1.84296 0 0 0 60 69 79 255
-0.258132 0.986549 1.9728 0 0 0 187 206 211 255
-0.19748 0.924474 2.20441 0 0 0 36 41 49 255
0.243952 0.935366 1.95601 0 0 0 96 100 103 255
-0.298509 0.995661 2.00231 0 0 0 183 208 214 255
0.511947 0.971045 1.78859 0 0 0 78 84 85 255
-0.156468 0.890528 2.08623 0 0 0 110 120 123 255
0.221991 0.945996 1.98401 0 0 0 55 66 73 255
0.49265 0.982861 1.81 0 0 0 53 65 77 255
0.287264 0.915074 2.02555 0 0 0 186 211 217 255
0.563551 1.00699 1.72707 0 0 0 105 102 106 255
0.255339 0.897628 2.11942 0 0 0 68 77 83 255
0.169553 0.917081 2.06108 0 0 0 50 68 78 255
-0.284776 0.995799 1.96644 0 0 0 58 62 65 255
-1.04712 0.584729 2.64381 0 0 0 126 161 155 255
0.456108 0.905708 2.00501 0 0 0 99 108 110 255
-0.263452 0.942991 2.08568 0 0 0 66 70 71 255
-0.118449 0.929268 2.09637 0 0 0 39 53 59 255
0.166951 0.928436 2.05073 0 0 0 58 63 67 255
0.0205129 0.939765 2.07803 0 0 0 60 61 64 255
-0.120915 0.943899 2.08911 0 0 0 45 47 46 255
0.0185716 0.928966 2.09034 0 0 0 37 53 65 255
0.434909 0.961888 1.87798 0 0 0 118 122 125 255
-0.587241 0.700385 2.31762 0 0 0 159 168 172 255
0.149545 0.961794 1.91939 0 0 0 48 58 72 255
0.292959 0.968621 1.89722 0 0 0 82 82 82 255
0.146157 0.981201 1.92576 0 0 0 142 149 151 255
0.183711 0.879526 2.18526 0 0 0 73 75 76 255
0.438386 0.952752 1.8856 0 0 0 48 69 82 255
0.427321 1.02153 1.76248 0 0 0 85 90 93 255
0.134338 1.00626 1.78425 0 0 0 42 54 66 255
0.582078 0.946118 1.84644 0 0 0 159 161 162 255
0.00822443 0.993514 1.95361 0 0 0 47 52 57 255
0.276725 0.988882 1.74203 0 0 0 48 58 67 255
-0.389341 0.924084 2.05085 0 0 0 51 58 60 255
-0.344937 1.01061 1.91648 0 0 0 85 94 98 255
-0.142755 0.98763 1.94579 0 0 0 105 111 112 255
-0.448513 1.01287 2.06366 0 0 0 60 95 109 255
-0.206491 0.600113 2.50326 0 0 0 161 179 183 255
0.0378492 0.891895 2.21211 0 0 0 41 47 52 255
0.379896 -0.0539409 2.79671 0 0 0 44 44 44 255
0.30963 0.920748 2.0287 0 0 0 58 65 72 255
0.923205 0.937324 1.82938 0 0 0 128 133 139 255
-0.28677 0.0218337 2.76241 0 0 0 42 39 40 255
-0.993879 0.282066 2.55727 0 0 0 119 132 109 255
-0.919471 0.292091 2.62681 0 0 0 105 112 100 255
-0.0831556 0.882883 2.20657 0 0 0 173 186 190 255
0.0305871 0.882772 2.21637 0 0 0 170 189 194 255
-0.151037 0.863428 2.29739 0 0 0 30 46 57 255
-0.00376539 0.851546 2.25854 0 0 0 38 49 58 255
0.0481656 1.08996 1.58433 0 0 0 39 44 49 255
-0.614622 0.28665 2.823 0 0 0 160 167 171 255
0.0469635 0.834026 2.35501 0 0 0 169 186 193 255
-0.163707 1.0325 1.81604 0 0 0 174 197 202 255
-0.139497 1.0268 1.8151 0 0 0 168 189 194 255
0.156623 0.444668 2.47596 0 0 0 70 81 100 255
0.617833 1.0133 1.63647 0 0 0 75 87 95 255
0.47763 1.03303 1.6819 0 0 0 56 64 73 255
0.488224 1.01769 1.65322 0 0 0 54 64 70 255
0.33328 1.03452 1.69945 0 0 0 45 57 67 255
0.353371 1.02745 1.67673 0 0 0 61 60 63 255
0.18795 1.04085 1.70383 0 0 0 38 53 64 255
0.210366 1.03813 1.69823 0 0 0 42 53 62 255
0.0490647 1.05046 1.74011 0 0 0 35 44 52 255
0.0683569 1.04149 1.71224 0 0 0 33 42 50 255
-0.0986987 1.05478 1.74128 0 0 0 33 45 59 255
-0.077325 1.04812 1.74028 0 0 0 37 41 44 255
-0.218675 1.04975 1.76227 0 0 0 44 50 55 255
0.41369 1.04682 1.60223 0 0 0 170 192 200 255
0.00645696 0.806002 2.40264 0 0 0 51 55 58 255
0.392554 1.05575 1.60343 0 0 0 172 196 204 255
0.249831 1.06162 1.62304 0 0 0 169 194 201 255
0.274993 1.06672 1.63778 0 0 0 167 187 196 255
-0.096533 1.09405 1.60395 0 0 0 60 64 69 255
0.190972 0.797276 2.38511 0 0 0 77 85 89 255
0.110632 1.06737 1.64361 0 0 0 164 188 196 255
0.128809 1.06105 1.64056 0 0 0 168 192 197 255
-0.177239 1.08292 1.70581 0 0 0 43 67 83 255
-0.0348468 1.07437 1.66367 0 0 0 169 195 202 255
-0.0128185 1.06763 1.66078 0 0 0 169 191 197 255
0.462307 1.07617 1.53575 0 0 0 64 78 91 255
0.318169 1.08172 1.55305 0 0 0 52 59 67 255
0.335775 1.07624 1.54586 0 0 0 50 52 61 255
0.172998 1.08792 1.56996 0 0 0 38 49 63 255
0.192574 1.08312 1.56558 0 0 0 42 45 54 255
0.0314715 1.09449 1.58893 0 0 0 35 45 58 255
0.180628 1.08141 1.57531 0 0 0 177 192 197 255
0.156651 0.413831 2.47678 0 0 0 154 172 177 255
-0.147771 1.03709 1.81126 0 0 0 34 37 42 255
-0.0795713 0.837366 2.34724 0 0 0 88 97 102 255
-0.339883 0.614586 2.14364 0 0 0 75 80 88 255
0.0980501 0.170696 2.40528 0 0 0 139 146 151 255
0.13459 0.44501 2.50056 0 0 0 46 62 73 255
-0.306349 1.04047 1.86308 0 0 0 34 64 79 255
-0.844604 0.292834 2.65042 0 0 0 123 133 137 255
-0.855542 0.302265 2.69963 0 0 0 139 140 146 255
-0.7408 0.180643 2.76292 0 0 0 135 156 113 255
0.549374 1.05197 1.61212 0 0 0 65 82 91 255
0.420681 0.106569 2.90299 0 0 0 163 166 169 255
-0.651834 0.231068 2.72047 0 0 0 120 120 124 255
0.310922 0.369603 2.50372 0 0 0 159 177 186 255
-0.64358 0.225545 2.76797 0 0 0 11 27 40 255
0.0535572 0.614416 2.8814 0 0 0 176 197 204 255
-0.623695 0.187326 2.85283 0 0 0 127 140 115 255
0.633406 1.03049 1.66571 0 0 0 61 67 72 255
-0.602231 0.283272 2.76086 0 0 0 130 132 133 255
-0.303636 1.03903 1.86196 0 0 0 29 45 56 255
-0.165357 1.03127 1.81555 0 0 0 171 197 204 255
-0.136594 1.02518 1.81524 0 0 0 142 164 171 255
0.495038 1.02234 1.65661 0 0 0 93 95 97 255
0.333866 1.03675 1.69835 0 0 0 41 54 61 255
0.352705 1.02683 1.67783 0 0 0 82 86 88 255
0.190218 1.04585 1.72285 0 0 0 37 46 58 255
0.210876 1.03465 1.70104 0 0 0 42 53 62 255
0.0696463 1.04147 1.70928 0 0 0 41 51 58 255
-0.0988531 1.05235 1.74294 0 0 0 31 38 50 255
-0.0773033 1.04858 1.73992 0 0 0 37 41 44 255
-0.218661 1.05121 1.7617 0 0 0 44 50 55 255
0.549361 1.05196 1.6121 0 0 0 65 82 91 255
0.395722 1.05072 1.59961 0 0 0 174 194 201 255
0.412732 1.04833 1.59921 0 0 0 170 192 200 255
0.249615 1.05989 1.62605 0 0 0 173 199 206 255
0.274962 1.05199 1.62257 0 0 0 166 193 200 255
0.107183 1.0669 1.64515 0 0 0 171 196 203 255
0.128774 1.0627 1.63977 0 0 0 168 192 197 255
-0.0942148 1.09858 1.60704 0 0 0 60 64 69 255
0.264657 0.346611 2.46713 0 0 0 97 132 153 255
0.0488652 1.08955 1.58504 0 0 0 59 64 69 255
-0.178474 1.08234 1.70617 0 0 0 36 66 86 255
0.0255098 1.09723 1.58684 0 0 0 29 40 50 255
0.193193 1.08166 1.56691 0 0 0 46 50 59 255
0.333822 1.07731 1.54574 0 0 0 61 57 61 255
0.312365 1.0849 1.54906 0 0 0 43 54 65 255
0.169734 1.08619 1.57003 0 0 0 40 44 52 255
0.0371658 1.0859 1.59409 0 0 0 175 193 198 255
0.458642 1.06885 1.52362 0 0 0 57 64 68 255
-0.0107388 1.06698 1.66154 0 0 0 155 176 183 255
-0.037002 1.07426 1.66401 0 0 0 171 197 205 255
-0.0878453 0.883855 2.22254 0 0 0 155 167 174 255
-0.110244 0.884444 2.22558 0 0 0 168 190 197 255
-0.149707 0.864587 2.28361 0 0 0 52 66 74 255
-0.00453322 0.855995 2.26361 0 0 0 38 49 58 255
-0.0830159 0.84091 2.35375 0 0 0 105 119 126 255
0.0368217 0.830249 2.33399 0 0 0 170 194 203 255
0.0102209 0.802821 2.39708 0 0 0 85 94 98 255
0.190337 0.796432 2.38654 0 0 0 121 130 133 255
-0.150972 1.03798 1.81086 0 0 0 28 38 44 255
0.406886 1.05555 1.59426 0 0 0 43 47 51 255
-0.0858106 1.04328 1.74861 0 0 0 175 199 207 255
0.264696 1.06295 1.61505 0 0 0 44 45 49 255
0.188264 0.475075 2.48812 0 0 0 152 174 182 255
-0.571596 -0.140717 2.73121 0 0 0 104 109 92 255
-0.622237 0.182209 2.8543 0 0 0 117 130 107 255
-0.743414 0.18214 2.77073 0 0 0 140 146 119 255
0.159537 1.13722 1.43568 0 0 0 45 50 58 255
0.252605 0.847784 2.27858 0 0 0 42 46 49 255
0.279204 0.349423 2.46926 0 0 0 11 46 98 255
0.304473 1.12912 1.40558 0 0 0 65 79 86 255
0.112872 1.11093 1.50456 0 0 0 170 185 185 255
0.095241 1.11524 1.51219 0 0 0 164 186 191 255
-0.576006 0.672017 2.30266 0 0 0 173 178 181 255
0.0872608 1.16723 1.39276 0 0 0 47 57 67 255
0.238505 1.10772 1.49073 0 0 0 168 186 190 255
-0.0440071 1.12373 1.54826 0 0 0 47 63 70 255
0.164836 0.465225 2.49532 0 0 0 84 94 107 255
0.178983 1.09074 1.55883 0 0 0 168 191 199 255
0.0594945 1.03796 1.72961 0 0 0 173 192 192 255
0.572782 1.08027 1.67538 0 0 0 82 109 122 255
-0.647406 0.24077 2.72677 0 0 0 128 131 133 255
0.452112 0.906232 2.00179 0 0 0 58 58 58 255
-0.424683 1.00023 2.01654 0 0 0 40 50 58 255
-0.355723 0.601351 2.21673 0 0 0 73 73 74 255
0.232961 1.16552 1.3736 0 0 0 65 96 105 255
0.0322389 1.13988 1.45422 0 0 0 35 50 59 255
0.176208 1.13445 1.42996 0 0 0 42 52 60 255
0.393534 1.10771 1.49119 0 0 0 60 95 104 255
0.922131 0.935111 1.84368 0 0 0 106 111 116 255
1.1691 0.683793 2.45391 0 0 0 37 77 100 255
-0.236508 0.889849 2.21677 0 0 0 63 72 73 255
0.569407 0.945281 1.8272 0 0 0 127 133 134 255
0.828395 0.619262 2.784 0 0 0 51 55 57 255
0.324706 0.861933 2.14606 0 0 0 69 74 77 255
0.174137 1.13379 1.43108 0 0 0 52 58 59 255
0.391681 1.10798 1.49249 0 0 0 63 87 93 255
0.0609304 1.03892 1.73369 0 0 0 175 195 197 255
0.177162 0.431794 2.48173 0 0 0 160 170 179 255
0.0317573 1.14009 1.45481 0 0 0 61 77 86 255
0.301433 1.13061 1.40725 0 0 0 48 60 64 255
-0.0417201 1.12415 1.54827 0 0 0 47 63 70 255
0.114015 1.11076 1.50442 0 0 0 170 185 185 255
0.0928644 1.11554 1.51257 0 0 0 171 190 193 255
-0.578095 0.677478 2.30765 0 0 0 175 189 189 255
0.258073 1.10319 1.48469 0 0 0 173 192 197 255
0.233342 1.10736 1.49219 0 0 0 173 192 196 255
-0.169185 1.08056 1.70499 0 0 0 30 41 47 255
0.0854048 1.16498 1.39254 0 0 0 37 48 58 255
0.233992 1.16365 1.37426 0 0 0 49 64 72 255
0.57309 1.077 1.67309 0 0 0 57 69 78 255
-0.422702 1.00483 2.04144 0 0 0 26 38 46 255
0.161534 1.14051 1.42252 0 0 0 154 186 195 255
0.923238 0.934003 1.84378 0 0 0 127 133 138 255
-0.355111 0.59405 2.16357 0 0 0 88 95 99 255
0.175216 0.876467 2.20279 0 0 0 171 174 173 255
0.299118 0.966284 1.89847 0 0 0 174 181 181 255
0.0558442 0.874745 2.18171 0 0 0 165 171 171 255
0.158965 0.929492 2.07059 0 0 0 165 176 179 255
0.431977 1.0016 1.73057 0 0 0 169 183 183 255
-0.282642 0.981413 1.96016 0 0 0 160 172 174 255
-0.223305 1.05531 1.7607 0 0 0 49 51 55 255
-0.289631 1.03179 1.84101 0 0 0 49 60 61 255
0.324732 1.0765 1.55776 0 0 0 171 181 181 255
-0.448377 0.948508 1.97908 0 0 0 31 37 40 255
-0.390999 0.937198 2.08027 0 0 0 57 64 64 255
0.315893 0.362182 2.50127 0 0 0 17 31 56 255
0.324794 0.292721 2.49818 0 0 0 132 140 147 255
-0.176815 0.581933 2.37977 0 0 0 146 159 158 255
0.046779 0.587963 2.79424 0 0 0 39 40 44 255
-0.0825488 0.835531 2.33599 0 0 0 33 42 46 255
0.138841 0.539605 2.52578 0 0 0 19 58 89 255
0.870797 0.928146 1.89638 0 0 0 68 82 93 255
-0.843943 0.30268 2.60605 0 0 0 113 115 115 255
-0.747472 0.333491 2.75278 0 0 0 129 137 137 255
1.23406 0.697458 2.45401 0 0 0 44 50 52 255
0.165064 1.13049 1.44165 0 0 0 169 183 183 255
0.221031 0.944811 1.99226 0 0 0 41 49 52 255
0.237665 0.891066 2.12251 0 0 0 35 36 43 255
-0.283585 0.980482 1.96204 0 0 0 156 169 169 255
0.170806 0.876585 2.21183 0 0 0 173 179 182 255
-0.225411 1.01483 1.9157 0 0 0 29 32 34 255
0.1995 1.03131 1.71094 0 0 0 169 183 185 255
0.471439 1.0051 1.64423 0 0 0 172 188 189 255
0.193659 0.801384 2.40238 0 0 0 47 53 58 255
0.271739 0.309226 2.46213 0 0 0 5 45 101 255
0.290751 0.304231 2.47584 0 0 0 137 149 170 255
-0.0289667 1.07804 1.65599 0 0 0 28 33 38 255
0.046556 0.585678 2.79936 0 0 0 61 60 60 255
-0.375974 0.911302 1.99432 0 0 0 37 42 43 255
-0.176816 0.581935 2.37978 0 0 0 146 159 158 255
0.308362 0.404293 2.50688 0 0 0 130 136 140 255
0.198203 0.819011 2.29574 0 0 0 162 176 176 255
-0.0211631 1.07605 1.65688 0 0 0 34 39 41 255
0.16912 1.13835 1.42547 0 0 0 155 172 171 255
0.354371 0.977527 1.82368 0 0 0 173 184 185 255
0.0160432 0.932452 2.08582 0 0 0 161 173 173 255
0.339574 1.03342 1.67283 0 0 0 169 185 184 255
-0.090405 1.05663 1.73606 0 0 0 164 175 176 255
-0.167274 0.911747 2.14037 0 0 0 25 35 43 255
-0.108838 0.930583 2.0711 0 0 0 164 170 170 255
0.0105971 0.809199 2.39301 0 0 0 11 16 24 255
0.00259124 0.981944 1.95183 0 0 0 166 173 174 255
0.00026521 1.021 1.79235 0 0 0 162 172 177 255
-0.362583 0.588083 2.16159 0 0 0 36 41 44 255
-0.340084 1.00584 1.88606 0 0 0 43 42 45 255
0.151121 0.532563 2.52624 0 0 0 40 86 123 255
0.262038 0.254522 2.44988 0 0 0 127 141 146 255
0.36512 0.93593 1.96905 0 0 0 46 55 58 255
0.218118 0.358335 2.45568 0 0 0 118 134 138 255
-0.31239 0.911172 2.14448 0 0 0 57 64 63 255
-0.0332794 0.917184 2.15326 0 0 0 34 40 47 255
0.0850706 0.434457 2.53295 0 0 0 131 138 139 255
-0.603154 0.663174 2.52775 0 0 0 166 168 167 255
0.290823 0.960074 1.90459 0 0 0 30 32 32 255
0.0927026 0.621242 2.98112 0 0 0 184 187 188 255
0.223923 0.993385 1.84214 0 0 0 44 48 51 255
0.0757236 0.426396 2.53995 0 0 0 86 94 95 255
0.921513 0.954189 1.96054 0 0 0 80 94 102 255
0.758564 0.904958 1.98443 0 0 0 45 61 79 255
0.71355 0.684124 2.61315 0 0 0 116 132 152 255
-0.181893 0.589562 2.32145 0 0 0 35 50 56 255
-0.373189 0.585811 2.1555 0 0 0 23 51 69 255
-0.0327049 0.916869 2.15286 0 0 0 39 46 52 255
0.509466 0.930873 1.95666 0 0 0 75 83 81 255
0.5017 0.981859 1.79906 0 0 0 170 182 184 255
0.224764 0.992449 1.84053 0 0 0 47 51 54 255
0.0608713 0.573709 2.64103 0 0 0 182 186 187 255
-0.60272 0.664217 2.52816 0 0 0 166 168 167 255
0.318571 0.915292 2.03192 0 0 0 178 210 220 255
-0.126986 0.939084 2.09868 0 0 0 177 204 212 255
0.445196 0.958629 1.87892 0 0 0 182 215 221 255
-0.290415 0.0102612 2.74041 0 0 0 157 152 147 255
-0.551248 -0.29258 2.90577 0 0 0 35 50 60 255
-0.113354 0.0126561 2.78426 0 0 0 141 138 128 255
1.34775 -0.0408126 2.50921 0 0 0 22 35 56 255
1.4181 -0.0179927 2.41217 0 0 0 112 126 141 255
0.052463 0.376036 2.56827 0 0 0 133 148 156 255
0.066914 0.376645 2.54319 0 0 0 132 156 180 255
0.122253 0.374545 2.47129 0 0 0 30 46 59 255
-0.568908 -0.142002 2.7288 0 0 0 132 146 121 255
1.32225 -0.0430819 2.54992 0 0 0 34 40 45 255
1.35535 -0.0303077 2.50172 0 0 0 130 147 155 255
-0.00587261 0.00298825 2.78706 0 0 0 137 137 136 255
-0.0292404 0.00300886 2.79148 0 0 0 120 118 119 255
1.39293 -0.0160324 2.44957 0 0 0 120 141 145 255
1.26948 -0.0558639 2.60851 0 0 0 125 144 152 255
1.24357 -0.0654328 2.64375 0 0 0 124 142 147 255
1.27363 -0.0849674 2.60766 0 0 0 128 150 154 255
1.2474 -0.0948028 2.6422 0 0 0 137 141 144 255
0.563047 0.995485 1.7323 0 0 0 43 54 67 255
1.39579 -0.0279346 2.45102 0 0 0 121 133 141 255
1.37347 -0.0269111 2.47339 0 0 0 28 35 39 255
0.0972431 0.360762 2.50266 0 0 0 150 167 204 255
-0.184695 0.56038 2.4266 0 0 0 172 180 183 255
0.21807 -0.0271262 2.81875 0 0 0 126 123 124 255
0.186196 -0.0230996 2.81466 0 0 0 132 130 126 255
-0.145101 0.0168681 2.78075 0 0 0 133 130 131 255
-0.332827 -0.3444 2.67857 0 0 0 77 74 70 255
0.154786 -0.0192949 2.81089 0 0 0 111 117 121 255
0.162569 -0.0177895 2.80622 0 0 0 129 126 124 255
-0.474994 -0.255325 2.71425 0 0 0 120 140 145 255
0.175066 0.255609 2.42111 0 0 0 37 69 90 255
0.075552 0.170113 2.45303 0 0 0 118 159 195 255
0.154943 -0.0128648 2.7948 0 0 0 122 115 112 255
0.00150535 0.00396828 2.78829 0 0 0 127 128 127 255
0.833225 0.628354 2.74836 0 0 0 116 139 154 255
1.31669 -0.0579604 2.56001 0 0 0 131 142 147 255
-0.0834702 0.00847969 2.78638 0 0 0 134 134 134 255
-0.638974 0.228753 2.72963 0 0 0 17 28 37 255
-0.170067 0.0252862 2.78503 0 0 0 144 143 139 255
0.195456 -0.0139681 2.82373 0 0 0 142 137 132 255
-0.132958 0.017317 2.78533 0 0 0 131 132 126 255
0.39814 -0.068503 2.86471 0 0 0 162 160 156 255
0.180015 0.265773 2.42587 0 0 0 138 166 179 255
0.264912 0.252813 2.43574 0 0 0 144 170 180 255
0.278741 0.206935 2.44095 0 0 0 150 180 202 255
1.34238 -0.0307236 2.51784 0 0 0 121 124 134 255
0.850115 0.831945 2.18415 0 0 0 33 60 90 255
0.119517 0.520683 2.54005 0 0 0 20 80 129 255
0.131971 -0.010365 2.80078 0 0 0 133 131 129 255
0.241619 -0.0223554 2.8067 0 0 0 135 132 124 255
-0.0525343 0.00431192 2.78756 0 0 0 139 141 142 255
1.33263 -0.0525894 2.54144 0 0 0 125 127 140 255
1.36001 -0.0587673 2.50202 0 0 0 132 141 145 255
0.3206 0.915702 2.03111 0 0 0 169 202 212 255
0.445398 0.906833 2.00786 0 0 0 102 101 104 255
-0.337078 -0.342605 2.68184 0 0 0 74 72 68 255
0.152423 0.465478 2.49839 0 0 0 146 158 165 255
-0.285729 0.0105611 2.7357 0 0 0 162 160 153 255
0.00995529 0.935988 2.09206 0 0 0 182 209 217 255
-0.480692 -0.25814 2.71765 0 0 0 147 167 171 255
-0.556322 -0.294989 2.91233 0 0 0 36 62 70 255
0.173985 0.345695 2.45332 0 0 0 7 71 124 255
-0.186001 0.570012 2.40975 0 0 0 172 191 198 255
-0.571457 -0.141107 2.73007 0 0 0 132 142 120 255
-0.640984 0.231587 2.72947 0 0 0 16 28 37 255
1.34664 -0.0433445 2.51409 0 0 0 32 41 48 255
0.562957 0.993064 1.7332 0 0 0 41 58 75 255
0.359968 0.98621 1.81588 0 0 0 183 209 216 255
1.31963 -0.043701 2.55165 0 0 0 43 47 52 255
0.443998 0.957821 1.87981 0 0 0 162 198 209 255
0.265573 0.252293 2.43606 0 0 0 148 173 183 255
-0.146394 0.018834 2.79524 0 0 0 133 130 131 255
-0.106182 0.0120517 2.78749 0 0 0 141 138 128 255
0.396116 -0.0704428 2.87121 0 0 0 162 161 154 255
-0.0849605 0.00925104 2.79392 0 0 0 115 115 116 255
1.33956 -0.0406535 2.5213 0 0 0 109 123 132 255
1.35278 -0.0304685 2.50067 0 0 0 99 124 136 255
-0.0028644 0.00276962 2.78674 0 0 0 111 109 109 255
0.107848 0.379169 2.50836 0 0 0 61 85 93 255
0.277208 0.206014 2.44054 0 0 0 117 152 172 255
1.2465 -0.0954849 2.64545 0 0 0 101 110 118 255
1.27428 -0.0847884 2.60719 0 0 0 128 150 154 255
0.177201 0.254558 2.41872 0 0 0 76 78 80 255
1.32971 -0.040594 2.54132 0 0 0 84 117 126 255
0.158976 -0.0187973 2.8115 0 0 0 102 102 102 255
0.0601903 0.429108 2.56963 0 0 0 136 149 151 255
0.837367 0.627874 2.76434 0 0 0 134 160 175 255
-0.605612 0.188044 2.76489 0 0 0 127 144 112 255
0.689813 0.702809 2.60146 0 0 0 118 151 171 255
1.38284 -0.0291889 2.46185 0 0 0 123 132 133 255
0.066052 0.377867 2.54116 0 0 0 84 107 131 255
0.85119 0.832526 2.18383 0 0 0 33 60 90 255
0.190423 -0.0189511 2.81155 0 0 0 110 106 101 255
0.106999 0.178884 2.41046 0 0 0 118 136 152 255
0.243084 -0.0255566 2.80725 0 0 0 134 130 122 255
1.31575 -0.0556098 2.56063 0 0 0 115 133 137 255
0.174246 0.53603 2.51409 0 0 0 26 134 177 255
-0.145697 0.856853 2.25113 0 0 0 61 68 73 255
0.394006 -0.0585591 2.86675 0 0 0 25 30 36 255
0.915798 0.931375 1.82611 0 0 0 103 125 141 255
0.282939 0.435662 2.49136 0 0 0 50 66 81 255
0.874107 0.927829 1.88905 0 0 0 75 104 121 255
-0.18515 0.590494 2.28843 0 0 0 158 181 194 255
0.903038 0.793764 2.26496 0 0 0 28 72 102 255
-0.159701 -0.0375679 2.76283 0 0 0 68 65 60 255
0.171372 -0.136058 2.76401 0 0 0 89 66 55 255
0.0266449 -0.208448 2.73526 0 0 0 86 71 69 255
-0.0896292 -0.065566 2.77498 0 0 0 91 89 85 255
0.39069 -0.062494 2.87415 0 0 0 98 97 95 255
0.158248 0.919782 2.05913 0 0 0 180 208 215 255
0.175183 0.402371 2.47326 0 0 0 92 118 141 255
0.924214 0.932907 1.83796 0 0 0 131 146 157 255
0.0578766 0.836388 2.33536 0 0 0 35 46 51 255
1.3098 0.71853 2.38398 0 0 0 17 96 132 255
-0.186992 0.586936 2.27907 0 0 0 123 153 167 255
0.953032 0.936917 1.80411 0 0 0 141 154 157 255
1.12557 0.83492 2.04186 0 0 0 89 168 201 255
1.61183 0.689754 2.42091 0 0 0 87 141 156 255
1.63403 0.633771 2.43269 0 0 0 166 214 218 255
0.302115 0.424617 2.50674 0 0 0 13 56 117 255
-0.137838 0.0122641 2.78543 0 0 0 107 104 105 255
1.61176 0.682319 2.42014 0 0 0 36 102 118 255
-0.23767 0.910907 2.01989 0 0 0 175 191 206 255
0.158635 0.525735 2.51969 0 0 0 137 182 202 255
-0.139525 0.0262043 2.78418 0 0 0 107 103 102 255
0.270125 0.581505 2.53284 0 0 0 163 160 136 255
0.764758 0.670337 2.68536 0 0 0 120 137 161 255
0.7868 0.648806 2.66081 0 0 0 149 162 185 255
0.637665 0.882882 2.06096 0 0 0 76 92 107 255
-0.100253 -0.0147368 2.53159 0 0 0 60 65 63 255
0.244103 0.375418 2.46575 0 0 0 78 108 121 255
0.600689 0.72329 2.54127 0 0 0 152 154 156 255
-0.0273613 0.00859565 2.78936 0 0 0 129 125 122 255
0.247996 0.887494 2.11633 0 0 0 179 217 226 255
-0.235017 0.912337 2.01623 0 0 0 176 195 205 255
0.0430796 0.575914 2.68796 0 0 0 75 78 81 255
0.768872 0.680054 2.64133 0 0 0 49 82 116 255
0.637665 0.882882 2.06096 0 0 0 76 92 107 255
0.104543 0.169862 2.4137 0 0 0 114 140 170 255
-0.0313994 0.922023 1.92807 0 0 0 32 47 56 255
0.0248841 0.93248 2.0927 0 0 0 34 48 54 255
-0.150756 0.871262 2.05945 0 0 0 176 198 201 255
0.376338 0.931493 1.96063 0 0 0 180 211 217 255
0.31626 0.405822 2.51455 0 0 0 139 157 176 255
-0.0358798 0.918621 2.17308 0 0 0 31 41 49 255
-0.113576 0.0198484 2.78185 0 0 0 138 130 127 255
-0.171708 0.0165962 2.78098 0 0 0 133 121 124 255
0.327233 0.412911 2.51983 0 0 0 148 170 176 255
0.1233 -0.120333 3.90843 0 0 0 120 117 117 255
0.175287 -0.0583171 3.24064 0 0 0 147 139 138 255
0.217477 -0.017196 2.80388 0 0 0 132 132 130 255
-0.0539899 0.0128963 2.78742 0 0 0 124 126 122 255
0.420286 0.117837 2.92396 0 0 0 160 169 170 255
0.245289 -0.0144576 2.79327 0 0 0 134 134 134 255
0.174495 -0.0487369 3.23481 0 0 0 125 124 124 255
0.0854208 0.204854 2.42386 0 0 0 125 142 166 255
-0.104746 0.0199315 2.7883 0 0 0 112 119 118 255
0.803919 0.654672 2.63389 0 0 0 153 182 198 255
0.668413 0.720449 2.58056 0 0 0 130 163 184 255
1.15502 0.844795 2.06355 0 0 0 153 198 217 255
0.157444 -0.00607003 2.7971 0 0 0 111 117 114 255
0.275648 0.426904 2.48818 0 0 0 75 98 131 255
0.567685 0.730063 2.55561 0 0 0 72 78 85 255
0.216107 0.585482 2.51835 0 0 0 149 140 109 255
0.188138 -0.0610056 3.23332 0 0 0 122 120 121 255
0.152914 -0.0539233 3.27397 0 0 0 120 122 120 255
-0.169774 0.017137 2.78412 0 0 0 133 121 124 255
-0.0319347 0.920693 1.93001 0 0 0 62 82 84 255
0.274815 0.354134 2.46735 0 0 0 7 72 127 255
0.11053 0.43542 2.51321 0 0 0 84 116 143 255
0.280347 0.304116 2.46797 0 0 0 7 79 142 255
-0.0927387 0.894478 2.00077 0 0 0 29 45 58 255
-0.0991592 0.894847 2.00411 0 0 0 33 52 62 255
0.668945 0.718556 2.57836 0 0 0 99 136 158 255
-0.0552033 0.0114492 2.78806 0 0 0 121 121 120 255
1.21635 0.697896 2.46371 0 0 0 71 84 92 255
0.7144 0.703574 2.59371 0 0 0 162 179 199 255
0.379532 0.55422 2.74973 0 0 0 112 148 168 255
0.802681 0.654828 2.64182 0 0 0 144 170 191 255
0.877485 0.619491 2.64085 0 0 0 115 138 147 255
0.0677129 0.205167 2.47986 0 0 0 7 63 110 255
-0.079819 0.0181126 2.78674 0 0 0 111 111 112 255
-0.0872374 0.985024 2.06463 0 0 0 40 49 56 255
0.137652 0.415931 2.48596 0 0 0 153 175 177 255
0.830263 0.62343 2.7697 0 0 0 46 63 71 255
0.561365 0.726069 2.56658 0 0 0 143 143 145 255
1.10054 0.791167 2.23465 0 0 0 75 87 83 255
0.297783 0.960015 1.90474 0 0 0 33 49 59 255
-0.0291376 0.863074 2.2939 0 0 0 43 47 53 255
0.321043 0.285346 2.49667 0 0 0 148 166 196 255
-0.206753 0.947364 2.22609 0 0 0 38 48 52 255
0.0288105 0.935749 2.08321 0 0 0 183 197 199 255
0.156275 0.447064 2.50344 0 0 0 54 77 117 255
0.0940515 0.952742 2.00092 0 0 0 41 48 53 255
-0.13846 0.966383 2.14408 0 0 0 181 196 200 255
0.34405 0.132939 2.50731 0 0 0 158 165 174 255
0.427284 0.217724 2.95522 0 0 0 161 171 170 255
0.235014 0.937492 1.98171 0 0 0 181 212 217 255
0.0313041 0.935458 2.08404 0 0 0 177 195 197 255
-0.211173 0.953389 2.21954 0 0 0 167 197 200 255
-0.205523 0.946394 2.22612 0 0 0 52 65 67 255
0.320945 0.286527 2.49635 0 0 0 148 166 196 255
-0.0326156 0.863571 2.29657 0 0 0 43 48 55 255
0.86213 0.61799 2.61922 0 0 0 151 176 193 255
-0.155839 0.963676 2.14337 0 0 0 172 204 210 255
-0.137011 0.966945 2.1423 0 0 0 181 196 200 255
0.231255 0.949277 1.97327 0 0 0 182 200 203 255
0.0953202 0.951065 2.00055 0 0 0 47 55 58 255
0.320184 0.398608 2.51619 0 0 0 162 177 186 255
-0.110929 0.888815 2.25035 0 0 0 27 48 58 255
0.428062 0.217773 2.95471 0 0 0 161 171 170 255
0.438736 0.204772 2.94836 0 0 0 51 62 61 255
-0.141334 0.0214885 2.80525 0 0 0 128 122 117 255
1.64711 -1.41879 5.72072 0 0 0 244 248 252 255
-0.147864 0.0216863 2.80184 0 0 0 123 115 104 255
-0.172196 0.0216981 2.80004 0 0 0 142 132 124 255
-0.582783 0.368948 2.87864 0 0 0 188 190 192 255
-0.136563 0.0156482 2.80116 0 0 0 141 130 118 255
1.64798 -1.31485 5.63967 0 0 0 174 173 173 255
0.0919592 -0.243138 2.7446 0 0 0 137 108 95 255
-0.150269 0.0148517 2.80352 0 0 0 134 122 114 255
-0.290171 0.00741291 2.78495 0 0 0 178 163 148 255
-0.0605969 0.0108938 2.80835 0 0 0 134 121 107 255
0.205951 -0.0997736 2.81195 0 0 0 108 101 91 255
0.309376 -0.50775 3.00961 0 0 0 99 101 100 255
-0.612242 0.188901 2.81297 0 0 0 153 164 120 255
0.166618 -0.571077 3.28026 0 0 0 54 54 54 255
0.177125 -0.501637 3.03283 0 0 0 105 111 110 255
0.425682 -0.451224 2.89311 0 0 0 74 69 69 255
0.170203 -0.139147 2.78544 0 0 0 122 86 69 255
0.228671 -0.0892566 2.79906 0 0 0 97 89 83 255
-0.0927678 0.00630844 2.80833 0 0 0 142 132 127 255
-0.113262 0.0058436 2.80624 0 0 0 131 128 127 255
-0.224805 0.531141 2.47195 0 0 0 51 52 62 255
-0.339945 -0.347764 2.68745 0 0 0 80 70 69 255
-0.0108789 0.00531768 2.81137 0 0 0 131 121 108 255
0.00126628 0.00197984 2.81446 0 0 0 125 122 114 255
-0.398771 0.636149 3.00073 0 0 0 136 145 147 255
-0.0573482 0.000801745 2.80796 0 0 0 135 128 123 255
0.230541 -0.260473 2.75669 0 0 0 126 118 114 255
-0.0128117 -0.00162805 2.81422 0 0 0 144 133 122 255
0.0500114 0.567462 2.67921 0 0 0 205 216 217 255
0.336109 0.390731 2.52745 0 0 0 143 161 170 255
-0.036632 -0.00221731 2.81185 0 0 0 130 128 129 255
0.187607 -0.078411 2.79411 0 0 0 93 91 90 255
0.232598 -0.302816 2.7524 0 0 0 141 99 79 255
-0.00389776 -0.15973 2.77192 0 0 0 196 179 164 255
0.148243 -0.297913 2.74573 0 0 0 139 111 102 255
0.18161 -0.294502 2.7487 0 0 0 196 186 172 255
0.159844 -0.139517 2.78589 0 0 0 119 87 68 255
0.195499 -0.29103 2.74968 0 0 0 153 105 82 255
0.274728 0.433291 2.48871 0 0 0 108 123 152 255
0.159036 -0.0113193 2.8206 0 0 0 151 138 131 255
0.15244 -0.011198 2.8196 0 0 0 144 138 126 255
0.125421 -0.0100966 2.81857 0 0 0 148 140 133 255
0.132508 -0.0132283 2.81653 0 0 0 144 139 133 255
-0.0128498 -0.0766169 2.78434 0 0 0 100 92 76 255
0.240628 0.438064 2.48038 0 0 0 67 81 122 255
0.194539 -0.0157018 2.82071 0 0 0 153 143 136 255
0.162665 -0.0165577 2.82098 0 0 0 142 135 126 255
0.148736 -0.0168931 2.82202 0 0 0 143 135 129 255
0.121818 -0.017047 2.81917 0 0 0 136 132 129 255
0.105801 0.182835 2.42968 0 0 0 153 168 177 255
0.241576 -0.0194516 2.82927 0 0 0 141 138 139 255
0.17994 -0.0228668 2.826 0 0 0 151 144 144 255
0.631919 0.599501 2.96557 0 0 0 108 89 86 255
0.238578 -0.0250293 2.83024 0 0 0 150 144 137 255
-0.0547666 -0.228202 2.73256 0 0 0 126 103 87 255
0.190726 -0.0253502 2.82541 0 0 0 129 124 118 255
0.238843 -0.0315744 2.83197 0 0 0 138 133 126 255
0.324656 0.462702 2.53694 0 0 0 165 173 181 255
0.177799 0.369585 2.46025 0 0 0 77 93 122 255
0.135137 0.464118 2.50368 0 0 0 118 122 127 255
0.384613 -0.0582025 2.85155 0 0 0 41 36 33 255
-0.028178 -0.234448 2.73813 0 0 0 143 105 92 255
0.152802 -0.252059 2.75065 0 0 0 139 106 85 255
0.251853 0.472469 2.49506 0 0 0 69 91 128 255
-0.100182 -0.0690985 2.80555 0 0 0 111 104 93 255
0.0364797 -0.245308 2.7442 0 0 0 195 178 162 255
0.331622 0.293701 2.5021 0 0 0 145 165 179 255
0.257575 0.478481 2.49693 0 0 0 163 174 193 255
-0.482881 -0.263982 2.72878 0 0 0 158 168 165 255
0.28211 0.474727 2.50559 0 0 0 135 148 165 255
0.347772 0.224625 2.52505 0 0 0 147 174 195 255
0.147887 -0.176485 2.78119 0 0 0 198 180 163 255
-0.578342 0.28041 2.74681 0 0 0 168 167 167 255
0.212249 -0.0764592 2.81493 0 0 0 109 102 91 255
0.407948 -0.434721 2.84196 0 0 0 75 104 124 255
-0.0170149 -0.274671 2.7382 0 0 0 191 178 171 255
0.154341 0.520265 2.51875 0 0 0 48 125 162 255
-0.288507 0.014096 2.78821 0 0 0 43 38 36 255
0.0345437 -0.22592 2.74974 0 0 0 189 168 155 255
0.187221 -0.25373 2.75277 0 0 0 123 96 91 255
0.305842 0.434285 2.51346 0 0 0 178 195 201 255
0.139619 -0.672717 3.6425 0 0 0 83 85 84 255
0.261208 0.574234 2.5232 0 0 0 61 89 105 255
0.740391 0.64484 2.72234 0 0 0 145 158 173 255
-0.286937 0.444395 2.35392 0 0 0 106 122 136 255
0.0781749 -0.0744873 2.80001 0 0 0 87 82 74 255
0.417091 0.18931 2.96936 0 0 0 169 170 165 255
0.154812 -0.186761 2.78225 0 0 0 150 127 108 255
0.39297 0.0678544 3.11371 0 0 0 154 150 139 255
-0.141802 -0.221918 2.73352 0 0 0 156 129 112 255
0.106137 0.169793 2.42632 0 0 0 148 153 157 255
0.324451 0.492266 2.55298 0 0 0 129 153 174 255
0.700059 -0.108191 2.75469 0 0 0 156 115 86 255
0.149271 -0.0705517 2.81975 0 0 0 129 123 115 255
-0.631539 0.217588 2.80369 0 0 0 47 53 56 255
0.274899 0.56554 2.53271 0 0 0 155 159 136 255
0.151077 -0.0787134 2.80327 0 0 0 200 184 169 255
0.175101 -0.0774481 2.80257 0 0 0 111 110 106 255
0.108491 -0.0940186 2.85065 0 0 0 80 75 73 255
0.37833 0.535689 2.69714 0 0 0 164 178 188 255
0.197579 -0.264564 2.75352 0 0 0 152 135 120 255
0.238039 -0.0920192 2.79334 0 0 0 120 116 112 255
-0.290584 0.444938 2.37184 0 0 0 103 145 163 255
0.0588814 -0.0667403 2.7928 0 0 0 105 98 85 255
0.0921938 -0.253188 2.74448 0 0 0 192 174 158 255
-0.0332318 0.00840172 2.81301 0 0 0 130 123 112 255
0.118627 0.325781 2.46988 0 0 0 155 173 184 255
-0.0622299 -0.188571 2.75628 0 0 0 135 107 88 255
0.247011 0.568526 2.52234 0 0 0 152 156 136 255
0.140013 -0.136025 2.78086 0 0 0 126 111 103 255
0.205887 -0.0764735 2.81179 0 0 0 121 114 104 255
0.0309221 -0.276247 2.74048 0 0 0 194 181 165 255
-0.0838605 0.0130402 2.80886 0 0 0 126 124 120 255
0.118631 -0.250902 2.7499 0 0 0 146 106 89 255
