ply
format ascii 1.0
comment VCGLIB generated
element vertex 1019
property float x
property float y
property float z
property float nx
property float ny
property float nz
property uchar red
property uchar green
property uchar blue
property uchar alpha
element face 0
property list uchar int vertex_indices
end_header
0.464438 -0.0894029 2.53434 0 0 0 186 187 181 255
0.774967 0.602246 2.69908 0 0 0 92 88 98 255
0.16052 -0.0959664 2.48943 0 0 0 83 84 85 255
0.894586 0.674914 2.54065 0 0 0 160 169 201 255
0.191466 -0.0815018 2.496 0 0 0 115 117 117 255
0.154678 -0.0777862 2.46266 0 0 0 104 106 105 255
0.929662 0.702302 2.49645 0 0 0 149 179 221 255
0.255578 0.512116 2.4983 0 0 0 228 243 250 255
0.142527 -0.0254462 2.51333 0 0 0 157 157 156 255
0.267819 -0.180238 2.47035 0 0 0 188 190 187 255
0.179985 -0.0854152 2.50174 0 0 0 63 66 63 255
-0.029838 0.433325 2.13456 0 0 0 202 218 233 255
0.764445 0.721403 2.39325 0 0 0 69 72 80 255
0.414749 -0.102345 2.54141 0 0 0 116 116 115 255
0.240883 -0.289598 2.42836 0 0 0 188 187 185 255
0.286159 -0.252217 2.44883 0 0 0 121 112 110 255
0.495526 -0.0847287 2.53738 0 0 0 123 121 124 255
0.149257 -0.0980865 2.49124 0 0 0 87 92 91 255
0.317628 -0.258457 2.44632 0 0 0 189 192 188 255
-0.340708 0.114021 2.52019 0 0 0 33 48 56 255
0.143488 -0.0799317 2.48425 0 0 0 108 108 106 255
0.46648 -0.100874 2.52874 0 0 0 102 100 102 255
0.170281 -0.214509 2.44419 0 0 0 125 115 119 255
-0.456379 0.118405 2.4241 0 0 0 131 149 127 255
0.427807 -0.288713 2.44952 0 0 0 188 188 188 255
0.145763 -0.32036 2.40259 0 0 0 126 119 114 255
-0.192706 -0.347052 2.469 0 0 0 195 213 224 255
0.775178 0.603494 2.69741 0 0 0 92 88 98 255
0.424898 -0.29523 2.44654 0 0 0 130 121 119 255
0.253941 0.51194 2.49911 0 0 0 223 238 245 255
0.840145 0.709337 2.45821 0 0 0 184 189 210 255
0.237382 -0.286734 2.4281 0 0 0 191 192 189 255
-0.456176 0.538959 2.5147 0 0 0 171 187 201 255
-0.318461 0.449988 2.09518 0 0 0 225 245 252 255
-0.0321491 0.42897 2.12487 0 0 0 181 192 205 255
0.760797 0.751106 2.34696 0 0 0 193 198 201 255
0.281793 -0.254141 2.44806 0 0 0 129 115 110 255
0.629965 0.0706637 2.37902 0 0 0 81 95 115 255
0.473035 0.468329 2.26095 0 0 0 193 213 229 255
0.143699 -0.259872 2.42989 0 0 0 142 135 135 255
0.768036 0.721344 2.39266 0 0 0 93 101 113 255
0.165828 -0.215511 2.4455 0 0 0 124 115 114 255
-0.360244 -0.139505 2.38542 0 0 0 57 82 44 255
0.145641 -0.0880475 2.48622 0 0 0 146 146 146 255
-0.356096 0.266693 2.54712 0 0 0 195 209 225 255
-0.133899 0.39377 2.01045 0 0 0 198 184 187 255
0.276306 -0.297731 2.42869 0 0 0 135 122 115 255
-0.236346 0.467117 2.45804 0 0 0 49 57 69 255
0.147592 -0.099402 2.48697 0 0 0 160 163 158 255
0.89415 0.676786 2.5394 0 0 0 160 169 201 255
0.34851 -0.151754 2.49138 0 0 0 189 192 188 255
0.948541 0.696917 2.49868 0 0 0 156 196 219 255
0.240561 -0.0340844 2.51971 0 0 0 150 149 152 255
0.933568 0.723037 2.43719 0 0 0 61 120 154 255
0.547062 0.477809 2.34045 0 0 0 89 123 152 255
1.56968 -0.918582 4.68963 0 0 0 110 128 140 255
1.15197 -0.6473 3.54996 0 0 0 194 195 197 255
0.795219 -0.539496 3.01787 0 0 0 78 80 82 255
0.523612 -0.458504 2.64467 0 0 0 93 91 94 255
0.489692 -0.0336337 2.55013 0 0 0 128 128 128 255
0.999384 0.676224 2.57602 0 0 0 135 176 194 255
1.04826 0.683808 2.53071 0 0 0 105 162 202 255
0.74006 0.759036 2.35327 0 0 0 80 90 97 255
0.204829 -0.083378 2.50444 0 0 0 94 94 94 255
-0.305784 0.103829 2.54508 0 0 0 17 46 62 255
-0.0431243 -0.0497538 2.48128 0 0 0 75 45 49 255
0.322515 0.412648 2.26685 0 0 0 33 91 140 255
0.841941 0.782353 2.27982 0 0 0 45 106 138 255
0.116101 -0.0251792 2.51365 0 0 0 155 154 152 255
0.837797 0.754309 2.37513 0 0 0 174 201 220 255
0.92661 0.768145 2.33773 0 0 0 184 223 243 255
0.950717 0.751959 2.35374 0 0 0 155 214 244 255
0.86624 0.738884 2.4212 0 0 0 150 197 221 255
0.449776 0.577683 2.29363 0 0 0 149 156 157 255
0.893128 0.738444 2.4101 0 0 0 65 91 115 255
0.886702 0.727106 2.43772 0 0 0 128 212 246 255
0.937555 0.725886 2.42772 0 0 0 177 221 242 255
0.133385 -0.0331101 2.50684 0 0 0 133 134 134 255
0.582456 0.265109 2.29701 0 0 0 142 179 197 255
1.04028 0.688379 2.53161 0 0 0 167 203 222 255
0.427216 0.572895 2.29104 0 0 0 43 87 129 255
-0.422241 0.127589 2.35556 0 0 0 123 137 144 255
-0.224575 0.487403 2.57725 0 0 0 102 122 129 255
0.381667 0.57278 2.28954 0 0 0 164 161 141 255
0.927902 0.711684 2.49719 0 0 0 118 147 172 255
1.12429 -0.636462 3.50244 0 0 0 189 192 196 255
0.809482 -0.552503 3.06701 0 0 0 71 76 86 255
0.527171 -0.460087 2.64773 0 0 0 93 92 95 255
0.840441 0.780915 2.28112 0 0 0 55 81 103 255
0.318553 0.409532 2.2677 0 0 0 48 97 139 255
0.933502 0.721609 2.43962 0 0 0 132 155 172 255
0.88963 0.726858 2.44522 0 0 0 98 172 206 255
0.890005 0.733044 2.40389 0 0 0 95 104 119 255
0.864288 0.739231 2.4164 0 0 0 150 197 221 255
0.923672 0.766991 2.33926 0 0 0 171 224 247 255
1.03571 0.685765 2.53332 0 0 0 184 216 235 255
0.837024 0.755014 2.37647 0 0 0 120 174 194 255
0.538348 0.477132 2.33746 0 0 0 36 95 146 255
0.951996 0.697548 2.50546 0 0 0 132 166 191 255
0.967192 0.703228 2.47367 0 0 0 168 208 233 255
-0.373761 0.118922 2.45062 0 0 0 106 126 133 255
-0.0450888 -0.0537019 2.48067 0 0 0 70 44 51 255
0.45953 -0.261406 2.46222 0 0 0 191 192 188 255
0.45128 0.559871 2.28579 0 0 0 9 106 153 255
0.947123 0.752614 2.35339 0 0 0 172 226 251 255
0.437931 0.562185 2.28375 0 0 0 25 124 173 255
0.860328 0.686483 2.51904 0 0 0 63 141 170 255
0.929682 0.751043 2.37187 0 0 0 103 212 247 255
1.11985 0.26467 2.56174 0 0 0 126 171 188 255
-0.226313 0.488028 2.58241 0 0 0 67 87 94 255
-0.312696 -0.0399138 2.48019 0 0 0 92 117 110 255
-0.380189 0.33164 2.51669 0 0 0 127 150 158 255
1.42308 -0.372323 2.48539 0 0 0 185 196 204 255
0.222874 -0.0798126 2.50088 0 0 0 89 87 87 255
0.249214 -0.0830507 2.49628 0 0 0 92 92 92 255
0.237426 -0.0855748 2.49594 0 0 0 93 94 92 255
0.637888 -0.449784 2.63742 0 0 0 79 72 84 255
0.205033 -0.100042 2.50549 0 0 0 98 96 94 255
0.419698 0.25044 2.16496 0 0 0 173 203 214 255
0.265168 -0.0980846 2.49897 0 0 0 86 84 83 255
0.246421 -0.101233 2.49071 0 0 0 94 92 90 255
0.160731 -0.0779441 2.48253 0 0 0 123 122 122 255
0.404156 -0.0927742 2.51612 0 0 0 194 192 191 255
0.331397 -0.0997637 2.51556 0 0 0 111 111 110 255
0.165891 -0.0861362 2.48529 0 0 0 189 186 180 255
0.383238 -0.100235 2.51611 0 0 0 93 92 91 255
0.455061 0.436683 2.24199 0 0 0 71 107 150 255
0.372522 -0.0812766 2.52415 0 0 0 109 108 106 255
0.935417 0.718255 2.4643 0 0 0 93 135 175 255
0.486625 -0.0205813 2.54927 0 0 0 169 166 167 255
0.199772 -0.0900774 2.50438 0 0 0 188 190 180 255
0.372817 0.452223 2.23916 0 0 0 105 122 144 255
0.277645 -0.0832553 2.50167 0 0 0 86 86 86 255
0.217735 -0.0989922 2.4945 0 0 0 108 110 108 255
0.253407 -0.298021 2.4252 0 0 0 186 182 177 255
0.223301 -0.0988377 2.48553 0 0 0 124 125 122 255
1.40723 -0.0917295 2.38242 0 0 0 139 121 77 255
1.27593 0.411774 2.53962 0 0 0 132 164 177 255
0.384625 -0.0807073 2.5121 0 0 0 119 119 118 255
0.468049 0.383693 2.22455 0 0 0 68 118 165 255
0.330131 -0.081743 2.51003 0 0 0 119 119 119 255
0.494544 -0.0990768 2.53036 0 0 0 115 112 106 255
0.517357 0.425794 2.27078 0 0 0 18 98 153 255
0.518681 0.460203 2.28657 0 0 0 87 112 138 255
0.36962 -0.100067 2.4845 0 0 0 114 113 113 255
-0.255928 0.0789311 2.54043 0 0 0 123 142 152 255
0.401287 -0.145386 2.49999 0 0 0 148 122 117 255
0.0925324 -0.0973892 2.48039 0 0 0 96 96 90 255
0.476344 -0.26171 2.47018 0 0 0 137 133 127 255
0.461808 0.331944 2.20425 0 0 0 5 101 157 255
0.638077 -0.452197 2.64368 0 0 0 84 77 89 255
1.80334 -1.1978 5.12523 0 0 0 174 178 183 255
0.201081 -0.0990393 2.48202 0 0 0 167 166 163 255
0.492878 -0.097791 2.53435 0 0 0 188 184 179 255
0.172473 -0.102944 2.48963 0 0 0 131 130 127 255
0.194422 -0.0899232 2.47817 0 0 0 186 187 179 255
1.42286 -0.373019 2.48679 0 0 0 68 81 89 255
0.217982 -0.077921 2.48641 0 0 0 89 89 88 255
-0.256096 0.0794897 2.54076 0 0 0 123 142 152 255
0.244129 -0.300636 2.42432 0 0 0 181 184 176 255
0.167592 -0.0910692 2.49548 0 0 0 180 179 174 255
0.317684 -0.288034 2.43565 0 0 0 184 168 166 255
0.49081 -0.255148 2.47008 0 0 0 135 108 105 255
0.328115 -0.300331 2.4343 0 0 0 133 128 122 255
1.35428 -0.0304768 2.40875 0 0 0 162 125 67 255
0.411402 0.250086 2.16378 0 0 0 125 160 179 255
0.277205 -0.0839414 2.50156 0 0 0 145 146 146 255
0.246945 -0.101152 2.49772 0 0 0 94 92 90 255
1.26763 0.404955 2.52937 0 0 0 130 167 182 255
0.262487 -0.101293 2.49782 0 0 0 171 175 170 255
0.45792 -0.298409 2.44904 0 0 0 154 150 143 255
0.331975 0.368383 2.24161 0 0 0 107 134 147 255
0.512926 0.422957 2.26433 0 0 0 73 117 146 255
0.418762 -0.252394 2.46019 0 0 0 146 113 105 255
0.420056 -0.304438 2.44094 0 0 0 124 123 121 255
1.83054 -1.32606 5.25099 0 0 0 242 247 248 255
1.86332 -1.32998 5.30148 0 0 0 241 241 241 255
0.941896 0.697726 2.50151 0 0 0 60 98 132 255
1.47296 0.0220933 2.42461 0 0 0 147 154 156 255
1.46789 0.0204496 2.42743 0 0 0 139 154 158 255
0.991829 0.669282 2.57896 0 0 0 76 82 88 255
0.497078 -0.448133 2.58018 0 0 0 76 68 67 255
0.496475 -0.443008 2.58403 0 0 0 103 95 89 255
0.500229 -0.437702 2.5659 0 0 0 87 70 74 255
0.427518 -0.0859285 2.51699 0 0 0 72 69 65 255
0.488084 0.355711 2.21955 0 0 0 18 82 138 255
1.50418 0.0636611 2.4221 0 0 0 130 149 152 255
0.317279 -0.086416 2.5121 0 0 0 94 91 90 255
0.530664 0.438026 2.29022 0 0 0 162 186 201 255
0.685656 -0.512971 2.86555 0 0 0 88 95 103 255
0.693247 -0.413859 2.56915 0 0 0 81 70 80 255
0.416006 -0.180873 2.49436 0 0 0 189 177 166 255
0.478525 -0.100615 2.52952 0 0 0 110 104 99 255
0.532378 0.40846 2.2717 0 0 0 176 191 200 255
0.47503 0.394776 2.24016 0 0 0 108 129 152 255
1.50827 0.0363773 2.4038 0 0 0 127 131 131 255
0.455899 -0.0960351 2.52924 0 0 0 70 68 62 255
0.225413 -0.250732 2.43638 0 0 0 119 100 90 255
0.0825817 -0.0807716 2.48579 0 0 0 95 93 88 255
0.400172 -0.100791 2.5193 0 0 0 98 94 87 255
0.417211 -0.0941175 2.52141 0 0 0 100 95 94 255
0.54746 0.299235 2.25466 0 0 0 161 173 185 255
0.944253 0.692319 2.5035 0 0 0 131 146 168 255
0.251177 -0.0968004 2.50691 0 0 0 102 96 94 255
0.2388 -0.098076 2.49665 0 0 0 112 107 102 255
0.423454 -0.0804577 2.51657 0 0 0 95 95 95 255
1.46855 0.051352 2.44384 0 0 0 119 134 136 255
1.47162 0.0548593 2.43392 0 0 0 128 137 139 255
0.500338 0.336188 2.22397 0 0 0 70 88 110 255
1.5086 0.067428 2.41982 0 0 0 136 143 146 255
1.5142 0.070056 2.3973 0 0 0 140 160 165 255
0.523889 0.30862 2.23558 0 0 0 157 171 180 255
0.382637 -0.0893721 2.53048 0 0 0 88 86 84 255
0.455085 -0.289121 2.45419 0 0 0 181 172 167 255
0.398845 -0.0798277 2.51517 0 0 0 125 123 121 255
0.303049 0.477786 2.29863 0 0 0 17 117 159 255
0.30126 -0.0831825 2.50521 0 0 0 82 80 76 255
1.48146 0.0494395 2.43467 0 0 0 50 49 54 255
1.86161 -1.334 5.30377 0 0 0 246 248 249 255
0.53003 0.439397 2.29068 0 0 0 157 179 194 255
0.685656 -0.512971 2.86555 0 0 0 88 95 103 255
0.485909 0.354157 2.21838 0 0 0 53 82 100 255
0.497782 -0.449568 2.58511 0 0 0 76 68 67 255
0.532511 0.404982 2.27182 0 0 0 183 199 203 255
0.217339 -0.213373 2.45161 0 0 0 129 100 86 255
1.50422 0.0639777 2.42327 0 0 0 138 158 161 255
1.47259 0.0505239 2.44491 0 0 0 117 133 138 255
0.499564 0.336978 2.22373 0 0 0 97 117 141 255
1.50425 0.0347503 2.40685 0 0 0 117 129 131 255
0.246641 0.498696 2.44073 0 0 0 219 223 226 255
0.212232 0.571629 2.75591 0 0 0 83 83 92 255
0.668243 -0.517991 2.8402 0 0 0 182 203 209 255
0.359979 0.406288 2.22827 0 0 0 45 74 121 255
0.40109 -0.102255 2.52659 0 0 0 170 161 148 255
0.42957 -0.146009 2.50173 0 0 0 135 94 81 255
1.2951 0.285702 2.51537 0 0 0 110 110 110 255
0.415076 -0.0990527 2.52308 0 0 0 138 130 119 255
1.48369 0.0506091 2.43523 0 0 0 50 49 54 255
0.41714 -0.180725 2.49421 0 0 0 189 177 166 255
0.545611 0.301129 2.25364 0 0 0 114 158 203 255
1.49897 -0.0965725 2.36538 0 0 0 66 73 72 255
1.29092 0.348026 2.5404 0 0 0 81 129 155 255
0.299547 0.4753 2.29817 0 0 0 100 148 173 255
0.399345 -0.0796913 2.50757 0 0 0 128 125 123 255
0.280952 -0.186299 2.47186 0 0 0 146 123 115 255
0.398359 0.386447 2.21495 0 0 0 80 89 108 255
0.454141 -0.0884687 2.52525 0 0 0 91 86 83 255
0.431166 0.342844 2.20459 0 0 0 44 83 136 255
0.175837 -0.0792233 2.49542 0 0 0 106 100 93 255
1.46139 -0.38517 2.53131 0 0 0 195 195 197 255
1.54384 0.0695357 2.36747 0 0 0 139 151 151 255
0.616454 -0.454273 2.58792 0 0 0 104 111 114 255
0.620822 -0.44105 2.58846 0 0 0 67 49 50 255
0.426773 -0.0233829 2.54221 0 0 0 146 132 126 255
0.16682 -0.0771703 2.48931 0 0 0 72 72 72 255
0.437832 0.428942 2.23295 0 0 0 171 181 185 255
1.54534 0.0851865 2.36895 0 0 0 150 159 160 255
1.52818 0.0784713 2.38353 0 0 0 151 164 163 255
0.458986 -0.0313159 2.55129 0 0 0 156 154 152 255
0.44199 -0.0846359 2.52642 0 0 0 95 91 88 255
0.22373 -0.0857078 2.50106 0 0 0 182 172 164 255
0.485733 0.432124 2.24433 0 0 0 92 100 120 255
0.538037 0.444446 2.29923 0 0 0 139 164 178 255
1.52713 0.0628809 2.38272 0 0 0 146 157 158 255
0.703948 -0.432323 2.65306 0 0 0 71 101 114 255
0.532915 0.358595 2.24801 0 0 0 181 191 199 255
1.44182 -0.0979591 2.43304 0 0 0 133 110 85 255
1.48366 0.0327987 2.43237 0 0 0 49 45 44 255
0.346463 0.453834 2.27415 0 0 0 108 112 122 255
0.458587 0.408304 2.23167 0 0 0 93 106 121 255
0.135061 -0.0937948 2.48316 0 0 0 179 170 158 255
1.45561 -0.083995 2.41911 0 0 0 43 32 27 255
0.537704 0.38929 2.27421 0 0 0 159 184 197 255
0.236727 -0.210303 2.45355 0 0 0 132 90 71 255
0.282226 0.343666 2.28547 0 0 0 54 85 115 255
0.486284 -0.0804849 2.53155 0 0 0 189 178 164 255
1.32354 0.195362 2.51856 0 0 0 134 133 124 255
1.53043 0.0667292 2.37825 0 0 0 137 134 135 255
1.41928 -0.0979085 2.45596 0 0 0 43 31 26 255
0.900204 0.681521 2.53892 0 0 0 149 169 185 255
0.314233 -0.228845 2.46189 0 0 0 138 123 112 255
1.39877 -0.0350986 2.48575 0 0 0 135 103 59 255
0.314324 0.489104 2.30246 0 0 0 18 111 155 255
0.346363 0.454312 2.27421 0 0 0 108 112 122 255
1.45875 -0.38609 2.53154 0 0 0 105 104 107 255
0.510978 0.4597 2.28037 0 0 0 123 134 146 255
0.526255 0.462164 2.29118 0 0 0 180 191 196 255
0.437881 0.428327 2.23238 0 0 0 185 196 199 255
0.617695 -0.454119 2.58782 0 0 0 104 111 114 255
0.620007 -0.442743 2.59007 0 0 0 79 60 64 255
0.396184 0.385687 2.21631 0 0 0 127 135 149 255
0.488615 0.463272 2.2644 0 0 0 169 179 186 255
1.51055 -0.167122 2.3333 0 0 0 148 107 56 255
0.899121 0.680734 2.54129 0 0 0 147 174 193 255
1.32847 0.197041 2.52332 0 0 0 134 133 124 255
0.313097 -0.242753 2.45836 0 0 0 193 162 150 255
0.520547 0.438025 2.28021 0 0 0 68 104 146 255
1.48369 0.0309111 2.43295 0 0 0 96 98 97 255
0.23532 -0.21152 2.45292 0 0 0 147 98 76 255
1.54233 0.0863083 2.37003 0 0 0 144 159 159 255
0.412067 -0.103634 2.53127 0 0 0 149 137 125 255
1.44187 -0.0175232 2.44725 0 0 0 163 118 60 255
0.476165 -0.0884861 2.52624 0 0 0 159 155 147 255
1.54392 0.0684216 2.36726 0 0 0 104 116 116 255
1.52615 0.0645088 2.38375 0 0 0 92 104 110 255
0.170292 -0.0245951 2.51068 0 0 0 158 152 148 255
1.39776 -0.0351234 2.48534 0 0 0 100 86 68 255
1.43576 -0.0187699 2.45106 0 0 0 128 111 90 255
1.44408 -0.0969114 2.43227 0 0 0 133 110 85 255
1.41913 -0.0959731 2.45635 0 0 0 43 31 26 255
0.166951 -0.10003 2.48379 0 0 0 149 140 126 255
0.274982 -0.253273 2.44688 0 0 0 141 127 116 255
1.40343 -0.11072 2.46197 0 0 0 143 112 68 255
0.533211 0.357889 2.24874 0 0 0 186 199 201 255
0.151688 -0.216541 2.449 0 0 0 126 108 94 255
0.536645 0.391742 2.27429 0 0 0 185 204 218 255
1.45748 -0.0589336 2.42435 0 0 0 42 45 44 255
1.81481 -1.25822 5.24723 0 0 0 58 65 68 255
1.55813 0.0939747 2.35116 0 0 0 140 154 156 255
1.58212 0.0957162 2.32059 0 0 0 39 53 69 255
0.411945 -0.0276119 2.54596 0 0 0 125 122 120 255
0.51724 0.222412 2.18888 0 0 0 171 194 204 255
0.537575 0.414167 2.27172 0 0 0 168 179 185 255
1.59081 0.0740544 2.30789 0 0 0 158 158 158 255
0.470427 0.388103 2.23049 0 0 0 88 110 146 255
1.51719 -0.086542 2.33631 0 0 0 151 104 56 255
1.55235 0.080126 2.3598 0 0 0 45 55 58 255
1.55914 -0.180424 2.22322 0 0 0 19 43 48 255
1.57137 -0.176923 2.21365 0 0 0 20 23 29 255
0.552867 0.302991 2.26139 0 0 0 135 162 182 255
1.55503 -0.155665 2.22864 0 0 0 119 121 119 255
1.5669 -0.154333 2.22763 0 0 0 136 138 139 255
1.57211 0.0902488 2.34019 0 0 0 126 153 157 255
0.504489 -0.250116 2.4628 0 0 0 107 87 82 255
1.58651 0.105852 2.31476 0 0 0 155 167 167 255
0.488284 0.360663 2.21629 0 0 0 64 109 146 255
0.495863 0.36028 2.22172 0 0 0 42 93 155 255
0.241513 -0.0907411 2.50753 0 0 0 41 32 31 255
0.360837 0.511649 2.283 0 0 0 153 192 205 255
0.373094 0.519275 2.26963 0 0 0 14 127 164 255
0.459013 0.576171 2.29418 0 0 0 182 170 131 255
0.939926 0.727342 2.45308 0 0 0 83 107 140 255
0.445644 0.577455 2.2921 0 0 0 174 162 110 255
0.893036 0.727097 2.45367 0 0 0 161 190 210 255
0.884619 0.733869 2.45308 0 0 0 160 189 207 255
0.836251 0.719141 2.47143 0 0 0 167 171 179 255
0.353111 0.51296 2.2838 0 0 0 28 119 159 255
0.939751 0.712411 2.51956 0 0 0 156 189 210 255
1.56763 -0.17814 2.21733 0 0 0 74 66 69 255
1.55648 0.0810108 2.35582 0 0 0 45 67 73 255
1.5736 -0.0584276 2.28038 0 0 0 148 114 66 255
0.465264 -0.0197687 2.55121 0 0 0 98 97 97 255
0.644632 0.208049 2.7284 0 0 0 50 50 52 255
0.401896 -0.25102 2.4404 0 0 0 117 85 80 255
0.375366 0.572743 2.28786 0 0 0 124 136 146 255
0.525818 0.374604 2.26128 0 0 0 170 190 197 255
0.44252 0.563802 2.29678 0 0 0 154 154 128 255
0.336057 0.52322 2.28313 0 0 0 17 105 147 255
0.936351 0.703859 2.51326 0 0 0 121 151 172 255
1.56399 0.0826584 2.34671 0 0 0 130 130 130 255
0.31379 -0.142536 2.46642 0 0 0 137 105 90 255
1.57539 0.0945376 2.32539 0 0 0 48 45 56 255
0.360975 0.530769 2.27259 0 0 0 31 127 165 255
0.937094 0.727237 2.45892 0 0 0 97 131 159 255
0.460346 0.475667 2.2611 0 0 0 103 126 153 255
1.5508 0.081221 2.35973 0 0 0 59 52 54 255
1.56223 -0.183723 2.22119 0 0 0 113 127 125 255
1.28782 0.758936 2.34752 0 0 0 72 107 132 255
0.846965 0.716324 2.48138 0 0 0 181 171 180 255
1.5571 -0.157416 2.22639 0 0 0 129 142 141 255
1.57578 0.0943664 2.31975 0 0 0 43 46 59 255
0.536999 0.413514 2.27113 0 0 0 180 195 200 255
0.509322 0.427395 2.26285 0 0 0 87 117 145 255
0.374442 0.520944 2.26884 0 0 0 14 127 164 255
0.353057 0.516699 2.28362 0 0 0 54 124 150 255
0.457905 -0.248817 2.45803 0 0 0 132 86 75 255
1.57219 0.0891381 2.3379 0 0 0 113 126 139 255
0.975327 0.710365 2.49874 0 0 0 171 202 222 255
1.4928 0.0652386 2.40889 0 0 0 124 135 140 255
0.460772 0.574745 2.29405 0 0 0 173 163 128 255
0.440225 0.565486 2.29141 0 0 0 142 159 155 255
0.362892 0.511906 2.28179 0 0 0 153 192 205 255
1.55903 0.0941302 2.35057 0 0 0 140 154 156 255
0.935125 0.710215 2.5204 0 0 0 116 148 163 255
1.56989 -0.039263 2.29849 0 0 0 128 119 106 255
0.241602 -0.0912259 2.50727 0 0 0 136 126 117 255
0.503499 -0.251359 2.46263 0 0 0 150 124 117 255
1.49808 -0.171 2.33172 0 0 0 103 85 55 255
1.52488 -0.160066 2.31308 0 0 0 141 104 69 255
0.425279 -0.25892 2.44806 0 0 0 189 173 163 255
1.56141 0.0759911 2.3494 0 0 0 150 150 150 255
0.518044 0.220564 2.18809 0 0 0 121 173 197 255
1.40661 -0.0337915 2.48047 0 0 0 153 109 43 255
1.54963 -0.0677851 2.30225 0 0 0 129 109 93 255
1.52042 -0.0838581 2.33465 0 0 0 155 111 48 255
0.644632 0.208049 2.7284 0 0 0 50 50 52 255
0.333684 0.522671 2.28199 0 0 0 28 105 142 255
1.6951 0.15564 2.22977 0 0 0 137 152 156 255
1.7043 0.157142 2.22385 0 0 0 46 49 57 255
1.62182 0.110625 2.30147 0 0 0 26 54 63 255
0.480116 0.320558 2.22309 0 0 0 159 191 217 255
1.43281 0.812528 2.27449 0 0 0 87 100 119 255
1.63613 0.116648 2.28705 0 0 0 144 166 174 255
0.642478 -0.0719421 2.65355 0 0 0 71 77 76 255
1.49448 0.0567867 2.41545 0 0 0 11 22 34 255
1.65551 0.123766 2.26506 0 0 0 153 163 168 255
1.67052 0.132666 2.25368 0 0 0 35 45 54 255
0.89601 0.743671 2.42205 0 0 0 77 83 96 255
0.650023 -0.079811 2.65217 0 0 0 174 190 191 255
1.69772 0.120161 2.2198 0 0 0 141 156 161 255
0.642577 0.0629908 2.68963 0 0 0 190 203 207 255
1.70389 0.123869 2.22008 0 0 0 144 151 151 255
0.725404 0.754685 2.38002 0 0 0 154 156 158 255
1.71699 0.153355 2.21709 0 0 0 42 50 56 255
1.61467 0.0811211 2.31055 0 0 0 155 165 169 255
1.68259 0.141635 2.23256 0 0 0 147 165 168 255
1.60617 0.11366 2.31649 0 0 0 119 145 152 255
1.62409 0.117454 2.29545 0 0 0 142 154 154 255
1.40154 0.802428 2.31634 0 0 0 73 78 83 255
1.61363 0.108859 2.31036 0 0 0 39 45 48 255
1.6373 0.126081 2.28582 0 0 0 143 159 160 255
1.62569 0.105396 2.29498 0 0 0 140 149 151 255
0.436276 -0.249048 2.43384 0 0 0 114 90 85 255
1.59909 -0.0888843 2.26409 0 0 0 24 27 24 255
0.765579 0.754879 2.35286 0 0 0 167 171 172 255
1.68005 0.131897 2.2366 0 0 0 145 155 163 255
0.340034 -0.100488 2.50711 0 0 0 94 91 92 255
1.65272 0.1323 2.26819 0 0 0 126 153 161 255
0.409514 -0.0836965 2.48904 0 0 0 185 179 170 255
0.740102 0.745334 2.38797 0 0 0 73 77 82 255
0.239405 0.516851 2.44641 0 0 0 198 224 231 255
0.93683 0.724818 2.48293 0 0 0 97 121 147 255
1.70521 0.139359 2.22088 0 0 0 49 53 57 255
1.64278 0.120954 2.28238 0 0 0 41 45 50 255
1.66633 0.141171 2.25442 0 0 0 143 156 159 255
0.641053 0.0284124 2.73758 0 0 0 142 150 151 255
0.416438 -0.0767939 2.49388 0 0 0 92 103 104 255
1.66559 0.127998 2.2597 0 0 0 93 120 132 255
1.63594 0.122002 2.28933 0 0 0 119 153 157 255
0.639466 0.0614097 2.69212 0 0 0 190 209 213 255
1.68144 0.138842 2.23637 0 0 0 95 119 131 255
0.648874 -0.0854282 2.64565 0 0 0 197 220 227 255
0.545883 0.394378 2.27531 0 0 0 160 194 210 255
1.65393 0.129501 2.26727 0 0 0 125 162 172 255
1.60726 0.11274 2.31454 0 0 0 133 159 167 255
0.833785 0.760635 2.39576 0 0 0 133 164 181 255
0.229795 0.527711 2.47318 0 0 0 218 240 249 255
1.63715 0.114785 2.28949 0 0 0 88 115 127 255
0.858708 0.740826 2.42155 0 0 0 81 128 153 255
0.888744 0.745953 2.42872 0 0 0 66 68 85 255
0.643115 -0.0718492 2.65361 0 0 0 71 77 76 255
1.39945 0.80125 2.3156 0 0 0 130 141 144 255
1.69772 0.120161 2.2198 0 0 0 141 156 161 255
1.62469 0.116329 2.29624 0 0 0 149 164 166 255
1.70374 0.156952 2.22603 0 0 0 68 72 80 255
1.6105 0.0798776 2.31116 0 0 0 92 104 113 255
1.17409 0.801648 2.33114 0 0 0 128 173 200 255
0.326606 -0.199851 2.37195 0 0 0 138 103 83 255
1.60029 -0.0731142 2.26355 0 0 0 26 23 18 255
1.6531 0.118261 2.26965 0 0 0 139 149 153 255
1.69456 0.155545 2.22992 0 0 0 113 132 137 255
1.68119 0.00955989 2.20319 0 0 0 143 113 89 255
1.0639 0.704102 2.58303 0 0 0 71 139 175 255
1.50067 -0.165178 2.34403 0 0 0 16 20 26 255
1.62399 0.104933 2.29899 0 0 0 105 122 127 255
1.5994 -0.0911947 2.26401 0 0 0 34 36 33 255
1.66612 0.139093 2.25683 0 0 0 140 168 174 255
1.56123 -0.0659622 2.30373 0 0 0 150 108 42 255
1.67917 0.131207 2.23715 0 0 0 136 145 149 255
1.50286 -0.091857 2.35594 0 0 0 150 111 51 255
1.6671 -0.0205463 2.20417 0 0 0 127 105 66 255
1.28233 0.807067 2.31963 0 0 0 20 109 154 255
1.6032 -0.0472785 2.26182 0 0 0 115 98 65 255
1.70481 0.135544 2.22241 0 0 0 122 124 125 255
1.52082 0.0564738 2.40842 0 0 0 43 56 63 255
0.64039 0.0283104 2.73783 0 0 0 126 130 131 255
1.59113 0.00122516 2.29723 0 0 0 96 85 74 255
0.467394 0.568185 2.29815 0 0 0 66 70 49 255
0.374824 0.436381 2.23563 0 0 0 97 114 148 255
1.89117 0.805513 2.42062 0 0 0 86 124 145 255
0.525712 0.408149 2.26998 0 0 0 152 164 192 255
1.78789 0.850239 2.32616 0 0 0 97 119 149 255
0.74064 0.738544 2.38726 0 0 0 55 57 63 255
1.85933 0.805081 2.40073 0 0 0 203 233 249 255
0.517989 0.172699 2.16045 0 0 0 133 168 220 255
0.513191 0.436762 2.2761 0 0 0 172 192 224 255
1.15751 0.876478 2.09686 0 0 0 167 177 207 255
0.512907 0.312427 2.24323 0 0 0 183 203 230 255
1.2233 0.913903 2.03654 0 0 0 153 176 206 255
0.371307 -0.0336448 2.54235 0 0 0 149 149 150 255
0.358362 0.795817 2.20157 0 0 0 66 79 102 255
0.303515 0.783849 2.18212 0 0 0 103 104 126 255
1.01396 0.901433 2.04673 0 0 0 150 170 211 255
1.37195 0.821257 2.27757 0 0 0 52 67 117 255
1.08234 0.877461 2.12249 0 0 0 51 85 141 255
0.466448 0.581786 2.30076 0 0 0 144 145 135 255
1.34328 0.785779 2.32792 0 0 0 73 97 149 255
1.06254 0.878568 2.10637 0 0 0 151 172 208 255
0.469106 0.56185 2.296 0 0 0 154 164 164 255
0.614898 0.172149 2.92846 0 0 0 203 208 217 255
0.588651 0.146885 2.24679 0 0 0 165 178 208 255
1.7621 0.503226 2.24657 0 0 0 137 141 83 255
0.498253 0.173373 2.16098 0 0 0 126 163 218 255
0.958416 0.702701 2.51105 0 0 0 151 173 216 255
1.17141 0.879921 2.10482 0 0 0 58 66 101 255
0.496688 0.187516 2.16439 0 0 0 32 94 178 255
1.26476 0.899621 2.09356 0 0 0 180 204 223 255
0.513652 0.193561 2.15852 0 0 0 132 168 216 255
0.470992 0.57382 2.30419 0 0 0 168 171 192 255
0.497695 0.195664 2.16302 0 0 0 124 160 209 255
0.847429 0.709418 2.48498 0 0 0 167 167 194 255
1.02103 0.916484 2.03083 0 0 0 55 78 130 255
0.758473 0.764123 2.34231 0 0 0 60 64 99 255
0.497417 0.182201 2.1671 0 0 0 41 88 163 255
0.354301 0.449528 2.24298 0 0 0 108 124 155 255
1.24413 0.900933 2.04186 0 0 0 184 209 232 255
1.76347 0.497138 2.24732 0 0 0 117 127 78 255
0.518984 0.190115 2.16088 0 0 0 128 176 236 255
0.528862 0.411312 2.2688 0 0 0 130 149 198 255
1.07263 0.894341 2.08179 0 0 0 54 80 132 255
1.22215 0.902312 2.05197 0 0 0 177 195 214 255
0.740158 0.738072 2.38859 0 0 0 94 94 78 255
1.84346 0.799046 2.379 0 0 0 167 209 217 255
1.22578 0.912784 2.0382 0 0 0 150 181 216 255
1.88079 0.801317 2.41049 0 0 0 94 140 149 255
0.365721 0.788003 2.1807 0 0 0 74 85 102 255
0.302939 0.783554 2.18493 0 0 0 87 91 114 255
1.78479 0.846791 2.32614 0 0 0 82 102 129 255
0.584951 0.146106 2.2584 0 0 0 147 170 223 255
0.512873 0.310139 2.24435 0 0 0 115 153 225 255
1.76235 0.502853 2.24923 0 0 0 85 90 72 255
0.354765 0.448309 2.24207 0 0 0 131 146 173 255
1.24313 0.900758 2.04344 0 0 0 164 184 208 255
0.497735 0.172947 2.16648 0 0 0 73 132 217 255
1.26525 0.900047 2.0906 0 0 0 180 204 223 255
1.01274 0.901539 2.04649 0 0 0 134 148 181 255
1.37094 0.822003 2.27688 0 0 0 109 121 149 255
0.495995 0.192665 2.14979 0 0 0 136 168 209 255
1.15866 0.875412 2.09815 0 0 0 161 172 203 255
0.467045 0.561088 2.29509 0 0 0 148 158 162 255
0.933532 0.722299 2.52781 0 0 0 150 175 220 255
1.77653 0.260176 2.15135 0 0 0 115 125 94 255
0.469697 0.575181 2.3024 0 0 0 129 132 154 255
0.487699 0.543033 2.29377 0 0 0 73 122 177 255
1.07949 0.876072 2.12071 0 0 0 46 77 129 255
0.234246 0.76611 2.27894 0 0 0 106 117 134 255
0.376218 0.434408 2.23167 0 0 0 113 126 158 255
0.614898 0.172149 2.92846 0 0 0 203 208 217 255
0.541937 0.565401 2.70009 0 0 0 164 180 213 255
1.0613 0.877669 2.10773 0 0 0 125 142 186 255
0.92425 0.715339 2.50215 0 0 0 99 128 172 255
1.16628 0.878608 2.10156 0 0 0 155 159 173 255
0.62509 0.129946 2.7565 0 0 0 151 150 143 255
0.947316 0.702546 2.49994 0 0 0 53 84 119 255
0.349427 0.885541 1.99929 0 0 0 50 60 68 255
0.94109 0.732542 2.43603 0 0 0 132 165 191 255
1.32389 0.964804 1.92888 0 0 0 157 196 208 255
0.523734 0.348638 2.24015 0 0 0 28 73 109 255
0.297025 0.833138 2.05717 0 0 0 182 208 214 255
0.348499 0.527953 2.28443 0 0 0 150 176 185 255
0.407808 0.578682 2.28207 0 0 0 144 138 103 255
0.528549 0.350085 2.24292 0 0 0 140 171 191 255
1.16903 0.721158 2.45503 0 0 0 48 65 69 255
0.518493 0.356623 2.24928 0 0 0 98 135 164 255
0.892361 0.726741 2.45044 0 0 0 130 156 177 255
2.48614 0.523308 3.14713 0 0 0 74 108 139 255
0.880994 0.746789 2.41258 0 0 0 138 168 187 255
0.728158 0.762479 2.37966 0 0 0 71 74 82 255
0.220265 0.813289 2.1574 0 0 0 46 63 72 255
0.323339 0.936531 1.89273 0 0 0 36 61 74 255
0.24232 0.923132 1.98002 0 0 0 174 196 204 255
1.30365 0.767647 2.37055 0 0 0 61 88 104 255
1.25392 0.896148 2.09786 0 0 0 98 137 156 255
1.43428 0.811682 2.27067 0 0 0 48 95 122 255
0.918905 0.732796 2.41517 0 0 0 164 182 197 255
0.708379 0.792806 2.26513 0 0 0 151 179 195 255
0.322735 0.507578 2.29397 0 0 0 16 81 125 255
1.35711 0.787331 2.31477 0 0 0 57 76 83 255
0.415741 0.904474 1.93478 0 0 0 179 205 213 255
1.17242 0.875311 2.11716 0 0 0 152 183 198 255
1.06228 0.873721 2.1179 0 0 0 39 56 78 255
0.544684 0.296197 2.24169 0 0 0 144 169 200 255
1.0906 1.03867 1.69379 0 0 0 102 129 142 255
0.247965 0.91132 1.98198 0 0 0 179 196 203 255
0.413051 0.916676 1.92886 0 0 0 181 209 216 255
1.05436 0.68514 2.52018 0 0 0 51 123 155 255
0.981333 0.708169 2.4693 0 0 0 128 168 192 255
0.317485 0.937555 1.88217 0 0 0 173 208 216 255
1.92474 0.512062 2.30533 0 0 0 139 178 191 255
0.325859 0.947783 1.89702 0 0 0 183 201 208 255
0.681078 0.98131 1.77703 0 0 0 51 59 70 255
0.477149 0.944222 1.8527 0 0 0 38 49 56 255
0.472038 0.935678 1.85225 0 0 0 180 213 222 255
0.483909 0.943154 1.86264 0 0 0 178 202 212 255
0.478738 0.93462 1.8621 0 0 0 35 56 73 255
0.25279 0.91921 1.98744 0 0 0 45 63 71 255
0.249144 0.904387 1.95991 0 0 0 57 46 56 255
0.626274 0.942993 1.82653 0 0 0 70 81 84 255
0.421155 0.912844 1.93397 0 0 0 38 54 63 255
0.319102 0.949854 1.89078 0 0 0 42 52 60 255
1.82842 0.775563 2.32455 0 0 0 89 106 100 255
0.554276 0.913828 1.91494 0 0 0 60 68 75 255
0.918606 0.983452 1.8281 0 0 0 50 87 106 255
0.344733 0.873839 1.99953 0 0 0 174 208 215 255
0.328035 0.514012 2.28866 0 0 0 145 171 180 255
0.803533 0.946074 1.90779 0 0 0 77 84 93 255
0.501852 0.878882 1.96306 0 0 0 62 76 84 255
0.276106 0.848415 2.07837 0 0 0 50 62 70 255
0.309469 0.838453 2.0411 0 0 0 42 63 74 255
0.707013 0.908476 1.96076 0 0 0 44 76 102 255
0.425229 0.851426 2.06279 0 0 0 48 61 67 255
0.224077 0.823729 2.16363 0 0 0 184 200 203 255
0.211376 0.812707 2.1479 0 0 0 173 210 216 255
0.374996 0.818945 2.10547 0 0 0 58 73 82 255
0.618864 0.066812 2.79494 0 0 0 136 133 128 255
0.408053 0.906495 1.93038 0 0 0 55 55 62 255
0.627947 0.0724432 2.79782 0 0 0 140 141 134 255
0.951908 0.755558 2.35598 0 0 0 158 192 208 255
0.250839 0.758471 2.24648 0 0 0 56 64 75 255
0.211608 0.550265 2.52086 0 0 0 181 198 204 255
1.81018 1.10404 2.07057 0 0 0 69 78 80 255
1.34359 0.797642 2.3127 0 0 0 137 158 168 255
2.46714 0.513397 3.16424 0 0 0 83 126 145 255
0.941353 0.856104 2.13982 0 0 0 135 113 101 255
2.40882 0.544817 3.11586 0 0 0 59 93 118 255
1.56465 0.861721 2.20717 0 0 0 99 159 182 255
0.579263 0.239271 2.27203 0 0 0 129 162 190 255
0.553465 0.913021 1.91501 0 0 0 45 55 64 255
0.478712 0.945404 1.8538 0 0 0 38 49 56 255
0.343305 0.872474 1.99781 0 0 0 178 211 218 255
0.41217 0.916619 1.92814 0 0 0 180 206 213 255
1.12393 0.706208 2.47198 0 0 0 44 67 80 255
1.30278 0.76714 2.37238 0 0 0 94 125 147 255
0.478504 0.932128 1.86153 0 0 0 33 53 67 255
0.876832 0.744761 2.4141 0 0 0 113 142 167 255
0.320587 0.936814 1.8948 0 0 0 37 59 72 255
1.81468 1.10331 2.07444 0 0 0 82 91 92 255
0.254702 0.920103 1.96453 0 0 0 167 204 214 255
0.544286 0.55575 2.58222 0 0 0 108 151 181 255
0.251271 0.756709 2.24705 0 0 0 105 120 129 255
0.376759 0.817743 2.10453 0 0 0 112 130 135 255
0.545262 0.294442 2.24145 0 0 0 136 161 191 255
0.214361 0.811197 2.14125 0 0 0 173 210 216 255
0.224823 0.824807 2.1639 0 0 0 184 200 203 255
0.424556 0.849976 2.06282 0 0 0 64 67 70 255
0.680715 0.980848 1.77741 0 0 0 44 53 62 255
0.484244 0.94437 1.86123 0 0 0 178 202 212 255
0.313239 0.836291 2.03882 0 0 0 62 89 96 255
0.240221 0.913077 1.98005 0 0 0 68 57 68 255
0.251727 0.912095 1.98446 0 0 0 175 205 215 255
0.625139 0.941744 1.82588 0 0 0 156 175 180 255
0.274982 0.847371 2.07984 0 0 0 48 60 68 255
0.405371 0.907498 1.9292 0 0 0 44 55 63 255
0.421778 0.912098 1.93454 0 0 0 50 58 62 255
0.417542 0.903928 1.93739 0 0 0 178 211 221 255
1.85015 0.781634 2.35963 0 0 0 89 101 97 255
0.501589 0.879889 1.96275 0 0 0 62 76 84 255
0.208433 0.552197 2.52076 0 0 0 179 195 201 255
0.356392 0.884814 2.01222 0 0 0 185 204 208 255
0.346957 0.525092 2.28235 0 0 0 149 176 185 255
0.617716 0.0593136 2.80902 0 0 0 112 108 103 255
1.38865 0.794687 2.29896 0 0 0 137 155 159 255
1.09105 1.0387 1.69359 0 0 0 102 129 142 255
0.944326 0.73086 2.44245 0 0 0 97 146 182 255
1.04075 1.03345 1.75505 0 0 0 77 104 120 255
2.48485 0.520483 3.14245 0 0 0 102 138 155 255
0.827867 0.758425 2.39076 0 0 0 106 137 157 255
0.635657 0.188867 2.76057 0 0 0 138 152 152 255
0.350923 0.43323 2.24467 0 0 0 110 138 147 255
0.977407 0.707899 2.47191 0 0 0 158 186 203 255
0.522896 0.347808 2.24008 0 0 0 32 104 136 255
0.628886 0.0662217 2.81048 0 0 0 126 128 116 255
1.33904 0.96321 1.94005 0 0 0 25 141 184 255
0.919842 0.982755 1.82817 0 0 0 52 98 121 255
0.410006 0.576354 2.28117 0 0 0 139 130 89 255
0.485715 0.244933 2.17308 0 0 0 77 117 146 255
0.706726 0.912503 1.97381 0 0 0 33 78 105 255
0.622821 0.129572 2.79019 0 0 0 151 150 143 255
0.967563 0.898967 2.02333 0 0 0 106 135 155 255
1.12892 1.06346 1.6876 0 0 0 146 159 173 255
1.27176 0.901161 2.08231 0 0 0 143 169 173 255
1.92114 0.491649 2.29374 0 0 0 40 82 112 255
1.27859 0.791104 2.34909 0 0 0 91 163 194 255
1.25844 0.898442 2.09725 0 0 0 93 132 150 255
1.56468 0.861471 2.2087 0 0 0 108 172 193 255
0.730675 0.310774 2.71846 0 0 0 103 122 130 255
0.878629 0.74935 2.39689 0 0 0 123 170 197 255
0.512463 0.848435 2.10683 0 0 0 51 74 92 255
0.218418 0.866296 1.98245 0 0 0 30 32 34 255
0.173565 0.780277 2.19682 0 0 0 42 57 62 255
0.632245 -0.0528319 2.60532 0 0 0 39 43 40 255
0.225629 0.866376 1.9783 0 0 0 36 28 32 255
0.205643 0.876217 2.02769 0 0 0 174 185 188 255
0.18646 0.874766 2.03216 0 0 0 168 193 196 255
0.549789 0.974646 1.78944 0 0 0 33 33 33 255
0.534366 0.973058 1.78725 0 0 0 35 41 48 255
0.528971 0.467763 2.29722 0 0 0 127 149 156 255
0.11552 0.848231 2.11937 0 0 0 38 35 37 255
0.486335 0.472995 2.26228 0 0 0 137 161 169 255
0.453674 0.470303 2.25483 0 0 0 16 53 97 255
0.542567 0.357347 2.24546 0 0 0 144 166 175 255
1.22233 0.915622 2.0675 0 0 0 81 100 122 255
0.125233 0.8455 2.12131 0 0 0 175 186 188 255
0.291975 0.847844 2.05044 0 0 0 178 185 185 255
0.38819 -0.105903 2.57521 0 0 0 154 142 135 255
0.399148 0.513613 2.27198 0 0 0 108 166 160 255
0.402903 -0.0845634 2.55052 0 0 0 81 88 81 255
1.21652 0.914597 2.06918 0 0 0 28 62 87 255
0.383162 -0.0933764 2.57662 0 0 0 72 70 65 255
0.622745 0.187468 2.74442 0 0 0 126 126 124 255
1.32444 0.973085 1.92554 0 0 0 59 130 165 255
1.20341 0.861686 2.14343 0 0 0 140 148 155 255
0.906863 0.681234 2.54054 0 0 0 131 140 153 255
1.22774 0.901317 2.0786 0 0 0 121 145 151 255
0.544101 0.968022 1.79415 0 0 0 178 201 205 255
0.295701 0.848163 2.04683 0 0 0 178 185 185 255
0.167942 0.787498 2.21366 0 0 0 42 57 62 255
0.549227 0.97486 1.78912 0 0 0 45 49 50 255
0.531195 0.969543 1.79046 0 0 0 30 36 43 255
0.12843 0.844301 2.12404 0 0 0 173 193 195 255
0.112735 0.846813 2.12311 0 0 0 32 35 40 255
0.139877 0.852671 2.1053 0 0 0 29 38 42 255
0.234386 0.862135 1.97724 0 0 0 174 185 188 255
0.182611 0.87367 2.0356 0 0 0 170 193 196 255
0.222746 0.823185 2.13667 0 0 0 35 41 46 255
0.545102 0.980449 1.78292 0 0 0 158 181 183 255
0.446733 0.360847 2.20532 0 0 0 67 80 99 255
0.542492 0.355904 2.24383 0 0 0 150 170 176 255
0.623573 0.193196 2.74199 0 0 0 141 138 139 255
1.07064 0.889889 2.08545 0 0 0 38 57 78 255
0.733475 0.743375 2.37911 0 0 0 31 33 20 255
1.3225 0.973879 1.9278 0 0 0 49 120 154 255
1.21232 0.915357 2.07101 0 0 0 23 50 78 255
1.07152 0.871791 2.11262 0 0 0 29 51 75 255
0.307734 0.40659 2.26669 0 0 0 52 79 93 255
0.479701 0.753348 1.43088 0 0 0 28 40 48 255
0.307817 0.708686 1.63994 0 0 0 44 62 65 255
0.298151 0.771776 1.81545 0 0 0 176 185 187 255
0.458362 0.854098 1.6395 0 0 0 31 34 39 255
0.389279 0.710703 1.53624 0 0 0 29 36 44 255
0.337331 0.729367 1.59933 0 0 0 153 185 193 255
0.379074 0.720863 1.55286 0 0 0 174 183 184 255
0.18442 0.766015 1.97709 0 0 0 56 60 64 255
0.4701 0.669216 1.28336 0 0 0 165 181 183 255
0.416307 0.654974 1.34839 0 0 0 57 54 58 255
0.410589 0.740822 1.51528 0 0 0 173 183 186 255
0.421915 0.744144 1.50607 0 0 0 22 30 33 255
0.466913 0.663203 1.28514 0 0 0 37 40 44 255
0.367315 0.762951 1.56718 0 0 0 28 36 45 255
0.0484955 0.516413 2.1444 0 0 0 150 157 161 255
0.446299 0.768634 1.47165 0 0 0 140 170 179 255
0.384349 0.752375 1.54722 0 0 0 57 52 56 255
0.468559 0.768398 1.4516 0 0 0 176 186 185 255
0.584148 0.879505 1.4742 0 0 0 173 193 199 255
0.424308 0.793668 1.50672 0 0 0 36 38 44 255
0.423764 0.783022 1.50068 0 0 0 170 192 198 255
0.55066 0.662028 1.1918 0 0 0 29 42 47 255
0.498408 0.657464 1.25435 0 0 0 41 47 51 255
0.517761 0.675709 1.22545 0 0 0 161 184 191 255
0.543794 0.670954 1.20115 0 0 0 172 184 185 255
0.557634 0.840339 1.50908 0 0 0 160 180 185 255
0.531626 0.854147 1.53768 0 0 0 43 37 41 255
0.532956 0.865594 1.54422 0 0 0 152 179 184 255
0.514523 0.780134 1.39327 0 0 0 173 184 187 255
0.55201 0.850529 1.52135 0 0 0 31 35 39 255
0.486942 0.796812 1.42361 0 0 0 39 35 42 255
0.416001 0.756895 1.66129 0 0 0 23 32 42 255
0.501076 0.650403 1.25073 0 0 0 173 183 188 255
0.492748 0.803937 1.42138 0 0 0 163 185 192 255
0.589065 0.677934 1.14566 0 0 0 173 184 188 255
0.697605 0.904126 1.50703 0 0 0 32 46 58 255
0.664017 0.942817 1.56772 0 0 0 30 35 43 255
0.688547 0.920173 1.53067 0 0 0 157 191 207 255
0.671033 0.925969 1.54404 0 0 0 178 191 193 255
0.565057 0.693677 1.16799 0 0 0 169 177 181 255
0.61285 0.867289 1.44518 0 0 0 170 185 191 255
0.620758 0.852537 1.42438 0 0 0 27 37 49 255
0.769992 0.985896 1.6356 0 0 0 61 63 64 255
0.246644 0.550337 2.39926 0 0 0 172 183 184 255
-0.247722 -0.224667 3.68273 0 0 0 99 95 94 255
-0.292475 -0.2295 3.75296 0 0 0 123 118 115 255
-0.169928 -0.184874 3.50593 0 0 0 120 118 116 255
0.284603 0.328434 2.59854 0 0 0 131 142 164 255
-0.26137 -0.207538 3.68585 0 0 0 94 97 96 255
0.186397 0.527845 1.80984 0 0 0 59 83 102 255
0.304251 0.754218 1.64752 0 0 0 25 31 34 255
0.69726 0.897421 1.49943 0 0 0 27 46 61 255
0.492272 0.782634 1.71823 0 0 0 30 52 64 255
0.510657 0.684942 1.23501 0 0 0 33 40 42 255
-0.291332 -0.175341 3.38885 0 0 0 122 113 110 255
0.181284 0.522077 1.80338 0 0 0 161 172 177 255
0.566314 0.54819 2.48924 0 0 0 78 73 75 255
0.456489 0.426245 2.53641 0 0 0 146 166 173 255
0.399749 0.470899 2.24019 0 0 0 136 156 165 255
0.839369 0.769718 2.58142 0 0 0 99 110 125 255
0.455818 0.849412 1.63681 0 0 0 37 44 43 255
-0.00563212 0.139106 2.8918 0 0 0 126 131 143 255
0.0724436 -0.0790672 5.08387 0 0 0 161 158 146 255
-0.238865 -0.125386 3.12883 0 0 0 124 119 116 255
-0.236356 -0.130902 3.20093 0 0 0 111 105 101 255
0.395639 0.705651 1.5271 0 0 0 25 38 48 255
0.771239 0.985431 1.63245 0 0 0 61 63 64 255
0.517119 0.789075 1.39596 0 0 0 33 34 39 255
0.481765 0.797813 1.42774 0 0 0 30 36 42 255
0.524627 0.869854 1.55391 0 0 0 171 187 193 255
0.520828 0.776321 1.38589 0 0 0 169 189 196 255
0.521512 0.859264 1.54726 0 0 0 29 35 39 255
0.507121 0.688142 1.23895 0 0 0 33 40 42 255
0.553391 0.850051 1.5207 0 0 0 44 50 54 255
0.559256 0.838528 1.50763 0 0 0 174 194 199 255
0.551112 0.66752 1.1935 0 0 0 168 180 181 255
0.50778 0.679281 1.23523 0 0 0 171 190 197 255
0.413882 0.794858 1.51658 0 0 0 43 50 52 255
0.518481 0.573671 2.6193 0 0 0 133 151 177 255
0.633309 0.876365 1.57817 0 0 0 171 189 192 255
0.467894 0.768423 1.45198 0 0 0 168 176 183 255
0.424147 0.782452 1.49943 0 0 0 171 193 199 255
0.244676 0.550339 2.39846 0 0 0 171 180 179 255
0.478159 0.752202 1.432 0 0 0 24 41 49 255
0.455336 0.850106 1.63738 0 0 0 37 44 43 255
0.464646 0.670831 1.28915 0 0 0 166 180 182 255
0.0238493 0.140042 2.83871 0 0 0 91 110 134 255
0.505776 0.655112 1.24761 0 0 0 30 37 40 255
0.470568 0.65911 1.28228 0 0 0 46 42 47 255
0.503261 0.647669 1.2481 0 0 0 169 181 187 255
0.371588 0.769917 1.56555 0 0 0 170 183 186 255
0.365101 0.764077 1.56958 0 0 0 25 36 43 255
0.419274 0.74514 1.50943 0 0 0 71 85 89 255
0.423415 0.73643 1.50157 0 0 0 167 192 195 255
0.458172 0.785093 1.62101 0 0 0 170 192 197 255
0.444056 0.786256 1.63744 0 0 0 175 188 190 255
0.301982 0.753852 1.64799 0 0 0 20 26 29 255
0.590564 0.682455 1.14488 0 0 0 46 48 47 255
0.360822 0.732756 1.57836 0 0 0 174 182 183 255
0.312969 0.741781 1.63017 0 0 0 169 191 195 255
0.618542 0.84937 1.42509 0 0 0 26 40 51 255
1.23335 1.03256 2.45118 0 0 0 158 176 179 255
0.416832 0.75185 1.65658 0 0 0 25 38 44 255
0.309131 0.708876 1.63845 0 0 0 44 62 65 255
0.501189 0.781961 1.71265 0 0 0 28 37 47 255
0.305522 0.771222 1.80585 0 0 0 176 185 187 255
-0.338362 -0.244369 3.85443 0 0 0 85 81 79 255
-0.221387 -0.139816 3.15791 0 0 0 91 77 76 255
0.18257 0.766369 1.97915 0 0 0 82 89 93 255
-0.247445 -0.176488 3.38163 0 0 0 112 90 86 255
-0.279632 -0.17332 3.36604 0 0 0 104 94 93 255
0.486587 0.807713 1.42838 0 0 0 169 189 196 255
0.699564 0.896625 1.49866 0 0 0 30 41 45 255
0.586108 0.676912 1.14822 0 0 0 175 184 188 255
0.673835 0.919368 1.53471 0 0 0 173 195 201 255
0.68829 0.921338 1.53199 0 0 0 157 191 207 255
0.562331 0.68968 1.16981 0 0 0 38 39 41 255
0.178342 0.521849 1.80903 0 0 0 155 165 174 255
-0.0250274 0.921844 1.81998 0 0 0 33 35 39 255
0.120087 0.982747 1.65255 0 0 0 171 191 198 255
-0.220746 0.885021 1.89787 0 0 0 46 50 51 255
0.364843 0.91886 1.83054 0 0 0 161 178 182 255
-0.150086 0.918416 1.83515 0 0 0 24 39 47 255
0.000583712 0.921046 1.80688 0 0 0 22 41 46 255
0.39445 0.996786 1.63751 0 0 0 32 39 45 255
0.259771 0.991303 1.64166 0 0 0 168 181 188 255
0.535275 1.00617 1.62372 0 0 0 35 47 57 255
0.340953 0.919119 1.84914 0 0 0 167 188 193 255
-0.0903436 0.891135 1.89695 0 0 0 162 185 190 255
0.689213 0.970314 1.75263 0 0 0 50 68 80 255
0.559499 0.996902 1.60463 0 0 0 40 50 60 255
-0.155052 0.91817 1.82054 0 0 0 168 185 188 255
0.35729 0.91106 1.84432 0 0 0 31 47 58 255
-0.0845185 0.890836 1.91207 0 0 0 24 34 42 255
0.700873 1.00736 1.58921 0 0 0 45 49 54 255
0.821934 1.02495 1.59841 0 0 0 67 88 99 255
-0.117477 0.992219 1.63547 0 0 0 43 67 75 255
-0.0142268 0.926504 1.80699 0 0 0 172 186 189 255
0.0430675 0.992782 1.60926 0 0 0 29 44 56 255
0.0338794 0.997243 1.60331 0 0 0 162 184 190 255
0.188237 1.00041 1.58831 0 0 0 31 49 60 255
0.0539066 0.998281 1.59214 0 0 0 167 176 179 255
0.332605 1.00662 1.5718 0 0 0 26 40 55 255
-0.12566 0.861285 1.94978 0 0 0 46 61 67 255
-0.255959 0.93684 1.79923 0 0 0 38 58 68 255
-0.0887587 0.937131 1.76074 0 0 0 30 45 58 255
-0.103444 0.93915 1.76137 0 0 0 164 188 194 255
0.0567389 0.944714 1.74159 0 0 0 29 55 66 255
0.280894 0.895471 1.91549 0 0 0 173 187 192 255
0.044415 1.00022 1.59191 0 0 0 49 47 50 255
0.197324 1.00337 1.57734 0 0 0 170 183 185 255
0.319653 1.01264 1.57327 0 0 0 169 190 194 255
0.0415862 0.947773 1.74383 0 0 0 164 190 195 255
0.201414 0.952785 1.72478 0 0 0 28 40 48 255
0.299494 0.886562 1.90775 0 0 0 26 40 45 255
0.341394 0.959457 1.71253 0 0 0 27 39 46 255
0.185088 1.00802 1.57682 0 0 0 35 33 34 255
-0.0785784 0.942724 1.74516 0 0 0 162 169 169 255
0.416642 0.900854 1.91302 0 0 0 41 53 65 255
0.273541 0.889222 1.92722 0 0 0 37 47 53 255
0.339927 1.00995 1.5619 0 0 0 160 188 195 255
0.558082 0.907598 1.90114 0 0 0 53 72 84 255
0.327173 1.01584 1.56308 0 0 0 33 38 38 255
0.0672242 0.948671 1.72925 0 0 0 169 186 187 255
0.463976 1.02223 1.55914 0 0 0 153 177 184 255
0.187483 0.958459 1.72548 0 0 0 168 190 194 255
0.616504 1.02295 1.54007 0 0 0 32 48 64 255
0.331095 0.965479 1.71314 0 0 0 154 179 185 255
0.480489 1.02078 1.5455 0 0 0 157 177 181 255
-0.088726 0.94451 1.74445 0 0 0 41 39 44 255
0.603654 1.03345 1.54353 0 0 0 161 185 190 255
0.210185 0.956912 1.71334 0 0 0 170 187 191 255
0.0541544 0.953185 1.72794 0 0 0 27 33 38 255
0.353951 0.964487 1.69655 0 0 0 168 189 193 255
0.205713 0.860586 2.00419 0 0 0 166 188 194 255
0.178343 1.0031 1.58919 0 0 0 147 176 182 255
0.471986 1.02836 1.54396 0 0 0 30 36 41 255
0.196268 0.962647 1.71419 0 0 0 29 32 35 255
0.339473 0.971608 1.69955 0 0 0 30 35 38 255
0.171485 0.829537 2.06039 0 0 0 27 34 36 255
0.138788 0.834071 2.07987 0 0 0 28 41 46 255
0.283701 0.841687 2.06529 0 0 0 39 51 62 255
0.755641 1.03443 1.52795 0 0 0 36 52 67 255
0.164205 0.824935 2.07003 0 0 0 167 187 192 255
0.612106 1.03563 1.53194 0 0 0 34 42 50 255
0.426426 0.848099 2.05526 0 0 0 48 61 69 255
-0.034908 0.968006 1.68434 0 0 0 38 48 55 255
0.122909 0.971917 1.66694 0 0 0 175 190 195 255
-0.160752 0.961917 1.68925 0 0 0 32 57 67 255
0.743978 1.04479 1.53026 0 0 0 172 189 194 255
-0.0142297 0.969528 1.67274 0 0 0 32 54 61 255
0.109291 0.977413 1.66702 0 0 0 41 46 47 255
0.266487 0.980508 1.64975 0 0 0 173 193 195 255
0.132002 0.975775 1.65549 0 0 0 38 38 38 255
0.251803 0.987495 1.6527 0 0 0 32 40 47 255
0.761483 1.03908 1.52062 0 0 0 165 192 199 255
0.753826 1.04599 1.51784 0 0 0 35 44 55 255
0.274441 0.984262 1.63848 0 0 0 34 36 41 255
0.238962 0.80279 2.12992 0 0 0 31 42 49 255
0.108263 1.02185 1.53064 0 0 0 171 185 188 255
0.0967886 1.0261 1.52884 0 0 0 38 41 45 255
0.255385 1.02846 1.51256 0 0 0 174 190 193 255
0.25064 0.756839 2.24361 0 0 0 54 57 57 255
-0.406811 0.180849 2.54674 0 0 0 138 142 148 255
0.11951 1.0256 1.51665 0 0 0 28 53 65 255
0.242779 1.0341 1.51332 0 0 0 42 47 55 255
0.108309 1.02977 1.51472 0 0 0 170 190 194 255
0.404653 1.04132 1.48837 0 0 0 34 33 40 255
0.260272 1.03414 1.50731 0 0 0 35 35 35 255
0.386047 1.04059 1.4935 0 0 0 31 38 48 255
0.621641 1.02831 1.52894 0 0 0 157 177 185 255
0.254376 1.03566 1.49693 0 0 0 168 192 198 255
-0.16958 0.911645 1.83775 0 0 0 37 39 48 255
-0.0101701 0.916417 1.82002 0 0 0 166 186 188 255
-0.164824 0.911529 1.85305 0 0 0 172 188 193 255
-0.0785775 0.896226 1.88348 0 0 0 30 36 36 255
0.540635 1.04305 1.47959 0 0 0 168 190 194 255
0.544775 1.00864 1.61057 0 0 0 166 190 196 255
-0.296779 0.908362 1.84697 0 0 0 46 65 72 255
-0.128828 0.563979 1.92523 0 0 0 65 65 69 255
0.478042 0.981417 1.6877 0 0 0 39 39 39 255
-0.44226 0.123972 2.49997 0 0 0 97 108 113 255
0.58182 0.154301 2.23115 0 0 0 90 140 186 255
-0.131127 0.554128 1.92753 0 0 0 161 178 186 255
-0.022427 1.01379 1.52228 0 0 0 76 95 102 255
-0.0392113 0.967823 1.68684 0 0 0 29 37 46 255
0.175274 0.830691 2.05651 0 0 0 27 34 36 255
0.339402 1.01037 1.56168 0 0 0 138 165 171 255
0.314624 1.014 1.57598 0 0 0 174 195 200 255
0.355129 0.910574 1.84655 0 0 0 27 47 56 255
0.257044 0.994045 1.64102 0 0 0 172 189 192 255
0.0025249 0.920786 1.80604 0 0 0 22 41 46 255
0.330461 1.00653 1.57385 0 0 0 26 43 53 255
0.184743 0.958972 1.72677 0 0 0 174 195 200 255
0.186767 0.99949 1.59097 0 0 0 24 38 45 255
0.0426862 0.992541 1.6099 0 0 0 29 42 52 255
0.34392 0.960468 1.70931 0 0 0 27 39 46 255
0.624884 1.0255 1.52812 0 0 0 169 191 195 255
-0.0283253 0.921917 1.82184 0 0 0 27 32 37 255
0.120509 0.971649 1.66896 0 0 0 172 190 195 255
-0.173253 0.911084 1.84006 0 0 0 31 36 44 255
0.484884 1.01899 1.54326 0 0 0 166 187 193 255
0.352671 0.965567 1.6963 0 0 0 164 174 176 255
0.763853 1.03812 1.51785 0 0 0 150 178 185 255
0.674686 1.0179 1.6139 0 0 0 33 47 54 255
-0.0103458 0.915191 1.82177 0 0 0 170 191 195 255
0.535272 1.00617 1.62373 0 0 0 35 47 57 255
0.419402 0.990903 1.61981 0 0 0 65 71 74 255
-0.166352 0.910293 1.8567 0 0 0 170 189 194 255
0.388063 0.997921 1.64243 0 0 0 28 34 41 255
0.275122 0.985209 1.63675 0 0 0 34 36 41 255
0.247739 0.989255 1.65399 0 0 0 26 34 41 255
-0.0933656 0.891411 1.8981 0 0 0 167 190 195 255
0.131458 0.976196 1.65523 0 0 0 72 75 75 255
0.103837 0.97851 1.66951 0 0 0 27 35 36 255
-0.0790366 0.897401 1.88169 0 0 0 43 50 50 255
-0.155974 0.918958 1.81963 0 0 0 170 185 188 255
0.114742 0.983186 1.65607 0 0 0 156 172 177 255
0.267738 0.890755 1.93024 0 0 0 26 36 44 255
0.304044 0.883563 1.90666 0 0 0 36 36 36 255
0.368715 0.916114 1.83023 0 0 0 171 191 196 255
0.237636 0.857648 1.98454 0 0 0 152 161 170 255
0.158983 0.822775 2.07561 0 0 0 171 190 197 255
0.335369 0.920319 1.85232 0 0 0 172 196 202 255
0.201217 0.863546 2.00458 0 0 0 170 192 199 255
0.252623 1.02792 1.51575 0 0 0 170 189 196 255
0.107885 1.02164 1.53129 0 0 0 174 188 192 255
-0.0849231 0.890274 1.91407 0 0 0 23 34 37 255
0.237255 1.03495 1.51697 0 0 0 25 31 36 255
0.326322 0.969013 1.7128 0 0 0 171 197 204 255
0.21216 0.956938 1.71198 0 0 0 170 187 191 255
0.424307 0.849505 2.05493 0 0 0 41 53 61 255
0.277109 0.842864 2.06803 0 0 0 30 42 54 255
0.194528 0.951043 1.73218 0 0 0 24 38 47 255
0.0547808 0.941828 1.74753 0 0 0 26 36 42 255
-0.0990609 0.940354 1.77584 0 0 0 29 41 53 255
0.19786 1.00297 1.57756 0 0 0 159 172 175 255
0.135202 0.832682 2.08315 0 0 0 30 40 47 255
-0.0155243 0.927551 1.8065 0 0 0 171 183 185 255
0.686361 0.971546 1.75458 0 0 0 44 60 73 255
0.242744 0.801206 2.12903 0 0 0 33 45 55 255
0.0540693 0.95388 1.72686 0 0 0 30 34 37 255
0.460359 1.02236 1.56264 0 0 0 161 184 192 255
0.81691 1.02708 1.60406 0 0 0 44 59 72 255
