ply
format ascii 1.0
comment VCGLIB generated
element vertex 1011
property float x
property float y
property float z
property float nx
property float ny
property float nz
property uchar red
property uchar green
property uchar blue
property uchar alpha
element face 0
property list uchar int vertex_indices
end_header
-0.964742 1.99694 5.94636 0 0 0 160 159 159 255
-0.578795 2.17913 5.58101 0 0 0 163 164 164 255
-0.0358378 2.26581 5.38512 0 0 0 33 31 32 255
-0.794883 2.05279 5.70001 0 0 0 171 172 171 255
0.30562 2.61918 4.72292 0 0 0 163 163 162 255
-0.207327 2.54072 4.91537 0 0 0 41 44 45 255
-0.0322463 2.61598 4.73648 0 0 0 51 53 54 255
0.480339 2.71152 4.54356 0 0 0 44 44 43 255
0.920357 2.54408 4.93981 0 0 0 95 95 95 255
0.350479 2.46367 5.06608 0 0 0 52 52 53 255
0.541233 2.73954 4.60118 0 0 0 39 39 39 255
-0.761467 2.23584 5.40045 0 0 0 27 28 33 255
1.28321 2.3768 5.24485 0 0 0 169 170 172 255
0.74455 1.887 6.08843 0 0 0 42 42 42 255
-1.31784 1.98186 5.97763 0 0 0 48 52 53 255
0.168274 2.73824 4.60232 0 0 0 41 40 41 255
0.53081 2.56021 4.89758 0 0 0 155 164 165 255
0.523395 2.7497 4.57274 0 0 0 168 171 170 255
-0.399657 2.42314 5.07882 0 0 0 33 33 35 255
1.30221 2.36743 5.26694 0 0 0 46 46 46 255
0.672319 2.63205 4.71458 0 0 0 176 179 177 255
-1.13935 2.06535 5.81152 0 0 0 34 36 35 255
1.62414 2.34537 5.23026 0 0 0 57 55 56 255
0.730376 1.68717 6.40352 0 0 0 45 46 49 255
-0.0365698 1.2641 6.99358 0 0 0 138 142 142 255
-0.412487 1.48739 6.70159 0 0 0 124 132 129 255
-0.781163 2.08099 5.74736 0 0 0 23 25 25 255
1.09504 1.87208 6.06762 0 0 0 104 106 106 255
0.327359 2.79793 4.40189 0 0 0 46 48 48 255
-0.772907 2.05861 5.82613 0 0 0 31 34 33 255
-0.0151442 1.67232 6.39677 0 0 0 158 158 158 255
0.157433 1.75194 6.24357 0 0 0 164 162 160 255
-0.576478 1.75908 6.26263 0 0 0 160 160 158 255
0.386947 1.89065 6.13972 0 0 0 164 162 162 255
0.69041 1.85017 6.0225 0 0 0 164 164 164 255
-0.762891 1.872 6.17687 0 0 0 19 19 19 255
0.23185 0.453348 6.8975 0 0 0 55 60 68 255
-0.97487 1.01846 6.0606 0 0 0 145 143 143 255
-0.0926514 0.566358 7.63926 0 0 0 179 177 177 255
0.698745 2.23098 5.39234 0 0 0 23 23 23 255
0.69964 2.61094 4.73945 0 0 0 42 42 42 255
0.192966 0.460724 6.91968 0 0 0 63 61 60 255
1.07879 2.23092 5.4049 0 0 0 31 34 34 255
-1.86529 -0.226645 7.43122 0 0 0 134 118 118 255
-0.407318 2.23622 5.42629 0 0 0 29 32 31 255
0.369487 0.206133 6.88312 0 0 0 29 36 41 255
0.0859449 0.172215 6.92806 0 0 0 106 105 111 255
0.700727 2.42394 5.06577 0 0 0 34 36 36 255
-0.394512 2.23431 5.44059 0 0 0 26 31 30 255
-0.0394615 2.45988 5.05765 0 0 0 31 30 30 255
0.708365 2.65132 4.73698 0 0 0 46 45 46 255
0.386815 1.88792 6.14301 0 0 0 162 162 162 255
-0.220829 1.75307 6.24832 0 0 0 158 161 158 255
0.679471 1.84321 6.00682 0 0 0 157 157 157 255
0.513485 2.55197 4.88312 0 0 0 160 163 164 255
1.47893 2.28589 5.42568 0 0 0 41 40 42 255
-0.108914 0.567134 7.63775 0 0 0 178 175 174 255
-1.61871 0.763402 6.36538 0 0 0 157 157 157 255
-2.60593 0.0456518 6.57075 0 0 0 94 88 90 255
0.317034 0.495447 6.95649 0 0 0 133 135 135 255
0.191834 0.184535 6.83155 0 0 0 133 132 137 255
0.438522 0.212449 6.84136 0 0 0 44 54 75 255
0.39993 0.154869 6.81322 0 0 0 46 52 72 255
-2.55073 0.127825 7.01102 0 0 0 137 132 130 255
0.400237 0.200434 6.82312 0 0 0 31 38 59 255
0.527287 0.100504 6.80334 0 0 0 125 128 136 255
0.554715 0.166328 6.86099 0 0 0 31 44 90 255
0.539864 0.481168 7.03236 0 0 0 136 137 138 255
0.367693 0.159653 6.79233 0 0 0 123 124 138 255
0.556107 0.0763005 6.826 0 0 0 15 36 79 255
0.519877 0.101281 6.75577 0 0 0 89 94 109 255
0.424523 0.135985 6.80112 0 0 0 106 110 129 255
0.630669 0.0318769 6.91373 0 0 0 129 132 146 255
0.0778624 0.547474 7.10257 0 0 0 34 40 66 255
0.416547 0.172151 6.81998 0 0 0 140 141 143 255
0.206532 0.609791 7.06476 0 0 0 15 67 111 255
-0.713343 0.626102 6.5118 0 0 0 145 142 143 255
0.0456597 0.193354 6.96395 0 0 0 122 123 133 255
0.0519516 0.351636 7.02 0 0 0 114 115 117 255
0.0239627 0.323415 6.99573 0 0 0 63 69 74 255
-0.0377982 0.163989 7.02056 0 0 0 111 113 116 255
0.499817 0.12475 6.81294 0 0 0 27 44 83 255
-2.08883 -0.401044 7.0205 0 0 0 112 119 72 255
0.327358 0.282233 6.8382 0 0 0 48 51 57 255
-1.93541 -0.316998 7.29088 0 0 0 120 117 117 255
0.124071 0.570216 7.08509 0 0 0 24 37 73 255
0.265984 0.399976 7.08846 0 0 0 65 67 77 255
-1.61883 0.770299 6.33792 0 0 0 160 160 160 255
1.06056 2.02207 5.67893 0 0 0 35 34 36 255
0.361713 2.09137 5.76986 0 0 0 36 36 38 255
0.549945 0.163281 6.87046 0 0 0 19 31 69 255
0.416277 0.162943 6.8184 0 0 0 135 138 147 255
0.553716 0.0727012 6.81886 0 0 0 8 42 90 255
-2.5466 0.120267 7.02742 0 0 0 129 123 123 255
0.0993997 0.336609 6.9901 0 0 0 59 63 68 255
0.410212 0.197785 6.82328 0 0 0 24 42 68 255
0.433181 0.207504 6.8335 0 0 0 40 49 66 255
0.522596 0.106405 6.81434 0 0 0 48 67 105 255
0.363502 0.155506 6.78421 0 0 0 44 58 90 255
0.541765 0.470974 7.01433 0 0 0 138 140 140 255
0.351965 0.341082 6.87148 0 0 0 29 36 49 255
-0.708224 0.627111 6.52017 0 0 0 145 142 143 255
0.186307 0.185062 6.82295 0 0 0 85 85 100 255
-0.525523 -0.88313 7.39403 0 0 0 108 105 104 255
-2.37989 -0.0942422 6.80302 0 0 0 106 105 108 255
0.251014 0.177935 6.83139 0 0 0 109 136 157 255
-2.35955 -0.107607 6.85514 0 0 0 128 130 134 255
-0.245252 -0.9123 7.42821 0 0 0 120 120 119 255
0.0879949 0.59285 7.11414 0 0 0 32 48 67 255
-0.703193 1.29232 6.40406 0 0 0 54 87 108 255
1.48481 1.03128 7.40512 0 0 0 116 145 165 255
-0.193661 -1.09706 7.36161 0 0 0 44 43 36 255
-2.67135 -0.351932 6.33827 0 0 0 129 147 124 255
-2.6483 0.625404 6.84807 0 0 0 32 50 39 255
-0.498084 -1.05158 7.31043 0 0 0 24 23 24 255
-1.73504 -1.78868 7.46913 0 0 0 165 165 165 255
-2.36669 -0.0908372 6.83141 0 0 0 13 19 24 255
-0.328237 -1.06912 7.34221 0 0 0 45 45 45 255
-2.64328 0.651468 6.85314 0 0 0 153 161 163 255
-2.40579 -0.133505 6.74862 0 0 0 120 145 109 255
0.168986 0.617582 7.07359 0 0 0 6 69 119 255
-0.0244715 0.30347 7.09233 0 0 0 62 82 91 255
-2.3564 -0.0755611 6.86086 0 0 0 125 125 127 255
-0.0515797 0.304379 7.10277 0 0 0 106 125 133 255
-2.70143 -0.0785419 6.64312 0 0 0 96 117 100 255
-2.60742 0.0659892 6.5931 0 0 0 145 147 148 255
-2.36986 -0.0693478 6.82736 0 0 0 118 124 126 255
-0.0277903 0.192701 7.01523 0 0 0 22 45 60 255
-1.92394 -0.338864 7.29602 0 0 0 13 21 25 255
-2.70998 -0.322749 6.49908 0 0 0 116 140 112 255
-1.93415 -0.351573 7.25049 0 0 0 109 112 114 255
-0.579211 -0.879898 7.38079 0 0 0 100 97 98 255
-0.98054 -0.90227 7.29312 0 0 0 143 138 132 255
-1.68541 -1.29481 7.02327 0 0 0 113 124 94 255
0.0195677 0.214211 6.98201 0 0 0 29 39 51 255
-0.506633 -0.887157 7.38902 0 0 0 113 111 111 255
-1.83928 -0.454295 7.34238 0 0 0 111 133 92 255
1.64939 0.887015 7.62723 0 0 0 103 136 159 255
0.303139 0.168978 6.81829 0 0 0 25 56 103 255
-0.364453 -1.06848 7.34754 0 0 0 147 141 137 255
-0.277118 -1.03219 7.27016 0 0 0 20 22 22 255
-2.03792 -0.624433 7.00295 0 0 0 127 141 98 255
-2.0393 -0.126122 7.26314 0 0 0 136 145 147 255
-1.92781 -0.353152 7.27957 0 0 0 73 79 85 255
0.23968 -0.965704 7.47327 0 0 0 108 108 108 255
-0.184604 -1.29384 7.25571 0 0 0 146 141 133 255
-0.202551 -1.32535 7.24764 0 0 0 84 76 68 255
1.32365 1.11142 7.38563 0 0 0 142 145 144 255
0.784667 -1.07045 7.56807 0 0 0 133 126 119 255
0.377575 -0.957266 7.45157 0 0 0 98 100 100 255
0.0709368 -0.289357 6.66786 0 0 0 98 130 170 255
0.382717 -1.14253 7.46196 0 0 0 63 61 59 255
-0.426113 -1.13396 7.50381 0 0 0 76 75 71 255
-0.308787 -0.919655 7.41915 0 0 0 118 119 121 255
-2.49409 -0.0464147 6.65715 0 0 0 100 117 87 255
-0.436828 -0.884902 7.41065 0 0 0 106 107 104 255
-0.396486 -1.06572 7.36864 0 0 0 43 42 38 255
-2.62512 0.00573682 6.571 0 0 0 95 113 98 255
-0.227301 -0.910409 7.43123 0 0 0 105 105 104 255
0.132421 0.178321 6.87789 0 0 0 34 56 87 255
0.0604684 -1.51131 7.18228 0 0 0 104 68 61 255
-0.598875 -0.86199 7.38197 0 0 0 98 97 100 255
-0.0650779 -1.51133 7.1342 0 0 0 149 143 136 255
-1.99842 0.729409 7.67913 0 0 0 121 127 131 255
-0.0214806 0.244788 7.05129 0 0 0 53 73 87 255
-0.607451 -0.848003 7.33774 0 0 0 102 97 97 255
-0.322419 -1.08373 7.34224 0 0 0 67 66 60 255
0.624304 -0.192104 6.75393 0 0 0 92 129 169 255
-0.335249 -1.37282 7.20337 0 0 0 96 69 65 255
-2.71657 -0.323447 6.49907 0 0 0 117 119 109 255
1.71571 0.873501 7.71726 0 0 0 103 136 159 255
-0.975365 -0.89486 7.27523 0 0 0 145 138 132 255
0.221524 0.455249 6.94652 0 0 0 61 79 108 255
-2.42242 -0.131812 6.77886 0 0 0 122 146 110 255
-2.69389 -0.361385 6.40961 0 0 0 129 147 124 255
-0.987746 0.974836 6.04257 0 0 0 160 177 185 255
-0.252866 0.569979 8.06166 0 0 0 60 59 59 255
-2.65791 0.632476 6.81782 0 0 0 58 78 66 255
-2.67274 -0.0601573 6.51997 0 0 0 100 113 100 255
-1.68541 -1.29481 7.02327 0 0 0 113 124 94 255
0.0173571 0.215715 6.98345 0 0 0 95 103 112 255
-0.0277651 0.193564 7.01566 0 0 0 22 45 60 255
0.251938 0.178457 6.82957 0 0 0 109 136 157 255
0.66714 0.392746 7.11451 0 0 0 138 155 164 255
-0.739012 1.27902 6.349 0 0 0 56 68 69 255
-2.36246 -0.105016 6.8442 0 0 0 108 109 112 255
-2.49341 -0.0735781 6.70909 0 0 0 105 119 90 255
0.326511 0.158893 6.82302 0 0 0 9 55 106 255
-2.39025 -0.0832094 6.80447 0 0 0 106 105 108 255
1.41276 1.72462 6.26931 0 0 0 89 92 92 255
-1.01419 0.960454 6.04189 0 0 0 152 159 161 255
-2.03598 -0.614606 6.98162 0 0 0 126 140 97 255
-0.0549893 0.303586 7.10304 0 0 0 3 41 81 255
-1.47325 0.628068 6.50453 0 0 0 131 139 140 255
-2.02584 -0.347964 7.11769 0 0 0 110 131 88 255
-2.04098 -0.125845 7.25726 0 0 0 131 140 142 255
-2.13803 -0.571742 6.92326 0 0 0 80 85 83 255
0.155163 -0.249277 6.6171 0 0 0 117 124 135 255
-2.39096 -0.059047 6.85629 0 0 0 99 106 109 255
0.01982 0.259986 6.97188 0 0 0 110 129 137 255
-2.85836 0.645582 6.70358 0 0 0 78 109 106 255
-1.80472 -0.568706 7.35516 0 0 0 88 97 94 255
-2.60037 -0.00461492 6.54526 0 0 0 80 96 88 255
0.562115 -0.0508585 6.74212 0 0 0 126 147 156 255
0.789399 -1.08191 7.564 0 0 0 143 135 129 255
-2.02937 -0.44959 7.06245 0 0 0 114 135 90 255
-2.0341 -0.393053 7.09667 0 0 0 102 121 90 255
-2.61267 0.0700027 6.63404 0 0 0 81 81 81 255
-0.222557 -1.30157 7.24983 0 0 0 128 121 114 255
0.62805 -0.179308 6.77731 0 0 0 136 155 165 255
-0.0206262 1.26934 7.03388 0 0 0 108 117 128 255
0.104216 -0.944586 7.45572 0 0 0 133 132 133 255
-0.672998 -0.875289 7.35916 0 0 0 117 120 124 255
0.661941 0.0457162 6.96058 0 0 0 161 181 209 255
-1.72084 -1.82456 7.54324 0 0 0 46 51 63 255
-0.450851 -0.895616 7.40491 0 0 0 133 133 133 255
-2.49494 0.132141 6.83379 0 0 0 176 181 188 255
-0.380641 -1.08527 7.30754 0 0 0 96 98 98 255
0.315355 0.226016 6.82797 0 0 0 58 73 95 255
0.321228 -0.973392 7.46829 0 0 0 125 126 127 255
-1.89034 -0.569973 7.18229 0 0 0 132 149 122 255
-2.49612 -0.0219835 6.74014 0 0 0 139 136 142 255
-0.305677 -1.03318 7.35554 0 0 0 69 69 69 255
-0.393255 1.47832 6.7334 0 0 0 88 93 99 255
-0.328797 -1.44906 7.07276 0 0 0 101 91 86 255
-0.668918 -0.874772 7.36248 0 0 0 128 131 131 255
0.334806 -1.53309 7.17783 0 0 0 111 108 106 255
-0.623667 -1.0166 7.29832 0 0 0 68 69 66 255
-0.661161 -1.02632 7.32003 0 0 0 61 66 64 255
-0.473802 -1.03734 7.27152 0 0 0 39 39 39 255
-0.4438 -1.04021 7.30834 0 0 0 163 166 161 255
-0.342408 -1.06888 7.41831 0 0 0 78 78 78 255
-2.20188 -0.17063 6.99326 0 0 0 137 147 164 255
-2.61845 0.227672 6.60361 0 0 0 128 136 142 255
-1.70809 0.807251 7.02483 0 0 0 186 200 209 255
-0.444329 -1.01604 7.33276 0 0 0 109 106 107 255
-0.368507 -1.03517 7.36285 0 0 0 88 90 90 255
-2.59365 0.0375511 6.61849 0 0 0 26 46 67 255
-1.03199 1.02826 6.06233 0 0 0 149 166 183 255
-2.03874 -0.333439 7.12445 0 0 0 124 143 108 255
-2.11949 -0.273044 6.92056 0 0 0 132 143 130 255
-2.59062 -0.0192144 6.59704 0 0 0 139 162 141 255
-0.0533549 0.590257 7.88467 0 0 0 216 228 240 255
-2.61168 -0.27783 6.48791 0 0 0 44 59 49 255
-2.53475 -0.327397 6.53105 0 0 0 42 52 60 255
-2.39251 -0.135355 6.7762 0 0 0 105 128 113 255
-2.64214 0.454061 6.65764 0 0 0 162 183 169 255
-0.995055 0.942535 6.05159 0 0 0 101 99 97 255
0.0624789 -0.0359167 6.82987 0 0 0 35 57 115 255
-0.270087 -1.08578 7.34749 0 0 0 70 70 70 255
-2.33651 -0.424093 6.72929 0 0 0 165 175 150 255
-2.53717 -0.000509029 6.77316 0 0 0 125 127 138 255
0.0779173 -0.262353 6.67058 0 0 0 127 150 175 255
0.152223 -1.54667 7.24586 0 0 0 116 94 81 255
0.448056 -1.65342 7.20406 0 0 0 114 93 85 255
0.302737 -1.52591 7.22458 0 0 0 121 93 85 255
0.193649 -1.50614 7.17155 0 0 0 118 93 90 255
0.0752781 -1.53303 7.16664 0 0 0 169 169 169 255
0.0667473 0.219801 6.95639 0 0 0 31 45 86 255
0.579201 -0.184863 6.71207 0 0 0 126 153 188 255
-2.17565 -0.518701 6.91868 0 0 0 120 133 107 255
0.221169 -1.52429 7.213 0 0 0 104 88 75 255
0.102614 -0.924471 7.44726 0 0 0 123 125 126 255
-2.5599 0.0114515 6.67382 0 0 0 110 120 125 255
-2.06496 0.0937864 7.30992 0 0 0 181 194 207 255
-2.6775 0.474009 6.74937 0 0 0 163 186 168 255
-2.58292 0.0310635 6.62946 0 0 0 123 129 131 255
-1.69165 -0.868275 7.28116 0 0 0 112 125 107 255
-0.142976 -1.06439 7.37157 0 0 0 61 63 64 255
-2.49519 0.133477 6.83445 0 0 0 176 181 188 255
0.308018 0.22896 6.84235 0 0 0 64 79 99 255
-2.17602 -0.519901 6.91003 0 0 0 121 131 118 255
-0.329999 -1.6016 7.12258 0 0 0 117 100 91 255
-1.72299 -1.8327 7.54723 0 0 0 41 51 62 255
-1.4637 -1.63208 7.10953 0 0 0 165 182 190 255
-2.6044 -0.18174 6.56027 0 0 0 148 167 148 255
-0.454106 -0.905721 7.40537 0 0 0 133 133 133 255
0.28559 -1.57208 7.17706 0 0 0 167 152 149 255
-1.87196 -0.578892 7.17062 0 0 0 115 119 111 255
0.304602 -1.56511 7.21768 0 0 0 168 168 168 255
0.124338 -1.50939 7.15842 0 0 0 113 92 81 255
-1.42784 -1.64719 7.09231 0 0 0 51 61 70 255
-2.58978 0.570087 6.87185 0 0 0 111 122 136 255
-2.60926 0.0360532 6.55704 0 0 0 80 81 92 255
0.0205796 0.312887 6.989 0 0 0 122 135 149 255
-0.427807 -1.04754 7.33328 0 0 0 163 166 161 255
-1.70887 0.808917 7.01751 0 0 0 202 216 225 255
0.575729 -0.18932 6.68284 0 0 0 79 120 175 255
-1.05248 0.922944 6.05745 0 0 0 87 111 135 255
-0.995802 0.945159 6.05321 0 0 0 109 105 99 255
-0.472889 -1.05218 7.32962 0 0 0 132 132 132 255
-1.03576 1.00814 6.05557 0 0 0 96 115 140 255
-2.64171 0.459794 6.66584 0 0 0 162 183 169 255
-0.0903705 0.630313 7.71973 0 0 0 219 229 242 255
-1.54216 -0.38785 7.69447 0 0 0 126 135 146 255
-2.32905 -0.421271 6.72004 0 0 0 142 150 127 255
-0.0369387 1.27692 6.98253 0 0 0 105 115 127 255
-1.74631 -1.06472 7.14476 0 0 0 57 72 64 255
0.307199 -0.970267 7.46615 0 0 0 83 86 97 255
0.648776 0.0442756 6.95501 0 0 0 110 147 194 255
-0.14758 -1.06815 7.36136 0 0 0 116 117 118 255
-0.151708 -1.24744 7.27121 0 0 0 117 89 79 255
-2.59984 -0.199059 6.52191 0 0 0 94 118 103 255
0.245463 0.39415 6.96486 0 0 0 89 102 144 255
-2.64031 0.228043 6.64331 0 0 0 94 102 109 255
-1.68365 -0.877446 7.28197 0 0 0 114 127 102 255
1.23875 0.57572 8.15438 0 0 0 136 145 158 255
-2.62083 -0.297378 6.47831 0 0 0 132 144 131 255
-2.54153 -0.335241 6.52529 0 0 0 73 94 90 255
-2.61153 -0.276382 6.48773 0 0 0 44 59 49 255
0.402585 -1.64943 7.19958 0 0 0 112 92 87 255
-0.291401 -1.55241 7.08082 0 0 0 168 168 166 255
-2.07229 0.0970065 7.30804 0 0 0 183 196 209 255
0.304019 -1.53134 7.22817 0 0 0 123 96 88 255
-0.97469 0.459442 6.53424 0 0 0 20 35 65 255
0.0814241 -1.54426 7.17475 0 0 0 170 170 170 255
-0.784532 0.789934 6.21152 0 0 0 128 82 98 255
-0.3083 -1.04473 7.37998 0 0 0 80 80 80 255
-0.73925 1.69017 6.42361 0 0 0 93 98 98 255
0.338067 1.69181 6.39158 0 0 0 59 51 56 255
0.353128 1.46694 6.71957 0 0 0 95 102 107 255
-0.575981 1.55731 6.57007 0 0 0 69 81 91 255
0.343441 1.64762 6.40297 0 0 0 40 61 77 255
-2.29521 -0.114741 6.88322 0 0 0 122 133 136 255
-0.755415 1.29062 6.32995 0 0 0 38 88 106 255
-1.83463 0.65437 7.93477 0 0 0 135 150 156 255
-1.95133 0.721406 7.82622 0 0 0 134 144 150 255
-2.67361 -0.30102 6.40061 0 0 0 134 152 137 255
0.15877 -0.93212 7.44734 0 0 0 136 139 138 255
0.271471 0.619195 7.0392 0 0 0 7 124 158 255
0.321386 0.350548 7.21117 0 0 0 69 99 118 255
-2.6957 -0.714876 6.06243 0 0 0 91 108 107 255
-1.79501 -0.00587492 7.61098 0 0 0 144 171 179 255
-2.15657 -0.545323 6.91562 0 0 0 53 74 74 255
-1.34126 0.649101 6.2213 0 0 0 149 161 161 255
0.17423 -0.922749 7.44577 0 0 0 116 123 123 255
-2.09456 -0.623825 6.93086 0 0 0 129 157 119 255
-2.48386 -0.126215 6.67591 0 0 0 146 163 147 255
0.787411 -1.05448 7.59357 0 0 0 35 38 39 255
-2.62806 -0.435873 6.43203 0 0 0 74 107 92 255
0.244939 0.601072 7.04962 0 0 0 138 178 197 255
-2.67276 -0.260104 6.41344 0 0 0 127 141 136 255
-0.53277 -1.06046 7.31042 0 0 0 163 167 160 255
0.163447 -0.254727 6.58288 0 0 0 132 166 178 255
-2.03599 0.762045 7.68877 0 0 0 152 155 160 255
-1.08143 0.574764 6.18062 0 0 0 178 198 207 255
1.52614 0.923912 7.6922 0 0 0 130 153 175 255
0.24194 -0.915063 7.39772 0 0 0 137 135 135 255
0.34767 -1.61368 7.18775 0 0 0 120 90 86 255
-0.456242 -1.06634 7.2971 0 0 0 98 98 95 255
-1.63189 -0.0156401 7.95323 0 0 0 34 60 69 255
0.28559 0.595488 7.03266 0 0 0 148 187 201 255
-0.378504 -0.910053 7.4224 0 0 0 113 113 113 255
0.500026 0.734136 7.12531 0 0 0 157 159 138 255
-1.67265 -0.157657 7.66497 0 0 0 145 168 174 255
0.189615 -0.949908 7.45978 0 0 0 123 133 136 255
0.583697 0.4546 7.07368 0 0 0 95 116 127 255
-2.21179 -0.87856 6.60051 0 0 0 135 160 133 255
0.575092 0.121663 6.88322 0 0 0 63 88 114 255
-2.19487 -0.886569 6.64311 0 0 0 33 55 54 255
-1.63251 0.0330564 7.79119 0 0 0 136 153 157 255
-2.44216 -0.385584 6.62168 0 0 0 43 73 71 255
-1.78926 0.617551 7.89849 0 0 0 144 151 158 255
-2.22272 0.152246 7.19339 0 0 0 88 119 129 255
-2.61748 0.21522 6.60806 0 0 0 65 83 92 255
0.343338 1.64328 6.40851 0 0 0 45 62 72 255
0.722267 -0.396682 6.79978 0 0 0 148 181 194 255
-0.987466 -0.860898 7.30717 0 0 0 37 15 10 255
0.513045 0.467168 6.94701 0 0 0 71 91 109 255
0.162592 -0.263143 6.58285 0 0 0 111 154 180 255
-2.67707 -0.294565 6.3852 0 0 0 129 152 134 255
-1.67349 -1.30101 7.04469 0 0 0 126 144 114 255
0.331425 1.69574 6.3859 0 0 0 60 63 68 255
-2.70852 -0.747035 6.11891 0 0 0 96 115 109 255
-0.740177 1.69245 6.42424 0 0 0 91 95 95 255
0.306941 0.289864 6.8487 0 0 0 60 93 126 255
-1.83544 0.657051 7.93842 0 0 0 139 152 158 255
-2.60783 -0.305197 6.48394 0 0 0 122 147 130 255
0.158519 -0.925885 7.44296 0 0 0 136 139 138 255
0.494857 -0.0581124 6.69254 0 0 0 55 112 145 255
0.223068 0.398406 6.93952 0 0 0 118 145 163 255
0.106077 0.50635 6.65041 0 0 0 69 100 126 255
-2.15747 -0.546645 6.9086 0 0 0 29 46 51 255
0.779721 -1.05553 7.58299 0 0 0 47 50 49 255
-1.4512 0.632361 6.2516 0 0 0 117 141 142 255
-1.9715 -0.481163 7.14364 0 0 0 112 143 120 255
0.129912 0.580033 7.0807 0 0 0 25 88 126 255
-2.44182 -0.165649 6.78383 0 0 0 126 154 140 255
-1.81425 -0.0341158 7.57605 0 0 0 72 100 110 255
-1.34051 0.643288 6.22681 0 0 0 121 130 133 255
-1.861 -1.03763 7.02647 0 0 0 81 117 89 255
-2.18416 -0.874074 6.62173 0 0 0 57 91 66 255
-2.35997 -0.580266 6.6329 0 0 0 66 107 87 255
-2.66816 -0.261518 6.41716 0 0 0 127 141 136 255
-1.96154 0.737719 7.67188 0 0 0 88 117 134 255
0.573063 0.457976 7.05632 0 0 0 131 155 167 255
-1.08183 0.5728 6.18194 0 0 0 158 175 179 255
-1.79269 0.613038 7.90579 0 0 0 59 76 85 255
-0.533803 -1.05894 7.3075 0 0 0 121 125 119 255
0.569815 0.122428 6.8879 0 0 0 103 129 152 255
-1.7873 -0.0132814 7.62112 0 0 0 159 189 199 255
0.817262 -0.0524947 7.26987 0 0 0 28 95 145 255
-0.0136403 1.86077 6.07288 0 0 0 191 222 230 255
1.99136 0.79159 7.77672 0 0 0 81 122 149 255
0.934929 1.77596 6.28354 0 0 0 75 80 85 255
-0.742244 1.871 6.10972 0 0 0 184 213 224 255
0.291716 0.406086 6.96805 0 0 0 57 78 105 255
0.732145 1.88206 6.11678 0 0 0 197 225 238 255
-1.68488 0.876806 6.64266 0 0 0 171 195 204 255
0.311752 -0.943064 7.46912 0 0 0 124 124 121 255
-0.592467 0.812917 6.50927 0 0 0 199 222 228 255
1.51153 0.981711 7.44339 0 0 0 140 173 198 255
0.0345797 0.346644 7.01417 0 0 0 146 172 181 255
0.147699 0.238427 6.88807 0 0 0 39 68 113 255
0.173632 1.78825 6.25382 0 0 0 183 221 232 255
-2.00842 0.73969 7.68005 0 0 0 31 49 63 255
0.069079 0.182282 6.94777 0 0 0 25 72 123 255
0.112016 0.461646 7.04079 0 0 0 138 172 188 255
-0.779491 1.88306 6.12476 0 0 0 183 212 220 255
0.351769 1.88227 6.12127 0 0 0 198 221 231 255
-0.607734 -0.878598 7.36553 0 0 0 127 130 131 255
-0.0464414 1.88014 6.09196 0 0 0 193 217 226 255
-0.370604 1.86876 6.10864 0 0 0 181 212 220 255
-0.405113 1.88131 6.12955 0 0 0 185 219 230 255
0.765548 1.87361 6.09929 0 0 0 190 224 233 255
0.377977 1.86474 6.09166 0 0 0 189 223 233 255
-1.92355 -0.372755 7.27187 0 0 0 129 133 133 255
0.133303 0.236917 6.90291 0 0 0 46 73 105 255
0.86034 1.52372 6.74777 0 0 0 96 129 157 255
1.94998 0.803162 7.76179 0 0 0 150 178 201 255
-2.44491 0.469512 7.08654 0 0 0 167 183 187 255
0.672721 0.0196436 6.96268 0 0 0 130 168 196 255
0.179332 0.589894 7.06898 0 0 0 48 96 125 255
0.356556 -0.0562314 6.67247 0 0 0 151 179 188 255
1.72299 0.950587 7.61076 0 0 0 57 99 138 255
0.17488 -0.241586 6.64478 0 0 0 130 157 164 255
0.149125 0.598174 7.08228 0 0 0 143 180 196 255
-2.3849 0.312367 7.05774 0 0 0 107 128 137 255
-2.5178 -0.00486211 6.6603 0 0 0 88 95 99 255
-1.72371 0.592032 8.09768 0 0 0 133 149 153 255
-2.11125 -0.242398 7.1227 0 0 0 7 25 40 255
-2.49312 -0.0159999 6.68075 0 0 0 112 110 124 255
-2.62669 0.544254 6.95087 0 0 0 175 195 199 255
-2.52995 -0.294617 6.63089 0 0 0 57 85 65 255
-0.585228 0.801729 6.54266 0 0 0 182 199 210 255
-1.67198 0.86441 6.83636 0 0 0 156 178 186 255
-1.83529 -0.451238 7.35361 0 0 0 118 134 133 255
0.115489 0.463574 7.03817 0 0 0 138 172 188 255
0.030314 0.344044 7.01362 0 0 0 145 168 178 255
0.932307 1.76958 6.28879 0 0 0 57 61 67 255
0.608769 1.74442 6.35617 0 0 0 194 227 236 255
-2.61111 0.040263 6.57157 0 0 0 152 163 165 255
0.513725 1.79082 6.21144 0 0 0 150 199 214 255
-0.607004 -0.888708 7.37085 0 0 0 101 103 111 255
-2.52018 -0.348473 6.54234 0 0 0 113 129 126 255
1.74834 1.09614 7.37641 0 0 0 156 193 223 255
1.93456 0.803826 7.75704 0 0 0 129 157 182 255
-2.44401 0.472994 7.08561 0 0 0 167 183 187 255
1.50067 1.05573 7.43621 0 0 0 67 122 147 255
0.243555 0.399847 6.89617 0 0 0 116 138 162 255
2.00106 0.789183 7.78197 0 0 0 130 165 189 255
1.52625 0.981765 7.44514 0 0 0 122 152 178 255
0.145855 0.239002 6.89255 0 0 0 40 68 106 255
-2.39352 -0.0639619 6.8151 0 0 0 144 151 151 255
-2.53217 -0.296195 6.62731 0 0 0 103 133 104 255
1.73347 1.06179 7.40703 0 0 0 162 203 227 255
-1.91435 -0.361293 7.23056 0 0 0 129 133 133 255
0.144407 0.597168 7.07898 0 0 0 100 152 191 255
0.333567 -0.0464389 6.67782 0 0 0 74 107 127 255
-0.933779 1.97465 5.95838 0 0 0 72 74 92 255
-1.31644 1.96715 5.98582 0 0 0 74 85 102 255
-0.974137 1.98305 5.9524 0 0 0 65 79 99 255
-0.247958 1.97441 5.9124 0 0 0 59 67 87 255
0.204517 1.96076 5.95984 0 0 0 72 68 84 255
-0.557293 1.97073 5.9532 0 0 0 73 81 98 255
0.000903407 2.06555 5.77926 0 0 0 189 211 229 255
-0.207788 1.96186 5.9176 0 0 0 70 74 88 255
0.170872 1.9729 5.96645 0 0 0 62 71 87 255
-0.0491909 1.88737 6.05835 0 0 0 60 58 73 255
-2.60254 0.0140752 6.62043 0 0 0 130 133 144 255
0.347351 1.88534 6.08229 0 0 0 65 64 71 255
-2.36059 -0.114486 6.83839 0 0 0 106 114 127 255
-0.600967 1.97751 5.95013 0 0 0 62 74 95 255
-2.59492 0.0781631 6.59766 0 0 0 147 153 161 255
0.33158 0.378954 6.89433 0 0 0 162 178 196 255
-1.16125 1.88 6.04263 0 0 0 65 71 82 255
-2.21442 -0.182066 6.99541 0 0 0 117 131 142 255
-2.10082 -0.407341 7.05136 0 0 0 143 156 119 255
0.0137505 2.05641 5.83151 0 0 0 54 65 80 255
1.64352 1.00357 7.52504 0 0 0 73 83 122 255
0.390102 1.8556 6.15425 0 0 0 57 68 86 255
-0.91249 0.411754 6.67399 0 0 0 25 49 86 255
-2.96589 -0.00663395 6.48771 0 0 0 115 116 124 255
-2.44945 -0.0171839 6.74428 0 0 0 118 134 142 255
-2.58965 -0.0443649 6.63051 0 0 0 39 62 70 255
-0.983126 0.747468 6.14288 0 0 0 83 98 131 255
-2.12036 -0.276886 7.16271 0 0 0 93 102 112 255
0.0651247 0.552844 7.11678 0 0 0 71 88 117 255
-1.95499 -0.404609 7.07935 0 0 0 131 146 121 255
0.341788 1.88919 6.08379 0 0 0 71 68 74 255
0.397035 1.8516 6.16158 0 0 0 57 66 81 255
-0.979957 1.98337 5.95078 0 0 0 59 73 90 255
-1.31381 1.96717 5.98315 0 0 0 74 85 102 255
-0.930851 1.97355 5.96059 0 0 0 67 69 86 255
-0.604976 1.97536 5.95131 0 0 0 68 77 93 255
-0.254711 1.97013 5.91324 0 0 0 64 68 84 255
-0.561258 1.96653 5.95472 0 0 0 89 96 105 255
-0.20717 1.95448 5.92081 0 0 0 76 80 84 255
0.208135 1.95945 5.95781 0 0 0 70 66 74 255
0.591191 1.75039 6.35144 0 0 0 204 223 238 255
-0.232518 1.94434 5.92572 0 0 0 205 227 247 255
0.21287 1.95375 6.02367 0 0 0 200 218 235 255
-0.0516608 1.89039 6.04916 0 0 0 60 58 73 255
-2.10349 -0.40979 7.04331 0 0 0 117 130 94 255
-2.36005 -0.115926 6.8302 0 0 0 106 114 127 255
-1.95041 -0.321308 7.2392 0 0 0 26 31 42 255
-2.85829 0.641753 6.749 0 0 0 119 136 141 255
-1.16469 1.8797 6.04245 0 0 0 97 102 111 255
-2.58889 -0.0450198 6.62397 0 0 0 50 74 77 255
1.61728 1.00623 7.49658 0 0 0 113 128 152 255
-0.98144 0.744463 6.14391 0 0 0 138 169 200 255
-2.95137 1.07186 7.19617 0 0 0 103 116 130 255
-0.212597 2.17967 5.59322 0 0 0 178 198 204 255
0.0552588 0.184722 6.9603 0 0 0 124 155 173 255
0.164376 1.74824 6.26549 0 0 0 181 196 201 255
-0.738153 2.27423 5.52693 0 0 0 78 103 114 255
0.00416223 0.169514 7.00402 0 0 0 126 138 162 255
-0.21305 1.98084 5.91043 0 0 0 171 187 194 255
-2.38634 -0.0464982 6.82592 0 0 0 115 119 123 255
-0.952821 2.16012 5.61717 0 0 0 61 72 84 255
-0.591266 2.17414 5.6394 0 0 0 52 56 62 255
-0.631867 2.14882 5.51704 0 0 0 59 50 57 255
-0.212387 2.17871 5.63095 0 0 0 53 59 66 255
-0.790626 2.07863 5.78221 0 0 0 175 194 199 255
-0.763416 2.06847 5.761 0 0 0 170 192 196 255
-0.446317 2.06757 5.73367 0 0 0 179 195 200 255
-0.426236 2.05641 5.70345 0 0 0 172 193 200 255
-0.0228508 2.08135 5.79351 0 0 0 183 193 198 255
0.83965 1.50448 6.78142 0 0 0 117 115 115 255
1.46046 1.03031 7.39986 0 0 0 118 145 165 255
-0.391612 2.28199 5.44368 0 0 0 54 53 58 255
-0.985876 1.02156 6.05186 0 0 0 57 60 70 255
0.165168 1.97704 5.90934 0 0 0 179 192 194 255
-0.39452 2.28284 5.47586 0 0 0 178 193 197 255
-0.375499 2.26923 5.45843 0 0 0 175 196 200 255
-0.373934 2.2659 5.49735 0 0 0 47 56 64 255
-1.12427 2.07628 5.86093 0 0 0 69 94 105 255
-0.170696 2.1628 5.67425 0 0 0 181 199 205 255
-0.17363 2.16456 5.64149 0 0 0 67 52 59 255
0.223276 0.644886 7.06215 0 0 0 14 95 137 255
-1.14659 0.609208 6.18323 0 0 0 39 69 69 255
0.111349 0.588506 7.09093 0 0 0 140 159 165 255
-2.48586 0.0117082 6.71971 0 0 0 105 110 113 255
-2.52259 0.345179 6.85428 0 0 0 158 161 164 255
-1.03272 1.05243 6.05224 0 0 0 59 57 44 255
-1.69494 0.0509011 7.77457 0 0 0 123 138 143 255
0.153977 0.621706 7.08105 0 0 0 15 71 117 255
-2.54214 0.0464238 6.64988 0 0 0 108 110 116 255
-1.28173 1.07717 6.12539 0 0 0 140 155 157 255
0.158223 1.7419 6.26786 0 0 0 181 199 206 255
1.47252 1.04037 7.41777 0 0 0 96 124 144 255
-0.39756 2.28616 5.44388 0 0 0 56 48 52 255
0.646693 0.710227 7.23174 0 0 0 130 147 161 255
-0.739515 2.27292 5.53286 0 0 0 53 65 75 255
-0.370009 2.26487 5.46288 0 0 0 172 199 203 255
-0.368193 2.26069 5.5096 0 0 0 40 50 58 255
-0.603001 2.18269 5.58081 0 0 0 175 200 200 255
-0.954925 2.16015 5.62025 0 0 0 84 88 93 255
-0.601482 2.17658 5.63561 0 0 0 47 55 59 255
-0.214029 2.17996 5.58735 0 0 0 178 198 204 255
-0.563833 2.16376 5.62628 0 0 0 75 66 71 255
-0.215507 2.17983 5.64146 0 0 0 45 53 61 255
-0.177657 2.16643 5.62996 0 0 0 67 52 59 255
-0.16659 2.16026 5.69176 0 0 0 184 202 209 255
-1.13444 2.07733 5.86062 0 0 0 70 93 103 255
-0.78928 2.07515 5.79832 0 0 0 175 196 203 255
-0.0258048 2.08555 5.7585 0 0 0 60 44 52 255
-0.441029 2.06616 5.7478 0 0 0 179 194 196 255
-0.418066 2.05208 5.71057 0 0 0 172 196 204 255
-0.0184032 2.07796 5.81555 0 0 0 182 200 203 255
0.187553 1.77987 6.25534 0 0 0 180 197 201 255
-0.398429 2.28589 5.47554 0 0 0 181 201 207 255
0.153909 1.98143 5.90364 0 0 0 176 198 202 255
-2.3858 -0.0472767 6.82851 0 0 0 134 139 142 255
0.389713 1.85681 6.12553 0 0 0 100 133 137 255
0.809699 0.765391 7.62838 0 0 0 31 77 117 255
-0.661156 2.13526 5.52243 0 0 0 180 197 203 255
0.832865 1.48782 6.81982 0 0 0 55 73 89 255
-0.450041 2.07153 5.68269 0 0 0 55 48 51 255
-0.954217 1.959 5.96597 0 0 0 174 199 205 255
-1.01677 0.933946 6.039 0 0 0 40 62 77 255
-0.562096 1.76833 6.3171 0 0 0 178 199 206 255
-0.192189 1.59104 6.59644 0 0 0 172 176 179 255
-0.393036 1.88477 6.08507 0 0 0 42 40 41 255
-0.234208 1.95716 5.92004 0 0 0 176 179 178 255
1.95223 0.712702 8.05768 0 0 0 44 50 50 255
-0.192875 1.57081 6.62756 0 0 0 176 180 181 255
0.084984 0.32097 6.9915 0 0 0 131 137 140 255
-0.5795 1.96041 5.95811 0 0 0 173 181 181 255
-0.571577 1.98613 5.94529 0 0 0 174 180 180 255
-0.193744 1.35562 6.84889 0 0 0 54 55 63 255
-0.568285 1.56705 6.56206 0 0 0 53 51 53 255
-1.31161 1.97681 5.97127 0 0 0 62 64 65 255
-0.786003 2.08264 5.74475 0 0 0 48 44 48 255
-0.218598 1.76286 6.24856 0 0 0 180 181 181 255
-0.755821 1.69948 6.44051 0 0 0 55 53 56 255
-0.0460162 1.85473 6.06663 0 0 0 43 43 45 255
-0.26227 0.840941 6.98354 0 0 0 122 131 135 255
-0.0226612 1.65736 6.42699 0 0 0 41 41 43 255
0.707628 0.801668 7.39112 0 0 0 138 140 144 255
-2.04508 -0.331326 7.17174 0 0 0 101 110 80 255
0.107398 0.53487 7.10336 0 0 0 43 63 80 255
-1.92591 -0.371169 7.27125 0 0 0 86 79 79 255
-0.0578836 0.17174 7.03395 0 0 0 77 92 125 255
-2.34579 -0.0999888 6.84476 0 0 0 146 145 148 255
-1.94534 -0.323392 7.26324 0 0 0 87 77 82 255
-1.44019 0.633955 6.28258 0 0 0 136 130 126 255
0.60284 0.47643 7.11353 0 0 0 129 129 131 255
0.883495 -0.0676819 7.20277 0 0 0 130 133 139 255
0.380797 0.148441 6.7921 0 0 0 118 121 135 255
-1.27813 0.65146 6.17365 0 0 0 138 143 130 255
-0.0521062 0.319014 7.15711 0 0 0 101 114 119 255
-2.54147 0.548411 7.02396 0 0 0 53 54 57 255
1.94486 0.735642 8.00687 0 0 0 115 124 133 255
-1.94104 -0.337471 7.25166 0 0 0 118 109 112 255
-2.2735 0.159785 7.17358 0 0 0 75 79 80 255
-1.42948 0.551673 8.27011 0 0 0 98 100 102 255
-1.2165 0.646997 6.15722 0 0 0 148 132 117 255
-2.21156 0.144628 7.22368 0 0 0 151 154 153 255
-1.76612 -0.00931439 7.64759 0 0 0 129 131 132 255
1.94203 0.731901 8.012 0 0 0 134 140 145 255
1.93786 0.706874 8.05714 0 0 0 89 94 95 255
-0.240596 0.834716 7.01378 0 0 0 65 89 113 255
1.07102 0.609735 7.84524 0 0 0 116 140 166 255
-0.668643 2.16243 5.51233 0 0 0 44 47 52 255
-0.195842 1.56979 6.63931 0 0 0 175 184 185 255
-0.756618 2.06173 5.78547 0 0 0 129 144 148 255
-2.61268 0.0317339 6.60236 0 0 0 99 101 102 255
0.0844585 0.325017 6.9919 0 0 0 131 137 140 255
-0.756841 1.69534 6.44269 0 0 0 134 137 139 255
-0.00743548 1.45257 6.78878 0 0 0 42 47 51 255
0.696801 0.809595 7.39328 0 0 0 83 101 131 255
0.240496 1.31704 6.80059 0 0 0 145 145 145 255
-2.34679 -0.103679 6.84152 0 0 0 112 110 109 255
-0.401077 1.64944 6.4317 0 0 0 41 48 50 255
-0.213314 1.75237 6.23691 0 0 0 178 182 182 255
-0.39701 1.88641 6.08841 0 0 0 49 43 48 255
-0.419947 2.05035 5.75752 0 0 0 42 44 43 255
-0.0186631 1.85695 6.12999 0 0 0 47 45 48 255
-0.754636 1.8651 6.15674 0 0 0 46 48 49 255
-0.0253458 1.65427 6.43354 0 0 0 45 45 47 255
0.407866 1.67425 6.51451 0 0 0 43 44 46 255
-0.764506 1.88748 6.08387 0 0 0 41 45 46 255
-0.22273 1.76066 6.25511 0 0 0 174 181 183 255
-0.566586 1.79477 6.27729 0 0 0 167 177 178 255
-0.384121 1.86286 6.157 0 0 0 50 47 50 255
-0.949688 1.99071 5.94752 0 0 0 164 175 175 255
-0.763121 2.06086 5.81321 0 0 0 44 46 52 255
-0.784869 2.08177 5.7443 0 0 0 53 48 52 255
-2.09881 -0.412013 7.05163 0 0 0 139 153 107 255
0.178244 1.59323 6.6034 0 0 0 181 209 219 255
-1.29326 0.701886 8.11321 0 0 0 181 192 195 255
-0.621623 -1.02066 7.27878 0 0 0 43 41 40 255
-2.9666 -0.44412 6.23436 0 0 0 20 21 22 255
-2.96259 -0.430444 6.23407 0 0 0 121 123 125 255
0.235354 0.331684 6.88138 0 0 0 153 171 186 255
-0.185205 1.79331 6.27476 0 0 0 195 204 207 255
0.162236 1.35704 6.90865 0 0 0 73 73 73 255
-0.987191 -0.895454 7.28938 0 0 0 159 152 150 255
-0.510277 -0.895841 7.40229 0 0 0 130 124 123 255
-0.5728 -0.877265 7.3867 0 0 0 119 116 117 255
-0.532619 -0.878266 7.39292 0 0 0 120 118 114 255
-0.595682 -0.862209 7.37882 0 0 0 142 138 132 255
-0.583785 -0.889221 7.3728 0 0 0 119 116 113 255
-2.67857 -0.294202 6.38244 0 0 0 134 149 128 255
-2.98013 -0.434757 6.23949 0 0 0 106 105 104 255
0.170186 -0.240603 6.59505 0 0 0 147 150 155 255
-2.49735 -0.0824052 6.72761 0 0 0 131 149 106 255
0.0727022 -0.265041 6.67329 0 0 0 139 154 161 255
-2.67261 -0.358814 6.33693 0 0 0 142 156 132 255
0.0725882 -0.29328 6.66356 0 0 0 129 154 181 255
0.169026 -0.263554 6.58167 0 0 0 141 152 174 255
-2.14414 -0.562958 6.89499 0 0 0 137 141 116 255
-0.660578 -1.00784 7.26947 0 0 0 64 62 58 255
-2.98581 -0.478919 6.23292 0 0 0 120 114 118 255
-1.84444 -0.452187 7.34321 0 0 0 131 146 115 255
-2.96547 -0.0178081 6.54594 0 0 0 116 120 121 255
-0.561171 -1.05307 7.28303 0 0 0 62 54 52 255
1.71585 0.862739 7.74839 0 0 0 128 145 168 255
-2.95326 -0.0147821 6.54274 0 0 0 113 116 117 255
-0.462548 -1.01791 7.29618 0 0 0 70 63 61 255
-0.511295 -0.876617 7.40975 0 0 0 101 104 99 255
-2.94977 -0.470072 6.22323 0 0 0 118 122 123 255
-2.03182 -0.619704 6.993 0 0 0 128 136 108 255
-2.58581 -0.402337 6.34022 0 0 0 56 72 69 255
0.333816 -0.960003 7.54107 0 0 0 128 128 128 255
0.257795 -0.97153 7.52174 0 0 0 126 119 119 255
0.252234 0.568308 7.04937 0 0 0 47 90 111 255
-0.621256 -1.01513 7.30386 0 0 0 93 80 76 255
-3.43791 0.300128 8.54906 0 0 0 115 112 112 255
-0.453368 -0.897921 7.40696 0 0 0 130 130 127 255
-2.67757 -0.25946 6.40764 0 0 0 124 134 117 255
0.586069 -0.0551803 6.80541 0 0 0 131 147 157 255
0.283842 -0.954838 7.53933 0 0 0 124 120 117 255
-2.32449 -0.424194 6.72145 0 0 0 142 156 120 255
-2.53675 -0.330797 6.5291 0 0 0 34 46 33 255
-1.70002 -0.814389 7.30143 0 0 0 94 101 83 255
-0.253273 -0.915257 7.42721 0 0 0 118 109 112 255
0.805972 -1.06518 7.64197 0 0 0 46 40 36 255
0.507341 -0.0476917 6.70917 0 0 0 37 77 103 255
0.919391 -0.0525736 7.25941 0 0 0 139 144 151 255
-2.5916 -0.277409 6.40444 0 0 0 122 135 108 255
0.182608 1.56931 6.64118 0 0 0 200 211 214 255
0.651404 -0.889207 7.48166 0 0 0 42 41 46 255
-0.988658 -0.899783 7.28524 0 0 0 83 76 76 255
-2.13028 -0.0634707 7.11343 0 0 0 143 145 149 255
-0.183285 1.79354 6.27304 0 0 0 195 204 207 255
-1.29427 0.708438 8.12097 0 0 0 176 189 191 255
0.154611 1.35451 6.91752 0 0 0 132 133 134 255
0.372246 1.48566 6.74874 0 0 0 65 60 62 255
-2.67485 -0.353907 6.33427 0 0 0 132 136 121 255
-2.10302 -0.414114 7.04017 0 0 0 141 139 110 255
-2.03991 -0.606851 6.97453 0 0 0 141 147 118 255
-0.603577 -0.88176 7.37275 0 0 0 124 117 117 255
0.0731228 -0.266798 6.67201 0 0 0 138 155 161 255
0.794708 -1.07011 7.63827 0 0 0 46 46 44 255
-0.593814 -0.865352 7.37832 0 0 0 69 67 65 255
0.166155 -0.24347 6.59834 0 0 0 138 140 142 255
0.394587 -0.967298 7.5602 0 0 0 39 42 39 255
-2.68061 -0.297529 6.38008 0 0 0 126 134 115 255
-2.12381 -0.620922 6.92065 0 0 0 104 107 92 255
-2.52971 -0.35061 6.55064 0 0 0 126 134 111 255
-2.67733 -0.393729 6.32319 0 0 0 117 135 113 255
-2.58314 -0.401887 6.32653 0 0 0 120 141 105 255
-0.987544 -0.862604 7.30732 0 0 0 96 50 39 255
-2.13769 -0.568022 6.89112 0 0 0 102 102 88 255
0.0737505 -0.291742 6.66714 0 0 0 129 154 181 255
0.165424 -0.262089 6.58352 0 0 0 144 155 174 255
-1.87285 -0.578483 7.1702 0 0 0 114 117 90 255
-0.516995 -0.886955 7.39762 0 0 0 136 129 127 255
-3.33212 0.0696563 8.19401 0 0 0 33 51 47 255
-1.33268 0.650004 6.21507 0 0 0 117 116 116 255
0.581085 -0.0587052 6.79899 0 0 0 147 159 166 255
-1.80673 -0.552239 7.26582 0 0 0 95 100 88 255
-0.662849 -0.882506 7.36886 0 0 0 121 117 114 255
-1.16246 0.769819 6.12618 0 0 0 53 118 118 255
-2.53675 -0.330797 6.5291 0 0 0 34 46 33 255
-0.199971 0.588247 7.44231 0 0 0 200 224 233 255
-0.698959 0.634786 6.46689 0 0 0 208 228 235 255
-1.87173 -0.212211 7.44072 0 0 0 184 205 214 255
-1.74526 -1.77778 7.48652 0 0 0 212 220 225 255
0.024288 1.91361 6.11788 0 0 0 67 73 74 255
0.0190166 1.91595 6.15408 0 0 0 218 234 242 255
-1.45285 -1.61497 7.07785 0 0 0 184 203 209 255
0.31681 1.36441 6.96169 0 0 0 119 130 140 255
-1.72247 -1.92972 7.74073 0 0 0 75 101 107 255
-1.72593 -1.91559 7.75169 0 0 0 47 67 77 255
-1.67731 -1.29692 7.03737 0 0 0 152 159 141 255
0.221595 1.77685 6.32239 0 0 0 214 242 253 255
0.206449 0.185467 6.82725 0 0 0 169 190 204 255
0.840309 0.604016 7.49544 0 0 0 69 68 75 255
-0.373823 -0.911973 7.41528 0 0 0 145 145 145 255
0.339827 -0.0509837 6.67597 0 0 0 33 90 128 255
-2.58722 0.0321753 6.65163 0 0 0 141 152 155 255
0.389 -1.14396 7.47456 0 0 0 93 90 90 255
-2.95985 -0.689271 6.05369 0 0 0 123 135 133 255
0.805317 -1.09851 7.63804 0 0 0 176 175 168 255
-2.68711 -0.727575 6.05516 0 0 0 132 152 144 255
0.596607 0.0627539 6.855 0 0 0 9 85 140 255
-1.13318 0.613173 6.17828 0 0 0 94 116 118 255
-0.267376 -1.21385 7.27443 0 0 0 121 94 90 255
0.015234 -0.118543 6.80581 0 0 0 4 81 128 255
-2.96416 0.37254 6.79848 0 0 0 124 131 131 255
0.184121 -0.975121 7.50828 0 0 0 119 119 119 255
0.339838 -0.0252495 6.67517 0 0 0 168 180 192 255
0.117478 -0.966174 7.51256 0 0 0 147 147 147 255
0.500029 -0.142702 6.65844 0 0 0 9 103 157 255
-2.98129 -0.700315 6.05792 0 0 0 115 128 135 255
0.00957275 -1.44992 7.07127 0 0 0 129 96 89 255
-2.96719 -0.678342 6.05559 0 0 0 19 25 26 255
-0.307531 -0.926336 7.42248 0 0 0 143 143 143 255
0.108241 -0.939716 7.49677 0 0 0 123 132 132 255
-2.3515 -0.812345 6.48056 0 0 0 68 86 84 255
-0.226913 -1.22337 7.27449 0 0 0 119 115 112 255
-2.97902 -0.622156 6.12425 0 0 0 121 120 121 255
-2.5913 0.0454978 6.68074 0 0 0 123 136 138 255
-0.305506 -1.51906 7.22405 0 0 0 126 113 112 255
-0.133677 -1.45112 7.03022 0 0 0 183 179 178 255
0.0471437 -1.12044 7.37371 0 0 0 80 78 78 255
0.197913 0.0669759 6.78408 0 0 0 58 110 141 255
-2.94211 0.36527 6.77958 0 0 0 116 127 132 255
-2.2399 -0.896038 6.61253 0 0 0 85 112 103 255
-0.202489 -1.19797 7.26749 0 0 0 135 112 113 255
-0.22732 -0.910488 7.43134 0 0 0 130 128 126 255
-0.000317266 -1.12776 7.40802 0 0 0 81 83 77 255
-2.03013 -0.394536 7.10637 0 0 0 137 158 132 255
0.0630269 -1.45464 7.05348 0 0 0 140 107 101 255
-0.218112 -1.0646 7.26116 0 0 0 79 79 81 255
-1.74473 -1.77913 7.48617 0 0 0 118 120 124 255
-1.87173 -0.212211 7.44072 0 0 0 184 205 214 255
-0.700197 0.631405 6.46911 0 0 0 161 175 180 255
-1.45778 -1.6103 7.07659 0 0 0 183 212 218 255
0.221524 1.77975 6.34822 0 0 0 210 238 251 255
-0.237854 0.594816 7.36983 0 0 0 197 221 230 255
-1.71026 -1.82142 7.52213 0 0 0 43 75 89 255
0.0196919 1.92617 6.16417 0 0 0 214 243 253 255
-1.67077 -1.29519 7.04949 0 0 0 146 161 140 255
1.25427 1.05452 7.48365 0 0 0 92 82 85 255
0.844126 0.596698 7.49763 0 0 0 82 84 89 255
-2.64417 0.633588 6.95155 0 0 0 187 207 210 255
0.0198559 1.91134 6.16988 0 0 0 219 238 246 255
-2.68962 -0.727224 6.0564 0 0 0 110 123 121 255
0.19074 0.401095 6.99226 0 0 0 93 119 143 255
0.535363 0.460444 7.01904 0 0 0 176 207 221 255
0.029256 1.89357 6.12304 0 0 0 188 235 242 255
0.419006 0.465738 6.98945 0 0 0 144 190 223 255
0.557217 0.497374 7.04926 0 0 0 21 90 141 255
-2.9603 0.367024 6.79348 0 0 0 112 120 123 255
-2.04191 -0.340315 7.12265 0 0 0 137 163 132 255
-0.00301564 -1.44588 7.05764 0 0 0 143 112 106 255
-2.03768 -0.394906 7.09371 0 0 0 126 142 128 255
-2.7437 -0.867786 5.8394 0 0 0 159 160 165 255
-0.303779 -0.926475 7.4261 0 0 0 143 143 143 255
0.802603 -1.10571 7.63661 0 0 0 179 178 172 255
-2.5851 0.0425985 6.6599 0 0 0 123 132 134 255
0.335715 -0.0556754 6.67075 0 0 0 113 135 152 255
-2.95426 -0.687966 6.05239 0 0 0 122 137 137 255
-2.40962 -0.15104 6.69831 0 0 0 142 164 149 255
-0.686456 1.27982 6.39048 0 0 0 116 128 124 255
0.177038 -0.971813 7.51483 0 0 0 82 88 92 255
-1.84992 -1.02602 6.98547 0 0 0 84 116 83 255
-1.82994 -0.534592 7.29858 0 0 0 60 77 70 255
0.00948923 -0.120506 6.80722 0 0 0 1 87 139 255
-1.73477 -1.04053 7.13017 0 0 0 37 65 61 255
-3.26115 0.394327 7.88491 0 0 0 59 66 68 255
-2.23992 -0.885905 6.58415 0 0 0 84 112 98 255
-2.14925 -0.324079 7.08498 0 0 0 118 134 124 255
0.333615 -0.986792 7.54181 0 0 0 74 81 90 255
0.48625 -0.144602 6.65586 0 0 0 83 130 171 255
-2.94292 0.364138 6.77664 0 0 0 28 37 44 255
-2.19366 -0.884457 6.64104 0 0 0 75 99 77 255
-0.0937304 0.55141 7.68302 0 0 0 201 225 234 255
-2.61826 -0.0467217 6.4245 0 0 0 131 158 143 255
-0.0260992 0.525054 7.80923 0 0 0 67 81 92 255
-2.55184 0.00772443 6.65197 0 0 0 115 124 133 255
-0.211349 -1.53821 7.2575 0 0 0 136 109 102 255
-2.58642 -0.26038 6.42001 0 0 0 38 65 53 255
-1.99164 0.754564 7.68436 0 0 0 172 185 189 255
-0.442854 -0.879759 7.40992 0 0 0 145 144 144 255
-0.552889 -1.41926 6.98591 0 0 0 124 100 94 255
-2.06509 -0.258682 7.11535 0 0 0 126 144 145 255
0.353736 -1.16302 7.46558 0 0 0 96 95 92 255
0.384642 0.315225 6.86919 0 0 0 184 194 201 255
-1.83819 0.649929 7.92096 0 0 0 156 173 184 255
0.177571 -0.945807 7.51566 0 0 0 123 129 129 255
-2.20622 -0.179221 6.98853 0 0 0 122 146 153 255
-0.362702 -1.32509 7.06946 0 0 0 126 107 105 255
0.402827 -0.989937 7.55128 0 0 0 152 150 151 255
-0.314999 -1.08549 7.32123 0 0 0 92 91 88 255
-2.00728 -0.268312 7.16819 0 0 0 125 137 146 255
-0.442271 -0.91209 7.40473 0 0 0 118 121 123 255
-0.452884 -1.0582 7.27071 0 0 0 105 105 105 255
0.177498 -0.947043 7.51548 0 0 0 121 127 127 255
-0.232084 -1.52673 7.24591 0 0 0 143 117 110 255
-1.42864 0.631677 6.2853 0 0 0 162 175 179 255
0.418451 -0.155795 6.60791 0 0 0 45 123 163 255
0.377358 0.307323 6.85843 0 0 0 181 211 221 255
-2.61915 0.57267 6.94562 0 0 0 125 146 154 255
-1.68602 -0.830141 7.31263 0 0 0 105 127 108 255
-2.58652 -0.262909 6.42303 0 0 0 75 102 90 255
0.322441 0.474137 6.94585 0 0 0 181 205 216 255
-0.712956 0.606106 6.51741 0 0 0 219 238 247 255
0.386808 1.70484 6.43803 0 0 0 79 78 82 255
0.381486 1.70735 6.47666 0 0 0 220 244 251 255
0.394544 1.68252 6.43408 0 0 0 201 240 252 255
0.388903 1.6846 6.47212 0 0 0 57 79 94 255
0.569442 1.5792 6.62873 0 0 0 74 86 91 255
1.18139 0.562601 8.11543 0 0 0 57 57 57 255
-0.206652 -1.44414 7.05412 0 0 0 125 102 99 255
-0.189849 -1.44183 7.0546 0 0 0 112 105 104 255
-1.87637 -0.359169 7.3026 0 0 0 21 31 46 255
-0.1232 -1.37957 7.07617 0 0 0 115 107 106 255
-0.0258915 0.209296 7.03155 0 0 0 36 67 107 255
-2.02811 0.775839 7.6801 0 0 0 170 179 181 255
-0.66966 -0.860248 7.36851 0 0 0 159 158 159 255
-0.0190371 -1.0782 7.41598 0 0 0 108 109 110 255
0.198025 -0.952875 7.52094 0 0 0 144 146 148 255
-2.52851 0.0236169 6.71051 0 0 0 109 129 136 255
-2.30127 -0.127803 6.89738 0 0 0 125 148 158 255
-0.936569 0.475329 6.56201 0 0 0 25 62 90 255
-0.673088 -0.986066 7.25116 0 0 0 99 97 93 255
-1.91775 0.697647 7.62178 0 0 0 133 161 168 255
-2.33245 -0.111096 6.87032 0 0 0 115 136 144 255
-0.191109 -1.31022 7.26002 0 0 0 187 184 180 255
-2.53791 0.0226622 6.64092 0 0 0 134 157 159 255
-1.96695 0.723003 7.71074 0 0 0 49 82 95 255
1.186 0.55327 8.11615 0 0 0 77 80 82 255
0.392595 1.67877 6.46455 0 0 0 55 77 92 255
0.380238 1.70607 6.47841 0 0 0 215 242 253 255
-0.714518 0.607286 6.51372 0 0 0 219 238 247 255
-2.53847 0.0237664 6.64214 0 0 0 134 157 159 255
0.341534 -0.116536 6.63418 0 0 0 16 97 159 255
-2.0306 0.775222 7.68252 0 0 0 166 173 175 255
-2.57421 -0.194894 6.49277 0 0 0 58 93 88 255
-1.72898 -0.810927 7.29938 0 0 0 103 116 104 255
-2.10525 -0.225968 7.05545 0 0 0 27 43 48 255
-0.449576 -1.38811 7.21243 0 0 0 134 104 91 255
-2.65508 0.643419 6.91654 0 0 0 196 207 210 255
-1.84781 0.665797 7.92027 0 0 0 176 186 194 255
-2.1818 -0.205142 7.06414 0 0 0 128 148 156 255
-0.974598 -0.877499 7.31495 0 0 0 30 29 29 255
0.444609 0.142268 6.80233 0 0 0 187 205 220 255
0.242572 0.648188 7.04526 0 0 0 25 129 175 255
-0.726862 0.594866 6.56908 0 0 0 204 232 243 255
-2.51153 -0.0136603 6.68984 0 0 0 124 136 136 255
0.588129 0.0768754 6.85818 0 0 0 37 113 160 255
0.46678 0.397063 6.95834 0 0 0 60 111 156 255
-1.79278 0.606203 7.90986 0 0 0 136 160 170 255
1.1986 0.555569 8.10178 0 0 0 75 81 84 255
-2.01558 0.754149 7.68151 0 0 0 47 73 84 255
-1.55978 0.666903 6.38618 0 0 0 143 169 175 255
-2.44937 -0.0390677 6.7578 0 0 0 140 152 160 255
-2.50172 0.0178674 6.69553 0 0 0 125 149 156 255
0.221711 0.611235 7.06062 0 0 0 9 131 180 255
0.218032 0.706313 7.11656 0 0 0 135 156 181 255
-2.07876 -0.235704 7.05552 0 0 0 123 147 152 255
0.250885 0.629635 7.04211 0 0 0 168 203 216 255
0.371718 0.757898 7.09962 0 0 0 164 155 130 255
0.561661 0.178967 6.87324 0 0 0 57 120 167 255
0.29136 0.751894 7.11307 0 0 0 141 142 137 255
0.414977 -0.021933 6.6881 0 0 0 118 173 198 255
-1.878 0.696739 7.5801 0 0 0 152 178 189 255
-1.73362 0.604354 7.91269 0 0 0 144 166 170 255
-2.47889 -0.262135 6.57974 0 0 0 75 104 80 255
-0.249295 -0.896775 7.43071 0 0 0 111 123 121 255
0.17248 0.105526 6.79339 0 0 0 153 188 202 255
-1.76454 -0.4332 7.42573 0 0 0 105 114 125 255
-2.22277 -0.483869 6.82805 0 0 0 124 140 125 255
-2.19259 -0.162721 7.01699 0 0 0 132 146 148 255
-2.62761 0.0538978 6.60319 0 0 0 17 41 49 255
1.29767 0.557916 8.31301 0 0 0 90 94 96 255
-2.52072 0.0153323 6.67681 0 0 0 145 154 158 255
-0.720457 0.591252 6.60177 0 0 0 162 185 194 255
-2.64191 0.636015 6.89159 0 0 0 192 215 219 255
-1.02318 0.950063 6.04774 0 0 0 155 191 206 255
-1.79538 0.609067 7.91046 0 0 0 62 85 95 255
0.61406 0.423748 7.06722 0 0 0 99 124 144 255
-2.6295 0.0418757 6.5772 0 0 0 106 106 115 255
0.219358 0.70516 7.11465 0 0 0 87 108 133 255
0.146596 0.180238 6.87166 0 0 0 45 103 150 255
0.00900561 0.306258 7.00192 0 0 0 65 93 127 255
-2.88204 0.648078 6.82132 0 0 0 117 146 145 255
-1.58392 0.676185 6.35542 0 0 0 137 169 175 255
-2.0233 0.751207 7.68408 0 0 0 77 81 87 255
-1.56091 0.666693 6.38429 0 0 0 165 192 197 255
-2.27669 0.258159 7.15413 0 0 0 184 214 224 255
-1.79148 0.628475 7.93683 0 0 0 177 191 202 255
-2.07698 -0.22094 7.06109 0 0 0 127 142 147 255
-0.305555 -0.899081 7.42469 0 0 0 104 111 113 255
0.492938 0.137085 6.81155 0 0 0 71 102 163 255
-0.75816 0.587466 6.50628 0 0 0 194 215 242 255
0.418363 0.187007 6.82277 0 0 0 188 212 232 255
0.244834 0.444035 6.92126 0 0 0 58 68 89 255
0.485626 0.469206 7.00943 0 0 0 81 92 111 255
-2.34835 -0.0871416 6.86896 0 0 0 172 181 185 255
-2.33263 -0.0925815 6.88375 0 0 0 125 134 147 255
-2.25744 -0.113894 6.92631 0 0 0 123 135 144 255
-2.28654 -0.13526 6.87365 0 0 0 34 41 55 255
0.230145 -1.64356 7.17505 0 0 0 123 111 99 255
0.553555 0.378135 6.97634 0 0 0 103 111 145 255
-1.53729 0.657413 6.35151 0 0 0 178 194 201 255
-1.55195 0.647759 6.64388 0 0 0 153 164 181 255
-0.983573 0.942 6.05433 0 0 0 132 136 144 255
0.249428 -0.954764 7.5252 0 0 0 125 127 127 255
0.232384 -1.53992 7.21183 0 0 0 117 113 112 255
0.0778983 -1.53124 7.17131 0 0 0 186 185 183 255
-1.06559 0.520302 6.23701 0 0 0 189 182 183 255
-1.46089 0.475816 7.37025 0 0 0 21 28 49 255
-2.28585 -0.146027 6.93038 0 0 0 135 147 156 255
-1.67348 -0.471073 7.48979 0 0 0 117 122 135 255
0.632536 0.0468801 6.86347 0 0 0 161 188 230 255
-0.95359 0.472758 6.51155 0 0 0 34 52 87 255
-1.8033 -0.0626278 7.56108 0 0 0 120 136 151 255
-1.68099 -0.451902 7.47229 0 0 0 14 23 39 255
0.665089 0.411495 7.09013 0 0 0 197 212 225 255
-2.2472 -0.14705 6.92508 0 0 0 143 149 154 255
-2.01837 -0.283374 7.16579 0 0 0 133 146 160 255
-2.22355 0.158715 7.13801 0 0 0 115 126 141 255
0.518891 0.278112 6.90516 0 0 0 124 141 172 255
-1.95979 -0.444177 7.2008 0 0 0 142 163 139 255
0.987587 1.06987 7.57626 0 0 0 165 141 66 255
-2.37204 0.313953 7.0742 0 0 0 198 219 232 255
0.451299 -1.65677 7.20789 0 0 0 117 111 110 255
-1.57642 -0.548962 7.56583 0 0 0 122 129 131 255
0.219288 0.742149 7.12372 0 0 0 149 144 128 255
0.132414 -1.53087 7.19298 0 0 0 130 111 106 255
-0.757212 0.587519 6.50331 0 0 0 194 215 242 255
-0.946408 0.472181 6.55649 0 0 0 38 46 61 255
-1.07182 0.521868 6.23283 0 0 0 182 166 167 255
0.519956 0.479508 7.00991 0 0 0 189 208 229 255
-2.46401 0.480639 6.98863 0 0 0 187 208 225 255
0.623601 0.0531928 6.8698 0 0 0 155 193 241 255
-1.54277 0.65301 6.43837 0 0 0 162 181 197 255
0.789368 -0.0788468 7.13549 0 0 0 131 155 188 255
0.482853 0.132028 6.81119 0 0 0 53 92 163 255
-1.85714 0.671869 7.57119 0 0 0 110 122 133 255
0.658265 0.405839 7.0847 0 0 0 193 215 235 255
0.343915 -1.61971 7.18946 0 0 0 136 104 90 255
-1.96098 -0.431624 7.16813 0 0 0 126 142 130 255
-1.81146 -0.0599155 7.56055 0 0 0 118 133 148 255
0.549707 0.0884334 6.85101 0 0 0 160 190 239 255
