ply
format ascii 1.0
comment VCGLIB generated
element vertex 1023
property float x
property float y
property float z
property float nx
property float ny
property float nz
property uchar red
property uchar green
property uchar blue
property uchar alpha
element face 0
property list uchar int vertex_indices
end_header
-1.7592 2.32597 6.1383 0 0 0 179 198 206 255
-3.67055 1.44106 6.00221 0 0 0 162 175 181 255
-1.58118 2.56749 5.81605 0 0 0 41 49 58 255
-0.665334 2.55286 5.59724 0 0 0 34 42 49 255
-2.02373 2.59165 5.73379 0 0 0 36 48 56 255
-1.73388 2.09562 6.70098 0 0 0 39 52 67 255
-2.04158 2.48604 5.7994 0 0 0 34 44 52 255
-4.78525 0.880913 6.62193 0 0 0 160 168 173 255
-2.50359 1.24255 6.48767 0 0 0 190 190 198 255
-4.48673 0.708991 6.89507 0 0 0 164 176 180 255
-2.18369 2.2236 6.49683 0 0 0 48 63 70 255
-4.16389 0.537569 7.40043 0 0 0 165 175 181 255
-1.61469 2.15497 6.78112 0 0 0 176 197 206 255
-1.85338 2.14173 6.50848 0 0 0 179 200 207 255
-1.39902 2.44385 6.01393 0 0 0 180 201 208 255
-1.51666 2.3512 6.39982 0 0 0 176 201 212 255
-1.44018 2.35226 6.13266 0 0 0 182 200 208 255
-1.53421 2.15486 6.46783 0 0 0 187 206 214 255
-1.99015 2.39394 6.28893 0 0 0 174 198 202 255
-1.82605 2.38124 6.07348 0 0 0 179 201 205 255
-1.34333 2.23277 6.59647 0 0 0 43 56 65 255
-0.560613 2.44245 6.13146 0 0 0 182 206 215 255
-0.815271 2.4221 5.91139 0 0 0 188 205 212 255
-1.81841 1.9943 6.97416 0 0 0 176 190 200 255
-2.11963 1.31975 7.71779 0 0 0 205 210 216 255
-0.62405 2.50618 6.02868 0 0 0 40 48 57 255
-1.57457 2.4425 5.91488 0 0 0 32 48 57 255
-1.72768 2.45612 6.10581 0 0 0 41 53 61 255
-1.16823 2.41701 5.96069 0 0 0 37 47 55 255
-2.48362 1.24571 6.54401 0 0 0 184 189 197 255
-1.7904 2.25428 6.51345 0 0 0 43 54 64 255
-1.07842 2.54697 5.94586 0 0 0 39 48 59 255
-2.15415 2.23342 6.52653 0 0 0 42 54 62 255
-0.483037 1.3401 8.75846 0 0 0 39 37 40 255
-3.68448 1.47262 5.9988 0 0 0 187 203 210 255
-0.582799 1.32173 8.67964 0 0 0 63 64 74 255
-0.713141 2.37432 6.05141 0 0 0 33 42 53 255
-2.1029 2.42855 6.10647 0 0 0 39 48 56 255
-1.60635 2.4016 6.25057 0 0 0 44 51 63 255
-2.08998 2.30314 6.22908 0 0 0 37 48 56 255
-1.70061 2.27005 6.27071 0 0 0 38 52 62 255
-4.14532 0.550021 7.38981 0 0 0 162 172 178 255
-0.815699 2.10253 6.8159 0 0 0 50 68 81 255
-4.48308 0.728388 7.02308 0 0 0 163 178 181 255
-2.10306 1.21364 7.95649 0 0 0 129 96 96 255
-2.86841 1.57667 5.71895 0 0 0 40 54 62 255
-2.48368 1.94349 6.12734 0 0 0 84 104 116 255
-2.56354 2.87796 5.10409 0 0 0 50 70 75 255
-2.1269 2.84348 5.13219 0 0 0 163 180 187 255
-1.83037 2.46307 6.00263 0 0 0 179 195 201 255
-1.5105 0.628544 7.0219 0 0 0 24 68 117 255
-1.67004 0.663009 7.03545 0 0 0 107 136 172 255
-3.0593 1.15229 5.93019 0 0 0 40 59 67 255
-2.86142 1.60132 5.72574 0 0 0 154 153 161 255
-4.82554 0.703975 6.42472 0 0 0 115 123 132 255
-1.70735 0.672991 7.05245 0 0 0 68 98 118 255
-4.89973 1.47732 6.4951 0 0 0 158 169 175 255
-4.3561 0.621163 7.17986 0 0 0 141 153 161 255
-2.90656 1.47375 5.75064 0 0 0 54 73 101 255
-4.07758 0.772081 7.48964 0 0 0 152 170 176 255
-4.35292 0.209662 7.05311 0 0 0 117 132 118 255
-2.56957 2.8772 5.10008 0 0 0 71 91 96 255
-2.13908 2.84111 5.11335 0 0 0 162 181 188 255
-0.00041511 1.60696 8.09427 0 0 0 96 121 145 255
0.023681 1.63643 8.00725 0 0 0 81 100 121 255
-2.29294 2.45924 5.93588 0 0 0 186 201 210 255
-4.8952 1.47127 6.48663 0 0 0 161 173 179 255
-1.66209 2.32652 6.27301 0 0 0 48 65 74 255
-2.86688 1.57556 5.7196 0 0 0 35 53 63 255
-4.91513 0.66421 6.30326 0 0 0 117 129 129 255
-1.51676 0.628246 7.02198 0 0 0 22 69 117 255
-2.14101 2.84014 5.11163 0 0 0 162 181 188 255
-1.44584 2.26154 6.49518 0 0 0 168 186 199 255
-1.74512 2.64302 5.62552 0 0 0 146 162 168 255
-1.57322 0.6439 7.03436 0 0 0 25 58 100 255
-4.88513 1.46469 6.46202 0 0 0 161 173 179 255
-1.81407 2.47404 6.01253 0 0 0 176 191 198 255
-1.78341 0.833716 7.12254 0 0 0 115 130 159 255
-1.3588 0.915228 7.16652 0 0 0 77 106 149 255
-0.944874 2.33955 6.2307 0 0 0 190 211 220 255
-1.83494 2.46951 5.99171 0 0 0 178 196 204 255
-0.855662 2.60103 5.18946 0 0 0 189 205 214 255
-1.14033 2.43986 5.97693 0 0 0 43 52 62 255
-4.78638 0.574334 6.52104 0 0 0 138 150 132 255
-2.39579 2.71376 5.33247 0 0 0 36 47 55 255
-2.84134 1.4838 5.75634 0 0 0 115 131 147 255
-0.894775 2.59234 5.1579 0 0 0 189 205 216 255
-1.73725 2.32118 6.17518 0 0 0 181 202 209 255
-1.04893 2.67408 5.48045 0 0 0 44 53 62 255
-1.73415 2.65942 5.62491 0 0 0 178 198 203 255
-2.2984 2.30687 6.35453 0 0 0 38 57 67 255
-1.83214 2.48134 5.98535 0 0 0 180 200 206 255
-1.43121 2.28202 6.49812 0 0 0 179 201 211 255
-0.877201 2.58121 5.71661 0 0 0 186 205 217 255
-1.48145 2.7235 5.44368 0 0 0 39 48 57 255
-2.02501 2.50766 5.8126 0 0 0 36 48 56 255
-0.751607 2.39576 5.9906 0 0 0 41 50 61 255
-1.3442 2.52428 5.71887 0 0 0 186 205 213 255
-1.21735 2.36549 6.2964 0 0 0 47 54 66 255
-1.92507 2.21424 6.42694 0 0 0 181 204 213 255
-2.2405 2.59512 5.53342 0 0 0 177 196 204 255
-1.15389 2.53253 5.8776 0 0 0 43 52 60 255
-1.87438 2.60129 5.52098 0 0 0 37 48 56 255
-1.89075 2.38883 5.99991 0 0 0 178 200 209 255
-1.74036 2.66584 5.6111 0 0 0 178 197 205 255
-1.812 2.49179 6.0041 0 0 0 180 200 207 255
-2.06386 2.42426 6.15395 0 0 0 37 50 58 255
-2.48514 2.61899 5.62899 0 0 0 39 51 59 255
-1.5482 2.63684 5.44865 0 0 0 38 53 64 255
-0.752132 2.3776 6.00349 0 0 0 38 47 58 255
-0.543454 1.3007 8.68187 0 0 0 47 45 54 255
-2.2644 2.30817 6.37706 0 0 0 39 55 64 255
-1.10559 2.26176 6.41992 0 0 0 185 206 215 255
-0.784082 2.2941 6.35729 0 0 0 52 61 72 255
-2.44889 2.52608 5.76008 0 0 0 32 40 49 255
-1.19692 2.36578 6.31381 0 0 0 42 49 60 255
-1.87084 2.06411 6.87537 0 0 0 45 59 71 255
-2.08293 2.43531 6.12544 0 0 0 38 49 57 255
-1.18427 2.59434 5.81794 0 0 0 38 48 56 255
-1.36305 2.51686 5.70055 0 0 0 185 204 212 255
-1.91813 2.56239 5.88879 0 0 0 175 198 205 255
-1.39301 2.34927 6.1639 0 0 0 183 204 211 255
-1.95563 2.19922 6.39705 0 0 0 181 204 213 255
-1.4329 2.29761 6.48835 0 0 0 179 203 213 255
-1.85123 2.33547 6.43287 0 0 0 180 201 210 255
-2.31647 2.40749 5.93732 0 0 0 178 200 208 255
-0.991313 2.50353 6.08029 0 0 0 183 209 215 255
-1.519 2.38918 6.00116 0 0 0 41 55 65 255
-2.21433 2.33893 6.03702 0 0 0 178 199 208 255
-1.28857 2.39335 6.20149 0 0 0 46 53 65 255
-1.96684 2.40251 6.31139 0 0 0 174 200 206 255
-0.537908 1.30125 8.68387 0 0 0 44 42 50 255
-4.16789 0.501324 7.39168 0 0 0 155 164 174 255
0.178738 1.39706 8.47221 0 0 0 121 131 149 255
-3.64745 1.36501 6.01679 0 0 0 173 183 187 255
-1.59106 0.840116 7.06539 0 0 0 150 166 191 255
-2.08195 2.37114 6.21952 0 0 0 37 56 62 255
-4.3662 0.347736 7.0747 0 0 0 120 134 114 255
-2.86042 1.50679 5.74961 0 0 0 175 173 185 255
-1.81953 0.085714 6.93527 0 0 0 114 137 164 255
-1.71891 0.809822 7.09053 0 0 0 49 64 82 255
-4.68784 0.645293 6.60564 0 0 0 122 132 138 255
-3.2882 1.21964 5.90851 0 0 0 129 155 151 255
-1.82163 0.119024 6.93311 0 0 0 135 147 166 255
-4.8083 0.602157 6.51995 0 0 0 109 122 108 255
-1.81782 0.685567 7.11687 0 0 0 10 50 93 255
-0.42112 1.74528 7.71749 0 0 0 131 133 142 255
-4.23827 0.348585 7.25526 0 0 0 13 21 30 255
-2.86768 1.45748 5.69115 0 0 0 70 77 94 255
-4.92727 0.737613 6.32024 0 0 0 26 36 42 255
-2.99733 1.11479 5.98465 0 0 0 166 177 177 255
-1.24501 0.337732 7.06557 0 0 0 123 150 178 255
-1.89146 0.797836 7.05004 0 0 0 39 54 66 255
-4.71314 0.53964 6.60926 0 0 0 101 114 103 255
-3.6463 1.36535 6.01951 0 0 0 173 183 187 255
-1.58674 0.827705 7.06423 0 0 0 147 163 186 255
-1.88017 0.873698 7.15575 0 0 0 64 84 96 255
-0.428243 1.73323 7.69531 0 0 0 145 145 147 255
-4.68197 0.643679 6.60948 0 0 0 116 126 132 255
-4.80935 0.601912 6.51383 0 0 0 103 116 102 255
-4.24152 0.354329 7.25367 0 0 0 15 23 32 255
-1.96727 0.864882 7.2634 0 0 0 69 100 130 255
-4.97979 0.291982 6.0972 0 0 0 134 147 139 255
-1.43597 2.36229 6.0378 0 0 0 191 202 213 255
-3.65511 1.37285 5.99838 0 0 0 165 177 183 255
-4.98885 0.286294 6.11469 0 0 0 136 150 136 255
-4.81022 0.597856 6.5167 0 0 0 106 119 104 255
-0.404648 1.73462 7.72121 0 0 0 128 127 130 255
-1.43938 2.36111 6.03408 0 0 0 194 205 216 255
-4.13106 0.200916 7.31242 0 0 0 123 138 101 255
-1.8662 0.712755 7.15337 0 0 0 22 43 84 255
-1.72323 2.19841 6.61146 0 0 0 52 65 80 255
-2.6388 2.7125 5.45114 0 0 0 168 184 193 255
-3.65954 1.37458 5.99626 0 0 0 165 177 183 255
-1.60376 2.4889 5.86676 0 0 0 42 56 68 255
-2.41693 2.72892 5.30246 0 0 0 38 54 63 255
-2.15981 2.19718 6.52822 0 0 0 126 143 153 255
-1.13654 2.53817 5.36231 0 0 0 37 47 54 255
-1.90849 2.2353 6.44634 0 0 0 184 203 213 255
-1.67841 2.20046 6.67168 0 0 0 51 66 77 255
-2.27411 2.44502 5.96736 0 0 0 181 198 208 255
-1.5247 2.55865 5.91476 0 0 0 133 147 159 255
-3.65423 1.37502 5.99797 0 0 0 165 177 183 255
-1.58093 2.48235 5.90401 0 0 0 40 55 66 255
-1.95766 2.68512 5.41306 0 0 0 36 50 62 255
-2.35561 1.29212 7.55346 0 0 0 53 57 59 255
-0.052324 1.68114 7.92129 0 0 0 136 159 180 255
-1.9533 2.22626 6.39905 0 0 0 181 200 210 255
-0.990852 2.4145 6.11625 0 0 0 89 101 107 255
-2.29095 2.50972 5.89968 0 0 0 175 191 202 255
-1.62812 2.37732 6.23798 0 0 0 48 59 70 255
-2.28525 2.43363 5.96101 0 0 0 180 200 209 255
-4.16767 0.506171 7.39217 0 0 0 155 164 174 255
-3.65799 1.38433 5.99734 0 0 0 181 195 201 255
-4.79082 0.859269 6.62169 0 0 0 135 145 151 255
-1.59892 2.47585 5.88646 0 0 0 40 54 66 255
-1.96795 2.6827 5.40822 0 0 0 37 48 59 255
-2.2805 2.4324 5.96866 0 0 0 180 199 209 255
-1.95166 2.5457 5.85658 0 0 0 169 188 198 255
-1.1301 2.52148 5.89665 0 0 0 42 49 61 255
-1.86047 2.60141 5.56343 0 0 0 39 49 60 255
-1.68136 2.21665 6.65184 0 0 0 48 62 73 255
-1.37328 2.43274 6.02458 0 0 0 188 204 211 255
-2.0449 2.58758 5.71704 0 0 0 42 54 62 255
-3.68131 1.39458 5.96554 0 0 0 174 189 195 255
-1.66613 2.28448 6.31031 0 0 0 45 56 67 255
-2.55132 2.41816 6.02085 0 0 0 63 75 83 255
-1.20046 2.42619 5.92075 0 0 0 43 52 63 255
-1.64342 2.27153 6.34055 0 0 0 41 55 67 255
-1.4783 2.49839 5.96866 0 0 0 180 200 212 255
-2.15807 2.48163 6.03348 0 0 0 40 49 60 255
-1.93165 2.42723 5.94878 0 0 0 42 55 65 255
-1.18378 2.41018 5.96061 0 0 0 38 47 58 255
-1.3195 2.22004 6.62231 0 0 0 43 53 59 255
-1.63833 2.39298 6.21504 0 0 0 40 54 66 255
-1.68344 2.22521 6.64103 0 0 0 47 61 72 255
-2.10135 1.2652 8.23142 0 0 0 140 112 110 255
-2.10025 2.41387 6.50664 0 0 0 38 53 60 255
-1.27363 2.173 6.68292 0 0 0 48 56 67 255
-2.33248 1.30919 7.8804 0 0 0 57 57 56 255
-3.67634 1.40278 5.96113 0 0 0 183 203 208 255
-2.44892 1.24816 6.69798 0 0 0 176 185 187 255
-2.23284 2.52724 5.90865 0 0 0 181 195 210 255
-2.48109 2.51843 5.72855 0 0 0 33 43 51 255
-1.17316 1.48314 7.59011 0 0 0 50 105 144 255
-1.87645 2.30475 6.44895 0 0 0 167 188 197 255
-4.45417 0.353394 6.98479 0 0 0 101 109 99 255
-4.88684 0.179037 6.01071 0 0 0 75 93 63 255
-4.64005 0.435276 6.64589 0 0 0 129 145 113 255
-4.21504 0.0493421 7.25267 0 0 0 71 85 76 255
-1.23149 0.512601 7.12874 0 0 0 61 104 129 255
-4.21952 0.0714802 7.23622 0 0 0 105 120 102 255
-3.2663 1.20761 5.89939 0 0 0 144 154 148 255
-4.88789 0.434353 6.24078 0 0 0 46 68 54 255
-4.26581 0.38929 7.22973 0 0 0 92 104 110 255
-4.86417 0.274311 6.35349 0 0 0 40 55 39 255
-4.86345 0.458469 6.21117 0 0 0 112 132 118 255
-4.92163 0.324787 6.18306 0 0 0 102 120 106 255
-4.65647 0.190151 6.64469 0 0 0 115 129 118 255
-4.92163 0.3479 6.22539 0 0 0 33 47 38 255
-4.86738 0.751343 6.35956 0 0 0 98 110 118 255
-0.823623 2.11581 6.66614 0 0 0 116 119 128 255
-4.63868 0.619507 6.65306 0 0 0 37 51 63 255
-4.90487 0.652315 6.32539 0 0 0 122 137 123 255
-4.26675 1.68485 7.45055 0 0 0 108 125 131 255
-4.36524 0.879322 7.12091 0 0 0 145 165 170 255
-4.92259 0.955482 6.40983 0 0 0 109 124 129 255
-4.90325 0.6679 6.34047 0 0 0 98 113 101 255
-4.96752 1.23297 6.3708 0 0 0 111 134 131 255
-4.85154 0.735451 6.40792 0 0 0 90 101 112 255
-3.42376 1.20674 5.88747 0 0 0 131 149 148 255
-4.93997 0.721428 6.33129 0 0 0 83 95 99 255
-4.95985 0.963248 6.40384 0 0 0 80 90 94 255
-4.90394 0.706473 6.33698 0 0 0 100 112 118 255
-4.95542 1.24251 6.37554 0 0 0 131 157 149 255
-4.25115 0.328294 7.20912 0 0 0 91 97 102 255
-2.85052 1.5416 5.7612 0 0 0 70 114 131 255
-3.20052 1.67359 5.66106 0 0 0 124 137 136 255
-1.63187 1.2463 7.22172 0 0 0 93 140 163 255
-4.42877 0.679415 6.95945 0 0 0 131 145 150 255
-3.1765 1.20068 5.84692 0 0 0 105 106 109 255
-0.0957274 1.35545 8.53209 0 0 0 75 66 62 255
-4.88599 0.5815 6.30756 0 0 0 115 133 117 255
-1.8103 0.872144 7.1145 0 0 0 27 59 97 255
-4.93072 1.33951 6.44882 0 0 0 129 147 142 255
-4.36095 0.269828 7.09863 0 0 0 96 117 91 255
-3.17527 1.16764 5.90456 0 0 0 45 66 56 255
-4.95647 1.2658 6.3797 0 0 0 121 147 139 255
-2.85246 1.53523 5.75736 0 0 0 94 120 137 255
-3.43569 1.22471 6.02673 0 0 0 121 133 137 255
-4.729 0.581952 6.60671 0 0 0 43 62 42 255
-4.13353 0.105404 7.36239 0 0 0 82 96 71 255
-4.88878 0.178368 6.00468 0 0 0 105 122 94 255
-4.4336 0.679646 6.96534 0 0 0 137 151 155 255
-4.65658 0.429544 6.71468 0 0 0 120 136 105 255
-4.95333 0.971414 6.40591 0 0 0 110 122 126 255
-4.447 0.352023 6.95993 0 0 0 95 105 92 255
-4.92508 0.359234 6.2259 0 0 0 33 47 39 255
-4.89399 0.461496 6.27942 0 0 0 119 143 118 255
-4.92556 0.961951 6.4082 0 0 0 107 119 125 255
-4.92195 0.329388 6.19176 0 0 0 102 120 106 255
-4.95539 1.23946 6.37566 0 0 0 118 143 138 255
-4.72394 0.593294 6.60505 0 0 0 13 32 24 255
-1.69377 2.16132 6.76129 0 0 0 53 73 85 255
-2.08279 2.36573 6.25108 0 0 0 45 61 72 255
-1.4021 0.903467 7.13023 0 0 0 29 74 114 255
-4.13529 0.0991974 7.35005 0 0 0 36 48 41 255
-4.79313 0.53515 6.54205 0 0 0 115 131 109 255
-3.43604 1.21474 6.03216 0 0 0 107 118 119 255
-4.91122 0.317538 6.20354 0 0 0 114 130 111 255
-4.79991 0.535577 6.5403 0 0 0 99 112 98 255
-4.72627 0.591191 6.60531 0 0 0 15 34 22 255
-4.89556 1.48589 6.55282 0 0 0 141 154 164 255
-5.12886 1.48586 6.34072 0 0 0 86 115 113 255
-4.88896 0.349771 6.28095 0 0 0 128 146 114 255
-4.92248 0.355519 6.22797 0 0 0 32 46 38 255
-1.71094 2.15869 6.75085 0 0 0 55 74 84 255
-2.07842 2.36439 6.26152 0 0 0 42 58 69 255
-1.66687 2.36219 6.20662 0 0 0 71 79 88 255
-4.94741 0.960299 6.40632 0 0 0 87 99 103 255
-4.90668 0.31971 6.22096 0 0 0 121 138 110 255
-2.06194 2.36125 6.28764 0 0 0 40 57 69 255
-4.45961 0.698777 6.93112 0 0 0 161 176 179 255
-1.22851 2.25159 6.3262 0 0 0 40 45 55 255
-4.81174 0.573023 6.53312 0 0 0 84 96 87 255
-2.1034 1.35917 7.74998 0 0 0 193 204 210 255
-4.73662 0.536454 6.56953 0 0 0 124 141 114 255
-4.88983 0.344451 6.28383 0 0 0 131 150 114 255
-5.04658 2.27551 6.62661 0 0 0 35 52 58 255
-4.64964 0.413348 6.67801 0 0 0 125 141 110 255
-4.9448 0.418341 6.12028 0 0 0 94 106 99 255
-1.23936 2.24544 6.31638 0 0 0 40 45 55 255
-1.42247 2.3937 5.94175 0 0 0 181 197 206 255
-1.28296 2.29351 6.12973 0 0 0 42 50 59 255
-2.0983 2.4135 6.13043 0 0 0 40 54 64 255
-2.09557 2.35189 6.25767 0 0 0 40 54 64 255
-3.98098 0.440436 7.54422 0 0 0 140 152 160 255
-5.04319 2.27897 6.62656 0 0 0 50 67 73 255
-1.74362 2.14028 6.7282 0 0 0 47 66 74 255
-4.75513 0.528122 6.59042 0 0 0 133 151 120 255
-2.83254 1.52763 5.76181 0 0 0 132 151 161 255
-1.73033 2.21522 6.60867 0 0 0 49 60 71 255
-1.86887 2.39229 6.02844 0 0 0 186 202 211 255
-1.55226 2.16484 6.42498 0 0 0 187 201 211 255
-1.62588 2.17071 6.74128 0 0 0 182 198 211 255
-2.08 2.34917 6.27501 0 0 0 38 54 64 255
-1.74758 2.41575 5.56772 0 0 0 188 203 212 255
-1.75768 2.45801 6.0796 0 0 0 41 54 64 255
-2.33 2.4281 5.92776 0 0 0 180 196 205 255
-2.25465 2.52567 5.94347 0 0 0 177 200 207 255
-4.75379 0.538247 6.55364 0 0 0 134 152 118 255
-0.919613 1.15089 7.89939 0 0 0 164 165 168 255
-1.33676 1.05758 7.26779 0 0 0 11 78 124 255
-4.87312 1.46518 6.50763 0 0 0 164 175 186 255
-2.43046 1.26377 6.81464 0 0 0 191 205 210 255
-2.00362 2.49803 5.85436 0 0 0 39 50 61 255
-1.53477 2.45078 5.78889 0 0 0 186 207 214 255
-1.66827 2.3953 5.71664 0 0 0 38 47 55 255
-2.16219 2.4979 6.02148 0 0 0 35 49 59 255
-4.77252 0.899932 6.58962 0 0 0 160 170 178 255
-2.1788 2.35593 6.11186 0 0 0 179 199 206 255
-1.76717 2.3129 6.15964 0 0 0 183 202 212 255
-1.37435 2.31637 6.57752 0 0 0 177 200 209 255
-1.77859 2.26412 6.49401 0 0 0 42 58 69 255
-1.33415 1.052 7.25226 0 0 0 12 73 110 255
-4.33376 0.65379 7.22763 0 0 0 120 137 143 255
-1.80157 0.984877 7.15582 0 0 0 6 63 110 255
-1.90091 0.857848 7.17591 0 0 0 120 141 150 255
-1.15668 1.28715 7.56127 0 0 0 28 87 120 255
-1.33183 0.950471 7.17649 0 0 0 130 152 168 255
-2.78873 1.54792 5.76765 0 0 0 172 188 199 255
-1.7567 0.691399 7.08742 0 0 0 121 154 171 255
-2.4679 1.91208 6.19583 0 0 0 111 153 167 255
-1.05139 2.12631 7.40994 0 0 0 59 51 62 255
-1.95743 0.727155 7.23712 0 0 0 84 113 142 255
-1.96341 1.40796 7.64922 0 0 0 28 75 108 255
-1.33448 1.39886 7.30498 0 0 0 24 79 122 255
-1.70689 0.801716 7.0759 0 0 0 58 83 97 255
-3.21278 -0.375593 7.53855 0 0 0 168 157 154 255
-4.81677 0.72309 6.40357 0 0 0 86 96 104 255
-1.9543 0.709689 7.2644 0 0 0 88 127 186 255
-2.68741 -0.405436 7.77643 0 0 0 130 127 131 255
-2.52634 -0.410717 7.83362 0 0 0 146 144 145 255
-2.69944 -0.383966 7.77329 0 0 0 131 128 132 255
-5.34271 0.141917 6.019 0 0 0 119 127 134 255
-1.54498 1.20125 7.18869 0 0 0 37 115 132 255
-1.89926 -0.530497 8.03224 0 0 0 119 116 120 255
-1.81432 -0.539113 8.07199 0 0 0 124 125 128 255
-1.52674 0.79476 7.0687 0 0 0 86 104 119 255
-1.98249 -0.513318 8.00975 0 0 0 136 135 140 255
-1.20764 -0.656745 8.32387 0 0 0 52 34 28 255
-2.99349 1.0558 6.11337 0 0 0 197 161 171 255
-4.66894 0.6177 6.58765 0 0 0 23 31 38 255
-1.99363 -0.49161 8.02744 0 0 0 125 125 133 255
-4.06689 -0.214384 7.47523 0 0 0 100 111 110 255
-1.68144 -0.735441 8.11056 0 0 0 102 96 91 255
-3.02749 1.10135 6.0178 0 0 0 73 78 79 255
-4.30074 1.73731 7.43137 0 0 0 142 156 170 255
-1.4768 0.381285 6.94659 0 0 0 138 160 184 255
-2.61948 -0.570585 7.77239 0 0 0 103 99 93 255
-2.61166 -0.421072 7.79251 0 0 0 113 113 113 255
-2.5361 -0.429399 7.82644 0 0 0 114 114 114 255
-3.69186 1.52276 8.19644 0 0 0 82 99 104 255
-1.82096 0.409931 7.03543 0 0 0 67 91 122 255
-4.03908 -0.281662 7.47172 0 0 0 115 125 119 255
-4.47522 0.499965 6.87741 0 0 0 126 136 144 255
-2.61352 -0.383126 7.79717 0 0 0 116 111 115 255
-4.28335 1.71219 7.45155 0 0 0 41 57 68 255
-4.26357 1.71261 7.44843 0 0 0 141 157 168 255
-2.85795 -0.358445 7.71989 0 0 0 131 133 139 255
-1.48419 0.357538 6.95866 0 0 0 49 76 107 255
-2.76192 -0.398853 7.75318 0 0 0 111 110 113 255
-2.51389 -0.432383 7.83994 0 0 0 110 110 109 255
-2.84649 -0.382305 7.72722 0 0 0 103 104 109 255
-2.61157 -0.63 7.73221 0 0 0 99 92 90 255
-2.53689 -0.58555 7.83008 0 0 0 104 100 92 255
-5.27226 1.18002 6.34249 0 0 0 123 130 132 255
-2.45264 -0.594319 7.80699 0 0 0 93 88 87 255
-1.57674 1.17962 7.18656 0 0 0 132 179 213 255
-4.53626 0.510587 6.902 0 0 0 144 154 162 255
-5.07615 -0.287093 6.05141 0 0 0 114 125 124 255
-3.20363 1.20466 5.93961 0 0 0 150 175 172 255
-1.9124 -0.4977 8.03807 0 0 0 127 124 128 255
-2.38534 -0.443412 7.87356 0 0 0 127 124 128 255
-5.31809 0.691897 6.22469 0 0 0 104 114 122 255
-1.69855 0.131336 6.88754 0 0 0 121 151 178 255
-4.55263 -0.383973 6.61712 0 0 0 140 161 133 255
-4.01945 -0.29805 7.45549 0 0 0 115 127 107 255
-4.42908 -0.0178907 6.85207 0 0 0 118 132 119 255
-1.87519 -0.749301 8.037 0 0 0 104 98 93 255
-1.88389 0.320593 7.04162 0 0 0 22 51 83 255
-3.14221 1.20634 5.94158 0 0 0 149 154 153 255
-4.4987 0.536195 6.82077 0 0 0 123 132 143 255
-4.27052 0.226133 7.05262 0 0 0 119 136 128 255
-2.44773 -0.44864 7.86272 0 0 0 129 127 128 255
-2.99711 1.13905 5.96576 0 0 0 88 122 129 255
-4.85555 0.700807 6.41874 0 0 0 122 134 140 255
-4.98065 0.348182 6.16952 0 0 0 126 146 145 255
-2.62242 -0.56095 7.68304 0 0 0 115 111 105 255
-4.02991 -0.231959 7.49717 0 0 0 85 102 97 255
-4.78314 0.699862 6.46829 0 0 0 105 115 121 255
-1.84243 0.515259 7.06617 0 0 0 91 159 200 255
-1.66001 -0.535497 8.11968 0 0 0 136 137 142 255
-3.21163 -0.384557 7.53362 0 0 0 170 159 156 255
-4.46993 0.034939 6.87775 0 0 0 91 102 87 255
-1.73776 1.04197 7.17172 0 0 0 75 135 168 255
-1.7908 1.99291 7.02151 0 0 0 116 136 148 255
-2.69502 -0.386848 7.77554 0 0 0 126 123 127 255
-0.620404 1.28625 8.64809 0 0 0 97 95 106 255
-3.69808 1.52822 8.20261 0 0 0 72 88 94 255
-1.54887 1.20114 7.18839 0 0 0 48 128 153 255
-2.4849 1.9209 6.1149 0 0 0 106 129 134 255
-4.58224 -0.394504 6.62816 0 0 0 124 149 111 255
-1.9824 -0.515378 8.01865 0 0 0 116 113 117 255
-3.00504 1.05513 6.09986 0 0 0 144 101 115 255
-2.7874 -0.354604 7.7124 0 0 0 118 121 123 255
-1.23589 -0.659889 8.30589 0 0 0 68 61 61 255
-2.7704 -0.392577 7.75252 0 0 0 113 111 115 255
-1.22153 -0.698036 8.30031 0 0 0 167 161 156 255
-2.61604 -0.417211 7.79171 0 0 0 80 80 79 255
-1.87862 0.745079 7.16217 0 0 0 54 79 102 255
-4.42738 -0.024695 6.8513 0 0 0 131 147 126 255
-4.06204 -0.208584 7.44723 0 0 0 100 111 110 255
-4.04292 -0.290554 7.46842 0 0 0 99 109 103 255
-1.41379 0.374719 6.9497 0 0 0 127 155 183 255
-2.61757 -0.382086 7.79608 0 0 0 75 70 74 255
-1.81069 -0.530948 8.0718 0 0 0 124 125 128 255
-1.61598 1.1853 7.17481 0 0 0 67 109 139 255
-4.50042 0.103703 6.82669 0 0 0 92 103 95 255
-1.49224 0.351916 6.93971 0 0 0 126 140 148 255
-1.48013 0.385315 6.94675 0 0 0 154 170 181 255
-1.82037 0.417824 7.03714 0 0 0 67 91 122 255
-1.99586 -0.489344 8.02722 0 0 0 59 59 67 255
-4.2039 -0.515635 7.22067 0 0 0 42 63 40 255
-6.00134 1.43818 7.74595 0 0 0 86 96 101 255
-4.98096 0.350699 6.17509 0 0 0 126 146 145 255
-1.28512 0.349063 7.08409 0 0 0 40 99 128 255
-3.20968 1.21583 5.91658 0 0 0 148 170 170 255
-3.0948 1.13172 5.96373 0 0 0 141 136 138 255
-4.05482 -0.210375 7.44696 0 0 0 100 111 110 255
-1.5656 2.04597 6.87554 0 0 0 107 127 139 255
-5.05158 -0.290141 6.06123 0 0 0 134 151 141 255
-4.46773 0.0276594 6.8732 0 0 0 56 66 60 255
-3.87989 0.355245 7.70384 0 0 0 113 125 130 255
-4.4298 -0.0332294 6.85205 0 0 0 118 133 115 255
-5.07888 -0.286801 6.04905 0 0 0 79 90 89 255
-1.23778 -0.648081 8.30229 0 0 0 36 29 29 255
-3.2117 -0.386475 7.5325 0 0 0 170 159 160 255
-5.00276 0.154161 6.18991 0 0 0 136 156 140 255
-2.46191 -0.445434 7.85907 0 0 0 51 49 50 255
-2.69727 -0.394018 7.77366 0 0 0 126 123 127 255
-3.70304 1.53042 8.21518 0 0 0 48 61 68 255
-2.77334 -0.387612 7.75051 0 0 0 119 120 123 255
-1.2119 -0.698731 8.32864 0 0 0 167 161 156 255
-4.22162 -0.514061 7.26322 0 0 0 69 91 65 255
-2.77687 -0.357851 7.71616 0 0 0 96 100 102 255
-1.61647 0.931563 7.05936 0 0 0 105 123 139 255
-1.31392 0.34087 7.01291 0 0 0 40 99 128 255
-1.62114 0.986622 7.04905 0 0 0 112 135 147 255
-4.86576 1.39975 6.55035 0 0 0 101 122 129 255
-4.08869 -0.480825 7.17994 0 0 0 49 67 58 255
-5.6597 1.79774 7.30504 0 0 0 59 76 80 255
-4.45616 -0.0464534 6.86069 0 0 0 119 133 112 255
-1.81542 -0.535872 8.07082 0 0 0 111 112 115 255
-1.70116 0.111846 6.91202 0 0 0 133 146 174 255
-1.33774 0.202625 7.09685 0 0 0 48 110 157 255
-4.02654 -0.181191 7.43462 0 0 0 106 119 115 255
-4.49649 0.0938079 6.83848 0 0 0 108 119 108 255
-2.54234 -0.422391 7.82244 0 0 0 86 86 85 255
-4.53193 -0.367924 6.61991 0 0 0 50 69 51 255
-1.23132 -0.701072 8.28666 0 0 0 169 163 158 255
-1.79434 1.99242 7.02367 0 0 0 145 165 177 255
-4.492 0.115536 6.8465 0 0 0 103 115 104 255
-3.2054 -0.387333 7.56286 0 0 0 170 159 160 255
-5.00618 0.156715 6.18645 0 0 0 131 151 137 255
-4.47036 0.0363843 6.87856 0 0 0 91 102 87 255
-1.76649 0.677789 7.09652 0 0 0 104 146 185 255
-3.20121 -0.339739 7.55569 0 0 0 32 16 8 255
-3.70049 1.53863 8.17227 0 0 0 106 123 129 255
-1.15981 -0.0195122 7.09812 0 0 0 163 182 200 255
-1.22219 -0.647829 8.32952 0 0 0 36 29 29 255
-4.02084 -0.18079 7.43251 0 0 0 113 127 123 255
-2.62304 -0.390839 7.7923 0 0 0 79 78 79 255
-2.69775 -0.384957 7.77446 0 0 0 126 123 127 255
-4.64403 0.371096 6.7579 0 0 0 105 123 108 255
-4.4072 0.354981 6.98926 0 0 0 86 106 90 255
-4.73105 0.246018 6.56677 0 0 0 134 159 132 255
-2.37881 -0.44905 7.87735 0 0 0 110 107 111 255
-4.456 -0.0510901 6.86097 0 0 0 119 133 112 255
-4.3557 0.29544 6.93264 0 0 0 117 137 113 255
-2.86202 -0.37292 7.71612 0 0 0 84 85 90 255
-4.6909 0.604316 6.57355 0 0 0 79 93 95 255
-4.29222 0.156768 7.13254 0 0 0 128 148 128 255
-2.48636 1.91438 6.11438 0 0 0 111 135 140 255
-1.33804 0.205293 7.09612 0 0 0 48 110 157 255
-4.08388 -0.486994 7.18443 0 0 0 49 67 58 255
-1.27709 0.336137 7.03753 0 0 0 142 174 202 255
-4.22144 -0.520367 7.22427 0 0 0 110 133 98 255
-4.07423 -0.217684 7.45244 0 0 0 68 79 78 255
-2.81705 1.57828 5.80905 0 0 0 102 128 147 255
-4.43038 -0.0555978 6.85356 0 0 0 143 161 128 255
-3.20643 -0.396019 7.52762 0 0 0 170 158 160 255
-3.70391 1.53844 8.19279 0 0 0 96 109 116 255
-3.89287 0.369816 7.70705 0 0 0 124 136 142 255
-4.4799 0.104593 6.85801 0 0 0 115 129 110 255
-4.38094 0.0243586 6.92621 0 0 0 147 166 136 255
-4.98849 0.265048 6.16472 0 0 0 153 172 153 255
-4.89581 0.300101 6.2732 0 0 0 141 162 142 255
-4.9994 0.231092 6.20552 0 0 0 154 173 161 255
-1.26787 -0.633909 8.21252 0 0 0 36 31 34 255
-1.12799 -0.0412492 7.14734 0 0 0 161 179 196 255
-5.00633 0.143438 6.16989 0 0 0 151 167 154 255
-0.846076 -0.262566 7.84518 0 0 0 194 215 224 255
-4.46741 0.0310959 6.87644 0 0 0 56 66 60 255
-4.64403 0.377903 6.74052 0 0 0 118 137 119 255
-1.41269 -0.476303 7.81483 0 0 0 36 32 36 255
-2.48505 1.91316 6.12005 0 0 0 111 135 140 255
-1.20781 -0.717965 8.31413 0 0 0 170 164 159 255
-1.96039 0.842994 7.23422 0 0 0 127 162 186 255
-4.74229 0.240342 6.56672 0 0 0 129 153 125 255
-4.23388 0.0782554 7.23674 0 0 0 112 128 107 255
-1.54379 0.640573 7.06167 0 0 0 82 115 161 255
-2.70389 -0.404211 7.76966 0 0 0 42 39 43 255
-2.6144 -0.412672 7.79319 0 0 0 80 80 79 255
-4.89418 0.405715 6.33672 0 0 0 65 86 76 255
-4.35027 0.323083 6.96495 0 0 0 132 153 130 255
-4.91432 0.597439 6.2206 0 0 0 32 52 46 255
-4.17149 0.141261 7.3336 0 0 0 20 32 27 255
-4.72761 0.589532 6.49758 0 0 0 22 42 26 255
-1.70344 0.110049 6.90375 0 0 0 125 139 169 255
-4.07073 -0.221223 7.46236 0 0 0 68 79 78 255
-4.9312 0.241676 6.24526 0 0 0 149 174 147 255
-2.50329 1.47029 6.0452 0 0 0 28 67 86 255
-3.41571 1.18799 6.01031 0 0 0 167 175 180 255
-4.83027 0.357533 6.33291 0 0 0 58 79 61 255
-4.79161 1.28589 6.66821 0 0 0 80 102 114 255
-3.19003 -0.392494 7.55144 0 0 0 171 162 161 255
-1.7671 -0.386373 7.90391 0 0 0 203 217 227 255
-1.9032 -0.339809 7.75051 0 0 0 111 116 120 255
-1.73652 1.01432 7.15511 0 0 0 121 167 190 255
-3.20693 -0.330055 7.60149 0 0 0 45 23 15 255
-4.89237 0.314194 6.28754 0 0 0 149 169 144 255
-1.08835 1.53478 7.71393 0 0 0 136 191 216 255
-1.57291 1.03078 7.0771 0 0 0 160 184 199 255
-4.47968 0.0941102 6.85426 0 0 0 116 130 111 255
-4.98928 0.251597 6.1797 0 0 0 152 173 150 255
-4.96849 0.561001 6.23368 0 0 0 125 138 133 255
-1.2141 -0.0227957 7.02559 0 0 0 170 192 210 255
-0.882621 -0.248846 7.78054 0 0 0 204 227 236 255
-3.72148 1.55479 8.21035 0 0 0 112 127 134 255
-4.13866 0.176188 7.31904 0 0 0 126 148 111 255
-1.86763 0.0698264 6.94128 0 0 0 0 66 116 255
-5.07685 1.46758 6.28675 0 0 0 114 157 159 255
-1.87227 0.902943 7.1669 0 0 0 152 167 181 255
-3.99117 -0.000740145 7.61194 0 0 0 109 128 106 255
-2.48636 1.91491 6.11434 0 0 0 111 135 140 255
-4.76757 0.423258 6.30861 0 0 0 36 50 51 255
-4.41609 -0.0721012 6.8395 0 0 0 149 169 124 255
-4.80333 0.367323 6.31582 0 0 0 64 83 73 255
-4.93101 0.616122 6.22463 0 0 0 16 35 26 255
-4.40451 0.194286 6.93691 0 0 0 145 164 130 255
-3.96248 0.0599859 7.51249 0 0 0 101 128 89 255
-5.00962 0.427428 6.31639 0 0 0 114 131 126 255
-4.40448 0.0409383 6.93983 0 0 0 150 170 126 255
-4.87976 0.405911 6.32873 0 0 0 51 69 66 255
-4.27919 0.1272 7.11479 0 0 0 123 143 116 255
-4.73069 0.589589 6.49663 0 0 0 30 50 34 255
-4.99269 0.130447 6.12435 0 0 0 156 176 158 255
-1.03259 1.49262 7.79016 0 0 0 92 129 157 255
-4.94532 0.358074 6.20965 0 0 0 42 63 59 255
-1.50347 1.01317 7.1254 0 0 0 160 183 194 255
-4.901 0.634118 6.25617 0 0 0 78 94 92 255
-4.23853 0.0967087 7.20173 0 0 0 107 123 104 255
-4.92891 1.46176 6.37013 0 0 0 88 119 113 255
-4.94329 0.228596 6.22397 0 0 0 153 176 154 255
-3.89631 0.382488 7.70149 0 0 0 129 142 147 255
-4.18479 0.555336 7.39834 0 0 0 91 107 117 255
-1.74156 0.992748 7.15103 0 0 0 57 113 154 255
-4.01275 0.525158 7.35859 0 0 0 113 138 148 255
-4.41422 -0.0819414 6.83021 0 0 0 150 170 125 255
-4.964 0.546171 6.2318 0 0 0 134 160 135 255
-4.98167 0.114245 6.13739 0 0 0 157 180 152 255
-4.40158 0.0523371 6.95205 0 0 0 146 170 121 255
-4.46728 0.0895144 6.85057 0 0 0 141 156 128 255
-4.0053 -0.0069191 7.67579 0 0 0 107 126 104 255
-1.74997 2.23868 6.76771 0 0 0 199 222 234 255
-1.72692 2.13217 6.7723 0 0 0 44 62 75 255
-4.17846 0.091304 7.31391 0 0 0 23 36 24 255
-1.87744 0.0728446 6.9564 0 0 0 0 59 110 255
-4.99942 0.238636 6.20335 0 0 0 151 172 154 255
-2.5049 1.9045 6.11974 0 0 0 90 124 138 255
-1.51524 1.0185 7.13311 0 0 0 163 185 194 255
-4.39458 0.18605 6.88533 0 0 0 147 167 126 255
-1.38677 1.98939 6.95059 0 0 0 79 83 92 255
-2.77704 1.58493 5.79384 0 0 0 177 199 213 255
-4.74795 0.246753 6.55875 0 0 0 145 169 138 255
-2.8384 1.58854 5.81277 0 0 0 63 90 108 255
-5.06869 1.47374 6.27906 0 0 0 119 159 162 255
-4.1527 0.200792 7.31125 0 0 0 106 123 115 255
-4.93077 1.46439 6.36227 0 0 0 88 119 113 255
-4.89175 0.318144 6.28436 0 0 0 150 170 143 255
-4.45687 0.25964 6.95395 0 0 0 29 41 42 255
-1.81248 0.202354 6.97976 0 0 0 93 135 156 255
-4.9362 0.347346 6.20254 0 0 0 46 68 62 255
-1.0421 1.49134 7.7797 0 0 0 92 129 157 255
-4.7483 0.356411 6.34759 0 0 0 156 175 133 255
-4.40701 0.308177 6.98949 0 0 0 123 143 119 255
-3.70593 1.54821 8.17278 0 0 0 127 142 149 255
-5.01242 0.43071 6.32644 0 0 0 129 143 137 255
-1.90169 0.884277 7.19291 0 0 0 155 169 182 255
-4.75539 0.605887 6.4862 0 0 0 21 36 24 255
-4.93993 0.612678 6.21763 0 0 0 24 43 34 255
-1.52303 0.963826 7.11302 0 0 0 159 179 191 255
-4.85234 0.134831 6.31391 0 0 0 152 181 137 255
-1.96834 0.715715 7.26027 0 0 0 9 57 101 255
-5.05048 1.23716 6.39642 0 0 0 103 124 124 255
-4.24714 0.102196 7.19192 0 0 0 108 124 103 255
-4.76497 0.257048 6.52435 0 0 0 150 174 134 255
-4.45271 0.0720844 6.85311 0 0 0 146 162 129 255
-1.94652 0.808596 7.23932 0 0 0 141 158 171 255
-3.68399 1.60056 8.22657 0 0 0 127 148 155 255
-1.72575 2.12779 6.77563 0 0 0 44 62 75 255
-4.00964 0.0123968 7.65908 0 0 0 117 140 107 255
-1.87746 0.0676244 6.95631 0 0 0 0 64 115 255
-2.75721 1.55281 5.80162 0 0 0 178 202 220 255
-4.93618 0.608147 6.22067 0 0 0 37 58 47 255
-4.16621 0.0387678 7.41773 0 0 0 19 27 34 255
-4.31911 0.0217734 7.30192 0 0 0 33 49 47 255
-4.02816 0.57432 7.4251 0 0 0 106 136 145 255
-4.7989 0.172461 6.55865 0 0 0 62 83 81 255
-4.12508 0.183194 7.32653 0 0 0 133 155 119 255
-4.46393 0.221653 6.94048 0 0 0 22 34 37 255
-4.82222 0.387842 6.31065 0 0 0 30 47 51 255
-4.72925 0.60064 6.4937 0 0 0 19 35 28 255
-4.37974 0.169819 6.78907 0 0 0 149 172 124 255
-4.40701 0.308177 6.98949 0 0 0 123 143 119 255
-4.89367 0.203904 6.26225 0 0 0 85 105 89 255
-2.83351 1.58077 5.81697 0 0 0 78 110 136 255
-4.88367 0.306049 6.32157 0 0 0 148 168 141 255
-4.65957 0.389064 6.70124 0 0 0 117 137 120 255
-4.76022 0.544135 6.50798 0 0 0 148 169 141 255
-4.46884 0.809647 7.05577 0 0 0 171 196 207 255
-4.32791 0.680025 7.13419 0 0 0 141 163 167 255
-1.84988 0.126904 6.94082 0 0 0 0 66 122 255
-1.53429 1.00639 7.11501 0 0 0 160 181 188 255
-4.91677 1.46412 6.36065 0 0 0 50 76 72 255
-2.01259 1.39794 7.54715 0 0 0 48 89 119 255
-2.48736 1.49493 6.06114 0 0 0 21 53 67 255
-4.85856 0.113763 6.34194 0 0 0 152 182 135 255
-1.46517 0.211868 6.99272 0 0 0 0 75 134 255
-2.40988 1.69659 6.39742 0 0 0 114 152 157 255
-1.82385 0.218394 7.00433 0 0 0 140 156 163 255
-1.60369 0.188261 6.96525 0 0 0 70 100 120 255
-1.67855 1.23804 7.20152 0 0 0 21 111 131 255
-3.27336 -1.47067 7.29124 0 0 0 101 103 109 255
-2.0384 1.27496 7.85835 0 0 0 221 241 253 255
-1.69454 1.19943 7.20168 0 0 0 157 204 223 255
-1.65575 1.18178 7.19618 0 0 0 57 111 155 255
-4.20739 0.354916 7.22565 0 0 0 114 124 142 255
-4.24264 0.316233 7.2861 0 0 0 114 125 138 255
-0.42675 1.70313 7.73594 0 0 0 77 81 93 255
-4.05785 -0.829356 7.37221 0 0 0 153 171 154 255
-3.84028 -1.22077 7.51701 0 0 0 182 202 212 255
-1.86908 0.808585 7.16417 0 0 0 64 93 111 255
-4.23238 -1.33501 8.06603 0 0 0 58 80 93 255
-4.46799 0.689679 7.11973 0 0 0 164 186 198 255
-1.58365 1.24436 7.1927 0 0 0 50 129 162 255
-1.56994 0.933057 7.09617 0 0 0 77 105 124 255
-1.64359 0.944262 7.15151 0 0 0 73 96 132 255
-1.57141 0.990695 7.10012 0 0 0 74 100 118 255
-1.66178 1.00207 7.14449 0 0 0 89 118 135 255
-3.83364 -1.48686 7.4909 0 0 0 95 116 126 255
-1.97501 -1.23253 7.83873 0 0 0 135 122 119 255
-2.06209 -1.20693 7.79465 0 0 0 129 125 119 255
-0.166039 1.43958 8.32933 0 0 0 139 178 197 255
-1.64379 -0.726072 8.06581 0 0 0 130 129 122 255
-0.362861 1.63963 7.80903 0 0 0 77 80 96 255
-1.17401 0.490854 7.19321 0 0 0 140 194 235 255
-4.395 0.433337 7.10541 0 0 0 114 128 142 255
-1.56668 1.15821 7.19092 0 0 0 51 122 167 255
-4.43813 0.474805 7.06821 0 0 0 19 39 53 255
-4.68802 1.12639 5.95499 0 0 0 120 151 162 255
-4.42071 0.458167 7.08134 0 0 0 123 141 156 255
-1.64072 -0.766535 8.06644 0 0 0 127 126 119 255
-4.75918 0.220338 6.42487 0 0 0 59 88 78 255
-1.74024 1.18709 7.21018 0 0 0 163 207 240 255
-4.19505 0.340389 7.28399 0 0 0 17 27 43 255
-4.33812 0.430662 7.16644 0 0 0 130 144 158 255
-4.68383 -0.0121681 6.52265 0 0 0 44 75 49 255
-2.88876 1.03158 6.35109 0 0 0 27 62 83 255
-2.83807 1.06812 6.4668 0 0 0 37 74 97 255
-2.82522 -0.551637 7.68458 0 0 0 110 113 105 255
-1.30497 0.204298 6.98715 0 0 0 15 103 153 255
-4.31779 0.423071 7.22432 0 0 0 115 130 144 255
-1.17004 0.201691 7.14412 0 0 0 134 183 217 255
-4.09011 0.783714 7.5458 0 0 0 176 202 215 255
-1.73962 -1.36814 7.89761 0 0 0 126 116 115 255
-3.86499 0.355312 7.88833 0 0 0 133 154 161 255
-3.28091 -1.46531 7.28544 0 0 0 100 96 103 255
-3.83601 -1.48139 7.49126 0 0 0 161 183 195 255
-1.69206 1.20705 7.19965 0 0 0 157 204 223 255
-1.5842 0.99267 7.09692 0 0 0 55 83 104 255
-2.85531 1.04889 6.39822 0 0 0 38 72 95 255
-2.87937 1.03063 6.36811 0 0 0 53 88 108 255
-1.74502 1.18108 7.2128 0 0 0 158 202 230 255
-3.5713 -1.43088 7.20214 0 0 0 109 108 113 255
-1.643 0.948935 7.154 0 0 0 73 96 132 255
-4.15028 0.11863 7.33062 0 0 0 41 64 54 255
-1.57147 0.934367 7.09692 0 0 0 76 105 123 255
-3.84028 -1.22077 7.51701 0 0 0 182 202 212 255
-4.10456 0.260543 7.48026 0 0 0 81 97 107 255
-4.24021 -1.34442 8.0663 0 0 0 52 74 88 255
-1.99564 -1.23368 7.82318 0 0 0 122 111 108 255
-1.87723 0.801353 7.17181 0 0 0 87 116 136 255
-4.40861 0.349294 7.10796 0 0 0 80 106 82 255
-1.66592 1.0033 7.13415 0 0 0 89 118 135 255
-1.51137 0.709264 7.045 0 0 0 106 135 151 255
-1.68182 1.23029 7.20083 0 0 0 53 93 128 255
-1.52765 1.17047 7.18621 0 0 0 155 209 224 255
-4.76022 0.223356 6.41449 0 0 0 66 95 85 255
-4.68901 -0.00741448 6.5144 0 0 0 63 94 68 255
-1.18736 0.487393 7.17278 0 0 0 74 160 197 255
-4.06414 -0.826402 7.37406 0 0 0 151 169 152 255
-2.63474 -1.14148 7.5684 0 0 0 190 188 184 255
-4.21575 0.35511 7.26763 0 0 0 47 57 74 255
-0.98044 1.04167 7.77294 0 0 0 163 188 220 255
-1.64695 -0.752918 8.07498 0 0 0 112 113 105 255
-2.19805 -1.30465 7.74649 0 0 0 200 189 188 255
-4.3422 0.422696 7.159 0 0 0 109 123 135 255
-2.06875 -1.20671 7.79229 0 0 0 139 135 129 255
-2.03818 1.27292 7.85867 0 0 0 193 212 224 255
-2.82127 -0.552699 7.65993 0 0 0 106 109 101 255
-3.2913 -1.46677 7.30085 0 0 0 74 68 75 255
-1.88123 0.797538 7.17479 0 0 0 148 176 198 255
-1.64338 1.00114 7.16017 0 0 0 131 157 176 255
-1.57959 0.928167 7.09785 0 0 0 153 182 200 255
-1.64016 0.941446 7.15064 0 0 0 148 176 181 255
-1.0017 0.377243 7.57155 0 0 0 55 152 197 255
-3.84509 -1.2244 7.52232 0 0 0 188 210 222 255
-4.24283 -1.34494 8.06764 0 0 0 62 84 98 255
-1.5922 0.995263 7.10285 0 0 0 64 92 113 255
-2.0449 1.27588 7.86365 0 0 0 221 240 249 255
-4.48411 0.697773 7.12939 0 0 0 140 162 174 255
-4.14788 0.114013 7.33226 0 0 0 88 112 101 255
-4.06907 -0.82469 7.37668 0 0 0 142 160 143 255
-4.20467 0.342828 7.23202 0 0 0 108 118 134 255
-1.49191 0.246574 6.91527 0 0 0 41 101 155 255
-1.17822 0.493059 7.20692 0 0 0 74 160 197 255
-2.06317 -1.20905 7.7938 0 0 0 130 126 119 255
-1.31578 0.201171 6.98643 0 0 0 1 105 157 255
-2.83295 -0.559607 7.67613 0 0 0 123 126 118 255
-4.69301 -0.0197458 6.51801 0 0 0 123 154 125 255
-1.5205 0.708694 7.04783 0 0 0 137 169 184 255
-4.5689 1.06741 6.9514 0 0 0 190 217 231 255
-2.51307 -1.27624 7.61421 0 0 0 136 120 118 255
-2.25362 -1.31722 7.70247 0 0 0 137 127 128 255
-3.85428 -1.22657 7.53114 0 0 0 187 212 223 255
-4.25264 -1.34343 8.07136 0 0 0 62 84 98 255
-1.61974 0.850002 7.06824 0 0 0 147 173 192 255
-1.10266 1.32381 7.66386 0 0 0 22 102 134 255
-2.04489 1.27589 7.86371 0 0 0 221 240 249 255
-4.06828 -0.832456 7.37525 0 0 0 94 111 98 255
-0.956327 1.06003 7.83677 0 0 0 164 190 223 255
-1.58194 0.93902 7.10736 0 0 0 72 107 123 255
-1.51693 0.774129 7.06171 0 0 0 109 141 153 255
-3.01907 1.11915 5.95656 0 0 0 196 207 220 255
-1.65993 -0.565661 8.10979 0 0 0 103 105 111 255
-1.49167 0.233624 6.92536 0 0 0 36 97 149 255
-2.49237 1.48229 6.15113 0 0 0 49 115 136 255
-4.60765 1.20062 6.74009 0 0 0 113 142 155 255
-4.06182 -0.828795 7.3736 0 0 0 151 169 152 255
-3.95326 0.0241496 7.69706 0 0 0 108 129 108 255
-3.2534 -0.416507 7.54529 0 0 0 62 47 55 255
-1.35667 0.842277 7.12315 0 0 0 161 216 239 255
-3.84591 -1.23393 7.52026 0 0 0 190 212 224 255
-4.36545 -0.047255 7.06797 0 0 0 51 76 67 255
-4.25211 -1.3505 8.07076 0 0 0 84 107 121 255
-1.1005 1.03856 7.56348 0 0 0 33 114 162 255
-1.38332 2.02041 6.92825 0 0 0 72 83 96 255
-2.30995 1.38737 8.37906 0 0 0 91 99 108 255
-4.8045 0.355289 6.35711 0 0 0 125 152 129 255
-4.43325 0.328979 6.9894 0 0 0 122 146 135 255
-0.965653 1.0313 7.76439 0 0 0 189 198 213 255
-1.76332 0.815862 7.11021 0 0 0 179 193 205 255
-4.77438 0.408727 6.35838 0 0 0 63 88 75 255
-0.9719 0.366252 7.5874 0 0 0 133 179 202 255
-2.03864 1.27543 7.85877 0 0 0 221 240 249 255
-1.48479 0.239465 6.93271 0 0 0 30 95 153 255
-2.08608 1.26454 7.84852 0 0 0 193 196 205 255
-3.19251 -0.41172 7.52048 0 0 0 190 183 186 255
-1.29386 0.191316 7.01629 0 0 0 5 110 158 255
-4.03137 -0.205723 7.50524 0 0 0 123 143 132 255
-2.01192 -0.264818 7.2886 0 0 0 205 219 225 255
-1.03793 -0.192404 7.37459 0 0 0 209 220 233 255
-3.86781 -1.234 7.53555 0 0 0 185 210 221 255
-1.68365 0.695229 7.03947 0 0 0 162 194 219 255
-4.27146 -1.34532 8.0803 0 0 0 74 96 110 255
-4.39441 0.3173 7.12038 0 0 0 144 173 142 255
-1.38432 2.0235 6.92645 0 0 0 72 83 96 255
-2.06743 1.26205 7.83194 0 0 0 217 228 235 255
-4.42322 0.333532 6.99555 0 0 0 136 161 142 255
-2.33841 1.37744 8.27311 0 0 0 100 109 113 255
-4.07479 -0.822529 7.37803 0 0 0 142 160 143 255
-1.23315 -0.735523 8.28472 0 0 0 183 180 176 255
-0.895807 1.09531 7.97807 0 0 0 173 200 241 255
-1.00961 -0.135908 7.43286 0 0 0 208 230 231 255
-4.13751 -0.525974 7.34655 0 0 0 107 135 116 255
-4.19621 0.120952 7.32453 0 0 0 67 91 80 255
-3.19584 -0.423782 7.51815 0 0 0 189 182 184 255
-4.11509 0.491041 7.47179 0 0 0 182 201 220 255
-1.76698 0.811286 7.11997 0 0 0 165 194 218 255
-1.05114 -0.182925 7.38 0 0 0 239 250 255 255
-1.21555 1.04173 7.32198 0 0 0 111 152 180 255
-1.9974 -0.263356 7.28089 0 0 0 211 228 234 255
-0.93315 0.368727 7.64672 0 0 0 160 178 193 255
-1.19778 1.28597 7.48124 0 0 0 52 105 134 255
-4.4752 0.174829 6.96681 0 0 0 40 59 48 255
-1.37329 0.215621 7.03878 0 0 0 42 126 182 255
-1.48035 0.232801 6.92372 0 0 0 2 103 164 255
-1.18881 0.54519 7.26231 0 0 0 138 198 232 255
-2.10243 1.31528 7.97313 0 0 0 222 226 234 255
-4.02487 0.0108962 7.6189 0 0 0 110 128 115 255
-4.10152 -0.802417 7.38663 0 0 0 162 190 155 255
-1.25481 -0.763776 8.23932 0 0 0 185 185 182 255
-1.68202 -0.75457 8.0822 0 0 0 149 150 142 255
-1.23534 -0.725541 8.34 0 0 0 183 183 178 255
-4.1069 -0.582167 7.35693 0 0 0 157 192 146 255
-4.02119 0.438769 7.65036 0 0 0 146 168 179 255
-1.23092 -0.632599 8.36644 0 0 0 48 52 65 255
-4.13428 -0.497617 7.26883 0 0 0 45 68 65 255
-4.05599 -0.493988 7.37489 0 0 0 126 153 123 255
-3.00931 1.25418 5.88297 0 0 0 51 144 147 255
-4.76999 0.349971 6.39495 0 0 0 167 201 162 255
-3.18756 -0.413616 7.53737 0 0 0 189 184 183 255
-2.04416 -0.231877 7.24409 0 0 0 171 181 188 255
-3.73198 1.55597 8.1247 0 0 0 123 153 164 255
-1.34946 1.44129 7.25642 0 0 0 5 102 161 255
-4.52982 0.7477 7.13734 0 0 0 193 225 235 255
-1.2834 1.28246 7.32703 0 0 0 34 109 156 255
-1.85313 0.211223 6.98794 0 0 0 45 99 154 255
-1.29335 0.305299 7.04831 0 0 0 144 169 191 255
-4.40515 -0.0905413 6.85033 0 0 0 167 198 142 255
-1.45208 0.889955 7.11085 0 0 0 58 113 157 255
-1.93879 0.784965 7.23038 0 0 0 154 182 200 255
-2.01605 1.44517 7.64832 0 0 0 145 180 201 255
-2.10099 1.34667 8.04781 0 0 0 232 249 255 255
-4.76094 0.347587 6.42849 0 0 0 166 202 158 255
-4.08884 -0.812409 7.38433 0 0 0 160 187 159 255
-1.67892 -0.761861 8.09295 0 0 0 137 138 130 255
-1.25144 -0.763772 8.29688 0 0 0 182 182 177 255
-2.02808 1.1834 7.98036 0 0 0 128 104 109 255
-4.1023 -0.589911 7.41677 0 0 0 155 189 140 255
-2.85019 -0.572442 7.67114 0 0 0 136 139 131 255
-2.2787 1.34905 8.37662 0 0 0 89 85 94 255
-4.13766 -0.491229 7.33132 0 0 0 47 70 72 255
-3.67386 1.44695 8.13325 0 0 0 12 27 42 255
-3.16253 -0.423001 7.50738 0 0 0 187 187 182 255
-1.99329 1.42661 7.65088 0 0 0 58 113 140 255
-4.76688 0.18496 6.34715 0 0 0 80 109 107 255
-1.9854 -0.270346 7.29664 0 0 0 218 235 242 255
-3.16786 -0.323432 7.55124 0 0 0 37 35 44 255
-4.49526 -0.358517 6.78893 0 0 0 104 129 113 255
-3.7187 1.55333 8.079 0 0 0 137 167 178 255
-3.9423 0.399342 7.76727 0 0 0 140 161 169 255
-4.39116 -0.0964883 6.83834 0 0 0 169 200 143 255
-4.36637 -0.0465683 7.06761 0 0 0 44 67 62 255
-1.75579 0.723137 7.09197 0 0 0 165 203 218 255
-4.4026 0.162781 7.04009 0 0 0 167 198 144 255
-1.9291 0.784273 7.22281 0 0 0 153 181 199 255
-4.16453 0.0662811 7.30254 0 0 0 24 44 49 255
-1.46717 0.225277 6.92409 0 0 0 12 102 161 255
-2.60206 -0.398409 7.80659 0 0 0 148 151 158 255
-0.778769 -2.33165 10.1207 0 0 0 185 192 206 255
-2.4566 -0.424271 7.8769 0 0 0 143 143 153 255
-1.77612 -1.92751 8.60038 0 0 0 79 81 81 255
-2.36075 -0.452627 7.89367 0 0 0 156 157 162 255
-2.75642 -0.604267 7.70864 0 0 0 64 66 66 255
-2.28088 -0.639077 7.89082 0 0 0 81 83 80 255
-2.33618 -0.67517 7.78599 0 0 0 105 107 104 255
-1.37755 1.00788 7.18155 0 0 0 159 184 227 255
-1.10631 0.990259 7.52384 0 0 0 80 102 140 255
-2.75812 -0.373082 7.77633 0 0 0 159 158 163 255
-2.79658 -0.377596 7.75771 0 0 0 155 156 161 255
-2.676 -0.385239 7.80444 0 0 0 136 135 140 255
-2.68585 -0.618718 7.73341 0 0 0 103 105 105 255
-0.179393 1.56115 8.1397 0 0 0 178 179 202 255
-2.38835 -0.671463 7.77653 0 0 0 120 122 122 255
-1.63082 -1.40886 7.91341 0 0 0 117 108 114 255
-2.5524 -0.646549 7.76239 0 0 0 109 111 108 255
-1.78812 -1.37548 7.86846 0 0 0 194 189 191 255
-1.17544 -2.92454 12.303 0 0 0 189 202 221 255
-2.3329 -0.936673 7.76771 0 0 0 200 195 192 255
-2.51495 -0.667363 7.89352 0 0 0 115 117 114 255
-2.40561 -0.656206 7.81859 0 0 0 110 112 112 255
-2.58668 -0.591608 7.75675 0 0 0 85 87 84 255
-2.71683 -0.603636 7.72229 0 0 0 182 184 184 255
0.129972 1.56348 8.04378 0 0 0 186 209 253 255
-2.4526 -1.274 7.65245 0 0 0 192 185 183 255
-2.74472 1.12415 6.57 0 0 0 201 221 242 255
-0.301533 1.74882 7.72438 0 0 0 169 173 187 255
-0.169806 1.52578 8.23375 0 0 0 51 62 91 255
-4.01923 0.635229 7.78946 0 0 0 165 183 200 255
-1.78958 0.109456 6.92964 0 0 0 101 127 158 255
-2.50156 -1.02461 7.67576 0 0 0 127 127 122 255
0.108987 1.56578 8.07024 0 0 0 98 117 166 255
-2.21325 -1.16091 7.75072 0 0 0 193 186 184 255
-2.63178 -1.2534 7.57205 0 0 0 200 194 191 255
-2.20704 -1.20562 7.74194 0 0 0 200 189 186 255
-1.7054 1.18615 7.2062 0 0 0 74 105 148 255
-3.25312 -0.377477 7.63412 0 0 0 47 33 35 255
-0.386403 1.77075 7.704 0 0 0 83 88 104 255
-2.17712 -0.657905 7.91554 0 0 0 122 124 121 255
-2.31134 -1.17899 7.71913 0 0 0 121 103 105 255
-2.58413 -0.610647 7.75096 0 0 0 84 86 83 255
-2.33305 -1.16932 7.71135 0 0 0 122 112 111 255
-2.42827 -0.813894 7.76862 0 0 0 122 110 109 255
0.106536 1.49057 8.26334 0 0 0 180 197 235 255
-2.87167 -0.541811 7.6878 0 0 0 103 105 100 255
-2.39402 -1.16054 7.68205 0 0 0 128 121 119 255
-2.53108 -0.626535 7.77102 0 0 0 184 186 186 255
-4.17284 0.326801 7.31571 0 0 0 129 137 155 255
-2.40888 -0.628561 7.82671 0 0 0 98 100 100 255
-2.49747 -1.15112 7.66151 0 0 0 119 114 111 255
-2.51845 -1.14399 7.65641 0 0 0 114 109 106 255
-2.84505 -0.595701 7.67158 0 0 0 110 112 109 255
-2.61427 -0.595064 7.76867 0 0 0 189 191 191 255
-2.08902 -0.987055 7.85151 0 0 0 201 196 193 255
-0.159204 1.51324 8.31162 0 0 0 136 156 188 255
-1.20983 -2.87336 12.1107 0 0 0 173 187 206 255
-0.777709 -2.3529 10.187 0 0 0 102 109 123 255
-2.74281 1.12141 6.57222 0 0 0 188 205 224 255
-1.76709 -1.96163 8.69252 0 0 0 113 116 123 255
-0.319639 1.74369 7.73884 0 0 0 194 194 202 255
-1.62666 -1.41699 7.92085 0 0 0 124 118 123 255
-2.54069 -0.624914 7.79301 0 0 0 182 184 181 255
-1.11599 0.99504 7.52171 0 0 0 87 111 149 255
-1.79684 -1.30998 7.87085 0 0 0 190 185 182 255
-4.01841 0.641528 7.79124 0 0 0 165 183 200 255
-1.2149 0.507059 7.15119 0 0 0 66 107 173 255
-0.0107649 1.81336 7.59269 0 0 0 79 93 132 255
-2.72399 -0.615358 7.71424 0 0 0 185 187 187 255
-2.53563 -0.65523 7.77455 0 0 0 186 188 185 255
-0.142472 1.51057 8.32015 0 0 0 148 171 209 255
-2.61417 -0.607405 7.78623 0 0 0 187 189 189 255
-2.76001 -0.604852 7.70608 0 0 0 154 156 156 255
-2.39991 -1.16093 7.68032 0 0 0 116 109 107 255
-2.33579 -0.677748 7.84369 0 0 0 134 136 133 255
0.109905 1.48644 8.26547 0 0 0 141 159 196 255
-2.4999 -1.14769 7.66137 0 0 0 113 107 104 255
0.326104 1.39578 8.42263 0 0 0 195 214 238 255
0.111305 1.56244 8.08368 0 0 0 140 163 204 255
-2.87242 -0.549396 7.6863 0 0 0 164 166 163 255
-0.603952 1.27075 8.69715 0 0 0 146 150 165 255
-1.67895 -1.40886 7.92038 0 0 0 130 120 124 255
-2.2491 -1.10961 7.7625 0 0 0 127 122 119 255
-0.0932163 1.49448 8.34134 0 0 0 162 180 224 255
-2.38778 -1.26677 7.65174 0 0 0 183 172 173 255
-2.2313 -1.06147 7.77684 0 0 0 139 139 134 255
-2.43215 -0.813941 7.76869 0 0 0 123 110 110 255
-2.3328 -0.93841 7.76696 0 0 0 194 189 186 255
-2.46118 -1.26092 7.63455 0 0 0 195 185 184 255
-2.62888 -1.24667 7.57631 0 0 0 200 194 191 255
-2.688 -0.61203 7.73798 0 0 0 135 137 137 255
-2.87422 1.06105 6.62532 0 0 0 143 159 183 255
-2.29993 -0.636346 7.80176 0 0 0 144 146 143 255
0.421585 0.0704818 8.65865 0 0 0 143 162 190 255
-0.812774 -2.32918 10.0992 0 0 0 172 179 193 255
-1.75032 -1.98321 8.74914 0 0 0 87 91 99 255
-1.21856 0.509589 7.1476 0 0 0 62 103 169 255
-2.73935 1.12222 6.56697 0 0 0 188 205 224 255
-0.600519 1.27173 8.68583 0 0 0 146 150 165 255
-1.3689 0.987117 7.18756 0 0 0 186 207 243 255
-1.01767 -3.22116 13.3784 0 0 0 196 217 239 255
-0.319639 1.74369 7.73884 0 0 0 194 194 202 255
-2.75388 -0.602321 7.70783 0 0 0 64 66 66 255
-4.10175 -0.520717 7.39526 0 0 0 112 132 106 255
-1.11902 0.991716 7.5173 0 0 0 125 148 183 255
-0.14548 1.50974 8.31906 0 0 0 140 162 197 255
-0.100706 1.48973 8.3459 0 0 0 154 173 217 255
-1.63602 -1.41561 7.92041 0 0 0 160 154 157 255
-2.72399 -0.615358 7.71424 0 0 0 185 187 187 255
-2.40653 -1.16349 7.67742 0 0 0 125 118 116 255
-1.68432 -1.40859 7.91323 0 0 0 146 136 140 255
-2.59213 -0.605269 7.7833 0 0 0 154 156 153 255
-2.31806 -1.17616 7.71937 0 0 0 128 109 111 255
-2.29796 -0.850495 7.82413 0 0 0 124 117 115 255
0.232192 1.48467 8.24858 0 0 0 66 95 142 255
-0.0935311 1.46219 8.35693 0 0 0 157 171 210 255
-1.79264 -1.3049 7.87277 0 0 0 197 193 190 255
-1.28811 0.0728281 6.96726 0 0 0 85 135 203 255
-2.53087 -0.649562 7.77621 0 0 0 134 136 133 255
-1.7511 -1.97219 8.72084 0 0 0 87 91 99 255
0.152191 1.37727 8.56246 0 0 0 117 127 140 255
-0.0857525 1.66027 7.92241 0 0 0 166 187 217 255
-2.72762 -0.566904 7.73096 0 0 0 103 105 105 255
-0.338491 1.74637 7.738 0 0 0 195 196 201 255
-3.58996 -1.41795 7.23299 0 0 0 88 80 88 255
-4.11367 -0.521771 7.39052 0 0 0 103 123 99 255
-1.23865 0.61562 7.14327 0 0 0 130 146 196 255
-3.90642 0.38339 7.93587 0 0 0 146 157 170 255
-0.14962 1.50592 8.30377 0 0 0 140 162 197 255
-2.7568 -0.600051 7.70988 0 0 0 64 66 66 255
-1.21851 0.508497 7.16454 0 0 0 62 103 169 255
