ply
format ascii 1.0
comment VCGLIB generated
element vertex 1018
property float x
property float y
property float z
property float nx
property float ny
property float nz
property uchar red
property uchar green
property uchar blue
property uchar alpha
element face 0
property list uchar int vertex_indices
end_header
0.56232 0.289793 2.99217 0 0 0 138 181 210 255
-0.205317 1.10536 2.38889 0 0 0 180 202 206 255
0.0111778 1.20229 2.26718 0 0 0 189 205 212 255
-0.00477681 1.12411 2.40462 0 0 0 33 49 58 255
0.838072 1.20803 2.3481 0 0 0 63 85 97 255
0.0117295 1.11904 2.42185 0 0 0 192 210 223 255
-0.0204307 1.189 2.23056 0 0 0 187 208 217 255
1.03216 1.29947 2.20872 0 0 0 67 89 101 255
0.191962 1.20675 2.25826 0 0 0 182 196 208 255
0.164387 1.20634 2.24282 0 0 0 190 208 221 255
-0.378449 1.10086 2.1748 0 0 0 53 71 80 255
-0.19047 1.09913 2.40515 0 0 0 29 50 55 255
0.379913 1.21305 2.26096 0 0 0 187 204 213 255
0.350722 1.20868 2.23671 0 0 0 192 207 217 255
2.14325 0.979569 3.20466 0 0 0 69 97 104 255
1.49552 1.07348 2.75845 0 0 0 185 217 239 255
-0.605588 0.719011 2.57141 0 0 0 189 215 219 255
-0.0237713 1.11474 2.40464 0 0 0 187 207 212 255
0.538772 1.2224 2.25048 0 0 0 183 202 214 255
0.50579 0.369505 2.93049 0 0 0 55 89 126 255
0.581039 1.2306 2.28976 0 0 0 187 203 218 255
-0.274073 1.14381 2.33131 0 0 0 36 53 63 255
-0.0958641 1.16039 2.32602 0 0 0 193 209 220 255
-0.34407 1.15208 2.16487 0 0 0 63 86 95 255
1.05071 0.801801 3.24108 0 0 0 137 166 193 255
-0.161621 1.23571 2.00237 0 0 0 58 77 87 255
0.127896 0.620057 3.1911 0 0 0 176 201 213 255
1.51926 1.07216 2.75804 0 0 0 144 185 210 255
0.559578 1.31003 2.13092 0 0 0 38 57 65 255
0.566443 0.620426 3.26313 0 0 0 163 184 205 255
0.827792 0.664609 3.5294 0 0 0 59 64 70 255
1.65195 1.14896 2.62634 0 0 0 41 145 172 255
0.947118 1.33796 2.16461 0 0 0 45 67 79 255
0.398032 0.447057 2.91215 0 0 0 25 67 106 255
0.948465 1.44564 2.03061 0 0 0 78 103 118 255
-0.267051 0.675011 2.44522 0 0 0 78 85 93 255
-0.19315 1.19427 2.24135 0 0 0 36 50 57 255
1.00138 0.828908 3.16109 0 0 0 128 159 183 255
1.00359 0.845645 3.16192 0 0 0 44 83 109 255
-0.797848 0.0703261 3.22231 0 0 0 105 120 127 255
1.38908 1.28569 2.34434 0 0 0 106 127 134 255
-0.173898 1.10934 2.42119 0 0 0 173 190 196 255
0.277809 1.24275 2.1616 0 0 0 59 73 85 255
0.53404 1.21881 2.24929 0 0 0 199 216 230 255
0.475979 1.35362 2.0381 0 0 0 37 50 66 255
0.0808797 1.30853 2.0113 0 0 0 189 204 217 255
0.259749 1.33397 2.00902 0 0 0 32 42 58 255
0.0711058 1.23406 2.14832 0 0 0 35 50 57 255
0.0964349 1.237 2.17099 0 0 0 47 66 73 255
0.286251 1.33819 2.0331 0 0 0 58 76 86 255
-0.278632 1.06558 2.5104 0 0 0 74 97 105 255
-0.207293 1.10153 2.38673 0 0 0 185 207 212 255
0.354039 1.13964 2.41702 0 0 0 195 214 226 255
-0.273317 1.14421 2.33255 0 0 0 36 53 63 255
0.397716 1.1439 2.4459 0 0 0 188 205 217 255
0.834607 1.20725 2.34934 0 0 0 56 77 88 255
0.0126128 1.11889 2.42329 0 0 0 180 198 211 255
0.775487 1.24814 2.30531 0 0 0 184 206 218 255
0.160746 1.12357 2.40253 0 0 0 192 211 221 255
-0.026968 1.18498 2.22553 0 0 0 188 210 222 255
-0.111206 1.22574 2.15432 0 0 0 45 56 66 255
0.205191 1.13489 2.449 0 0 0 165 181 190 255
0.0109114 1.20117 2.26742 0 0 0 175 194 201 255
-0.0237329 1.1132 2.4048 0 0 0 175 197 201 255
-0.0762457 1.07835 2.51509 0 0 0 59 78 86 255
0.270454 1.25594 2.16213 0 0 0 187 206 218 255
-0.0988822 1.15935 2.32346 0 0 0 182 197 209 255
0.653972 1.3504 2.05422 0 0 0 196 213 222 255
0.163416 1.20226 2.2426 0 0 0 193 212 225 255
0.272482 1.23947 2.17909 0 0 0 197 212 221 255
0.0834907 1.22598 2.16669 0 0 0 189 207 213 255
-0.0940963 1.14416 2.33763 0 0 0 193 205 216 255
-0.111653 1.14857 2.31638 0 0 0 37 45 54 255
0.773464 1.32747 2.14508 0 0 0 193 210 221 255
0.104345 1.16878 2.35219 0 0 0 46 67 74 255
0.0788113 1.16614 2.3351 0 0 0 26 40 47 255
0.541027 1.31019 2.10212 0 0 0 197 216 224 255
0.833366 1.29489 2.21687 0 0 0 49 66 80 255
0.580249 1.31067 2.11642 0 0 0 186 202 213 255
0.380193 1.21186 2.26263 0 0 0 172 191 199 255
0.732577 1.32456 2.12511 0 0 0 200 219 229 255
0.348102 1.28028 2.06408 0 0 0 190 209 217 255
0.288879 1.17191 2.34988 0 0 0 47 64 73 255
0.961817 1.33716 2.1327 0 0 0 188 210 222 255
0.162278 1.27968 2.07109 0 0 0 193 210 225 255
0.194255 1.28302 2.09478 0 0 0 184 202 212 255
0.179346 1.29239 2.08636 0 0 0 26 35 47 255
0.926217 1.34561 2.14862 0 0 0 199 220 229 255
-0.177135 1.18996 2.25956 0 0 0 193 212 220 255
0.623386 1.25298 2.14609 0 0 0 42 63 72 255
0.00723201 1.27667 2.09108 0 0 0 176 192 203 255
0.350485 1.21643 2.25293 0 0 0 195 211 220 255
1.03237 1.38012 2.04707 0 0 0 63 84 93 255
1.03234 1.29672 2.21165 0 0 0 64 85 94 255
0.263775 1.16969 2.33488 0 0 0 33 49 58 255
0.447922 1.17788 2.33591 0 0 0 62 76 87 255
-0.0856031 1.15383 2.33962 0 0 0 67 81 93 255
0.444698 1.25417 2.16216 0 0 0 39 57 66 255
0.47015 1.25497 2.18017 0 0 0 43 62 71 255
0.837357 1.38035 2.05743 0 0 0 46 63 75 255
0.196916 1.20845 2.2626 0 0 0 190 204 216 255
0.644461 1.35858 2.04158 0 0 0 42 56 68 255
0.66883 1.36127 2.04706 0 0 0 55 74 84 255
0.449369 1.34448 2.01587 0 0 0 44 51 65 255
0.630979 1.18957 2.33982 0 0 0 52 73 81 255
0.582302 1.23065 2.2901 0 0 0 187 203 218 255
-0.100873 1.0806 2.50542 0 0 0 33 45 56 255
0.258711 1.24578 2.16224 0 0 0 28 42 49 255
0.657123 1.19169 2.35655 0 0 0 55 78 87 255
0.851885 1.37034 2.08097 0 0 0 201 217 228 255
0.35987 1.29257 2.06586 0 0 0 48 62 72 255
0.509359 0.31685 2.91137 0 0 0 9 72 131 255
1.51189 1.07515 2.75413 0 0 0 185 201 230 255
-0.103228 1.22221 2.16855 0 0 0 180 192 204 255
-0.195346 1.0966 2.39847 0 0 0 20 41 46 255
0.550735 1.23069 2.25054 0 0 0 52 67 79 255
0.180191 1.19658 2.25676 0 0 0 32 46 60 255
-0.698273 0.151081 3.18543 0 0 0 154 170 179 255
-0.189122 1.18012 2.25366 0 0 0 32 54 58 255
-0.000826886 1.19015 2.263 0 0 0 33 49 58 255
-0.00375522 1.20485 2.25011 0 0 0 34 43 54 255
-0.204341 1.18163 2.02407 0 0 0 96 118 123 255
-0.378226 1.10051 2.17614 0 0 0 81 97 106 255
-0.603684 0.715129 2.57007 0 0 0 172 197 203 255
-0.00393317 1.11165 2.42475 0 0 0 29 50 58 255
0.861583 1.29751 2.22751 0 0 0 48 66 76 255
-0.347212 1.15035 2.16597 0 0 0 45 67 76 255
0.750618 1.33569 2.12175 0 0 0 53 67 79 255
0.173477 1.27015 2.08494 0 0 0 36 52 62 255
-0.0077917 1.12329 2.4001 0 0 0 42 60 67 255
-0.206288 1.18475 2.23253 0 0 0 180 206 212 255
-0.090385 1.23572 2.17166 0 0 0 50 65 77 255
0.860011 1.38056 2.07869 0 0 0 117 133 142 255
-0.0249323 1.26602 2.06032 0 0 0 188 211 223 255
-0.281823 1.13428 2.32906 0 0 0 191 207 214 255
0.948034 1.23952 2.2307 0 0 0 132 156 160 255
0.472893 1.17879 2.35353 0 0 0 84 100 111 255
-0.327473 1.08713 2.32249 0 0 0 58 71 86 255
-0.0088511 1.28469 2.0785 0 0 0 36 47 60 255
-0.159689 1.23871 2.00099 0 0 0 58 77 87 255
0.652175 1.25936 2.16219 0 0 0 53 74 83 255
-0.181918 1.03358 2.56059 0 0 0 72 83 94 255
0.755808 1.32086 2.14782 0 0 0 41 62 71 255
0.184742 1.2119 2.24527 0 0 0 40 51 64 255
0.496651 0.332834 2.91119 0 0 0 154 191 207 255
-0.100408 1.24212 2.15986 0 0 0 187 206 216 255
0.200481 1.04992 2.62322 0 0 0 35 54 64 255
-0.0104697 1.26366 2.08793 0 0 0 37 55 65 255
0.195186 1.06107 2.58957 0 0 0 33 45 57 255
0.397055 0.44431 2.91095 0 0 0 59 93 119 255
1.00729 0.846178 3.17001 0 0 0 109 148 174 255
1.38722 1.2802 2.33808 0 0 0 120 139 145 255
0.827934 0.665771 3.51579 0 0 0 109 114 120 255
1.00485 0.825585 3.16608 0 0 0 112 145 168 255
-0.264276 0.671385 2.44363 0 0 0 108 116 123 255
1.65022 1.14746 2.62532 0 0 0 29 141 168 255
1.05071 0.801802 3.24111 0 0 0 137 166 193 255
0.4624 1.51779 1.68524 0 0 0 177 187 191 255
0.0954997 1.16136 2.35319 0 0 0 184 187 194 255
0.45961 1.1732 2.34983 0 0 0 174 184 190 255
0.276406 1.17657 2.33694 0 0 0 178 187 192 255
0.722317 1.2261 2.24932 0 0 0 176 184 191 255
0.27412 1.42122 1.84002 0 0 0 170 181 185 255
0.281888 1.41566 1.84695 0 0 0 24 36 40 255
0.0889747 1.40189 1.84785 0 0 0 34 49 52 255
0.260729 1.4115 1.84455 0 0 0 26 34 39 255
0.568895 1.14753 2.44168 0 0 0 168 180 186 255
0.188808 1.36632 1.92611 0 0 0 169 176 182 255
0.107334 1.08745 2.51829 0 0 0 26 38 42 255
0.378706 1.45978 1.76788 0 0 0 170 181 185 255
0.648496 1.44708 1.87933 0 0 0 45 52 59 255
0.166037 1.36252 1.91544 0 0 0 170 181 185 255
0.0180543 1.04886 2.60628 0 0 0 166 174 179 255
-0.000533162 1.04842 2.59516 0 0 0 169 179 182 255
0.356127 1.46069 1.7601 0 0 0 170 182 186 255
0.455059 1.42965 1.86322 0 0 0 38 46 51 255
0.204751 1.05526 2.60701 0 0 0 172 180 185 255
0.379766 1.38108 1.93698 0 0 0 164 174 178 255
0.183325 1.05501 2.59738 0 0 0 173 183 187 255
0.355533 1.38038 1.93293 0 0 0 175 185 189 255
-0.0994561 1.30967 2.00955 0 0 0 42 52 56 255
0.651297 1.51765 1.68384 0 0 0 79 87 94 255
0.271947 1.40605 1.8524 0 0 0 171 182 186 255
0.576554 1.39565 1.95584 0 0 0 173 183 187 255
0.275637 1.49573 1.68782 0 0 0 56 68 72 255
0.463872 1.51074 1.71049 0 0 0 181 191 195 255
0.452952 1.51413 1.69383 0 0 0 34 42 47 255
0.765555 1.41198 1.96877 0 0 0 172 180 187 255
0.105952 1.01015 2.69833 0 0 0 177 184 189 255
-0.282592 1.14947 2.31858 0 0 0 165 173 178 255
0.473002 1.51603 1.6975 0 0 0 38 48 52 255
0.463208 1.24744 2.18219 0 0 0 178 193 198 255
0.362738 1.54364 1.61213 0 0 0 45 54 59 255
0.560729 1.32542 2.11707 0 0 0 30 40 46 255
0.557424 1.57112 1.63963 0 0 0 57 69 73 255
0.464402 1.43668 1.8512 0 0 0 173 183 187 255
0.475854 1.4316 1.86801 0 0 0 28 36 41 255
0.55126 1.39732 1.94818 0 0 0 162 172 176 255
-0.0876841 1.00277 2.69036 0 0 0 40 57 56 255
0.168037 1.45653 1.79002 0 0 0 60 69 73 255
0.278881 1.40758 1.8554 0 0 0 162 175 179 255
0.667279 1.44798 1.87927 0 0 0 43 52 59 255
-0.021618 1.36659 1.95498 0 0 0 76 91 94 255
-0.0971369 1.07989 2.47896 0 0 0 181 190 192 255
0.550701 1.47752 1.78204 0 0 0 169 179 183 255
0.842041 1.44943 1.86362 0 0 0 57 69 75 255
-0.0867829 1.07543 2.51618 0 0 0 176 183 185 255
0.656517 1.45099 1.86772 0 0 0 181 187 195 255
0.656521 1.44016 1.89289 0 0 0 182 190 197 255
0.460115 1.35678 2.016 0 0 0 171 178 184 255
0.37095 1.38692 1.93082 0 0 0 22 34 38 255
-0.204156 1.26292 2.09708 0 0 0 63 73 77 255
1.51259 1.10192 2.85239 0 0 0 149 169 185 255
0.747775 1.16216 2.43798 0 0 0 51 63 69 255
0.36329 1.46536 1.75461 0 0 0 13 23 27 255
0.75981 1.405 1.98166 0 0 0 41 49 56 255
0.176301 1.37432 1.91583 0 0 0 22 31 36 255
0.754205 1.51043 1.83616 0 0 0 94 106 112 255
0.364279 1.14445 2.41651 0 0 0 27 34 39 255
-0.262577 0.656293 2.44859 0 0 0 171 178 185 255
0.0899092 1.39921 1.84848 0 0 0 38 53 56 255
0.189578 1.36547 1.92766 0 0 0 151 156 162 255
0.162436 1.36019 1.91394 0 0 0 169 179 183 255
0.38152 1.38017 1.93693 0 0 0 143 153 157 255
0.352394 1.37882 1.93121 0 0 0 176 188 192 255
0.719822 1.22569 2.24584 0 0 0 178 186 193 255
0.766387 1.41215 1.96916 0 0 0 172 180 187 255
0.451827 1.51278 1.69436 0 0 0 36 44 49 255
0.35409 1.45848 1.76046 0 0 0 166 180 183 255
0.380984 1.45859 1.77163 0 0 0 151 163 167 255
0.203142 1.05556 2.60519 0 0 0 161 169 174 255
0.571933 1.47456 1.78303 0 0 0 159 169 173 255
0.0186194 1.04886 2.60648 0 0 0 166 174 179 255
0.272661 1.40641 1.85311 0 0 0 171 182 186 255
0.0821511 1.08971 2.50575 0 0 0 25 37 41 255
0.110454 1.0888 2.51781 0 0 0 28 38 42 255
0.284937 1.41394 1.84879 0 0 0 30 43 47 255
0.259298 1.41264 1.84343 0 0 0 23 31 36 255
0.452189 1.43026 1.859 0 0 0 30 38 43 255
0.644585 1.44495 1.87825 0 0 0 36 44 51 255
0.575795 1.39489 1.9559 0 0 0 137 147 151 255
0.841765 1.4483 1.86502 0 0 0 54 66 72 255
-0.288048 1.14758 2.31312 0 0 0 171 179 184 255
0.271225 1.42391 1.83709 0 0 0 177 187 191 255
0.463084 1.51795 1.68562 0 0 0 177 187 191 255
0.0797409 1.23977 2.14263 0 0 0 175 187 191 255
0.0964989 1.16002 2.35561 0 0 0 182 187 193 255
0.276561 1.49373 1.68834 0 0 0 61 73 77 255
0.0870408 1.1581 2.34758 0 0 0 165 170 176 255
0.471721 1.51492 1.69843 0 0 0 46 56 60 255
0.276924 1.17777 2.33628 0 0 0 178 187 192 255
0.64809 1.51686 1.68614 0 0 0 70 78 85 255
0.735852 1.4107 1.96573 0 0 0 180 189 195 255
-0.102822 1.14221 2.32817 0 0 0 173 184 185 255
-0.00384394 1.04815 2.59301 0 0 0 174 184 187 255
-0.0994561 1.30967 2.00955 0 0 0 42 52 56 255
0.545412 1.3968 1.94686 0 0 0 177 187 191 255
0.37225 1.45389 1.77955 0 0 0 24 33 37 255
0.563358 1.32843 2.11847 0 0 0 30 40 46 255
0.75224 1.16263 2.44079 0 0 0 106 118 124 255
0.476831 1.43355 1.86659 0 0 0 28 36 41 255
0.16874 1.45678 1.79022 0 0 0 60 69 73 255
0.362943 1.54244 1.61256 0 0 0 25 34 39 255
0.556244 1.5703 1.63962 0 0 0 35 49 53 255
0.469991 1.42451 1.88061 0 0 0 175 186 190 255
0.463384 1.24573 2.18376 0 0 0 182 196 201 255
0.362521 1.46461 1.75453 0 0 0 93 104 108 255
0.463706 1.43662 1.85107 0 0 0 170 180 184 255
-0.0691374 0.999946 2.68849 0 0 0 63 80 79 255
0.548485 1.47535 1.78234 0 0 0 171 181 185 255
0.667518 1.44685 1.88061 0 0 0 43 51 58 255
0.174828 1.37464 1.91512 0 0 0 26 36 40 255
-0.022123 1.36242 1.95325 0 0 0 36 51 54 255
0.561997 1.38736 1.96059 0 0 0 31 40 45 255
0.368932 0.45438 2.91306 0 0 0 147 156 170 255
-0.203395 1.25982 2.097 0 0 0 29 39 43 255
0.754736 1.50715 1.83608 0 0 0 59 71 77 255
0.759376 1.4035 1.9835 0 0 0 39 47 54 255
0.363839 1.45054 1.7735 0 0 0 22 34 38 255
0.660964 1.36771 2.03542 0 0 0 171 175 179 255
-0.282409 1.22151 2.17075 0 0 0 43 47 51 255
0.561891 1.4807 1.77337 0 0 0 38 42 46 255
0.648882 1.18348 2.362 0 0 0 177 178 183 255
0.559691 1.07297 2.58853 0 0 0 27 31 35 255
0.455159 1.18469 2.33292 0 0 0 164 168 172 255
-0.276012 0.641673 2.4493 0 0 0 55 60 68 255
-0.279017 0.676814 2.46624 0 0 0 34 31 37 255
0.141182 0.610183 3.25922 0 0 0 154 162 167 255
1.4923 1.07884 2.79872 0 0 0 139 155 160 255
0.436657 1.01273 2.63422 0 0 0 35 36 41 255
0.519031 0.304967 2.91552 0 0 0 114 141 169 255
0.848644 1.28873 2.23456 0 0 0 176 180 184 255
-0.466583 1.13826 2.34472 0 0 0 30 35 38 255
0.170732 1.20015 2.2413 0 0 0 161 162 165 255
0.343588 0.928075 2.8533 0 0 0 31 40 40 255
-0.66805 0.160987 3.13253 0 0 0 141 145 149 255
0.562925 1.22475 2.2672 0 0 0 163 169 172 255
0.103411 1.08407 2.52328 0 0 0 168 172 176 255
1.5094 1.08132 2.79178 0 0 0 145 158 172 255
0.355035 0.503112 2.93478 0 0 0 64 61 67 255
0.749954 1.41674 1.95607 0 0 0 39 39 47 255
0.18177 1.35692 1.92918 0 0 0 28 32 36 255
0.534944 0.343804 2.97395 0 0 0 32 39 53 255
-0.105344 0.615227 2.82398 0 0 0 154 152 158 255
0.565298 1.47073 1.79379 0 0 0 46 51 55 255
0.296963 0.464504 2.9383 0 0 0 42 45 52 255
-0.372581 1.09838 2.38383 0 0 0 56 62 65 255
0.565735 0.292273 2.91971 0 0 0 122 141 173 255
-0.384631 1.1667 2.23703 0 0 0 59 60 65 255
0.123518 0.597769 3.27711 0 0 0 45 43 43 255
0.935878 1.24987 2.26051 0 0 0 69 73 77 255
0.336611 0.471018 2.92189 0 0 0 41 39 49 255
1.29139 1.05762 2.79937 0 0 0 39 47 68 255
0.461877 1.42325 1.87508 0 0 0 173 176 178 255
1.02309 1.29816 2.21528 0 0 0 54 59 65 255
0.651438 1.18219 2.36534 0 0 0 172 173 178 255
0.348387 0.933465 2.86417 0 0 0 147 156 156 255
0.265863 0.927173 2.82403 0 0 0 28 34 37 255
0.479363 1.0414 2.70008 0 0 0 47 51 55 255
0.00637419 1.11762 2.41966 0 0 0 137 136 139 255
0.634816 1.1085 2.50593 0 0 0 62 67 73 255
1.02525 1.38035 2.0518 0 0 0 43 48 54 255
0.852276 1.2863 2.23942 0 0 0 175 179 182 255
0.661602 1.36866 2.0355 0 0 0 171 175 179 255
-0.666357 0.161359 3.13349 0 0 0 141 145 149 255
1.49628 1.0794 2.79642 0 0 0 153 162 173 255
0.137254 0.611854 3.25891 0 0 0 157 164 168 255
0.274341 0.454241 2.94865 0 0 0 122 128 149 255
1.50628 1.08065 2.79152 0 0 0 159 170 183 255
-0.382615 1.16678 2.23929 0 0 0 29 30 35 255
0.75889 1.41745 1.9617 0 0 0 38 42 44 255
0.276143 1.16434 2.34814 0 0 0 169 173 175 255
-0.278855 0.661779 2.45847 0 0 0 154 156 170 255
0.639464 1.19484 2.33849 0 0 0 171 177 178 255
0.956993 1.34519 2.14856 0 0 0 172 176 178 255
0.544207 1.14371 2.42849 0 0 0 159 160 163 255
0.955989 1.43941 2.02719 0 0 0 75 79 81 255
0.751618 1.40597 1.97802 0 0 0 39 43 45 255
0.359266 0.445174 2.90795 0 0 0 20 20 28 255
1.49841 1.09456 2.78638 0 0 0 112 132 150 255
-0.284265 0.632003 2.45355 0 0 0 74 73 80 255
0.44772 1.10505 2.51363 0 0 0 39 45 46 255
0.959264 1.33965 2.15484 0 0 0 144 148 150 255
0.635696 1.26377 2.14697 0 0 0 141 146 147 255
0.268265 1.34471 2.00981 0 0 0 150 154 156 255
-0.00334507 1.26839 2.09832 0 0 0 22 23 26 255
0.349736 0.445005 2.91191 0 0 0 29 30 36 255
0.372919 1.37108 1.94414 0 0 0 32 36 38 255
0.662331 1.35399 2.05809 0 0 0 167 173 174 255
-0.0725441 1.00594 2.68404 0 0 0 47 62 69 255
0.359075 1.13429 2.4228 0 0 0 169 181 185 255
0.341448 1.04605 2.55238 0 0 0 178 182 193 255
0.751226 1.2354 2.27201 0 0 0 177 186 192 255
0.640477 1.24941 2.16204 0 0 0 183 192 198 255
0.176456 0.966862 2.74515 0 0 0 165 179 189 255
0.737452 1.23643 2.25093 0 0 0 43 48 56 255
0.175433 1.12861 2.42235 0 0 0 176 185 195 255
0.455229 1.24815 2.175 0 0 0 165 175 182 255
0.461197 1.26142 2.16761 0 0 0 156 171 176 255
0.816395 1.19721 2.3426 0 0 0 40 54 59 255
0.553711 1.28725 2.06517 0 0 0 164 174 185 255
-0.462291 1.13516 2.32336 0 0 0 39 59 64 255
0.558468 1.15336 2.42857 0 0 0 35 45 53 255
-0.587232 0.561317 2.5903 0 0 0 155 172 176 255
0.557067 1.14037 2.44076 0 0 0 41 54 60 255
-0.266837 1.07276 2.50979 0 0 0 49 61 69 255
-0.200306 1.1016 2.38921 0 0 0 165 173 178 255
-0.275014 0.676388 2.44972 0 0 0 50 51 63 255
-0.946127 0.175309 2.9222 0 0 0 116 126 130 255
-0.280207 0.64383 2.45663 0 0 0 93 102 115 255
0.0765192 0.614712 3.47181 0 0 0 51 50 55 255
-0.284571 0.638338 2.45721 0 0 0 54 64 80 255
0.36381 1.2046 2.25581 0 0 0 41 52 63 255
0.368662 1.2168 2.2443 0 0 0 49 61 69 255
0.197963 0.430876 3.01375 0 0 0 130 151 170 255
-0.92724 0.163006 2.86692 0 0 0 6 16 20 255
-1.00469 0.270938 2.89871 0 0 0 154 157 164 255
0.0138991 0.976677 2.7633 0 0 0 82 92 100 255
0.984573 1.1518 2.56809 0 0 0 81 72 68 255
0.996286 0.830418 3.22764 0 0 0 131 152 171 255
0.54995 1.2161 2.26604 0 0 0 42 52 60 255
0.96275 0.843347 3.18082 0 0 0 126 149 168 255
-0.0134249 1.19341 2.2478 0 0 0 164 175 183 255
-1.07685 0.492867 2.75745 0 0 0 28 45 40 255
-0.120471 0.537296 2.66561 0 0 0 165 170 178 255
-0.933559 0.16079 2.95858 0 0 0 116 126 130 255
0.309989 0.589651 2.96229 0 0 0 129 163 189 255
-0.233207 -0.1644 3.19279 0 0 0 141 126 118 255
0.371081 0.976817 2.73896 0 0 0 103 114 125 255
0.234598 0.370836 2.9467 0 0 0 30 39 64 255
0.291817 0.585293 2.97159 0 0 0 31 60 89 255
-0.380715 1.09349 2.37684 0 0 0 64 74 80 255
0.735544 1.22529 2.26829 0 0 0 39 47 54 255
-1.05952 0.200951 2.7933 0 0 0 114 123 123 255
-0.688056 0.153756 3.18437 0 0 0 142 150 157 255
-0.189901 1.03323 2.55445 0 0 0 49 60 68 255
0.162239 0.593221 3.23428 0 0 0 193 196 205 255
0.18916 0.896388 2.90005 0 0 0 50 64 74 255
-0.719451 0.0877457 3.12055 0 0 0 112 120 129 255
-0.0129123 1.11585 2.40209 0 0 0 157 169 177 255
-1.07167 0.149723 2.71831 0 0 0 97 110 96 255
0.345399 0.584982 2.95682 0 0 0 51 100 111 255
-0.718316 0.0975515 3.12484 0 0 0 95 103 112 255
0.805965 0.657825 3.49838 0 0 0 68 71 77 255
-0.711438 0.0852405 3.12534 0 0 0 13 21 30 255
0.304906 -0.15514 3.32558 0 0 0 115 115 115 255
-0.00673456 -0.14574 3.24935 0 0 0 108 108 107 255
-0.788911 0.0301373 3.035 0 0 0 124 139 115 255
0.31458 0.496392 2.96363 0 0 0 79 84 93 255
-0.557164 -0.364402 3.0112 0 0 0 121 126 104 255
-0.921113 0.152351 2.75261 0 0 0 107 118 117 255
0.243312 0.446592 2.95839 0 0 0 118 142 162 255
0.222498 0.358154 2.96322 0 0 0 121 136 162 255
0.272474 0.55618 2.97238 0 0 0 35 60 89 255
-0.132589 0.840625 2.6102 0 0 0 35 56 68 255
-1.06837 0.0260306 2.67757 0 0 0 117 128 117 255
-0.926021 0.168937 2.92719 0 0 0 116 126 132 255
-0.277305 0.663372 2.45545 0 0 0 156 167 186 255
0.291589 0.413734 2.91978 0 0 0 45 60 67 255
0.950577 0.840651 3.17708 0 0 0 97 118 134 255
0.955692 1.14411 2.59042 0 0 0 83 75 81 255
1.10215 0.80266 3.30212 0 0 0 132 159 189 255
1.03264 0.792624 3.29811 0 0 0 109 123 144 255
0.817968 1.19638 2.3438 0 0 0 51 63 70 255
0.736261 1.23685 2.2485 0 0 0 43 48 56 255
0.55302 1.15424 2.42317 0 0 0 38 48 56 255
0.352759 1.13601 2.41408 0 0 0 176 188 192 255
0.645143 1.2489 2.16545 0 0 0 177 185 192 255
0.33955 1.04472 2.55583 0 0 0 183 190 202 255
0.752892 1.23578 2.27408 0 0 0 169 179 185 255
0.633032 1.2473 2.15797 0 0 0 178 188 194 255
-0.591813 0.572748 2.58611 0 0 0 140 152 158 255
-0.206007 1.09611 2.38199 0 0 0 169 177 182 255
0.345866 1.20306 2.2376 0 0 0 177 186 197 255
-0.270196 1.0639 2.48574 0 0 0 60 72 80 255
0.174502 0.965324 2.74609 0 0 0 169 183 193 255
-0.178006 1.19366 2.25948 0 0 0 160 177 181 255
-0.461664 1.1357 2.32428 0 0 0 39 59 64 255
0.169255 1.12578 2.41676 0 0 0 173 185 193 255
0.554736 1.28707 2.06757 0 0 0 152 162 173 255
0.733783 1.22332 2.26882 0 0 0 31 39 46 255
0.0111716 0.978132 2.76507 0 0 0 118 128 136 255
0.0825023 0.612181 3.47745 0 0 0 72 67 69 255
0.553855 1.13606 2.44269 0 0 0 39 51 59 255
0.360353 1.21589 2.23647 0 0 0 41 52 61 255
0.366101 1.20367 2.25975 0 0 0 34 44 55 255
0.369357 0.978964 2.73823 0 0 0 103 114 125 255
-0.0188317 1.19175 2.24232 0 0 0 167 179 187 255
-1.20289 0.861995 3.04037 0 0 0 59 69 75 255
1.0421 0.797258 3.3006 0 0 0 128 146 167 255
0.190269 0.895571 2.89887 0 0 0 108 122 132 255
0.00432738 1.05311 2.58562 0 0 0 39 47 56 255
0.235003 0.36858 2.94673 0 0 0 29 39 66 255
-0.37907 1.09251 2.37851 0 0 0 111 123 130 255
-0.275036 0.672134 2.45081 0 0 0 98 100 117 255
0.15988 0.591841 3.23576 0 0 0 147 150 159 255
0.550588 1.06957 2.58589 0 0 0 87 97 105 255
-1.00384 0.272576 2.89773 0 0 0 154 157 164 255
-0.281864 0.641727 2.45737 0 0 0 73 83 99 255
-0.231057 -0.165559 3.19188 0 0 0 149 136 131 255
-0.133648 0.84346 2.61077 0 0 0 33 54 67 255
0.986691 1.15222 2.57076 0 0 0 86 77 73 255
0.237761 0.444538 2.95891 0 0 0 124 146 159 255
-0.558386 -0.365344 3.00956 0 0 0 70 73 60 255
-0.790845 0.0284077 3.03315 0 0 0 117 132 104 255
0.320065 0.491892 2.95821 0 0 0 142 146 161 255
0.902031 1.11519 2.56759 0 0 0 101 96 98 255
0.357812 1.27694 2.08241 0 0 0 39 49 57 255
0.545039 1.21192 2.26498 0 0 0 33 43 51 255
0.169402 1.27756 2.07489 0 0 0 171 182 193 255
-0.377419 1.17282 2.24329 0 0 0 74 93 101 255
0.528057 1.26956 2.0326 0 0 0 48 55 67 255
0.375589 1.28958 2.08384 0 0 0 185 195 203 255
0.094243 1.17302 2.34034 0 0 0 172 189 195 255
0.374622 1.14668 2.42521 0 0 0 39 49 57 255
0.528428 1.27972 2.0156 0 0 0 41 45 56 255
0.519164 1.27365 2.01561 0 0 0 167 182 189 255
0.650897 1.19668 2.345 0 0 0 170 187 193 255
0.182936 1.28696 2.07998 0 0 0 39 49 57 255
0.354444 1.04991 2.5438 0 0 0 25 35 43 255
0.12802 -0.150048 3.29007 0 0 0 128 130 130 255
0.138397 -0.148944 3.29622 0 0 0 116 118 118 255
-0.102035 1.23315 2.15361 0 0 0 172 184 192 255
0.262892 0.427256 2.94266 0 0 0 145 160 177 255
-0.271851 0.661048 2.45469 0 0 0 182 197 211 255
0.24747 0.361283 2.9398 0 0 0 122 143 178 255
0.210893 0.370407 2.98012 0 0 0 32 49 62 255
0.32399 0.126126 2.81913 0 0 0 127 151 165 255
0.383202 0.412999 2.89749 0 0 0 64 80 90 255
0.311117 0.572973 2.95234 0 0 0 49 106 138 255
-1.05535 0.22175 2.78569 0 0 0 123 132 134 255
-0.758795 0.0438238 3.03945 0 0 0 104 122 106 255
-1.05051 0.207234 2.79189 0 0 0 26 35 37 255
0.509719 0.242789 2.87553 0 0 0 132 162 182 255
0.379519 -0.155632 3.35704 0 0 0 114 114 114 255
0.800926 0.839912 3.13467 0 0 0 67 64 56 255
0.206426 0.356143 2.98157 0 0 0 123 145 175 255
-0.955451 0.142331 2.93286 0 0 0 122 138 119 255
0.200804 0.420815 2.99064 0 0 0 71 92 104 255
0.401764 0.236565 2.83741 0 0 0 33 70 89 255
0.939491 0.861517 3.15592 0 0 0 126 141 155 255
1.00948 0.845424 3.2129 0 0 0 48 69 87 255
-1.06123 0.181307 2.7925 0 0 0 108 117 117 255
0.915499 0.8039 3.23004 0 0 0 142 148 158 255
1.16868 0.769341 3.35559 0 0 0 147 172 196 255
-0.0450315 -0.147704 3.24217 0 0 0 99 101 98 255
-0.288631 1.1318 2.32174 0 0 0 174 187 194 255
0.373758 1.28925 2.08262 0 0 0 172 181 189 255
0.0896827 1.17258 2.33624 0 0 0 167 184 190 255
0.374235 1.14704 2.4244 0 0 0 39 49 57 255
0.525055 1.2787 2.01396 0 0 0 46 51 61 255
0.513783 1.27127 2.01355 0 0 0 184 199 206 255
0.26368 0.426224 2.94221 0 0 0 141 157 173 255
0.182471 1.12288 2.43355 0 0 0 50 63 73 255
1.09857 0.737398 3.40882 0 0 0 78 88 94 255
0.5291 1.26838 2.03579 0 0 0 37 43 54 255
-0.271851 0.661048 2.45469 0 0 0 182 197 211 255
-0.955845 0.142072 2.93297 0 0 0 135 152 124 255
0.320263 0.355985 2.88957 0 0 0 129 157 170 255
0.268708 0.35205 2.92973 0 0 0 72 101 144 255
-0.996709 0.158642 2.84775 0 0 0 118 128 120 255
0.209476 0.371211 2.98151 0 0 0 83 103 119 255
0.336018 0.491536 2.90485 0 0 0 135 144 160 255
0.313051 0.425713 2.90716 0 0 0 145 165 171 255
0.125635 -0.146565 3.28277 0 0 0 65 67 67 255
0.247809 0.364079 2.9401 0 0 0 122 143 178 255
-1.06445 0.210475 2.78875 0 0 0 19 32 33 255
-0.763599 0.0465629 3.03347 0 0 0 110 130 101 255
0.79415 0.846933 3.11334 0 0 0 93 87 47 255
-1.06334 0.494848 2.75059 0 0 0 146 158 162 255
0.371975 0.379387 2.88965 0 0 0 43 61 76 255
-0.294972 0.67287 2.44672 0 0 0 40 54 62 255
0.0867104 1.24004 2.14978 0 0 0 165 181 191 255
-0.279072 1.22576 2.17064 0 0 0 50 70 75 255
0.0957184 1.0937 2.50421 0 0 0 179 195 201 255
0.31478 0.469991 2.94858 0 0 0 67 85 100 255
0.349805 0.471011 2.93059 0 0 0 77 91 107 255
0.37922 0.347646 2.87724 0 0 0 24 68 117 255
0.29372 0.379124 2.90734 0 0 0 68 82 95 255
0.560878 1.00121 2.73527 0 0 0 62 78 89 255
-0.34165 0.484918 2.53406 0 0 0 40 59 67 255
-0.293958 0.682273 2.44741 0 0 0 154 153 161 255
-1.0151 0.199472 2.83611 0 0 0 115 123 132 255
0.298384 0.355397 2.9017 0 0 0 68 98 118 255
-0.776564 0.188101 3.11106 0 0 0 141 153 161 255
-0.301343 0.628978 2.45567 0 0 0 54 73 101 255
-0.652319 0.265117 3.2134 0 0 0 152 170 176 255
-0.755103 -0.0700611 2.99691 0 0 0 131 149 127 255
-0.757289 0.0204137 3.04312 0 0 0 117 132 118 255
0.375857 0.374234 2.88677 0 0 0 80 98 113 255
0.270728 1.0217 2.68648 0 0 0 47 64 78 255
-0.0189926 1.11327 2.40144 0 0 0 178 197 205 255
0.433432 0.511814 2.93075 0 0 0 32 60 91 255
-0.281716 1.22513 2.16927 0 0 0 71 91 96 255
-0.263118 0.681545 2.44764 0 0 0 173 183 196 255
-0.294257 0.672632 2.44695 0 0 0 35 53 63 255
0.376482 0.347218 2.87795 0 0 0 22 69 117 255
0.286398 1.02809 2.68111 0 0 0 184 200 211 255
0.103847 1.02241 2.68302 0 0 0 178 196 206 255
1.10926 0.75021 3.39306 0 0 0 121 131 149 255
-0.589778 0.540481 2.59724 0 0 0 173 183 187 255
-0.108241 0.540728 2.68638 0 0 0 183 193 201 255
0.799197 0.85098 3.10722 0 0 0 73 70 67 255
-0.774162 0.0784074 3.09865 0 0 0 120 134 114 255
-0.287265 0.645741 2.4552 0 0 0 175 173 185 255
0.278231 0.108472 2.84928 0 0 0 114 137 164 255
-0.665533 0.0354592 3.16609 0 0 0 129 142 120 255
-0.94814 0.183934 2.91407 0 0 0 122 132 138 255
-0.43611 0.502495 2.54279 0 0 0 129 155 151 255
0.27645 0.120111 2.85111 0 0 0 135 147 166 255
0.255512 0.354816 2.93577 0 0 0 10 50 93 255
-1.06643 0.201338 2.79195 0 0 0 83 93 99 255
0.794874 0.863419 3.10068 0 0 0 131 133 142 255
-0.287185 0.629642 2.45706 0 0 0 70 77 94 255
-0.309039 0.476235 2.55367 0 0 0 166 177 177 255
0.206076 0.395888 2.88139 0 0 0 39 54 66 255
-0.720949 0.0776268 3.11941 0 0 0 69 77 84 255
-1.07831 -0.00866347 2.68324 0 0 0 129 147 133 255
0.100377 1.0232 2.67988 0 0 0 167 186 196 255
-0.104713 0.54102 2.69381 0 0 0 124 133 141 255
-0.589172 0.54067 2.59829 0 0 0 173 183 187 255
0.225779 0.428691 2.96849 0 0 0 64 84 96 255
0.79276 0.854968 3.10441 0 0 0 145 145 147 255
-0.945283 0.183602 2.91529 0 0 0 116 126 132 255
-1.07049 -0.0063056 2.68884 0 0 0 116 132 120 255
0.188875 0.420545 3.0062 0 0 0 69 100 130 255
-0.812609 0.0704973 3.04615 0 0 0 101 109 99 255
-1.03426 -0.0183849 2.64504 0 0 0 75 93 63 255
-0.910566 0.0995873 2.86042 0 0 0 129 145 113 255
-0.679526 -0.0416144 3.13755 0 0 0 71 85 76 255
-0.682586 -0.0336051 3.11021 0 0 0 105 120 102 255
-0.430162 0.505356 2.5628 0 0 0 144 154 148 255
-1.04467 0.0851847 2.79721 0 0 0 46 68 54 255
-1.01183 0.0188431 2.79372 0 0 0 40 55 39 255
-1.03049 0.0944489 2.74823 0 0 0 112 132 118 255
-1.05158 0.0383591 2.74917 0 0 0 102 120 106 255
-0.888514 -0.00236197 2.79896 0 0 0 115 129 118 255
-1.04826 0.047374 2.75311 0 0 0 33 47 38 255
0.182651 0.97498 2.73399 0 0 0 55 62 76 255
-1.0371 0.217617 2.794 0 0 0 98 110 118 255
0.555378 1.00138 2.69588 0 0 0 116 119 128 255
-0.918641 0.169593 2.85499 0 0 0 106 122 131 255
-0.922657 0.176119 2.92972 0 0 0 37 51 63 255
-1.0501 0.175036 2.78737 0 0 0 122 137 123 255
-0.775069 0.620411 3.17447 0 0 0 108 125 131 255
-0.79375 0.295609 3.09985 0 0 0 145 165 170 255
-1.06273 0.293891 2.78316 0 0 0 109 124 129 255
0.269909 0.442873 2.94847 0 0 0 38 77 104 255
-1.0495 0.181749 2.79689 0 0 0 98 113 101 255
-1.09406 0.401724 2.75176 0 0 0 111 134 131 255
-1.02713 0.211395 2.81178 0 0 0 90 101 112 255
-0.493909 0.494686 2.57318 0 0 0 131 149 148 255
-1.07883 0.294671 2.78163 0 0 0 80 90 94 255
-1.05197 0.197607 2.79441 0 0 0 100 112 118 255
-1.08958 0.406178 2.74947 0 0 0 131 157 149 255
-0.713909 0.0733464 3.12041 0 0 0 91 97 102 255
-0.285832 0.657915 2.45436 0 0 0 70 114 131 255
-0.44239 0.694968 2.43364 0 0 0 124 137 136 255
0.30058 0.592537 2.96827 0 0 0 93 140 163 255
-0.820291 0.209062 3.01622 0 0 0 131 145 150 255
0.416438 0.468855 2.92322 0 0 0 27 69 105 255
-0.391135 0.504128 2.52555 0 0 0 105 106 109 255
1.00542 0.717852 3.43441 0 0 0 75 66 62 255
-1.04181 0.146591 2.80175 0 0 0 115 133 117 255
0.251323 0.43287 2.94544 0 0 0 27 59 97 255
-1.08254 0.447734 2.7877 0 0 0 129 147 142 255
-0.386158 0.488134 2.54311 0 0 0 45 66 56 255
-1.08985 0.414118 2.74678 0 0 0 121 147 139 255
-1.02993 0.140506 2.80979 0 0 0 108 127 116 255
-1.03535 -0.0187414 2.64266 0 0 0 105 122 94 255
-0.65071 -0.00769507 3.09141 0 0 0 82 96 71 255
-0.494579 0.493794 2.59043 0 0 0 121 133 137 255
0.183895 0.973605 2.73406 0 0 0 77 84 98 255
-0.285981 0.655923 2.45475 0 0 0 94 120 137 255
-1.05115 0.0401859 2.75017 0 0 0 102 120 106 255
-1.05058 0.0518412 2.75574 0 0 0 33 47 39 255
0.561606 0.994655 2.72204 0 0 0 70 74 87 255
-0.811366 0.0740445 3.03021 0 0 0 95 105 92 255
-0.961791 0.157024 2.93016 0 0 0 43 62 42 255
-0.915599 0.0991084 2.91918 0 0 0 120 136 105 255
-1.04227 0.0960121 2.79213 0 0 0 119 143 118 255
-1.08962 0.40518 2.75087 0 0 0 118 143 138 255
-1.05425 0.178436 2.79102 0 0 0 114 128 118 255
-0.819927 0.208579 3.05262 0 0 0 137 151 155 255
-1.07697 0.298665 2.78539 0 0 0 110 122 126 255
-1.06458 0.296434 2.78383 0 0 0 107 119 125 255
0.415373 0.467986 2.92237 0 0 0 29 74 114 255
-0.983775 0.130519 2.84236 0 0 0 89 105 84 255
0.293336 0.410231 2.91679 0 0 0 58 83 97 255
-0.234114 -0.162809 3.20312 0 0 0 168 157 154 255
-1.01383 0.208274 2.81428 0 0 0 86 96 104 255
-0.00634978 -0.145449 3.24018 0 0 0 130 127 131 255
0.0627323 -0.139158 3.25578 0 0 0 146 144 145 255
-0.0127788 -0.137278 3.24125 0 0 0 131 128 132 255
0.799991 0.658526 3.51515 0 0 0 62 59 71 255
-1.21911 -0.0594005 2.67711 0 0 0 119 127 134 255
0.337168 -0.15548 3.30323 0 0 0 119 116 120 255
0.374046 -0.154246 3.31261 0 0 0 124 125 128 255
0.365568 0.415531 2.90208 0 0 0 86 104 119 255
0.301288 -0.153153 3.29857 0 0 0 136 135 140 255
0.638 -0.172406 3.37206 0 0 0 52 34 28 255
-0.298835 0.447402 2.59734 0 0 0 197 161 171 255
0.294977 -0.144457 3.29872 0 0 0 125 125 133 255
-0.271645 0.681759 2.45072 0 0 0 88 98 114 255
-0.597983 -0.142157 3.21069 0 0 0 100 111 110 255
0.436649 -0.229382 3.30835 0 0 0 102 96 91 255
-0.320105 0.465402 2.56625 0 0 0 73 78 79 255
-0.799288 0.654 3.23441 0 0 0 142 156 170 255
0.40322 0.248048 2.83991 0 0 0 138 160 184 255
0.0536237 -0.220376 3.33586 0 0 0 103 99 93 255
0.026917 -0.147931 3.2451 0 0 0 113 113 113 255
0.0595462 -0.14735 3.25234 0 0 0 114 114 114 255
-0.4927 0.593021 3.49655 0 0 0 82 99 104 255
0.264165 0.241256 2.89717 0 0 0 67 91 122 255
-0.58383 -0.168397 3.20943 0 0 0 115 125 119 255
-0.835895 0.13368 3.02661 0 0 0 126 136 144 255
0.024006 -0.132458 3.25021 0 0 0 116 111 115 255
-0.789228 0.644158 3.24052 0 0 0 41 57 68 255
-0.781238 0.645779 3.23856 0 0 0 141 157 168 255
-0.273554 0.645929 2.45248 0 0 0 124 132 144 255
-0.0811353 -0.136657 3.2305 0 0 0 131 133 139 255
-0.0382668 -0.146656 3.23501 0 0 0 111 110 113 255
0.0693219 -0.147406 3.25087 0 0 0 110 110 109 255
-0.0750439 -0.144342 3.22794 0 0 0 103 104 109 255
0.0304556 -0.233111 3.19778 0 0 0 99 92 90 255
0.0663479 -0.212831 3.25454 0 0 0 104 100 92 255
-1.22755 0.372352 2.81658 0 0 0 123 130 132 255
0.100074 -0.212498 3.23761 0 0 0 93 88 87 255
0.331601 0.569836 2.95563 0 0 0 132 179 213 255
-0.854104 0.132852 2.96907 0 0 0 144 154 162 255
-1.085 -0.22237 2.67064 0 0 0 114 125 124 255
-0.402871 0.500282 2.55032 0 0 0 150 175 172 255
0.329339 -0.142358 3.30069 0 0 0 127 124 128 255
0.12389 -0.145411 3.26099 0 0 0 127 124 128 255
-1.22692 0.1686 2.76594 0 0 0 104 114 122 255
0.320742 0.133812 2.81969 0 0 0 121 151 178 255
-0.832242 -0.236415 2.88693 0 0 0 140 161 133 255
-0.575814 -0.173883 3.20339 0 0 0 115 127 107 255
-0.793962 -0.0793837 2.99302 0 0 0 118 132 119 255
0.351047 -0.241327 3.28118 0 0 0 104 98 93 255
0.243129 0.200601 2.90233 0 0 0 22 51 83 255
-0.377791 0.501133 2.53234 0 0 0 149 154 153 255
-0.850475 0.147552 3.00461 0 0 0 123 132 143 255
-0.726344 0.0292625 3.08632 0 0 0 119 136 128 255
0.0984208 -0.150653 3.25751 0 0 0 129 127 128 255
-0.313103 0.481363 2.53882 0 0 0 88 122 129 255
-1.02607 0.197185 2.81904 0 0 0 122 134 140 255
-1.06991 0.045317 2.68967 0 0 0 126 146 145 255
0.0254621 -0.208576 3.20467 0 0 0 115 111 105 255
-0.581838 -0.146546 3.21313 0 0 0 85 102 97 255
-0.99599 0.20183 2.85817 0 0 0 105 115 121 255
0.250656 0.283815 2.91255 0 0 0 91 159 200 255
0.439065 -0.144654 3.32511 0 0 0 136 137 142 255
0.275587 -0.226015 3.25406 0 0 0 78 73 75 255
-0.233588 -0.165146 3.19284 0 0 0 170 159 156 255
0.410185 0.231397 2.83447 0 0 0 155 173 202 255
-0.810676 -0.0595824 2.99505 0 0 0 91 102 87 255
0.270716 0.505314 2.9577 0 0 0 75 135 168 255
-0.0106814 -0.138262 3.24114 0 0 0 126 123 127 255
0.793298 0.659869 3.50817 0 0 0 97 95 106 255
-0.494889 0.595584 3.50341 0 0 0 72 88 94 255
-0.138943 0.831767 2.57601 0 0 0 106 129 134 255
-0.84037 -0.239545 2.87257 0 0 0 124 149 111 255
0.301244 -0.153742 3.29851 0 0 0 116 113 117 255
-0.303729 0.446759 2.5985 0 0 0 144 101 115 255
-0.0509992 -0.130951 3.23551 0 0 0 118 121 123 255
0.629554 -0.174925 3.37245 0 0 0 68 61 61 255
-0.0421527 -0.144594 3.23509 0 0 0 113 111 115 255
0.633862 -0.188835 3.36158 0 0 0 167 161 156 255
0.0248731 -0.146623 3.24569 0 0 0 80 80 79 255
-0.792905 -0.0821348 2.99207 0 0 0 131 147 126 255
-0.597293 -0.140536 3.21326 0 0 0 100 111 110 255
-0.436901 0.500463 2.53161 0 0 0 127 129 133 255
-0.585119 -0.172213 3.20856 0 0 0 99 109 103 255
0.428209 0.249478 2.83917 0 0 0 127 155 183 255
0.0222196 -0.132176 3.25065 0 0 0 75 70 74 255
0.374989 -0.150798 3.31287 0 0 0 124 125 128 255
-0.828976 -0.0321905 2.97337 0 0 0 92 103 95 255
0.401802 0.249516 2.84018 0 0 0 154 170 181 255
0.264067 0.244581 2.898 0 0 0 67 91 122 255
0.294207 -0.143768 3.30379 0 0 0 59 59 67 255
-0.648495 -0.269035 3.08115 0 0 0 42 63 40 255
-1.46021 0.432921 3.4354 0 0 0 86 96 101 255
-1.06981 0.0462976 2.69091 0 0 0 126 146 145 255
0.497237 0.246879 2.90513 0 0 0 40 99 128 255
-0.406826 0.506304 2.54646 0 0 0 148 170 170 255
-0.352577 0.474949 2.54843 0 0 0 141 136 138 255
-0.214394 -0.616233 3.06509 0 0 0 101 103 109 255
0.187136 0.88977 2.90815 0 0 0 122 142 160 255
0.18736 0.589104 3.29597 0 0 0 221 241 253 255
0.284158 0.572853 2.97321 0 0 0 157 204 223 255
-0.235123 -0.151533 3.21544 0 0 0 47 33 33 255
0.29977 0.566772 2.9636 0 0 0 57 111 155 255
-0.698675 0.0867513 3.13146 0 0 0 114 124 142 255
-0.705954 0.0675875 3.12652 0 0 0 114 125 138 255
0.799339 0.844399 3.12314 0 0 0 77 81 93 255
-0.566334 -0.395002 3.15568 0 0 0 153 171 154 255
-0.997229 0.266088 2.89567 0 0 0 134 153 167 255
-0.448284 -0.546511 3.20162 0 0 0 182 202 212 255
0.229789 0.402003 2.95425 0 0 0 64 93 111 255
-0.572115 -0.615922 3.44401 0 0 0 58 80 93 255
-0.828145 0.211588 3.08824 0 0 0 164 186 198 255
0.327118 0.597528 2.96451 0 0 0 50 129 162 255
0.342587 0.469262 2.91498 0 0 0 77 105 124 255
0.314931 0.469859 2.94183 0 0 0 73 96 132 255
0.30622 0.495468 2.95235 0 0 0 89 118 135 255
-0.181411 0.477079 2.671 0 0 0 193 215 234 255
-1.05553 -0.0161983 2.75348 0 0 0 153 183 162 255
-0.432571 -0.655024 3.1832 0 0 0 95 116 126 255
0.330289 -0.447679 3.21143 0 0 0 135 122 119 255
0.289533 -0.439321 3.20067 0 0 0 129 125 119 255
-0.759787 0.0705317 3.02869 0 0 0 143 172 145 255
0.956673 0.752668 3.36101 0 0 0 139 178 197 255
0.452565 -0.222059 3.30206 0 0 0 130 129 122 255
-1.04955 0.464538 2.80945 0 0 0 181 208 219 255
0.462015 0.179854 2.85388 0 0 0 75 141 190 255
0.836009 0.823675 3.15648 0 0 0 77 80 96 255
0.536749 0.311171 2.93472 0 0 0 140 194 235 255
-0.785419 0.108366 3.06908 0 0 0 114 128 142 255
-1.04555 0.0363331 2.75103 0 0 0 145 171 163 255
0.336255 0.561197 2.95166 0 0 0 51 122 167 255
-0.806697 0.123126 3.04942 0 0 0 19 39 53 255
-1.03689 0.41724 2.86735 0 0 0 120 151 162 255
-0.798437 0.117217 3.05777 0 0 0 123 141 156 255
0.455737 -0.238386 3.29954 0 0 0 127 126 119 255
0.24754 0.549378 2.98673 0 0 0 72 104 142 255
-0.965014 0.00285449 2.85427 0 0 0 59 88 78 255
-0.824052 -0.232707 2.88496 0 0 0 56 80 67 255
-1.03738 0.207047 2.79954 0 0 0 137 153 164 255
0.266295 0.564961 2.97866 0 0 0 163 207 240 255
-0.689993 0.0813452 3.15121 0 0 0 17 27 43 255
-0.760521 0.110919 3.10944 0 0 0 130 144 158 255
-0.913326 -0.0896863 2.85874 0 0 0 44 75 49 255
-0.24083 0.441785 2.69698 0 0 0 27 62 83 255
-0.21444 0.463133 2.74467 0 0 0 37 74 97 255
-0.0598132 -0.211426 3.20659 0 0 0 110 113 105 255
0.481681 0.189784 2.84257 0 0 0 15 103 153 255
-0.748689 0.108091 3.13357 0 0 0 115 130 144 255
0.546584 0.189566 2.9022 0 0 0 134 183 217 255
-0.65565 0.269223 3.25513 0 0 0 176 202 215 255
0.439503 -0.491932 3.22635 0 0 0 126 116 115 255
0.645879 0.281101 3.09657 0 0 0 125 183 206 255
-0.520347 0.102178 3.31871 0 0 0 133 154 161 255
-0.756754 0.101514 3.05378 0 0 0 124 138 149 255
-0.218307 -0.611895 3.04969 0 0 0 100 96 103 255
-0.433859 -0.652832 3.18332 0 0 0 161 183 195 255
0.284807 0.576147 2.97263 0 0 0 157 204 223 255
0.336553 0.494734 2.92607 0 0 0 55 83 104 255
0.472069 0.517004 2.96315 0 0 0 176 206 223 255
-0.227575 0.44666 2.6871 0 0 0 38 72 95 255
-0.236088 0.441239 2.6997 0 0 0 53 88 108 255
0.26461 0.561864 2.97894 0 0 0 158 202 230 255
0.462814 0.180784 2.85427 0 0 0 75 141 190 255
-0.345408 -0.606982 3.01963 0 0 0 109 108 113 255
0.644572 0.277625 3.09273 0 0 0 138 195 218 255
0.314422 0.472022 2.94438 0 0 0 73 96 132 255
-0.656593 -0.00826336 3.15862 0 0 0 41 64 54 255
0.341967 0.469684 2.91528 0 0 0 76 105 123 255
-0.448284 -0.546511 3.20162 0 0 0 182 202 212 255
-0.637873 0.0520646 3.21737 0 0 0 81 97 107 255
-0.574687 -0.62012 3.44402 0 0 0 52 74 88 255
0.324113 -0.449225 3.21696 0 0 0 122 111 108 255
-1.05504 -0.0153201 2.73025 0 0 0 151 181 160 255
-0.597891 -0.263126 3.16601 0 0 0 59 85 68 255
0.227393 0.397678 2.95743 0 0 0 87 116 136 255
-0.788661 0.073302 3.091 0 0 0 80 106 82 255
-0.822063 -0.235479 2.88677 0 0 0 93 118 104 255
0.305222 0.4964 2.95222 0 0 0 89 118 135 255
-0.525563 0.103034 3.35672 0 0 0 131 152 159 255
0.322843 0.118426 2.81865 0 0 0 123 163 191 255
0.352299 0.569112 2.95225 0 0 0 155 209 224 255
-0.96645 0.00401769 2.85272 0 0 0 66 95 85 255
-0.916162 -0.0879854 2.85512 0 0 0 63 94 68 255
0.538855 0.309461 2.9479 0 0 0 74 160 197 255
-0.569004 -0.394194 3.15723 0 0 0 151 169 152 255
0.0456224 -0.444849 3.1547 0 0 0 190 188 184 255
0.187971 0.890369 2.90663 0 0 0 122 142 160 255
-0.76775 0.0685033 3.09536 0 0 0 154 183 152 255
-0.699084 0.0858827 3.1307 0 0 0 47 57 74 255
0.627779 0.550862 3.18671 0 0 0 163 188 220 255
0.452596 -0.234155 3.30611 0 0 0 112 113 105 255
0.237848 -0.487679 3.17622 0 0 0 200 189 188 255
-0.76197 0.107323 3.10509 0 0 0 109 123 135 255
-1.0442 0.035258 2.75205 0 0 0 142 168 160 255
0.278908 -0.434363 3.17065 0 0 0 139 135 129 255
-0.100752 0.665726 2.62014 0 0 0 34 76 94 255
-0.180869 0.476369 2.66994 0 0 0 166 183 202 255
0.244529 0.546453 2.98117 0 0 0 81 112 137 255
-0.729853 0.0044294 3.06501 0 0 0 117 141 130 255
0.18764 0.588304 3.29623 0 0 0 193 212 224 255
-0.0593551 -0.213982 3.1985 0 0 0 106 109 101 255
0.815437 -0.953459 4.39682 0 0 0 78 76 84 255
-0.891977 0.147807 2.87891 0 0 0 137 145 161 255
0.484696 -0.504454 3.22326 0 0 0 122 116 117 255
1.10176 0.732917 3.40971 0 0 0 121 130 146 255
0.377451 -0.502704 3.20491 0 0 0 113 106 106 255
-0.655579 -0.268495 3.07386 0 0 0 60 79 57 255
0.217066 -0.298883 3.23338 0 0 0 119 107 107 255
0.277914 0.566166 2.97345 0 0 0 68 94 141 255
0.46865 -0.443265 3.23499 0 0 0 133 131 129 255
0.407552 -0.240236 3.29648 0 0 0 119 119 114 255
0.438476 -0.233655 3.29817 0 0 0 104 102 98 255
0.300144 -0.4537 3.20158 0 0 0 195 189 184 255
0.919663 0.79747 3.24877 0 0 0 188 191 212 255
0.334844 -0.218826 3.28049 0 0 0 115 115 110 255
0.917627 0.804721 3.24135 0 0 0 174 183 203 255
0.231865 -0.44919 3.1844 0 0 0 203 192 189 255
-0.767724 0.625954 3.18505 0 0 0 156 163 182 255
0.18484 -0.440465 3.18635 0 0 0 116 106 105 255
0.147249 -0.440679 3.17795 0 0 0 126 119 117 255
0.231434 0.376884 2.9508 0 0 0 51 77 116 255
0.0564906 -0.487615 3.14064 0 0 0 196 191 190 255
-0.24373 -0.166744 3.19535 0 0 0 49 32 38 255
0.807368 0.865866 3.09479 0 0 0 99 99 110 255
-0.595551 0.0501337 3.26057 0 0 0 22 26 40 255
0.268421 0.57959 2.98123 0 0 0 83 89 129 255
0.949151 0.777618 3.33785 0 0 0 125 164 200 255
0.657211 -0.0221333 3.13123 0 0 0 94 106 113 255
0.402406 -0.220324 3.28279 0 0 0 99 99 94 255
-0.90158 0.155493 2.83777 0 0 0 124 136 151 255
0.549295 0.513942 3.06463 0 0 0 52 95 150 255
-0.585623 -0.611125 3.44965 0 0 0 206 215 225 255
-0.492412 0.503817 2.61653 0 0 0 166 183 186 255
0.410869 -0.455059 3.22115 0 0 0 184 177 175 255
0.0624983 -0.236704 3.21243 0 0 0 125 127 124 255
0.474661 0.234802 2.84457 0 0 0 90 125 170 255
0.342246 0.492367 2.9181 0 0 0 88 101 129 255
-0.697586 0.61302 3.35306 0 0 0 154 167 184 255
0.582107 0.505717 3.07755 0 0 0 160 127 118 255
1.03522 0.789938 3.29843 0 0 0 163 185 219 255
-0.0775273 -0.20902 3.19767 0 0 0 93 95 91 255
0.0293402 -0.217495 3.20369 0 0 0 189 191 191 255
-0.0236667 -0.231398 3.20678 0 0 0 92 94 94 255
-0.00382714 -0.22869 3.17151 0 0 0 95 97 97 255
0.443986 -0.154385 3.32358 0 0 0 144 149 155 255
0.416847 -0.160239 3.32459 0 0 0 134 135 141 255
0.104954 -0.439354 3.1677 0 0 0 120 113 111 255
-0.675682 0.594019 3.35593 0 0 0 151 166 182 255
-0.0119358 -0.209938 3.20431 0 0 0 110 112 109 255
-0.636439 0.0681847 3.22698 0 0 0 29 39 55 255
-0.0700484 -0.229222 3.18941 0 0 0 99 101 101 255
0.987224 0.761027 3.35392 0 0 0 151 169 197 255
0.35322 -0.349553 3.2458 0 0 0 198 193 189 255
0.414319 -0.217554 3.29242 0 0 0 129 130 122 255
0.333941 -0.303207 3.2526 0 0 0 134 125 121 255
0.231434 0.376884 2.9508 0 0 0 51 77 116 255
0.91957 0.801248 3.2442 0 0 0 184 190 208 255
0.260162 0.552537 2.98001 0 0 0 179 195 231 255
-0.690622 -0.0288868 3.14042 0 0 0 150 164 154 255
0.663779 -0.0230176 3.15346 0 0 0 94 105 106 255
0.548281 0.51373 3.06411 0 0 0 63 101 161 255
0.485417 -0.503579 3.22349 0 0 0 122 116 117 255
0.839434 0.863341 3.10063 0 0 0 193 190 194 255
0.364255 -0.509649 3.20025 0 0 0 141 135 138 255
0.37442 -0.503767 3.2038 0 0 0 145 138 141 255
0.463742 -0.501961 3.22455 0 0 0 136 119 122 255
0.411215 -0.457068 3.22044 0 0 0 194 188 185 255
-0.892274 0.149105 2.87872 0 0 0 137 145 161 255
0.0301555 -0.222902 3.21886 0 0 0 188 190 190 255
0.408668 -0.156799 3.32087 0 0 0 97 97 105 255
0.0518632 -0.486701 3.14009 0 0 0 197 192 191 255
0.941143 0.772389 3.3244 0 0 0 108 147 184 255
-0.659185 -0.268354 3.07131 0 0 0 74 94 65 255
0.797057 0.867882 3.08128 0 0 0 89 99 119 255
0.0197887 -0.228224 3.21752 0 0 0 156 158 158 255
0.25007 0.569795 2.99119 0 0 0 126 132 174 255
0.409262 -0.443196 3.22608 0 0 0 127 122 119 255
0.569824 0.497584 3.06293 0 0 0 154 138 154 255
-0.492139 0.505039 2.61611 0 0 0 166 183 186 255
0.213315 -0.299366 3.23255 0 0 0 115 105 104 255
0.231409 -0.450835 3.18396 0 0 0 191 180 177 255
-0.699146 0.615665 3.35571 0 0 0 131 144 161 255
-0.676397 0.606618 3.3563 0 0 0 100 113 130 255
-0.912156 0.352719 2.75602 0 0 0 194 209 227 255
0.463957 -0.446346 3.23452 0 0 0 123 118 117 255
0.44304 -0.154652 3.32269 0 0 0 131 135 142 255
0.00430894 -0.230451 3.21518 0 0 0 95 97 97 255
-0.0799419 -0.212055 3.2003 0 0 0 147 149 146 255
1.67646 -1.62116 6.35002 0 0 0 167 193 210 255
1.49791 0.247366 3.38454 0 0 0 134 164 177 255
0.114586 -0.246961 3.28722 0 0 0 139 140 143 255
-0.759281 0.0744162 2.98993 0 0 0 140 162 137 255
0.965405 -0.846636 4.06252 0 0 0 142 155 162 255
1.38096 -1.22651 5.58536 0 0 0 121 132 144 255
0.775981 -0.830909 3.94251 0 0 0 72 81 92 255
0.488702 -0.733639 3.51354 0 0 0 77 83 91 255
0.21539 -0.412328 3.19369 0 0 0 122 108 108 255
-0.761211 0.116454 2.88404 0 0 0 125 138 153 255
-0.601323 0.210265 3.32595 0 0 0 171 196 211 255
-0.00235633 -0.136881 3.24862 0 0 0 151 150 153 255
0.166869 -0.489539 3.16712 0 0 0 197 192 187 255
0.0947806 -0.142234 3.2621 0 0 0 158 157 162 255
1.48155 0.405706 3.43398 0 0 0 131 150 168 255
0.422814 0.50993 2.94044 0 0 0 146 194 225 255
0.375094 -0.445349 3.21924 0 0 0 122 109 109 255
0.607985 0.242929 3.01424 0 0 0 136 184 221 255
0.365821 -0.442392 3.2196 0 0 0 133 115 116 255
-0.0287569 -0.21099 3.21619 0 0 0 51 53 48 255
0.301056 -0.43899 3.20478 0 0 0 139 125 125 255
0.00444056 -0.20882 3.22789 0 0 0 101 103 103 255
0.341659 -0.146568 3.30695 0 0 0 141 144 151 255
1.16917 0.767291 3.37555 0 0 0 173 213 240 255
0.0214303 -0.209626 3.2281 0 0 0 108 110 107 255
0.201068 0.361455 2.99604 0 0 0 119 168 207 255
0.364776 -0.146339 3.30946 0 0 0 124 127 134 255
0.408499 -0.146407 3.32322 0 0 0 138 143 151 255
0.0686203 -0.224094 3.2226 0 0 0 185 187 184 255
0.123813 -0.218462 3.23724 0 0 0 69 71 71 255
0.135777 -0.220521 3.23807 0 0 0 103 105 102 255
1.18755 0.76382 3.37428 0 0 0 113 163 181 255
0.175608 -0.217281 3.2521 0 0 0 79 81 78 255
0.0854459 -0.239607 3.27767 0 0 0 113 115 115 255
0.121185 -0.234236 3.23038 0 0 0 100 102 103 255
0.102338 -0.242598 3.26257 0 0 0 130 131 134 255
-0.672146 0.58115 3.16099 0 0 0 145 170 183 255
0.158723 -0.23502 3.23157 0 0 0 90 92 89 255
0.136343 -0.239927 3.23466 0 0 0 122 122 122 255
0.241145 -0.224702 3.26102 0 0 0 74 74 71 255
0.244222 -0.240334 3.25775 0 0 0 106 107 104 255
-0.630286 0.0552226 3.23197 0 0 0 115 130 143 255
-0.628917 0.0637645 3.23602 0 0 0 115 129 141 255
0.414253 -0.229686 3.29303 0 0 0 192 190 188 255
-0.181372 0.486177 2.7628 0 0 0 164 200 219 255
-0.248622 0.444263 2.71119 0 0 0 26 51 78 255
0.922896 0.855214 3.1109 0 0 0 173 197 217 255
0.915946 0.854083 3.11426 0 0 0 162 184 198 255
1.03086 0.868786 3.0738 0 0 0 168 227 254 255
1.06453 0.786444 3.32065 0 0 0 159 185 218 255
0.347367 0.649088 2.97595 0 0 0 126 156 172 255
1.09396 0.79571 3.29648 0 0 0 158 206 243 255
0.948245 0.830159 3.16876 0 0 0 169 210 233 255
1.04861 0.813604 3.27395 0 0 0 87 137 167 255
0.154707 0.554473 3.18256 0 0 0 209 222 237 255
1.04813 0.818972 3.23426 0 0 0 70 122 149 255
1.05312 0.821832 3.21968 0 0 0 177 212 245 255
0.981182 0.82143 3.2205 0 0 0 153 193 225 255
0.927042 0.807853 3.23913 0 0 0 133 154 174 255
0.183535 -0.496628 3.16759 0 0 0 137 124 123 255
-0.180247 0.484562 2.76306 0 0 0 154 185 200 255
0.153628 0.561317 3.20495 0 0 0 229 243 249 255
0.770079 -0.826685 3.93247 0 0 0 66 75 86 255
0.487704 -0.735836 3.52041 0 0 0 114 120 127 255
1.0569 0.818776 3.22115 0 0 0 179 217 246 255
-0.0427383 -0.131045 3.24326 0 0 0 87 88 91 255
1.06177 0.784369 3.3184 0 0 0 150 176 209 255
0.981194 0.820813 3.22186 0 0 0 112 139 178 255
0.599037 0.236426 2.996 0 0 0 112 165 203 255
-0.0288181 -0.21588 3.21981 0 0 0 130 132 127 255
0.94777 0.830197 3.16959 0 0 0 139 179 202 255
1.17204 0.768854 3.375 0 0 0 173 213 240 255
0.374412 0.409291 2.89514 0 0 0 117 148 167 255
0.99363 0.83811 3.19365 0 0 0 77 95 125 255
1.02963 0.866026 3.07789 0 0 0 168 224 253 255
1.08006 0.789741 3.27978 0 0 0 181 219 252 255
0.0258822 -0.210686 3.23487 0 0 0 99 101 101 255
1.17992 0.758096 3.36172 0 0 0 172 207 216 255
0.938549 -0.830117 4.01174 0 0 0 186 199 204 255
-0.00917239 -0.232548 3.2245 0 0 0 184 186 181 255
