ply
format ascii 1.0
comment VCGLIB generated
element vertex 1028
property float x
property float y
property float z
property float nx
property float ny
property float nz
property uchar red
property uchar green
property uchar blue
property uchar alpha
element face 0
property list uchar int vertex_indices
end_header
0.285246 0.996668 1.58376 0 0 0 33 37 39 255
0.240853 0.930625 1.80472 0 0 0 158 159 164 255
-0.0450567 0.953693 1.66427 0 0 0 162 163 166 255
0.574116 1.02702 1.5983 0 0 0 32 36 40 255
0.593936 1.02898 1.60623 0 0 0 42 45 49 255
0.515796 1.04829 1.53795 0 0 0 172 177 183 255
0.495042 1.0412 1.52096 0 0 0 174 178 183 255
0.0121209 0.93123 1.71734 0 0 0 30 29 34 255
0.368406 1.03076 1.5225 0 0 0 159 163 167 255
0.360588 0.979416 1.64579 0 0 0 160 164 169 255
0.124534 1.07869 1.31692 0 0 0 36 40 44 255
0.380599 0.98558 1.66343 0 0 0 176 181 187 255
0.0045018 0.976734 1.58553 0 0 0 36 37 42 255
0.251864 0.931307 1.80515 0 0 0 161 162 167 255
0.226512 1.01913 1.52355 0 0 0 167 168 171 255
0.0748335 1.0566 1.39282 0 0 0 164 165 168 255
0.0584653 1.04793 1.37824 0 0 0 168 169 172 255
-0.136994 0.965644 1.58474 0 0 0 31 37 40 255
0.722523 1.04444 1.59837 0 0 0 49 54 60 255
0.420126 1.05752 1.4537 0 0 0 45 49 53 255
0.156963 0.944908 1.72527 0 0 0 24 28 32 255
0.435435 0.965062 1.71911 0 0 0 28 34 37 255
0.505921 0.993073 1.6575 0 0 0 166 169 176 255
0.271477 1.03832 1.43702 0 0 0 35 35 42 255
-0.00533597 1.02185 1.44927 0 0 0 35 37 43 255
0.524614 0.996077 1.66861 0 0 0 171 174 181 255
0.303228 0.997283 1.5923 0 0 0 38 44 45 255
0.218282 1.07189 1.39713 0 0 0 155 159 163 255
0.221909 0.968635 1.65195 0 0 0 161 162 165 255
0.14739 1.02861 1.44668 0 0 0 26 30 34 255
0.0327594 0.935942 1.7307 0 0 0 29 33 37 255
0.358256 1.07631 1.38852 0 0 0 156 160 164 255
0.0710997 1.00451 1.51791 0 0 0 161 165 167 255
-0.0551881 1.00008 1.53097 0 0 0 163 162 167 255
0.207067 1.0102 1.50864 0 0 0 170 171 176 255
0.207231 1.11395 1.24867 0 0 0 165 167 172 255
-0.132834 1.01632 1.47339 0 0 0 33 36 42 255
0.352155 1.02512 1.51336 0 0 0 160 164 166 255
0.178426 0.947549 1.73939 0 0 0 27 28 32 255
0.0951094 0.917651 1.79556 0 0 0 153 157 159 255
0.444928 1.01358 1.59411 0 0 0 33 37 41 255
-0.0636597 0.942059 1.63971 0 0 0 162 163 166 255
0.265791 1.09561 1.32282 0 0 0 32 36 40 255
-0.00356675 1.07663 1.34063 0 0 0 40 45 49 255
0.0210874 0.979168 1.59282 0 0 0 31 32 37 255
0.164391 0.99157 1.59633 0 0 0 29 33 37 255
0.340739 1.06824 1.37671 0 0 0 160 164 166 255
0.200841 1.06345 1.3834 0 0 0 160 165 169 255
0.438145 1.0592 1.46202 0 0 0 30 34 38 255
0.0499628 0.891656 1.87951 0 0 0 39 43 47 255
0.0109071 1.02542 1.461 0 0 0 25 28 35 255
-0.108178 0.921156 1.72991 0 0 0 33 37 41 255
0.191402 1.11514 1.26155 0 0 0 149 153 157 255
0.290947 1.04378 1.4515 0 0 0 29 33 37 255
0.129492 1.12643 1.17507 0 0 0 43 48 54 255
-0.120134 0.970154 1.59566 0 0 0 28 34 37 255
-0.06988 0.991858 1.51533 0 0 0 155 156 161 255
0.253211 0.931787 1.80479 0 0 0 161 162 167 255
0.34867 1.02323 1.51243 0 0 0 164 168 170 255
0.153591 0.943127 1.72354 0 0 0 36 40 44 255
0.212248 1.05656 1.3756 0 0 0 162 166 170 255
0.36057 1.07642 1.39208 0 0 0 135 139 142 255
0.501688 0.992155 1.65483 0 0 0 167 170 177 255
0.0570594 1.04574 1.37685 0 0 0 157 158 161 255
0.524104 0.99595 1.66837 0 0 0 156 159 166 255
0.0766596 1.05625 1.39452 0 0 0 144 145 148 255
0.0108994 0.929992 1.71676 0 0 0 36 35 40 255
0.572602 1.02643 1.5985 0 0 0 49 53 57 255
0.142062 0.990781 1.58631 0 0 0 24 30 31 255
0.208566 1.11266 1.25094 0 0 0 161 165 169 255
0.308302 0.911563 1.86974 0 0 0 32 35 42 255
0.120769 1.07508 1.31221 0 0 0 30 34 36 255
0.721346 1.04343 1.59847 0 0 0 47 50 57 255
0.358045 0.976857 1.64664 0 0 0 162 168 171 255
0.241024 0.975179 1.67054 0 0 0 152 154 154 255
0.421456 1.00905 1.57987 0 0 0 42 46 50 255
0.10827 0.916693 1.80211 0 0 0 157 158 161 255
0.433017 0.964398 1.71856 0 0 0 40 46 49 255
0.127017 1.02491 1.4356 0 0 0 24 28 30 255
0.432694 0.906181 1.83338 0 0 0 34 40 43 255
0.363323 0.927096 1.77547 0 0 0 165 170 176 255
0.26932 0.889093 1.95762 0 0 0 166 167 172 255
0.078386 0.955647 1.64546 0 0 0 162 163 168 255
0.0928917 0.958623 1.65205 0 0 0 169 168 171 255
0.278672 0.936549 1.6907 0 0 0 38 40 43 255
0.575366 0.972018 1.71436 0 0 0 35 40 48 255
0.634109 1.05096 1.51587 0 0 0 175 174 177 255
0.328247 0.871769 2.02565 0 0 0 34 40 43 255
0.268273 1.03649 1.43582 0 0 0 35 36 41 255
-0.0530038 1.00086 1.53436 0 0 0 146 145 150 255
0.160447 0.899708 1.85494 0 0 0 27 28 31 255
0.255641 1.13795 1.17853 0 0 0 41 46 50 255
0.381578 0.927368 1.7828 0 0 0 166 169 176 255
-0.0451346 0.954027 1.66379 0 0 0 162 163 166 255
0.283115 0.996004 1.58332 0 0 0 42 46 48 255
0.516185 1.047 1.53983 0 0 0 151 156 162 255
0.491849 1.03916 1.52006 0 0 0 171 174 181 255
0.36819 1.02991 1.52346 0 0 0 147 151 155 255
0.069871 1.00324 1.51772 0 0 0 160 164 166 255
0.264125 1.09387 1.32109 0 0 0 40 44 48 255
0.0887872 1.01245 1.53447 0 0 0 157 158 161 255
0.0361616 0.936334 1.73412 0 0 0 37 41 45 255
0.178379 0.948365 1.73773 0 0 0 27 28 32 255
0.19753 1.06061 1.38121 0 0 0 164 170 173 255
0.141055 1.08672 1.33033 0 0 0 80 82 87 255
0.0932371 0.917596 1.79415 0 0 0 158 164 165 255
-0.107444 0.922461 1.72906 0 0 0 33 37 41 255
0.239892 0.930816 1.80382 0 0 0 161 162 167 255
0.166271 0.991386 1.5972 0 0 0 35 39 43 255
-0.132011 1.01832 1.47277 0 0 0 33 36 42 255
0.596392 1.02892 1.60841 0 0 0 43 44 49 255
0.132074 1.12444 1.17728 0 0 0 66 70 77 255
0.204963 1.01074 1.50499 0 0 0 171 172 177 255
0.189133 1.11412 1.25903 0 0 0 159 163 167 255
0.446332 1.01364 1.5953 0 0 0 35 39 43 255
-0.140068 0.964826 1.58387 0 0 0 26 32 35 255
0.304136 0.999104 1.59131 0 0 0 38 44 45 255
0.414981 1.05777 1.45069 0 0 0 41 45 49 255
0.218565 0.967257 1.64808 0 0 0 165 166 169 255
-0.00997764 1.01899 1.44614 0 0 0 30 31 36 255
0.306723 0.941273 1.71058 0 0 0 44 50 53 255
-0.00344617 1.07586 1.34031 0 0 0 77 81 85 255
0.338536 1.06817 1.37339 0 0 0 165 169 171 255
0.0234635 0.97936 1.59424 0 0 0 40 41 46 255
-0.0642514 0.942017 1.63849 0 0 0 165 166 169 255
0.280499 0.996135 1.58088 0 0 0 31 35 37 255
0.346117 1.02164 1.51091 0 0 0 174 178 180 255
0.253874 1.13635 1.17912 0 0 0 29 34 38 255
0.079408 1.05633 1.39729 0 0 0 159 163 165 255
0.140793 0.98844 1.58685 0 0 0 25 31 32 255
0.227795 1.01846 1.52733 0 0 0 160 161 164 255
0.00499145 0.928773 1.70997 0 0 0 30 29 34 255
0.0364387 0.935075 1.7355 0 0 0 87 91 95 255
0.35538 0.976166 1.64376 0 0 0 162 168 171 255
0.489192 1.03817 1.51839 0 0 0 175 178 185 255
0.0912329 1.0127 1.5387 0 0 0 144 147 149 255
0.412929 1.05595 1.4512 0 0 0 37 41 45 255
0.518195 1.04756 1.54239 0 0 0 151 156 162 255
0.361439 1.07646 1.39343 0 0 0 135 139 142 255
0.384437 0.985208 1.66969 0 0 0 166 171 177 255
0.718148 1.04145 1.59816 0 0 0 45 47 55 255
0.149437 0.940108 1.72007 0 0 0 30 34 36 255
0.430406 0.905172 1.83445 0 0 0 41 47 50 255
0.497895 0.992192 1.65158 0 0 0 166 169 176 255
0.270851 0.891291 1.95587 0 0 0 165 166 171 255
0.255352 0.892184 1.96139 0 0 0 162 166 168 255
0.524343 0.996399 1.66762 0 0 0 171 174 181 255
0.0767878 0.955047 1.64553 0 0 0 157 158 163 255
-0.0537039 1.0013 1.53278 0 0 0 163 162 167 255
0.107855 0.917523 1.80042 0 0 0 157 158 161 255
0.0907336 0.915526 1.79452 0 0 0 159 165 166 255
0.326087 0.870413 2.02804 0 0 0 58 64 67 255
0.118455 1.07049 1.30872 0 0 0 24 28 30 255
0.0942541 0.9587 1.65364 0 0 0 164 164 167 255
0.127059 1.02237 1.43668 0 0 0 26 29 31 255
0.159462 0.898277 1.85455 0 0 0 35 36 39 255
0.381651 0.926774 1.78549 0 0 0 64 67 74 255
0.362392 0.926569 1.77639 0 0 0 159 164 170 255
0.431161 0.961689 1.72048 0 0 0 38 42 46 255
0.254784 0.93127 1.80711 0 0 0 155 157 161 255
0.570235 0.970848 1.71257 0 0 0 41 46 54 255
0.244792 0.97635 1.67436 0 0 0 143 145 142 255
-0.00997764 1.01899 1.44614 0 0 0 30 31 36 255
0.369704 1.02992 1.52496 0 0 0 165 169 173 255
-0.0415116 0.955683 1.66995 0 0 0 160 161 164 255
0.000174438 0.975779 1.58422 0 0 0 26 27 32 255
-0.141942 0.964314 1.58398 0 0 0 26 32 35 255
0.418807 1.00724 1.57933 0 0 0 39 43 47 255
0.271565 0.933341 1.68531 0 0 0 34 35 38 255
0.299493 0.906316 1.86104 0 0 0 34 37 44 255
0.0560277 1.04323 1.37544 0 0 0 168 169 174 255
0.150609 1.0286 1.44953 0 0 0 29 33 37 255
0.0681206 1.00066 1.5169 0 0 0 160 164 166 255
0.264704 1.03601 1.43269 0 0 0 36 37 44 255
-0.0687081 0.937742 1.63281 0 0 0 166 167 170 255
0.306461 0.997339 1.59367 0 0 0 38 44 45 255
0.180806 0.948289 1.74054 0 0 0 27 28 32 255
0.165959 0.989062 1.59904 0 0 0 77 81 85 255
0.448727 1.01285 1.59832 0 0 0 35 39 43 255
0.142607 1.08611 1.33324 0 0 0 40 42 47 255
-0.00441707 1.07719 1.34038 0 0 0 83 89 92 255
0.238693 0.929964 1.80553 0 0 0 153 154 159 255
0.630984 1.04984 1.51233 0 0 0 171 170 173 255
0.306822 0.940751 1.71237 0 0 0 117 123 126 255
0.43792 1.05786 1.46283 0 0 0 93 97 101 255
0.0515869 0.891616 1.88002 0 0 0 77 80 85 255
0.530875 0.996148 1.67309 0 0 0 166 169 176 255
0.342742 1.02159 1.50755 0 0 0 174 178 180 255
0.0506638 1.04027 1.36921 0 0 0 169 170 175 255
0.372268 1.02869 1.52981 0 0 0 138 141 145 255
0.229292 1.01901 1.52833 0 0 0 160 161 164 255
0.215616 1.05592 1.38012 0 0 0 164 168 172 255
0.1665 0.991389 1.59747 0 0 0 35 39 43 255
0.518843 1.04935 1.53953 0 0 0 171 176 182 255
0.486249 1.03537 1.51687 0 0 0 175 178 185 255
0.550432 1.06269 1.43769 0 0 0 42 47 53 255
-0.0431091 0.955949 1.66705 0 0 0 162 163 166 255
0.199627 1.00839 1.50106 0 0 0 171 172 177 255
0.276139 0.996534 1.57965 0 0 0 33 37 39 255
0.092886 1.01566 1.53803 0 0 0 170 171 174 255
0.306464 0.997347 1.59369 0 0 0 38 44 45 255
-0.00204827 0.977527 1.5831 0 0 0 25 26 31 255
0.0955568 0.958426 1.65661 0 0 0 164 164 167 255
0.411669 1.05817 1.44891 0 0 0 42 43 48 255
-0.0508892 1.00126 1.53699 0 0 0 161 160 165 255
0.263517 1.03391 1.43331 0 0 0 35 36 41 255
0.563759 1.02647 1.59436 0 0 0 36 39 46 255
0.567124 0.969053 1.71207 0 0 0 35 38 47 255
-0.00101305 0.924631 1.70484 0 0 0 29 28 31 255
0.120483 1.01944 1.43207 0 0 0 28 29 32 255
0.386911 0.986844 1.67105 0 0 0 168 173 179 255
0.717008 1.04096 1.59775 0 0 0 45 47 55 255
0.146405 0.941739 1.7151 0 0 0 28 32 34 255
0.49457 0.989582 1.65098 0 0 0 161 164 171 255
0.0784795 1.05685 1.39659 0 0 0 159 163 165 255
0.110529 0.917419 1.80245 0 0 0 164 166 169 255
0.429867 0.963425 1.71845 0 0 0 42 46 50 255
0.269297 0.889349 1.9568 0 0 0 166 167 172 255
0.254956 0.931696 1.80612 0 0 0 161 162 167 255
0.212184 1.11385 1.25282 0 0 0 166 170 174 255
0.250101 1.14255 1.18926 0 0 0 28 30 35 255
0.382142 0.927512 1.78213 0 0 0 166 169 176 255
0.325134 0.870776 2.02979 0 0 0 38 42 46 255
0.429712 0.904259 1.83516 0 0 0 40 46 49 255
0.248776 0.890613 1.94783 0 0 0 164 168 172 255
0.303293 0.91046 1.86423 0 0 0 33 36 43 255
0.151288 0.895651 1.8447 0 0 0 29 30 33 255
0.118051 1.07426 1.30873 0 0 0 25 29 31 255
0.0371468 0.936871 1.73449 0 0 0 23 27 31 255
0.3293 0.904487 1.85416 0 0 0 31 36 42 255
0.195237 0.946172 1.60689 0 0 0 166 167 170 255
0.0744177 0.953255 1.64545 0 0 0 164 165 170 255
0.191698 1.05898 1.37532 0 0 0 167 173 176 255
0.359071 0.927369 1.77152 0 0 0 165 170 176 255
0.331642 1.06378 1.36842 0 0 0 167 172 174 255
0.352294 0.976252 1.64002 0 0 0 167 173 176 255
0.0656879 1.00176 1.51299 0 0 0 168 172 174 255
-0.0708614 0.937385 1.62919 0 0 0 169 169 173 255
0.100491 0.958699 1.6633 0 0 0 164 165 168 255
0.111655 0.918317 1.8019 0 0 0 158 159 162 255
0.428292 0.902445 1.83697 0 0 0 40 46 49 255
-0.0371529 0.956341 1.67775 0 0 0 152 153 156 255
-0.0172177 1.01375 1.4411 0 0 0 29 30 32 255
0.272419 0.885441 1.95699 0 0 0 164 165 170 255
-0.00373063 0.974007 1.58566 0 0 0 28 29 34 255
0.249046 1.14233 1.18758 0 0 0 28 30 35 255
0.392497 0.985986 1.67876 0 0 0 137 142 148 255
0.572341 0.967047 1.71697 0 0 0 31 36 44 255
0.120643 1.02041 1.43207 0 0 0 28 29 32 255
0.248114 0.976278 1.67836 0 0 0 164 166 163 255
0.410803 1.05399 1.45105 0 0 0 36 38 42 255
0.708329 1.03805 1.59329 0 0 0 44 44 52 255
0.483111 1.0351 1.5126 0 0 0 170 176 179 255
0.535268 0.995949 1.67698 0 0 0 167 170 177 255
0.551085 1.06029 1.43957 0 0 0 38 43 49 255
0.0489367 1.03894 1.36748 0 0 0 169 170 175 255
0.137374 0.933629 1.70984 0 0 0 27 28 30 255
0.116658 1.06817 1.30625 0 0 0 29 30 33 255
0.375289 1.02911 1.53242 0 0 0 137 141 145 255
0.340103 1.02025 1.50559 0 0 0 174 178 180 255
-0.0490834 1.00121 1.54012 0 0 0 162 161 165 255
0.524738 1.04916 1.54802 0 0 0 155 160 168 255
0.000342536 0.923764 1.70694 0 0 0 29 28 31 255
0.0617318 0.994381 1.50936 0 0 0 166 170 172 255
0.0952854 1.0134 1.54309 0 0 0 157 160 162 255
0.256481 1.08405 1.31207 0 0 0 29 33 37 255
0.237481 1.02094 1.5368 0 0 0 169 170 173 255
0.221115 1.05576 1.38633 0 0 0 162 166 170 255
0.216 1.11412 1.25624 0 0 0 167 171 175 255
0.0822105 1.05946 1.40068 0 0 0 164 168 170 255
0.154596 1.03025 1.45093 0 0 0 26 30 32 255
0.00396516 1.07708 1.34291 0 0 0 32 35 40 255
0.0867282 0.914386 1.79195 0 0 0 164 170 173 255
0.193997 0.945707 1.60625 0 0 0 166 167 170 255
0.620005 1.0424 1.50235 0 0 0 168 169 174 255
0.0164043 1.02371 1.46719 0 0 0 105 108 115 255
0.10956 1.07036 1.30115 0 0 0 24 25 28 255
0.101401 0.95941 1.66164 0 0 0 164 165 168 255
0.0844258 1.06028 1.40411 0 0 0 164 168 170 255
0.0444738 1.03599 1.36675 0 0 0 169 171 175 255
-0.0460956 1.00222 1.54354 0 0 0 169 168 171 255
0.534581 0.999396 1.67283 0 0 0 170 173 180 255
0.424352 0.90281 1.83643 0 0 0 45 51 54 255
0.284786 0.903793 1.84907 0 0 0 29 32 39 255
0.526404 1.04883 1.5502 0 0 0 155 160 168 255
0.21379 1.11319 1.25533 0 0 0 166 170 174 255
0.272431 0.885444 1.957 0 0 0 164 165 170 255
0.378788 1.03215 1.5325 0 0 0 167 171 176 255
0.319494 0.872468 2.03651 0 0 0 31 32 37 255
0.392842 0.926986 1.79241 0 0 0 161 165 169 255
0.100603 1.01919 1.54784 0 0 0 169 173 175 255
0.1163 0.916044 1.80838 0 0 0 154 155 158 255
-0.00705389 0.924048 1.70247 0 0 0 29 26 30 255
-0.0358368 0.96193 1.67904 0 0 0 165 166 169 255
0.273498 0.994276 1.58038 0 0 0 34 36 40 255
0.115877 1.01962 1.4285 0 0 0 26 25 28 255
0.560395 0.96635 1.71029 0 0 0 33 36 45 255
0.132119 0.989521 1.58403 0 0 0 22 26 30 255
0.390999 0.986424 1.67678 0 0 0 164 169 175 255
0.702101 1.03654 1.5906 0 0 0 44 44 52 255
0.251095 0.981745 1.67822 0 0 0 164 168 164 255
0.41843 0.963741 1.71766 0 0 0 39 39 47 255
0.220781 1.05644 1.38524 0 0 0 162 166 170 255
0.0526173 0.988835 1.49791 0 0 0 166 170 172 255
0.407016 1.05437 1.44798 0 0 0 38 39 44 255
-0.0184998 1.01178 1.44002 0 0 0 29 30 32 255
0.475581 1.03005 1.50539 0 0 0 166 172 175 255
0.259799 0.930427 1.81178 0 0 0 161 165 167 255
-0.0137246 0.972895 1.58 0 0 0 26 27 30 255
0.323544 1.05551 1.36102 0 0 0 169 174 177 255
0.17418 1.10177 1.2474 0 0 0 166 172 175 255
0.137755 1.12619 1.17801 0 0 0 22 25 32 255
-0.0250801 1.01216 1.4327 0 0 0 27 29 29 255
0.0880016 1.06781 1.40692 0 0 0 164 166 169 255
0.539663 0.99763 1.6777 0 0 0 174 178 182 255
0.224171 1.0583 1.38727 0 0 0 164 168 172 255
0.384872 1.03331 1.53843 0 0 0 167 170 177 255
0.100682 1.01552 1.54916 0 0 0 165 169 171 255
0.104458 0.959111 1.66623 0 0 0 167 167 170 255
0.267559 0.992012 1.57755 0 0 0 35 37 38 255
0.317893 0.875679 2.03745 0 0 0 31 30 35 255
0.390555 1.10086 1.31604 0 0 0 27 31 35 255
0.396594 0.987451 1.68106 0 0 0 161 166 172 255
0.250563 1.02976 1.42252 0 0 0 32 31 36 255
0.400222 1.048 1.44685 0 0 0 35 36 40 255
0.12779 0.984242 1.58302 0 0 0 25 28 32 255
0.5581 0.969542 1.70713 0 0 0 34 37 46 255
-0.0443787 1.0101 1.54504 0 0 0 169 168 171 255
-0.0164928 0.970156 1.57798 0 0 0 27 28 31 255
0.416106 0.903038 1.83222 0 0 0 37 41 45 255
0.279971 0.901019 1.84706 0 0 0 32 35 42 255
0.700185 1.03409 1.58992 0 0 0 43 43 51 255
-0.0156817 0.914331 1.69957 0 0 0 30 27 31 255
0.529886 1.05135 1.55075 0 0 0 164 167 174 255
0.12629 0.933278 1.69972 0 0 0 29 29 29 255
0.109004 1.01194 1.42559 0 0 0 28 27 30 255
0.238598 1.02071 1.5385 0 0 0 167 168 172 255
0.325495 1.0142 1.49419 0 0 0 169 178 180 255
0.247935 0.92691 1.66598 0 0 0 29 30 35 255
0.251783 0.977237 1.68203 0 0 0 156 158 156 255
0.0328663 1.03284 1.35607 0 0 0 168 170 174 255
0.247316 1.02501 1.54605 0 0 0 170 171 176 255
0.243461 1.08083 1.30035 0 0 0 24 25 30 255
0.272353 0.93275 1.82083 0 0 0 164 168 170 255
0.228502 1.11674 1.26063 0 0 0 168 172 176 255
0.111559 0.959888 1.67236 0 0 0 161 165 167 255
0.385106 1.09671 1.31027 0 0 0 26 30 34 255
-0.0297753 1.00671 1.43543 0 0 0 27 29 29 255
0.106703 1.02211 1.55591 0 0 0 167 171 173 255
0.232444 1.1328 1.17494 0 0 0 24 25 30 255
-0.0226714 0.967196 1.69989 0 0 0 162 163 168 255
0.704748 1.03624 1.59204 0 0 0 44 44 52 255
0.0907469 1.05868 1.41179 0 0 0 169 173 175 255
0.549576 1.02299 1.58793 0 0 0 32 35 44 255
0.264789 0.988916 1.69433 0 0 0 168 172 174 255
0.31593 0.878425 2.04047 0 0 0 30 29 34 255
0.126302 0.986271 1.5808 0 0 0 22 26 30 255
-0.0175492 0.914763 1.69747 0 0 0 30 27 31 255
0.395201 1.04695 1.44264 0 0 0 34 36 37 255
0.548183 0.997961 1.68441 0 0 0 172 176 180 255
0.558028 0.959757 1.71322 0 0 0 31 36 42 255
0.249391 0.924598 1.66809 0 0 0 28 29 34 255
0.308142 1.1208 1.24928 0 0 0 167 176 178 255
0.27232 0.901588 1.84065 0 0 0 28 32 36 255
0.203138 0.853675 2.01653 0 0 0 26 27 30 255
0.285809 1.10742 1.3384 0 0 0 29 33 35 255
0.795411 1.14882 1.44555 0 0 0 169 173 175 255
0.736842 1.16931 1.38176 0 0 0 36 40 42 255
0.353989 1.14147 1.27969 0 0 0 160 164 166 255
0.807962 1.15525 1.44481 0 0 0 32 36 38 255
0.746034 1.11711 1.52028 0 0 0 45 49 51 255
0.553114 1.1907 1.21726 0 0 0 37 42 44 255
0.565343 1.14315 1.36192 0 0 0 43 49 50 255
0.489211 1.20747 1.14439 0 0 0 157 161 163 255
0.514423 1.11122 1.42549 0 0 0 165 169 171 255
0.190925 0.906166 1.88042 0 0 0 29 33 35 255
0.721786 1.10886 1.50604 0 0 0 43 47 49 255
0.870965 1.11838 1.50039 0 0 0 52 58 59 255
0.665348 1.13253 1.44338 0 0 0 165 169 171 255
0.714877 1.16266 1.37251 0 0 0 26 30 32 255
0.66117 1.06175 1.53718 0 0 0 170 174 176 255
0.654835 1.18369 1.30567 0 0 0 164 170 171 255
0.818901 1.15573 1.45613 0 0 0 175 179 181 255
0.334585 0.916165 1.88411 0 0 0 26 32 33 255
-0.262793 0.954559 1.59209 0 0 0 34 40 41 255
0.503992 1.16557 1.29532 0 0 0 161 165 167 255
0.849743 1.14966 1.32911 0 0 0 53 59 60 255
-0.108235 0.628605 1.73279 0 0 0 48 47 52 255
0.493492 1.10496 1.41545 0 0 0 165 166 169 255
0.559669 1.1962 1.21159 0 0 0 163 169 170 255
0.816732 1.15173 1.45641 0 0 0 163 167 169 255
0.708865 1.1566 1.36769 0 0 0 43 47 49 255
0.338367 0.914944 1.88986 0 0 0 112 118 120 255
0.570313 1.0857 1.48707 0 0 0 45 49 51 255
0.719023 1.10779 1.50336 0 0 0 45 49 51 255
0.662735 1.0602 1.54128 0 0 0 162 166 168 255
0.515707 1.11357 1.42692 0 0 0 165 169 171 255
0.356205 1.14418 1.28119 0 0 0 160 164 166 255
0.665668 1.13003 1.44555 0 0 0 147 151 153 255
0.491357 1.20791 1.14626 0 0 0 151 157 158 255
0.658721 1.18558 1.30872 0 0 0 160 166 167 255
0.198741 0.854544 2.01849 0 0 0 56 60 62 255
0.73665 1.16769 1.38444 0 0 0 52 56 58 255
0.411535 1.11978 1.33909 0 0 0 36 40 42 255
0.846959 1.14919 1.32841 0 0 0 42 47 48 255
0.561301 1.13918 1.35887 0 0 0 40 46 47 255
0.870237 1.1181 1.50021 0 0 0 48 53 55 255
-0.262183 0.95418 1.59314 0 0 0 48 54 55 255
0.548525 1.18672 1.21374 0 0 0 38 42 44 255
0.28642 1.10801 1.33924 0 0 0 29 33 35 255
0.503975 1.16254 1.29595 0 0 0 136 140 142 255
0.785804 1.14098 1.43958 0 0 0 171 175 177 255
0.820978 1.15324 1.45948 0 0 0 161 165 167 255
0.704787 1.15633 1.36233 0 0 0 41 45 47 255
0.204553 0.850838 2.01728 0 0 0 32 33 36 255
-0.0754353 0.986752 1.50957 0 0 0 166 170 172 255
0.668762 1.13002 1.44775 0 0 0 144 148 150 255
0.51765 1.11415 1.42892 0 0 0 165 169 171 255
0.355783 1.14251 1.28127 0 0 0 145 149 151 255
0.71072 1.10326 1.49329 0 0 0 40 44 46 255
0.661211 1.18524 1.3116 0 0 0 160 166 167 255
0.345326 1.19263 1.15015 0 0 0 113 117 119 255
0.864868 1.11788 1.49906 0 0 0 46 50 52 255
0.492598 1.20564 1.1497 0 0 0 135 141 142 255
0.204369 0.849725 2.01914 0 0 0 128 129 132 255
0.670034 1.13438 1.44755 0 0 0 168 172 174 255
0.519077 1.11312 1.43031 0 0 0 170 175 176 255
-0.0762915 0.986642 1.50816 0 0 0 167 171 173 255
0.824755 1.15538 1.46232 0 0 0 170 174 176 255
0.669974 1.06279 1.54713 0 0 0 168 172 174 255
0.410546 1.0037 1.57345 0 0 0 38 44 45 255
0.359015 1.14233 1.2847 0 0 0 158 162 164 255
0.404008 1.11299 1.32932 0 0 0 36 40 42 255
0.781284 1.13855 1.43425 0 0 0 172 176 178 255
0.660763 1.18357 1.3124 0 0 0 156 165 165 255
0.841934 1.14851 1.32719 0 0 0 43 47 49 255
0.370645 1.08035 1.40141 0 0 0 169 173 175 255
0.206774 0.847482 2.0176 0 0 0 66 67 70 255
0.678563 1.13292 1.45594 0 0 0 165 169 171 255
0.677055 1.06687 1.55311 0 0 0 169 173 175 255
0.363777 1.14427 1.29008 0 0 0 164 168 170 255
0.213401 0.90695 1.76042 0 0 0 166 167 170 255
0.426392 0.962999 1.72333 0 0 0 35 39 41 255
0.199802 1.0042 1.5048 0 0 0 165 169 171 255
0.837395 1.15919 1.47514 0 0 0 174 178 180 255
0.706936 1.10174 1.4886 0 0 0 38 42 44 255
0.843606 1.1471 1.32823 0 0 0 53 57 59 255
-0.111775 0.968601 1.59852 0 0 0 32 35 37 255
0.0611531 0.890973 1.8838 0 0 0 27 28 33 255
0.265597 0.929581 1.8196 0 0 0 166 167 170 255
0.525365 1.11225 1.43638 0 0 0 164 170 171 255
-0.086822 0.9756 1.49476 0 0 0 166 170 172 255
0.363777 1.14427 1.29008 0 0 0 164 168 170 255
0.830696 1.15906 1.46856 0 0 0 173 177 179 255
0.677483 1.06469 1.55422 0 0 0 171 175 177 255
0.766872 1.13193 1.42306 0 0 0 174 178 180 255
0.698199 1.09418 1.47966 0 0 0 38 42 44 255
0.834595 1.14913 1.32607 0 0 0 42 46 48 255
0.339244 0.964886 1.6303 0 0 0 171 175 177 255
-0.0788435 0.930957 1.61584 0 0 0 168 169 172 255
0.0682592 0.95031 1.63935 0 0 0 169 170 175 255
0.855978 1.11426 1.49877 0 0 0 44 48 50 255
0.206971 0.849297 2.01482 0 0 0 38 39 42 255
0.106478 1.01463 1.42213 0 0 0 29 30 33 255
0.261111 0.992582 1.57238 0 0 0 31 32 35 255
0.263261 0.932698 1.81197 0 0 0 169 170 173 255
0.679731 1.06624 1.55656 0 0 0 171 175 177 255
-0.122334 1.02347 1.47451 0 0 0 24 27 29 255
0.243207 1.02769 1.53993 0 0 0 168 172 174 255
-0.152355 0.960796 1.57868 0 0 0 22 28 29 255
0.364756 1.14797 1.29045 0 0 0 166 170 172 255
0.548544 0.964904 1.70289 0 0 0 36 40 42 255
0.842648 1.11229 1.48982 0 0 0 40 44 46 255
-0.0905329 0.975527 1.49115 0 0 0 165 171 172 255
0.210515 0.846408 2.01289 0 0 0 32 33 36 255
0.696604 1.02782 1.59006 0 0 0 45 49 51 255
-0.0990991 0.922209 1.73269 0 0 0 25 31 32 255
0.478665 0.983286 1.6426 0 0 0 173 174 177 255
0.0129458 1.07961 1.34577 0 0 0 26 32 33 255
-0.034436 1.011 1.557 0 0 0 165 166 169 255
0.102775 1.06298 1.295 0 0 0 29 30 33 255
0.126563 0.919745 1.81409 0 0 0 167 169 172 255
0.23083 1.0618 1.39296 0 0 0 165 169 171 255
-0.158532 0.956765 1.58581 0 0 0 22 28 29 255
0.541444 1.11785 1.44938 0 0 0 167 173 174 255
0.849473 1.11057 1.49672 0 0 0 43 47 49 255
0.128579 0.886642 1.83056 0 0 0 28 32 34 255
0.406023 0.994612 1.68744 0 0 0 168 172 174 255
0.10471 1.01636 1.41989 0 0 0 29 30 33 255
0.825997 1.14337 1.32197 0 0 0 40 44 46 255
0.541973 1.0175 1.58417 0 0 0 38 39 42 255
0.262 0.868285 1.9193 0 0 0 170 170 178 255
-0.123897 1.02257 1.47367 0 0 0 26 30 32 255
0.17487 1.04412 1.3619 0 0 0 169 173 175 255
0.403527 0.933689 1.79473 0 0 0 167 173 174 255
0.562517 1.05533 1.44055 0 0 0 166 172 173 255
0.276167 0.849781 2.09082 0 0 0 52 55 62 255
0.561113 1.06409 1.42801 0 0 0 166 173 174 255
0.366848 0.852923 1.98342 0 0 0 53 57 61 255
0.45508 0.962639 1.72448 0 0 0 39 43 45 255
0.57272 1.06103 1.43946 0 0 0 39 43 45 255
0.595034 1.05563 1.29799 0 0 0 171 175 179 255
0.456256 0.961497 1.72571 0 0 0 39 42 45 255
0.572087 1.06147 1.4383 0 0 0 39 43 45 255
0.593257 1.05362 1.29837 0 0 0 165 169 173 255
0.574448 1.06001 1.44138 0 0 0 35 39 41 255
0.458547 0.960405 1.72727 0 0 0 55 58 60 255
0.200135 0.906729 1.88998 0 0 0 26 30 32 255
0.591572 1.05229 1.2972 0 0 0 166 170 173 255
0.416845 1.00242 1.58059 0 0 0 47 51 55 255
0.201461 0.907846 1.8907 0 0 0 23 27 29 255
0.147894 0.889304 1.84585 0 0 0 33 39 40 255
-0.146721 0.960381 1.58498 0 0 0 26 30 32 255
0.608191 1.03046 1.61189 0 0 0 36 40 42 255
0.145823 0.88885 1.84587 0 0 0 35 41 42 255
-0.256115 0.956534 1.59923 0 0 0 57 61 63 255
0.712423 1.03418 1.59925 0 0 0 37 41 43 255
0.189593 0.887126 1.85849 0 0 0 33 37 39 255
0.387865 0.929345 1.78233 0 0 0 163 166 173 255
0.192927 0.941956 1.60847 0 0 0 164 170 171 255
-0.00580593 0.920126 1.70674 0 0 0 25 32 32 255
0.138929 0.888827 1.83982 0 0 0 27 31 33 255
0.540855 1.05772 1.43188 0 0 0 34 38 40 255
0.115112 1.01416 1.42945 0 0 0 29 33 35 255
0.206408 0.850499 1.86477 0 0 0 162 166 170 255
0.06471 0.889971 1.73932 0 0 0 164 170 171 255
0.20273 0.901677 1.74738 0 0 0 164 167 169 255
0.607632 1.03115 1.61088 0 0 0 35 39 41 255
0.19168 0.88347 1.84373 0 0 0 24 28 30 255
-0.0857458 0.924413 1.61178 0 0 0 163 169 170 255
0.606169 1.02455 1.61549 0 0 0 66 70 72 255
-0.254542 0.962683 1.59834 0 0 0 26 27 30 255
0.119137 0.921061 1.80617 0 0 0 167 173 174 255
0.327469 0.964034 1.62109 0 0 0 166 175 175 255
0.394073 0.929301 1.78804 0 0 0 167 170 177 255
0.134309 0.892925 1.83271 0 0 0 29 33 35 255
0.642769 1.03336 1.36058 0 0 0 29 32 39 255
0.197198 0.902827 1.74582 0 0 0 167 173 174 255
-0.0260345 1.00453 1.438 0 0 0 30 31 34 255
0.190019 0.878316 1.8427 0 0 0 75 80 81 255
0.394434 1.03532 1.54745 0 0 0 162 171 173 255
0.618383 1.02396 1.61737 0 0 0 36 40 42 255
0.112042 0.964855 1.6694 0 0 0 169 173 175 255
0.264164 0.862768 1.91244 0 0 0 162 172 176 255
0.553919 1.06125 1.56899 0 0 0 168 176 181 255
0.555792 1.00275 1.68599 0 0 0 167 178 177 255
0.134228 0.923843 1.8193 0 0 0 165 171 172 255
0.114019 1.01871 1.56052 0 0 0 163 172 172 255
0.703524 1.07885 1.57588 0 0 0 170 176 177 255
-0.250797 0.961164 1.60278 0 0 0 26 27 30 255
0.121267 0.980999 1.57963 0 0 0 30 31 34 255
0.386562 1.09237 1.4129 0 0 0 158 169 168 255
0.408001 0.929296 1.80179 0 0 0 168 174 177 255
0.524809 1.04919 1.41839 0 0 0 35 36 39 255
0.216728 0.842048 2.00517 0 0 0 34 40 43 255
0.561464 1.03285 1.26561 0 0 0 170 174 176 255
0.597365 1.06584 1.45021 0 0 0 32 36 38 255
-0.0925291 0.92274 1.73771 0 0 0 26 30 32 255
0.552506 1.05788 1.43075 0 0 0 26 38 44 255
0.493936 1.07806 1.36706 0 0 0 163 173 184 255
0.639263 1.05032 1.50206 0 0 0 38 46 53 255
0.582132 1.03401 1.59677 0 0 0 178 194 200 255
0.582959 1.02272 1.60671 0 0 0 190 199 210 255
0.42948 1.05433 1.46181 0 0 0 175 185 191 255
0.656927 1.00767 1.66195 0 0 0 86 93 105 255
-0.199905 0.989975 1.54116 0 0 0 76 87 98 255
-0.0403543 0.0369016 2.3223 0 0 0 145 134 127 255
0.471861 1.07009 1.34937 0 0 0 179 184 194 255
0.19485 1.04853 1.36492 0 0 0 161 173 180 255
0.393816 0.892832 1.92418 0 0 0 46 55 66 255
0.513588 0.942265 1.77168 0 0 0 36 43 54 255
0.381229 0.479344 2.0833 0 0 0 150 161 177 255
-0.197223 0.937415 1.64431 0 0 0 49 61 69 255
-0.6586 0.342393 2.184 0 0 0 146 154 159 255
0.112896 0.878056 1.92983 0 0 0 48 60 71 255
0.637929 1.04232 1.51328 0 0 0 39 49 55 255
0.757377 0.695787 2.51573 0 0 0 41 46 53 255
0.33054 0.497438 2.1143 0 0 0 118 134 163 255
0.288521 0.637211 2.41813 0 0 0 176 192 203 255
0.0151308 0.538543 1.89833 0 0 0 157 157 165 255
0.30867 0.4291 2.11598 0 0 0 118 131 170 255
0.584211 1.03415 1.59716 0 0 0 164 176 182 255
0.495804 1.07984 1.36592 0 0 0 175 186 197 255
0.579605 1.02148 1.60593 0 0 0 182 191 202 255
0.426259 1.05209 1.46149 0 0 0 179 189 197 255
0.634837 1.05007 1.49754 0 0 0 37 42 50 255
-0.20087 0.988846 1.54041 0 0 0 32 43 54 255
0.471861 1.07009 1.34937 0 0 0 179 184 194 255
0.656454 1.01049 1.65956 0 0 0 47 54 65 255
-0.342589 0.543723 1.82268 0 0 0 143 156 160 255
0.347307 1.0757 1.37306 0 0 0 38 43 51 255
0.289116 0.641784 2.43501 0 0 0 176 184 189 255
-0.396279 0.271032 2.38574 0 0 0 134 142 149 255
-0.0449342 0.032323 2.32403 0 0 0 128 113 109 255
0.0201816 0.543362 1.90502 0 0 0 160 176 180 255
0.15489 0.98131 1.59682 0 0 0 177 189 197 255
0.425204 1.04963 1.46272 0 0 0 181 191 199 255
0.638066 1.05016 1.50059 0 0 0 49 56 63 255
0.581632 1.0188 1.60892 0 0 0 186 195 206 255
0.480318 1.07682 1.34758 0 0 0 45 49 59 255
0.657401 1.00981 1.66108 0 0 0 86 93 105 255
0.497124 1.07831 1.37154 0 0 0 122 133 144 255
0.556615 1.05117 1.44107 0 0 0 187 197 203 255
0.469896 1.06935 1.34793 0 0 0 182 187 197 255
0.635455 1.05104 1.49638 0 0 0 37 42 50 255
0.558419 1.05075 1.44267 0 0 0 184 195 201 255
0.496822 1.08009 1.36713 0 0 0 175 186 197 255
0.216472 0.855678 1.87801 0 0 0 179 193 203 255
0.33456 1.01403 1.50162 0 0 0 178 188 196 255
0.585896 1.06082 1.44761 0 0 0 43 43 53 255
0.46437 0.959086 1.72541 0 0 0 41 46 56 255
0.563614 1.04865 1.44769 0 0 0 184 196 202 255
0.590371 1.03722 1.59932 0 0 0 140 150 158 255
0.428762 1.06785 1.4509 0 0 0 172 184 190 255
0.45119 1.05929 1.4692 0 0 0 37 45 50 255
0.510325 1.05298 1.52405 0 0 0 41 49 56 255
0.316129 0.997657 1.59581 0 0 0 37 45 54 255
0.428331 1.04574 1.46677 0 0 0 178 190 198 255
0.325879 0.946618 1.72634 0 0 0 36 47 58 255
0.433509 0.900402 1.83787 0 0 0 72 83 94 255
0.459875 1.01423 1.60609 0 0 0 38 43 51 255
0.663099 1.01053 1.66377 0 0 0 92 99 111 255
0.0489869 0.939646 1.7441 0 0 0 32 40 49 255
0.464261 1.01442 1.60985 0 0 0 37 42 50 255
-0.0290528 0.965103 1.69112 0 0 0 170 184 189 255
0.463899 0.959944 1.72469 0 0 0 43 46 57 255
0.432001 0.995013 1.59927 0 0 0 178 192 199 255
0.321203 0.943912 1.72447 0 0 0 43 57 67 255
0.315912 0.995759 1.5994 0 0 0 38 46 55 255
0.05459 0.895873 1.87791 0 0 0 26 45 50 255
0.197106 0.95521 1.62422 0 0 0 173 188 195 255
0.194361 0.949977 1.75387 0 0 0 50 62 70 255
0.176378 0.992443 1.60109 0 0 0 37 49 57 255
-0.0780086 0.925542 1.61754 0 0 0 175 186 197 255
0.533344 1.04875 1.55863 0 0 0 153 170 174 255
0.462072 1.01138 1.61081 0 0 0 50 55 63 255
0.396725 1.00128 1.56464 0 0 0 34 44 50 255
0.410697 0.959993 1.71299 0 0 0 40 45 55 255
0.46868 0.958089 1.72524 0 0 0 41 45 56 255
0.479409 0.989468 1.63883 0 0 0 177 193 201 255
0.433332 0.991825 1.6012 0 0 0 177 192 199 255
0.435305 0.948927 1.74466 0 0 0 180 194 204 255
0.326835 0.947236 1.72685 0 0 0 36 47 58 255
0.318635 0.998033 1.59714 0 0 0 37 45 54 255
0.0716042 0.911999 1.77761 0 0 0 172 190 196 255
0.0539143 0.94158 1.74465 0 0 0 32 40 49 255
0.505751 1.00839 1.64352 0 0 0 35 43 50 255
0.336371 0.914094 1.75673 0 0 0 175 190 197 255
0.404901 0.981567 1.68358 0 0 0 168 187 195 255
0.276441 0.986445 1.70205 0 0 0 172 188 197 255
0.112775 0.922453 1.68569 0 0 0 32 40 49 255
0.476171 1.01159 1.61733 0 0 0 33 41 48 255
0.465936 0.981259 1.6311 0 0 0 175 194 202 255
0.193319 0.851881 1.85642 0 0 0 172 190 198 255
0.433605 0.942543 1.7318 0 0 0 179 195 204 255
0.326481 0.913786 1.74679 0 0 0 175 190 199 255
0.277787 0.925513 1.82285 0 0 0 169 188 196 255
0.276581 0.907358 1.8413 0 0 0 41 54 64 255
0.441848 0.989838 1.60794 0 0 0 176 193 199 255
0.148302 0.917142 1.72245 0 0 0 174 191 197 255
0.415884 0.897362 1.83356 0 0 0 39 46 58 255
0.484927 0.962955 1.73405 0 0 0 38 43 53 255
0.337487 0.942067 1.73257 0 0 0 43 52 63 255
0.270193 0.947161 1.72012 0 0 0 35 46 57 255
0.338088 0.887687 1.84925 0 0 0 43 59 68 255
0.0649992 0.895243 1.88292 0 0 0 31 45 52 255
0.0627868 0.942041 1.75269 0 0 0 33 41 50 255
0.0689862 0.907846 1.77722 0 0 0 172 189 195 255
0.207039 0.888024 1.85241 0 0 0 37 46 57 255
0.190525 0.89591 1.7413 0 0 0 173 189 198 255
0.0758977 1.05548 1.39093 0 0 0 171 185 192 255
0.280498 1.04516 1.43882 0 0 0 183 196 204 255
0.281238 1.03746 1.44974 0 0 0 187 197 205 255
0.435789 1.00696 1.59448 0 0 0 191 206 215 255
-0.700995 0.283045 2.08771 0 0 0 139 151 156 255
0.046129 0.895097 1.87725 0 0 0 62 83 92 255
0.475469 1.0088 1.47647 0 0 0 36 49 58 255
0.298247 1.00269 1.58547 0 0 0 183 196 207 255
0.855636 0.819031 2.24742 0 0 0 148 168 192 255
-0.0500874 0.897633 1.76553 0 0 0 83 97 104 255
-0.107905 0.606705 1.7395 0 0 0 81 92 106 255
-0.741175 0.532323 2.1856 0 0 0 40 58 55 255
0.890399 0.811378 2.29295 0 0 0 137 162 188 255
-0.479728 0.16473 2.27511 0 0 0 142 156 135 255
0.435874 1.0049 1.59645 0 0 0 196 211 218 255
0.277207 1.04377 1.43697 0 0 0 175 190 197 255
0.281572 1.03617 1.45126 0 0 0 183 194 202 255
0.434359 1.01598 1.58238 0 0 0 186 204 217 255
-0.13169 1.02129 1.47179 0 0 0 70 90 95 255
0.438705 1.00378 1.60037 0 0 0 192 208 215 255
0.351799 0.971732 1.64439 0 0 0 188 202 207 255
0.354318 0.923138 1.77199 0 0 0 183 197 207 255
0.136619 0.985576 1.58727 0 0 0 42 52 60 255
0.43336 1.00026 1.59726 0 0 0 193 210 216 255
0.283796 1.0481 1.43992 0 0 0 178 190 198 255
0.351463 0.922563 1.76937 0 0 0 187 203 212 255
0.443999 1.00069 1.60635 0 0 0 191 207 216 255
0.38386 1.02938 1.54143 0 0 0 168 187 195 255
0.26272 0.92606 1.67771 0 0 0 43 58 68 255
0.287517 0.98338 1.59068 0 0 0 188 204 213 255
0.280193 1.0293 1.45451 0 0 0 181 198 204 255
0.303916 1.04604 1.46288 0 0 0 43 52 59 255
0.104474 0.962982 1.66112 0 0 0 174 193 199 255
0.403568 0.99811 1.57076 0 0 0 36 50 60 255
0.390443 1.01225 1.40216 0 0 0 188 204 215 255
0.419207 1.03098 1.41072 0 0 0 45 55 63 255
0.396192 0.994341 1.56638 0 0 0 38 50 58 255
0.286034 1.00775 1.57249 0 0 0 176 198 207 255
0.287179 0.928216 1.72021 0 0 0 183 202 210 255
-0.0235187 0.972851 1.69824 0 0 0 180 196 204 255
0.318733 0.959049 1.61639 0 0 0 183 205 214 255
0.431064 1.02425 1.57486 0 0 0 183 205 217 255
0.519159 1.00891 1.6543 0 0 0 41 49 58 255
0.183374 0.9484 1.61575 0 0 0 177 200 207 255
0.420185 0.998813 1.69657 0 0 0 184 207 214 255
0.126744 0.970796 1.68308 0 0 0 176 199 208 255
0.306272 0.891524 1.97891 0 0 0 176 202 209 255
-0.0133364 0.919429 1.69871 0 0 0 33 44 57 255
0.287573 0.98348 1.60692 0 0 0 184 203 211 255
0.449834 1.02822 1.58857 0 0 0 183 199 210 255
0.415059 0.935048 1.8052 0 0 0 187 208 215 255
0.333965 1.00298 1.60674 0 0 0 41 49 58 255
0.355511 0.903369 1.86631 0 0 0 47 56 67 255
0.182605 0.94729 1.61735 0 0 0 177 200 207 255
0.295445 0.992265 1.59246 0 0 0 197 210 220 255
0.227901 0.975592 1.64947 0 0 0 40 50 58 255
0.329896 0.997517 1.45647 0 0 0 52 57 69 255
0.290343 0.93691 1.70497 0 0 0 178 189 201 255
-0.110317 0.620804 1.73661 0 0 0 165 186 206 255
0.13839 1.02343 1.44533 0 0 0 179 191 201 255
-0.597611 0.260515 2.17697 0 0 0 13 23 27 255
0.301003 0.437401 2.1209 0 0 0 19 36 67 255
0.58519 0.584811 2.62392 0 0 0 53 70 93 255
0.321405 0.479845 2.11258 0 0 0 119 151 177 255
-0.700033 0.299204 2.08835 0 0 0 141 151 157 255
0.00125163 0.774346 1.83841 0 0 0 78 108 121 255
-0.342974 0.535043 1.87218 0 0 0 166 178 182 255
-0.608667 0.255014 2.16143 0 0 0 108 119 117 255
-0.0656102 0.997241 1.51485 0 0 0 37 50 59 255
0.668799 0.64655 2.85352 0 0 0 63 69 103 255
0.509529 0.937547 1.77219 0 0 0 133 145 153 255
0.294852 0.990905 1.59321 0 0 0 187 208 215 255
0.325125 0.996963 1.45067 0 0 0 46 50 63 255
0.442918 0.969032 1.71597 0 0 0 190 202 213 255
0.29176 0.94172 1.68939 0 0 0 186 202 209 255
0.136136 1.02138 1.44527 0 0 0 177 192 199 255
0.320789 0.479345 2.11252 0 0 0 110 133 161 255
0.082949 0.961649 1.64252 0 0 0 40 57 63 255
0.326037 0.996774 1.45225 0 0 0 51 56 69 255
0.140404 1.02067 1.44955 0 0 0 174 189 196 255
0.508474 0.937114 1.77157 0 0 0 180 192 201 255
-0.347972 0.535139 1.86537 0 0 0 169 184 189 255
0.324782 0.99782 1.44893 0 0 0 46 49 62 255
0.373742 0.97536 1.67155 0 0 0 39 50 61 255
0.449265 0.969716 1.71722 0 0 0 181 192 203 255
0.29181 0.942637 1.68798 0 0 0 186 202 209 255
0.294691 0.988142 1.5945 0 0 0 184 208 214 255
0.146288 0.979087 1.59129 0 0 0 178 194 203 255
0.243318 0.995198 1.38631 0 0 0 190 201 212 255
0.372523 0.849325 1.99217 0 0 0 101 117 126 255
0.32709 1.00021 1.44875 0 0 0 44 47 60 255
0.148698 0.97449 1.59381 0 0 0 181 200 209 255
0.303082 1.0071 1.58637 0 0 0 181 197 206 255
0.172552 0.988629 1.60196 0 0 0 49 59 69 255
0.381126 0.993186 1.65658 0 0 0 47 58 69 255
0.30064 0.947289 1.69585 0 0 0 176 189 196 255
0.37992 0.847999 1.99845 0 0 0 70 86 95 255
0.435122 0.945375 1.72494 0 0 0 191 206 220 255
0.450612 0.972878 1.71676 0 0 0 201 212 223 255
0.33203 0.960369 1.6262 0 0 0 189 206 213 255
0.298457 1.00851 1.58193 0 0 0 186 203 212 255
0.183324 0.994988 1.48806 0 0 0 183 199 210 255
-0.00923003 0.969599 1.58496 0 0 0 45 55 63 255
0.382032 0.848952 2.00039 0 0 0 51 66 73 255
0.288692 0.97458 1.43107 0 0 0 188 204 215 255
0.443668 0.976868 1.7128 0 0 0 192 208 219 255
0.286343 0.97703 1.58994 0 0 0 191 205 215 255
0.144385 1.00037 1.57942 0 0 0 175 196 205 255
0.335258 0.923801 1.7515 0 0 0 187 206 214 255
0.0467816 0.93606 1.61133 0 0 0 178 199 208 255
0.297317 0.942232 1.84312 0 0 0 182 204 216 255
0.257345 0.951876 1.65779 0 0 0 179 202 214 255
0.294273 0.920649 1.71587 0 0 0 186 205 215 255
-0.0142073 0.975339 1.70431 0 0 0 171 194 203 255
0.280586 0.947379 1.67429 0 0 0 183 204 213 255
0.29631 0.892647 1.96542 0 0 0 181 204 213 255
0.183787 0.899366 1.73367 0 0 0 182 203 212 255
0.34463 0.956266 1.73642 0 0 0 40 48 55 255
-0.014716 0.929811 1.71559 0 0 0 35 44 57 255
0.149319 0.975372 1.61692 0 0 0 183 204 213 255
-0.0965651 0.926251 1.73121 0 0 0 34 47 57 255
0.0484086 0.938501 1.61247 0 0 0 178 199 208 255
0.197704 0.941474 1.72927 0 0 0 43 54 67 255
0.376015 0.961207 1.67521 0 0 0 39 48 59 255
0.101428 0.922439 1.79117 0 0 0 68 80 88 255
-0.603647 0.237774 2.08925 0 0 0 132 148 129 255
-0.64238 0.25029 2.06713 0 0 0 92 107 95 255
-0.638183 0.251684 2.07609 0 0 0 112 129 104 255
-0.564171 0.132907 2.10259 0 0 0 107 122 110 255
-0.568486 0.134313 2.0971 0 0 0 124 139 125 255
0.461564 0.40544 2.07115 0 0 0 105 134 163 255
-0.598899 0.273043 2.08647 0 0 0 99 119 122 255
-0.6882 0.147603 1.86865 0 0 0 108 131 113 255
0.0893038 0.956028 1.6595 0 0 0 74 90 99 255
0.213458 0.947824 1.62587 0 0 0 77 86 97 255
-0.676731 0.16245 1.99921 0 0 0 46 60 52 255
0.24213 0.933682 1.79337 0 0 0 74 82 91 255
0.367413 0.930087 1.76303 0 0 0 65 78 88 255
0.263787 0.88341 1.96243 0 0 0 77 97 109 255
-0.462346 0.285658 2.23997 0 0 0 110 120 127 255
0.0198008 0.936292 1.71756 0 0 0 163 183 190 255
0.262508 0.901006 1.9559 0 0 0 68 72 87 255
0.280865 0.424908 2.14757 0 0 0 100 125 151 255
0.239311 0.933109 1.79326 0 0 0 75 84 93 255
0.213986 0.947094 1.62875 0 0 0 61 69 79 255
0.363007 0.930203 1.75828 0 0 0 45 55 63 255
0.0961474 0.920855 1.78839 0 0 0 85 99 109 255
0.104142 0.91312 1.80704 0 0 0 62 76 88 255
-0.640264 0.251835 2.07349 0 0 0 101 116 104 255
0.295147 0.935096 1.71333 0 0 0 187 201 209 255
0.367535 0.929845 1.76382 0 0 0 101 113 124 255
0.2407 0.933411 1.79339 0 0 0 75 84 93 255
0.0968973 0.92113 1.78871 0 0 0 85 99 109 255
0.312102 0.944989 1.71128 0 0 0 49 59 67 255
0.363765 0.930377 1.75868 0 0 0 68 79 89 255
0.16905 0.939021 1.74232 0 0 0 187 201 211 255
0.214546 0.946013 1.63159 0 0 0 48 56 66 255
0.245456 0.936728 1.79368 0 0 0 69 79 87 255
0.263356 0.903678 1.9543 0 0 0 47 56 69 255
0.220675 0.945932 1.63833 0 0 0 42 51 62 255
0.000181123 0.919792 1.70985 0 0 0 66 82 91 255
0.367602 0.930475 1.76199 0 0 0 65 78 88 255
0.288845 0.925336 1.71052 0 0 0 186 203 212 255
0.208134 0.953915 1.59926 0 0 0 50 59 70 255
0.191249 0.952524 1.74884 0 0 0 47 58 69 255
0.372734 0.935263 1.7632 0 0 0 44 54 63 255
0.248211 0.940398 1.79427 0 0 0 54 64 72 255
0.364026 0.93321 1.75514 0 0 0 35 45 53 255
0.289754 0.946959 1.68287 0 0 0 185 202 208 255
0.239421 0.955995 1.63475 0 0 0 185 205 213 255
0.202526 0.952306 1.59305 0 0 0 40 49 60 255
0.1286 0.92749 1.70464 0 0 0 43 54 65 255
0.0473905 0.934762 1.61987 0 0 0 178 199 206 255
0.0126514 0.940269 1.70542 0 0 0 169 195 201 255
0.0870346 0.922219 1.77522 0 0 0 74 90 99 255
0.234453 0.938789 1.77986 0 0 0 47 56 65 255
0.248827 0.917752 1.82453 0 0 0 42 53 66 255
0.240878 0.944566 1.78366 0 0 0 44 54 62 255
0.287341 0.93445 1.83575 0 0 0 174 200 208 255
0.227397 0.916066 1.90642 0 0 0 45 61 72 255
0.143782 0.924416 1.83256 0 0 0 177 198 207 255
0.274281 0.893776 1.84497 0 0 0 46 60 72 255
0.128156 0.928557 1.7038 0 0 0 43 54 65 255
0.215168 0.963049 1.60427 0 0 0 36 44 56 255
0.217442 0.849061 2.00662 0 0 0 49 65 74 255
0.260066 0.967847 1.65453 0 0 0 187 206 214 255
0.217012 0.933561 1.63898 0 0 0 38 49 60 255
0.251867 0.890353 1.9143 0 0 0 48 57 70 255
0.335758 0.896082 1.90615 0 0 0 183 206 213 255
0.156449 0.955312 1.70906 0 0 0 178 199 206 255
0.170013 0.871422 1.86527 0 0 0 186 207 214 255
0.278679 0.912956 1.69956 0 0 0 185 204 212 255
0.0319781 0.952869 1.72437 0 0 0 177 198 205 255
0.386628 0.89765 1.92001 0 0 0 62 73 83 255
0.390452 0.869384 2.04072 0 0 0 50 63 74 255
-0.0968433 0.637594 1.74732 0 0 0 83 103 118 255
0.292833 0.426688 2.13305 0 0 0 135 165 200 255
-0.420601 0.22828 2.2833 0 0 0 121 129 136 255
-0.47911 0.167991 2.18954 0 0 0 130 145 129 255
0.123076 0.0615852 2.37197 0 0 0 131 128 132 255
-0.712289 0.51067 2.02272 0 0 0 58 83 79 255
-0.699494 0.238088 1.98072 0 0 0 118 137 126 255
0.345266 0.464787 2.09416 0 0 0 58 83 97 255
0.348913 0.442858 2.08655 0 0 0 60 84 102 255
0.43969 0.540556 2.10159 0 0 0 135 172 208 255
-0.0483235 0.0371381 2.32807 0 0 0 168 157 154 255
-0.6414 0.339107 2.10805 0 0 0 162 171 180 255
0.405895 0.900495 1.94774 0 0 0 113 128 142 255
0.409221 0.464975 2.07696 0 0 0 70 88 105 255
-0.378086 0.181149 2.30439 0 0 0 146 161 148 255
0.128031 0.055378 2.37177 0 0 0 130 127 131 255
-0.461731 0.205817 2.23207 0 0 0 129 150 129 255
0.312524 0.424564 2.11413 0 0 0 83 125 171 255
0.181087 0.0617462 2.38071 0 0 0 146 144 145 255
0.178624 0.055295 2.37864 0 0 0 114 114 114 255
-0.471493 0.653661 2.37686 0 0 0 150 166 177 255
-0.600007 0.259706 2.12956 0 0 0 122 138 138 255
0.267231 0.479316 2.16177 0 0 0 122 158 185 255
-0.101464 0.630123 1.75075 0 0 0 156 191 210 255
-0.687236 0.302358 2.02742 0 0 0 110 127 133 255
-0.414317 0.21474 2.2853 0 0 0 13 21 28 255
-0.58421 0.251458 2.09917 0 0 0 120 130 137 255
0.457328 0.547235 2.10665 0 0 0 54 76 103 255
-0.590237 0.258245 2.09365 0 0 0 19 31 37 255
0.743349 0.693714 2.51749 0 0 0 62 59 71 255
0.365125 0.0565717 2.41575 0 0 0 136 135 140 255
-0.695557 0.117809 1.94823 0 0 0 155 174 163 255
0.52214 0.338292 2.08972 0 0 0 128 167 200 255
0.18634 0.0555858 2.38187 0 0 0 110 110 109 255
-0.0979671 0.644338 1.74669 0 0 0 88 98 114 255
0.319253 0.422986 2.10973 0 0 0 21 60 103 255
-0.450697 0.0924396 2.22469 0 0 0 133 152 137 255
0.334913 0.239868 2.06391 0 0 0 122 169 189 255
-0.681971 0.286651 2.03368 0 0 0 38 52 55 255
0.103415 0.0539073 2.36823 0 0 0 111 110 113 255
-0.117912 0.466105 1.85165 0 0 0 197 161 171 255
0.420909 0.0568713 2.42102 0 0 0 124 125 128 255
0.400675 0.468695 2.08146 0 0 0 86 104 119 255
-0.530478 0.245468 2.1826 0 0 0 144 154 162 255
-0.816139 0.409733 2.02718 0 0 0 123 130 132 255
0.0696011 0.0600146 2.36023 0 0 0 131 133 139 255
-0.377104 0.18074 2.30309 0 0 0 138 156 141 255
-0.711942 0.511443 2.0217 0 0 0 58 83 79 255
-0.480215 0.166861 2.18953 0 0 0 122 138 121 255
0.4376 0.537883 2.0996 0 0 0 74 126 157 255
0.348066 0.442298 2.08712 0 0 0 97 118 130 255
-0.59684 0.25401 2.07942 0 0 0 96 113 110 255
0.40569 0.901196 1.94651 0 0 0 113 128 142 255
0.455508 0.5454 2.10666 0 0 0 125 137 159 255
0.3017 0.488929 2.12425 0 0 0 156 172 188 255
-0.456539 0.094893 2.227 0 0 0 143 162 133 255
0.389205 0.867428 2.0416 0 0 0 140 156 167 255
0.124652 0.0608674 2.37231 0 0 0 126 123 127 255
0.294136 0.427924 2.13124 0 0 0 135 165 200 255
-0.589878 0.258769 2.0937 0 0 0 19 31 37 255
-0.643202 0.341494 2.11052 0 0 0 121 129 138 255
-0.689542 0.281408 2.03314 0 0 0 96 104 111 255
-0.393272 0.27009 2.32184 0 0 0 141 156 163 255
-0.0962389 0.636696 1.74709 0 0 0 113 137 154 255
-0.100957 0.615295 1.75374 0 0 0 106 114 127 255
-0.699494 0.238088 1.98072 0 0 0 118 137 126 255
-0.0998552 0.641423 1.74669 0 0 0 77 89 105 255
-0.0455326 0.0366021 2.34062 0 0 0 170 159 156 255
0.333581 0.23418 2.0611 0 0 0 74 130 155 255
0.344355 0.464757 2.09519 0 0 0 64 89 102 255
-0.462299 0.203367 2.22655 0 0 0 123 145 123 255
0.73784 0.693971 2.51172 0 0 0 97 95 106 255
-0.687134 0.299541 2.02877 0 0 0 138 152 158 255
-0.696382 0.11644 1.94823 0 0 0 122 140 138 255
0.368324 0.418806 2.07615 0 0 0 90 138 174 255
-0.245698 0.636914 2.56491 0 0 0 72 88 94 255
-0.419377 0.22776 2.28319 0 0 0 135 143 150 255
0.308337 0.906091 1.83718 0 0 0 194 208 218 255
-0.0504569 0.0338545 2.30978 0 0 0 170 159 160 255
-0.395612 0.275551 2.3238 0 0 0 124 139 146 255
0.404545 0.902995 1.94634 0 0 0 118 132 144 255
0.302572 0.888047 1.84689 0 0 0 208 227 240 255
0.320285 0.472569 2.11302 0 0 0 100 134 162 255
0.284039 0.433641 2.14313 0 0 0 106 137 143 255
-0.712264 0.509954 2.0234 0 0 0 120 149 140 255
0.388626 0.867887 2.04329 0 0 0 215 232 242 255
-0.639238 0.337084 2.1049 0 0 0 104 112 121 255
-0.099916 0.638588 1.74666 0 0 0 76 94 110 255
-0.698754 0.235276 1.97966 0 0 0 125 146 131 255
-0.478854 0.162594 2.18797 0 0 0 127 143 121 255
-0.101882 0.613807 1.7549 0 0 0 81 92 105 255
-0.692573 0.0972466 1.9563 0 0 0 136 156 140 255
0.293144 0.427966 2.13261 0 0 0 135 165 200 255
-0.453637 0.0949974 2.22591 0 0 0 146 166 139 255
0.739772 0.692703 2.51473 0 0 0 118 116 126 255
-0.246724 0.63781 2.56962 0 0 0 48 61 68 255
-0.376735 0.176669 2.30162 0 0 0 127 145 130 255
0.330563 0.421223 2.10427 0 0 0 95 137 177 255
-0.696967 0.116393 1.94857 0 0 0 122 140 138 255
0.30048 0.487087 2.12646 0 0 0 156 172 188 255
-0.465555 0.202385 2.23055 0 0 0 123 145 119 255
-0.707648 -0.0476081 1.97129 0 0 0 79 90 89 255
-0.320914 0.0516887 2.34702 0 0 0 100 111 110 255
0.343873 0.465156 2.0958 0 0 0 64 89 102 255
0.271806 0.484356 2.17119 0 0 0 122 158 185 255
0.307713 0.90974 1.83624 0 0 0 200 216 227 255
-0.394379 0.279107 2.32475 0 0 0 160 177 183 255
0.248901 0.893943 1.96321 0 0 0 201 219 230 255
-0.642958 0.342094 2.10963 0 0 0 146 156 164 255
0.259306 0.83258 2.06169 0 0 0 145 165 177 255
0.389273 0.868302 2.04142 0 0 0 140 156 167 255
0.40383 0.904172 1.94538 0 0 0 118 132 144 255
-0.4748 0.160967 2.18802 0 0 0 141 157 135 255
-0.0487601 0.0340888 2.30795 0 0 0 170 159 160 255
0.267103 0.901125 1.95139 0 0 0 51 66 77 255
0.301065 0.888307 1.84819 0 0 0 208 227 239 255
-0.101322 0.636997 1.74722 0 0 0 74 92 109 255
-0.696666 0.235512 1.97947 0 0 0 125 146 131 255
0.747024 0.694803 2.52135 0 0 0 87 85 95 255
-0.694887 0.117206 1.94749 0 0 0 149 168 159 255
-0.10444 0.610699 1.75606 0 0 0 67 81 96 255
0.297378 0.489828 2.12744 0 0 0 152 170 189 255
-0.24788 0.640508 2.56022 0 0 0 106 123 129 255
-0.717428 0.512939 2.02206 0 0 0 60 87 81 255
-0.490387 0.0978765 2.16233 0 0 0 91 102 87 255
-0.503038 0.122524 2.17652 0 0 0 103 115 104 255
-0.714131 0.510587 2.02223 0 0 0 79 106 99 255
0.310167 0.907945 1.83539 0 0 0 199 215 226 255
0.26875 0.897764 1.95227 0 0 0 124 143 153 255
0.320343 0.888562 1.84025 0 0 0 57 67 78 255
-0.613944 0.242622 2.12418 0 0 0 142 168 138 255
-0.0484482 0.0308764 2.30852 0 0 0 170 158 160 255
0.392964 0.861922 2.04356 0 0 0 172 188 196 255
-0.698713 0.233539 1.97909 0 0 0 121 141 127 255
-0.635159 0.245842 2.07088 0 0 0 116 130 111 255
-0.393911 0.275964 2.3237 0 0 0 162 178 185 255
-0.637876 0.337144 2.10441 0 0 0 135 143 152 255
-0.692232 0.12109 1.94829 0 0 0 154 173 161 255
-0.511259 0.310264 2.25319 0 0 0 147 158 172 255
0.303613 0.879881 1.84198 0 0 0 205 225 237 255
0.749418 0.689119 2.52024 0 0 0 134 135 146 255
0.303242 0.424948 2.11995 0 0 0 10 55 103 255
-0.248228 0.640298 2.56484 0 0 0 96 109 116 255
-0.694184 0.13179 1.94827 0 0 0 153 172 153 255
-0.498322 0.119693 2.17883 0 0 0 115 129 110 255
-0.102305 0.634408 1.74841 0 0 0 102 128 147 255
-0.698065 0.0943637 1.9906 0 0 0 151 167 154 255
-0.475929 0.0719199 2.18501 0 0 0 143 161 128 255
0.297984 0.488314 2.12875 0 0 0 154 169 183 255
0.619508 0.0501368 2.46988 0 0 0 36 31 34 255
0.298981 0.887239 1.85117 0 0 0 207 227 241 255
-0.0363716 0.0305274 2.34317 0 0 0 171 162 161 255
0.311196 0.663913 2.53109 0 0 0 191 194 201 255
0.746534 0.69292 2.52224 0 0 0 87 85 95 255
-0.633865 0.244854 2.0699 0 0 0 129 143 124 255
0.388868 0.867954 2.04326 0 0 0 140 156 167 255
-0.49793 0.116223 2.17691 0 0 0 116 130 111 255
0.30841 0.910829 1.83464 0 0 0 200 216 227 255
0.271765 0.855426 2.09741 0 0 0 83 101 114 255
0.257569 0.871219 1.96853 0 0 0 43 62 75 255
0.319602 0.8868 1.83892 0 0 0 66 77 88 255
-0.517332 0.31321 2.23293 0 0 0 179 193 206 255
0.246201 0.896595 1.96299 0 0 0 202 221 232 255
