ply
format ascii 1.0
comment VCGLIB generated
element vertex 220
property float x
property float y
property float z
property float nx
property float ny
property float nz
property uchar red
property uchar green
property uchar blue
property uchar alpha
element face 0
property list uchar int vertex_indices
end_header
0.847862 0.819243 2.39933 0 0 0 169 156 165 255 
0.936211 0.828289 2.31201 0 0 0 76 87 100 255 
0.853306 0.823911 2.39237 0 0 0 158 152 162 255 
0.840291 0.822437 2.38732 0 0 0 152 146 153 255 
0.741255 0.830072 2.27073 0 0 0 98 74 50 255 
0.884377 0.82737 2.32511 0 0 0 119 127 145 255 
0.846162 0.819058 2.39875 0 0 0 151 138 146 255 
0.852808 0.82463 2.39062 0 0 0 158 152 162 255 
0.935786 0.814763 2.42264 0 0 0 85 92 106 255 
0.849182 0.822437 2.39375 0 0 0 166 153 162 255 
0.848665 0.816468 2.40861 0 0 0 119 101 110 255 
1.13325 0.845341 1.42663 0 0 0 180 211 227 255 
1.13508 0.845197 1.42682 0 0 0 146 177 192 255 
0.855636 0.819031 2.24742 0 0 0 148 168 192 255 
0.890399 0.811378 2.29295 0 0 0 137 162 188 255 
0.730671 0.823973 2.20296 0 0 0 154 173 189 255 
0.73783 0.813632 2.22577 0 0 0 86 82 78 255 
0.737143 0.817902 2.21538 0 0 0 95 101 113 255 
0.835804 0.789368 2.31939 0 0 0 189 199 218 255 
0.832863 0.794192 2.3112 0 0 0 165 182 198 255 
0.834579 0.78852 2.32084 0 0 0 170 172 195 255 
0.767625 0.831094 2.20254 0 0 0 188 194 197 255 
0.835406 0.787906 2.32193 0 0 0 170 172 195 255 
0.891325 0.815294 2.26259 0 0 0 92 114 146 255 
0.860724 0.816463 2.26269 0 0 0 188 208 244 255 
0.975343 0.752796 2.43696 0 0 0 109 119 136 255 
0.929306 0.80463 2.29598 0 0 0 103 123 167 255 
0.88734 0.808661 2.2962 0 0 0 183 201 240 255 
0.856291 0.817281 2.26331 0 0 0 138 157 188 255 
0.891101 0.816579 2.26657 0 0 0 91 111 141 255 
0.889677 0.808636 2.30605 0 0 0 120 140 182 255 
0.887891 0.816408 2.26908 0 0 0 90 108 136 255 
0.853049 0.811549 2.25531 0 0 0 118 135 168 255 
0.742094 0.825192 2.21523 0 0 0 185 190 200 255 
0.926194 0.782814 2.35232 0 0 0 137 155 190 255 
0.836158 0.830761 2.22856 0 0 0 140 156 179 255 
0.852305 0.818485 2.25956 0 0 0 130 149 180 255 
0.88394 0.808543 2.29037 0 0 0 183 201 240 255 
0.924344 0.785337 2.35211 0 0 0 166 184 222 255 
0.86013 0.776682 2.37895 0 0 0 142 169 205 255 
0.897345 0.809778 2.29825 0 0 0 159 177 213 255 
0.846009 0.825593 2.23008 0 0 0 179 200 231 255 
0.928167 0.785325 2.34808 0 0 0 183 201 239 255 
0.8602 0.819538 2.25047 0 0 0 183 206 244 255 
0.879875 0.770767 2.38569 0 0 0 163 184 223 255 
0.731356 0.817459 2.22247 0 0 0 93 96 69 255 
0.874223 0.772297 2.38705 0 0 0 150 170 223 255 
0.816394 0.786399 2.32991 0 0 0 78 71 78 255 
0.776519 0.835287 2.20766 0 0 0 153 159 162 255 
1.02324 0.771433 2.39281 0 0 0 171 210 244 255 
0.938633 0.780549 2.3587 0 0 0 147 173 206 255 
0.934916 0.807021 2.28745 0 0 0 176 220 254 255 
0.940373 0.78083 2.3581 0 0 0 147 173 206 255 
0.842161 0.793136 2.31693 0 0 0 157 174 194 255 
1.02068 0.772038 2.39497 0 0 0 165 203 237 255 
0.927253 0.812338 2.32096 0 0 0 68 114 144 255 
0.926977 0.82375 2.2234 0 0 0 144 220 255 255 
0.763915 0.83322 2.21029 0 0 0 193 193 193 255 
0.931156 0.808502 2.32759 0 0 0 62 118 149 255 
0.946879 0.828539 2.21531 0 0 0 153 220 254 255 
0.935895 0.826936 2.22086 0 0 0 132 196 230 255 
0.843874 0.819654 2.23272 0 0 0 156 193 215 255 
0.928944 0.810405 2.34029 0 0 0 73 109 150 255 
0.92658 0.809322 2.34546 0 0 0 76 112 153 255 
0.8135 0.780699 2.33181 0 0 0 90 65 55 255 
0.966898 0.789443 2.34533 0 0 0 116 170 202 255 
0.954008 0.78435 2.33372 0 0 0 171 218 246 255 
0.981693 0.762696 2.43096 0 0 0 151 170 180 255 
1.03653 0.766603 2.38692 0 0 0 143 167 185 255 
0.964789 0.743956 2.42948 0 0 0 164 174 176 255 
1.27516 0.713258 2.53668 0 0 0 149 150 149 255 
0.932545 0.809844 2.30676 0 0 0 67 100 131 255 
0.837715 0.791856 2.32834 0 0 0 175 171 182 255 
0.924536 0.789889 2.3571 0 0 0 147 169 192 255 
1.28336 0.731453 2.57208 0 0 0 145 138 133 255 
0.890461 0.824557 2.27136 0 0 0 52 67 92 255 
1.38875 0.861886 2.17848 0 0 0 84 93 104 255 
0.859588 0.824343 2.27832 0 0 0 170 196 217 255 
0.876193 0.81111 2.28528 0 0 0 141 169 191 255 
0.886307 0.825611 2.34865 0 0 0 132 166 185 255 
0.877539 0.819579 2.31245 0 0 0 145 178 199 255 
0.857918 0.824197 2.27789 0 0 0 149 173 193 255 
0.887843 0.833466 2.29416 0 0 0 51 59 84 255 
0.829808 0.801058 2.31712 0 0 0 155 160 168 255 
0.880956 0.8192 2.32068 0 0 0 123 155 176 255 
0.831326 0.803549 2.32947 0 0 0 155 160 168 255 
0.920177 0.805623 2.36616 0 0 0 115 153 177 255 
1.29693 0.727487 2.57158 0 0 0 137 146 157 255 
0.770911 0.836343 2.20007 0 0 0 157 165 172 255 
0.724964 0.842364 2.23682 0 0 0 128 143 157 255 
1.86055 0.883012 2.35453 0 0 0 87 139 138 255 
0.833072 0.844917 2.25137 0 0 0 164 185 204 255 
1.77927 0.928035 2.25853 0 0 0 74 112 125 255 
1.78146 0.935974 2.26778 0 0 0 68 103 115 255 
0.725875 0.843804 2.23839 0 0 0 128 143 157 255 
0.830851 0.843186 2.24963 0 0 0 132 151 167 255 
0.770226 0.836789 2.20003 0 0 0 169 177 184 255 
0.731683 0.839878 2.24749 0 0 0 135 145 143 255 
0.830246 0.847678 2.27196 0 0 0 116 137 151 255 
0.732609 0.832084 2.26194 0 0 0 75 75 49 255 
0.767195 0.834674 2.20541 0 0 0 178 184 190 255 
0.831558 0.844235 2.24966 0 0 0 139 158 173 255 
0.960859 0.812452 2.39848 0 0 0 159 199 229 255 
1.29198 0.898986 2.24512 0 0 0 24 113 161 255 
0.949709 0.798249 2.40983 0 0 0 69 106 127 255 
0.961242 0.810123 2.39849 0 0 0 158 195 225 255 
0.94208 0.816443 2.34769 0 0 0 159 204 236 255 
0.957291 0.807375 2.3815 0 0 0 155 196 225 255 
0.944816 0.81918 2.3536 0 0 0 159 202 239 255 
1.28906 0.866052 2.30043 0 0 0 63 100 147 255 
1.62228 0.86778 2.54115 0 0 0 72 44 53 255 
1.26835 1.00373 1.96044 0 0 0 169 195 233 255 
0.736802 0.83466 2.25534 0 0 0 70 73 74 255 
1.26883 1.00358 1.96293 0 0 0 173 196 232 255 
0.736203 0.834633 2.25605 0 0 0 55 58 59 255 
1.05976 1.01309 1.94711 0 0 0 70 91 141 255 
1.1091 0.991406 2.00758 0 0 0 62 80 133 255 
1.10516 0.991459 2.00969 0 0 0 50 67 119 255 
1.26583 1.00395 1.96503 0 0 0 80 105 156 255 
1.26668 0.996232 1.98275 0 0 0 172 189 223 255 
1.05664 1.01115 1.94628 0 0 0 57 76 127 255 
0.739267 0.822654 2.25275 0 0 0 155 157 113 255 
1.27313 1.00249 1.97228 0 0 0 199 221 251 255 
1.27121 0.995406 1.98043 0 0 0 190 212 242 255 
1.26576 1.00426 1.961 0 0 0 149 175 213 255 
1.28087 0.997616 1.9804 0 0 0 192 221 249 255 
1.10594 0.991372 2.00351 0 0 0 52 70 124 255 
1.05557 0.994003 1.95623 0 0 0 158 168 204 255 
1.27121 0.9954 1.98041 0 0 0 190 212 242 255 
1.10437 0.989651 2.01853 0 0 0 70 85 130 255 
1.10237 0.972479 2.02564 0 0 0 121 137 182 255 
1.89137 0.900386 2.43014 0 0 0 81 107 126 255 
1.07779 0.982987 1.98964 0 0 0 98 107 142 255 
0.753262 0.840587 2.23283 0 0 0 165 170 187 255 
0.876675 0.846161 2.3488 0 0 0 112 131 178 255 
0.836926 0.851267 2.29761 0 0 0 161 175 210 255 
0.739625 0.841983 2.24684 0 0 0 157 164 177 255 
0.839543 0.851669 2.29693 0 0 0 166 182 220 255 
0.775995 0.853002 2.2125 0 0 0 37 51 71 255 
0.856124 0.84188 2.29748 0 0 0 168 190 232 255 
0.872691 0.840811 2.33435 0 0 0 52 72 119 255 
1.36431 0.88434 2.26977 0 0 0 111 129 169 255 
1.30861 0.888233 2.3697 0 0 0 87 102 144 255 
1.28557 0.914459 2.27571 0 0 0 60 109 178 255 
0.869492 0.86489 2.22204 0 0 0 40 66 120 255 
0.837845 0.853252 2.29452 0 0 0 156 169 205 255 
1.28575 0.868047 2.33121 0 0 0 75 72 109 255 
0.945351 0.804129 2.40695 0 0 0 163 183 220 255 
0.859692 0.831577 2.32651 0 0 0 47 62 105 255 
0.887745 0.837804 2.35379 0 0 0 175 194 241 255 
0.745698 0.836834 2.23964 0 0 0 144 150 165 255 
0.865429 0.862668 2.22069 0 0 0 54 73 121 255 
1.3608 0.883121 2.26834 0 0 0 109 129 173 255 
0.771499 0.852737 2.21035 0 0 0 56 74 89 255 
1.27943 0.916098 2.28832 0 0 0 63 112 182 255 
1.3028 0.907141 2.34582 0 0 0 137 170 232 255 
0.948761 0.775807 2.56001 0 0 0 112 121 146 255 
1.29008 0.869785 2.33372 0 0 0 75 74 111 255 
1.01073 0.769717 2.45057 0 0 0 192 208 241 255 
0.858015 0.860659 2.21917 0 0 0 59 73 115 255 
0.847261 0.8515 2.29616 0 0 0 167 187 229 255 
0.93815 0.811714 2.40981 0 0 0 158 178 220 255 
0.884445 0.836186 2.36512 0 0 0 173 192 239 255 
0.748754 0.826821 2.24545 0 0 0 160 160 168 255 
1.36943 0.888561 2.26633 0 0 0 105 121 155 255 
0.78328 0.839472 2.19913 0 0 0 45 54 71 255 
1.85416 0.877601 2.28474 0 0 0 74 107 111 255 
0.935212 0.795663 2.38939 0 0 0 40 61 80 255 
1.76844 0.909382 2.1827 0 0 0 76 104 114 255 
1.76777 0.916744 2.1857 0 0 0 113 140 150 255 
0.821913 0.818114 2.38167 0 0 0 134 146 162 255 
0.923534 0.825056 2.36594 0 0 0 48 79 122 255 
0.985485 0.77165 2.45334 0 0 0 152 168 177 255 
0.965974 0.806998 2.38427 0 0 0 144 166 196 255 
1.25957 0.990259 1.94189 0 0 0 18 56 77 255 
0.923044 0.799084 2.38527 0 0 0 112 137 152 255 
1.85209 0.879489 2.29019 0 0 0 61 94 97 255 
0.98306 0.77406 2.45604 0 0 0 130 146 155 255 
1.25842 0.990064 1.94217 0 0 0 11 51 75 255 
1.85223 0.877702 2.28946 0 0 0 52 86 86 255 
0.97018 0.757293 2.45053 0 0 0 102 117 124 255 
1.18034 1.10193 1.56138 0 0 0 88 109 118 255 
1.30067 0.974428 1.97622 0 0 0 112 149 156 255 
0.925782 0.801639 2.38105 0 0 0 112 137 152 255 
1.10405 0.97175 1.9798 0 0 0 40 72 95 255 
1.18561 1.09984 1.56313 0 0 0 114 130 139 255 
0.929664 0.798655 2.38414 0 0 0 108 132 151 255 
1.18226 1.10301 1.56052 0 0 0 84 105 114 255 
0.851606 0.833803 2.28931 0 0 0 95 115 136 255 
1.20397 1.11883 1.56396 0 0 0 90 115 128 255 
0.991921 1.04856 1.68482 0 0 0 42 75 100 255 
1.75735 0.908609 2.20545 0 0 0 42 62 74 255 
0.935827 0.804249 2.37715 0 0 0 129 157 178 255 
1.18484 1.10433 1.56367 0 0 0 80 101 110 255 
1.28156 0.861631 2.28805 0 0 0 64 58 77 255 
1.78255 0.852102 2.15143 0 0 0 188 220 219 255 
0.992975 1.04501 1.68885 0 0 0 56 98 125 255 
0.897495 0.817185 2.38037 0 0 0 34 64 87 255 
0.85005 0.86804 2.22448 0 0 0 42 46 64 255 
1.10799 1.09123 1.62696 0 0 0 60 88 101 255 
1.56312 0.941694 2.11506 0 0 0 59 151 180 255 
0.713392 0.835649 2.27764 0 0 0 179 182 124 255 
1.75912 0.904037 2.20131 0 0 0 40 62 74 255 
0.899993 0.832135 2.31198 0 0 0 136 165 190 255 
0.997351 1.04693 1.68679 0 0 0 36 68 94 255 
0.95149 1.02802 1.74289 0 0 0 64 83 93 255 
0.900027 0.813981 2.39087 0 0 0 27 59 84 255 
1.04653 0.988909 1.91134 0 0 0 29 51 68 255 
1.56645 0.947234 2.10989 0 0 0 47 150 185 255 
0.740625 0.836602 2.2992 0 0 0 146 142 121 255 
1.36098 0.880118 2.2267 0 0 0 53 83 101 255 
0.767539 0.846852 2.27059 0 0 0 35 39 43 255 
1.40225 1.03233 1.87226 0 0 0 7 125 171 255 
1.36917 1.03046 1.80759 0 0 0 139 171 195 255 
0.766236 0.986765 1.84028 0 0 0 31 70 95 255 
1.06854 1.07295 1.67519 0 0 0 56 61 60 255 
0.806142 0.959024 2.35406 0 0 0 143 173 195 255 
0.803915 0.825738 2.15297 0 0 0 36 41 40 255 
0.808193 0.96789 2.36412 0 0 0 142 169 184 255 
1.26458 0.979396 1.92265 0 0 0 173 202 217 255 
