ply
format ascii 1.0
comment VCGLIB generated
element vertex 185
property float x
property float y
property float z
property float nx
property float ny
property float nz
property uchar red
property uchar green
property uchar blue
property uchar alpha
element face 0
property list uchar int vertex_indices
end_header
0.18058 0.0459111 2.55574 0 0 0 116 109 109 255 
0.444724 0.057793 2.50685 0 0 0 129 120 116 255 
0.26119 0.052616 2.46744 0 0 0 132 125 121 255 
0.253314 0.0524273 2.46703 0 0 0 140 134 129 255 
0.494042 -0.201857 2.42349 0 0 0 114 83 69 255 
0.185817 -0.0136558 2.5113 0 0 0 162 148 134 255 
0.173739 0.0605632 2.46054 0 0 0 126 121 120 255 
0.178071 0.0489946 2.53178 0 0 0 93 86 86 255 
0.258437 0.0558936 2.46397 0 0 0 125 119 114 255 
0.418842 0.0519718 2.54829 0 0 0 59 54 50 255 
0.253252 0.0518081 2.46808 0 0 0 73 67 62 255 
0.177256 0.0501973 2.51985 0 0 0 93 86 86 255 
0.255509 0.0506699 2.46783 0 0 0 104 98 93 255 
-0.0403543 0.0369016 2.3223 0 0 0 145 134 127 255 
-0.0449342 0.032323 2.32403 0 0 0 128 113 109 255 
0.123076 0.0615852 2.37197 0 0 0 131 128 132 255 
-0.0483235 0.0371381 2.32807 0 0 0 168 157 154 255 
0.128031 0.055378 2.37177 0 0 0 130 127 131 255 
0.181087 0.0617462 2.38071 0 0 0 146 144 145 255 
0.178624 0.055295 2.37864 0 0 0 114 114 114 255 
0.365125 0.0565717 2.41575 0 0 0 136 135 140 255 
0.18634 0.0555858 2.38187 0 0 0 110 110 109 255 
0.103415 0.0539073 2.36823 0 0 0 111 110 113 255 
0.420909 0.0568713 2.42102 0 0 0 124 125 128 255 
0.0696011 0.0600146 2.36023 0 0 0 131 133 139 255 
0.124652 0.0608674 2.37231 0 0 0 126 123 127 255 
-0.0455326 0.0366021 2.34062 0 0 0 170 159 156 255 
-0.0504569 0.0338545 2.30978 0 0 0 170 159 160 255 
-0.0487601 0.0340888 2.30795 0 0 0 170 159 160 255 
-0.0484482 0.0308764 2.30852 0 0 0 170 158 160 255 
-0.0363716 0.0305274 2.34317 0 0 0 171 162 161 255 
-0.030659 -0.31591 2.2715 0 0 0 96 96 104 255 
0.228272 0.0589336 2.38671 0 0 0 127 127 132 255 
0.0738628 0.0551249 2.36392 0 0 0 138 137 146 255 
0.236278 0.0567722 2.38819 0 0 0 139 139 146 255 
-0.0311214 -0.313638 2.27188 0 0 0 96 96 104 255 
0.0929722 0.0618583 2.36643 0 0 0 100 98 106 255 
-0.0355105 -0.311807 2.26523 0 0 0 74 67 75 255 
-0.043517 0.0212013 2.32081 0 0 0 188 181 184 255 
-0.0298603 0.052787 2.33686 0 0 0 41 41 48 255 
-0.0381744 0.0194794 2.31474 0 0 0 188 184 183 255 
0.103887 0.0623273 2.37277 0 0 0 160 161 164 255 
0.132119 0.0654234 2.37808 0 0 0 119 118 123 255 
0.0886192 -0.000256636 2.35401 0 0 0 87 89 87 255 
0.473506 0.0542149 2.42922 0 0 0 146 149 156 255 
0.471892 -0.205222 2.37266 0 0 0 124 117 116 255 
0.0750713 0.000454722 2.35739 0 0 0 75 77 74 255 
0.402004 -0.0131211 2.40373 0 0 0 111 111 106 255 
0.390274 -0.0148709 2.3867 0 0 0 113 111 107 255 
0.151719 0.0566249 2.3779 0 0 0 137 141 145 255 
0.103161 0.0635702 2.37304 0 0 0 76 77 80 255 
0.0952553 0.05354 2.36709 0 0 0 46 50 54 255 
0.154784 0.0649336 2.38349 0 0 0 146 146 154 255 
0.0967089 0.0675391 2.3757 0 0 0 142 139 143 255 
0.205665 0.0546767 2.38968 0 0 0 156 156 164 255 
0.393513 0.0529366 2.41783 0 0 0 138 137 144 255 
0.279477 -0.172308 2.34716 0 0 0 106 99 97 255 
0.207638 0.0616144 2.39184 0 0 0 144 142 152 255 
0.363064 0.0626569 2.41944 0 0 0 138 141 148 255 
0.187889 0.00604411 2.35362 0 0 0 117 119 119 255 
-0.132782 -0.317627 2.26768 0 0 0 83 79 82 255 
-0.0557306 0.0360934 2.34842 0 0 0 46 31 28 255 
0.310849 -0.176783 2.35008 0 0 0 200 184 182 255 
0.185191 -0.0144077 2.37523 0 0 0 117 119 119 255 
0.151386 0.00728356 2.3577 0 0 0 119 121 118 255 
0.508911 -0.21325 2.37343 0 0 0 121 111 115 255 
0.21726 -0.171683 2.3359 0 0 0 129 122 120 255 
0.206374 0.0536787 2.3895 0 0 0 126 127 132 255 
0.386896 0.060754 2.41956 0 0 0 135 134 139 255 
0.27686 -0.1726 2.34645 0 0 0 112 101 101 255 
0.214753 -0.173496 2.33469 0 0 0 125 118 116 255 
-0.130909 -0.315805 2.2658 0 0 0 83 79 82 255 
0.507856 -0.214723 2.37309 0 0 0 137 128 134 255 
-0.0459607 0.0321746 2.34171 0 0 0 171 164 164 255 
-0.132058 -0.316864 2.26666 0 0 0 83 79 82 255 
0.201808 0.0540938 2.38789 0 0 0 42 42 50 255 
-0.131271 -0.313306 2.266 0 0 0 68 60 66 255 
-0.0437777 0.028571 2.33761 0 0 0 189 183 181 255 
-0.132221 -0.307079 2.26615 0 0 0 62 49 57 255 
0.135923 -0.00866977 2.38262 0 0 0 140 142 142 255 
0.452711 0.0545567 2.43193 0 0 0 137 141 145 255 
0.238256 0.0635561 2.3949 0 0 0 147 147 155 255 
0.366849 -0.178585 2.36189 0 0 0 194 187 183 255 
0.165204 -0.0141222 2.36919 0 0 0 118 116 112 255 
0.428059 0.055149 2.42725 0 0 0 135 134 137 255 
0.473991 0.0666056 2.43007 0 0 0 145 150 156 255 
0.447307 0.0632051 2.4292 0 0 0 151 156 162 255 
0.398646 0.0581542 2.41944 0 0 0 158 159 162 255 
0.415109 0.0620555 2.42076 0 0 0 154 155 158 255 
0.426093 0.0647741 2.42593 0 0 0 153 154 159 255 
0.190967 -0.0146222 2.35915 0 0 0 116 114 112 255 
0.425354 0.0645762 2.42554 0 0 0 143 144 149 255 
0.396058 0.061445 2.41942 0 0 0 117 118 121 255 
0.44682 0.0618052 2.42833 0 0 0 134 138 142 255 
0.449212 -0.190205 2.37219 0 0 0 204 186 187 255 
0.448433 0.0541147 2.42929 0 0 0 105 109 111 255 
-0.0435294 -0.318474 2.28752 0 0 0 96 91 88 255 
-0.044629 -0.318844 2.28841 0 0 0 111 104 102 255 
-0.0419984 -0.312586 2.28803 0 0 0 73 63 64 255 
-0.125914 -0.307936 2.26053 0 0 0 76 59 62 255 
0.229076 0.0528612 2.39508 0 0 0 125 125 135 255 
0.427503 -0.216222 2.36825 0 0 0 125 106 108 255 
0.454412 -0.0141198 2.41529 0 0 0 117 118 110 255 
0.234908 -0.211058 2.33119 0 0 0 200 191 183 255 
0.458698 -0.211077 2.37268 0 0 0 201 190 187 255 
0.447927 -0.0149512 2.41949 0 0 0 138 137 130 255 
0.484381 0.00157624 2.41988 0 0 0 123 122 113 255 
0.389766 -0.058327 2.39144 0 0 0 122 111 106 255 
0.452842 0.00726259 2.41555 0 0 0 116 114 110 255 
0.372729 -0.0158396 2.40904 0 0 0 128 127 120 255 
0.231364 -0.209217 2.32914 0 0 0 202 193 185 255 
0.264122 -0.210068 2.32999 0 0 0 194 180 174 255 
0.316906 -0.207005 2.34688 0 0 0 202 194 188 255 
0.340121 0.0497413 2.42125 0 0 0 50 49 52 255 
0.252904 0.0520863 2.39885 0 0 0 36 39 45 255 
-0.0426193 0.0621729 2.34098 0 0 0 48 49 54 255 
-0.0678535 0.0224104 2.35554 0 0 0 68 42 48 255 
0.0290145 0.053601 2.51502 0 0 0 41 45 49 255 
-0.0716298 0.0233223 2.35727 0 0 0 69 42 48 255 
0.475884 -0.00880212 2.41729 0 0 0 181 180 173 255 
0.0818432 -0.00713284 2.34417 0 0 0 121 121 112 255 
0.275064 0.0606477 2.41089 0 0 0 30 33 42 255 
0.451487 -0.0015352 2.4223 0 0 0 189 180 174 255 
0.469525 -0.0129975 2.41806 0 0 0 127 117 113 255 
0.484829 -0.0106339 2.42653 0 0 0 78 67 62 255 
0.468513 -0.00757281 2.41684 0 0 0 67 61 56 255 
0.466753 0.00159926 2.42388 0 0 0 78 71 69 255 
0.442738 -0.00899511 2.41627 0 0 0 105 96 90 255 
0.389933 0.00682095 2.40712 0 0 0 118 108 102 255 
0.247232 -0.173536 2.34499 0 0 0 125 103 97 255 
0.468642 -0.00489072 2.41603 0 0 0 67 61 56 255 
0.484781 -0.00936635 2.42272 0 0 0 78 67 62 255 
0.471561 0.0607112 2.43573 0 0 0 145 146 149 255 
0.244585 -0.17447 2.34424 0 0 0 127 95 92 255 
0.387191 0.00459413 2.40686 0 0 0 100 91 85 255 
0.39267 -0.00501421 2.4083 0 0 0 187 181 176 255 
0.45303 -0.00435088 2.42102 0 0 0 188 179 173 255 
0.467384 -0.00511933 2.4163 0 0 0 133 127 122 255 
0.171635 -0.183688 2.31741 0 0 0 189 180 163 255 
-0.0367867 0.0516843 2.33925 0 0 0 44 44 43 255 
0.0464759 0.101263 2.36458 0 0 0 130 107 96 255 
0.0457148 0.0967132 2.36204 0 0 0 123 101 92 255 
0.129567 -0.0126996 2.3587 0 0 0 177 173 163 255 
0.21365 -0.0145112 2.37079 0 0 0 115 103 91 255 
0.304339 0.000133824 2.40631 0 0 0 98 87 82 255 
0.184833 0.00807674 2.34809 0 0 0 113 101 89 255 
0.18247 -0.0145347 2.35039 0 0 0 103 91 79 255 
0.161535 -0.00683178 2.36716 0 0 0 182 172 162 255 
0.190838 -0.00178127 2.35713 0 0 0 178 168 158 255 
0.155328 -0.00484608 2.37042 0 0 0 175 165 155 255 
0.20798 -0.0130173 2.36854 0 0 0 89 79 67 255 
0.18722 -0.003736 2.35185 0 0 0 182 172 162 255 
0.157584 -0.0154404 2.35552 0 0 0 117 105 93 255 
0.186113 0.00605026 2.34877 0 0 0 120 108 96 255 
0.208531 -0.133893 2.35051 0 0 0 128 107 94 255 
-0.036425 0.0339883 2.32771 0 0 0 184 169 152 255 
0.356373 0.0587876 2.42379 0 0 0 130 126 128 255 
0.38396 -0.176814 2.37999 0 0 0 136 94 90 255 
0.356618 0.057092 2.42424 0 0 0 130 126 128 255 
0.300052 -0.215006 2.34899 0 0 0 132 106 96 255 
0.381895 -0.179606 2.37943 0 0 0 146 117 108 255 
0.268543 -0.0739978 2.37983 0 0 0 150 114 104 255 
0.102328 0.0595589 2.35355 0 0 0 96 92 89 255 
0.302543 -0.218722 2.34918 0 0 0 142 116 106 255 
0.216833 -0.21813 2.32778 0 0 0 153 125 115 255 
0.130798 -0.00638058 2.35781 0 0 0 151 136 123 255 
0.102254 0.00561438 2.30916 0 0 0 99 85 69 255 
0.119185 -0.0117017 2.33153 0 0 0 68 56 44 255 
0.449343 -0.211433 2.39599 0 0 0 192 172 164 255 
0.306774 -0.146218 2.3643 0 0 0 106 92 78 255 
0.388669 0.0665904 2.42639 0 0 0 112 105 107 255 
0.390935 -0.175663 2.3873 0 0 0 129 107 96 255 
0.120511 -0.0136544 2.33671 0 0 0 83 71 59 255 
0.260475 -0.0976355 2.36106 0 0 0 190 169 154 255 
0.299609 -0.13176 2.36592 0 0 0 124 108 93 255 
0.388468 -0.175365 2.38772 0 0 0 119 96 85 255 
0.362836 -0.186757 2.38149 0 0 0 201 175 165 255 
0.451922 -0.185226 2.39579 0 0 0 193 183 168 255 
0.35677 -0.17433 2.38069 0 0 0 137 101 95 255 
0.247737 0.0453045 2.41329 0 0 0 46 40 35 255 
0.129486 -0.00130725 2.33491 0 0 0 144 133 126 255 
0.329425 0.0443937 2.41587 0 0 0 56 50 45 255 
0.253247 0.0442561 2.41351 0 0 0 45 39 34 255 
0.419966 -0.177015 2.40939 0 0 0 110 92 83 255 
0.263678 -0.00532594 2.39465 0 0 0 165 159 150 255 
