ply
format ascii 1.0
comment VCGLIB generated
element vertex 95
property float x
property float y
property float z
property float nx
property float ny
property float nz
property uchar red
property uchar green
property uchar blue
property uchar alpha
element face 0
property list uchar int vertex_indices
end_header
1.47362 0.111269 2.4054 0 0 0 147 159 167 255 
1.49769 0.11758 2.37452 0 0 0 124 138 140 255 
1.47031 0.140475 2.4095 0 0 0 145 161 170 255 
1.4444 0.0694831 2.41765 0 0 0 147 125 89 255 
1.47451 0.113116 2.4051 0 0 0 147 159 167 255 
1.47127 0.140255 2.4086 0 0 0 145 165 172 255 
1.4462 -0.00465504 2.40867 0 0 0 130 114 77 255 
1.44235 0.0685358 2.41889 0 0 0 157 134 95 255 
1.43586 0.0672195 2.42251 0 0 0 80 80 66 255 
1.43863 0.0659667 2.4207 0 0 0 116 111 88 255 
1.54749 0.169565 2.34036 0 0 0 149 161 169 255 
1.53601 0.162325 2.36054 0 0 0 141 151 158 255 
1.54817 0.155486 2.34313 0 0 0 143 153 159 255 
1.50541 0.121408 2.37543 0 0 0 147 157 165 255 
1.4831 0.118662 2.39909 0 0 0 40 49 53 255 
1.49528 0.141836 2.38909 0 0 0 33 44 55 255 
1.51922 0.158411 2.3736 0 0 0 145 153 158 255 
1.49976 0.149583 2.38672 0 0 0 138 150 158 255 
1.53489 0.162538 2.36243 0 0 0 154 165 171 255 
1.49907 0.147783 2.38651 0 0 0 68 79 90 255 
1.57034 0.176861 2.33723 0 0 0 156 162 165 255 
1.55195 0.163763 2.35357 0 0 0 129 137 138 255 
1.59676 -0.105499 2.27126 0 0 0 27 34 40 255 
1.5856 0.177011 2.33119 0 0 0 154 157 167 255 
1.59627 0.020613 2.29414 0 0 0 145 115 80 255 
1.50974 -0.00983676 2.35685 0 0 0 125 97 55 255 
1.65405 -0.0581872 2.23462 0 0 0 120 134 133 255 
1.63609 -0.0924589 2.2471 0 0 0 15 20 28 255 
1.47956 0.110168 2.4018 0 0 0 134 142 150 255 
1.60907 0.159957 2.31152 0 0 0 153 161 170 255 
1.65174 0.204364 2.2829 0 0 0 161 167 170 255 
1.60222 0.190541 2.31286 0 0 0 147 152 160 255 
1.72294 0.205219 2.2272 0 0 0 153 161 169 255 
1.62821 -0.102607 2.24776 0 0 0 139 144 152 255 
1.61197 -0.100701 2.26144 0 0 0 14 18 22 255 
1.64032 -0.0826031 2.24539 0 0 0 139 147 154 255 
1.60269 -0.0787408 2.26867 0 0 0 128 135 137 255 
1.7041 0.224069 2.23857 0 0 0 155 166 177 255 
1.65097 -0.0681892 2.23852 0 0 0 144 154 156 255 
1.639 -0.0648793 2.24767 0 0 0 127 140 139 255 
1.62282 -0.0707392 2.25226 0 0 0 140 146 148 255 
1.72809 0.239955 2.2274 0 0 0 57 62 70 255 
1.48039 0.136533 2.39582 0 0 0 22 30 37 255 
1.63877 0.199275 2.28812 0 0 0 142 151 156 255 
1.62601 0.165882 2.3 0 0 0 146 152 159 255 
1.67198 0.213467 2.26714 0 0 0 140 150 156 255 
1.60409 -0.107171 2.27036 0 0 0 145 148 155 255 
1.6279 -0.100945 2.24897 0 0 0 115 120 128 255 
1.60105 -0.0787957 2.27211 0 0 0 143 151 153 255 
1.63891 -0.0809692 2.24559 0 0 0 128 133 141 255 
1.65309 -0.0708564 2.23822 0 0 0 134 145 146 255 
1.63772 -0.0703834 2.24608 0 0 0 78 96 95 255 
1.72118 0.203045 2.22693 0 0 0 130 140 148 255 
1.65409 0.197258 2.28311 0 0 0 107 115 120 255 
1.70268 0.222683 2.24039 0 0 0 123 138 145 255 
1.62228 -0.0733812 2.25306 0 0 0 87 100 101 255 
1.60663 0.15976 2.31343 0 0 0 141 149 158 255 
1.60238 0.189358 2.31287 0 0 0 154 160 168 255 
1.5701 0.0154406 2.30159 0 0 0 127 103 66 255 
1.71609 0.235645 2.23258 0 0 0 120 140 147 255 
1.61775 0.191535 2.30379 0 0 0 113 119 126 255 
1.51913 -0.0872742 2.34369 0 0 0 109 97 82 255 
1.60418 -0.107952 2.27031 0 0 0 145 148 155 255 
1.62633 -0.102123 2.25015 0 0 0 115 120 128 255 
1.64919 -0.0673956 2.24058 0 0 0 97 108 109 255 
1.59699 -0.0829622 2.27213 0 0 0 74 83 85 255 
1.6388 -0.0696004 2.24695 0 0 0 78 96 95 255 
1.65253 0.197768 2.28324 0 0 0 67 75 80 255 
1.62333 0.17102 2.30323 0 0 0 87 97 103 255 
1.68598 0.211597 2.26039 0 0 0 113 123 129 255 
1.56888 0.0136398 2.30173 0 0 0 87 78 63 255 
1.62024 0.188187 2.30136 0 0 0 110 118 125 255 
1.7009 0.0865781 2.22117 0 0 0 87 71 63 255 
1.56775 0.171277 2.33849 0 0 0 85 92 104 255 
1.6227 0.175388 2.30314 0 0 0 89 99 105 255 
1.62391 0.164403 2.30238 0 0 0 86 94 101 255 
1.62052 0.185546 2.3012 0 0 0 106 115 122 255 
1.5985 -0.085191 2.27071 0 0 0 111 121 122 255 
1.57051 0.0158317 2.30198 0 0 0 127 103 66 255 
1.53131 0.155418 2.36291 0 0 0 89 98 100 255 
1.68987 0.060346 2.21608 0 0 0 99 90 73 255 
1.65238 -0.0631755 2.23892 0 0 0 141 154 153 255 
1.62515 0.171354 2.30234 0 0 0 141 150 156 255 
1.60984 0.162099 2.3108 0 0 0 153 161 170 255 
1.53651 0.148964 2.36618 0 0 0 128 150 150 255 
1.68526 0.205012 2.27207 0 0 0 28 48 60 255 
1.59462 0.180725 2.3199 0 0 0 29 44 60 255 
1.5546 0.1551 2.35385 0 0 0 125 145 146 255 
1.56072 0.165849 2.34734 0 0 0 23 41 47 255 
1.5621 0.168065 2.34655 0 0 0 23 41 47 255 
1.55461 0.155088 2.35386 0 0 0 125 145 146 255 
1.55173 0.157007 2.35316 0 0 0 97 129 126 255 
1.61595 0.0105667 2.27018 0 0 0 31 24 1 255 
1.55336 0.156276 2.35484 0 0 0 97 129 126 255 
1.72334 0.228496 2.24327 0 0 0 105 127 139 255 
