ply
format ascii 1.0
comment VCGLIB generated
element vertex 553
property float x
property float y
property float z
property float nx
property float ny
property float nz
property uchar red
property uchar green
property uchar blue
property uchar alpha
element face 0
property list uchar int vertex_indices
end_header
0.385188 0.474962 2.08169 0 0 0 172 172 181 255 
0.400038 0.55313 2.09763 0 0 0 132 143 154 255 
0.373995 0.504363 2.08053 0 0 0 97 96 98 255 
0.52676 0.39223 2.09476 0 0 0 136 169 204 255 
0.45957 0.515586 2.09206 0 0 0 86 92 101 255 
0.532817 0.405669 2.12727 0 0 0 40 69 104 255 
0.503851 0.399011 2.08973 0 0 0 137 166 195 255 
0.334181 0.53439 2.11863 0 0 0 153 169 196 255 
0.456125 0.41031 2.07038 0 0 0 129 151 172 255 
0.486263 0.409957 2.0826 0 0 0 86 104 130 255 
0.447732 0.506085 2.09254 0 0 0 147 161 178 255 
0.381242 0.426188 2.0779 0 0 0 176 181 187 255 
0.364586 0.480203 2.08621 0 0 0 164 164 172 255 
0.521108 0.439015 2.12189 0 0 0 72 85 115 255 
0.361305 0.443754 2.08046 0 0 0 74 72 80 255 
0.424812 0.446253 2.09035 0 0 0 87 86 87 255 
0.458901 0.444161 2.07875 0 0 0 73 84 102 255 
0.390597 0.421597 2.07397 0 0 0 147 160 184 255 
0.362637 0.466298 2.09854 0 0 0 64 69 71 255 
0.327297 0.477158 2.11139 0 0 0 133 146 165 255 
0.310908 0.487691 2.1173 0 0 0 148 159 172 255 
0.361591 0.422809 2.07793 0 0 0 60 70 96 255 
0.338858 0.492894 2.10919 0 0 0 148 162 179 255 
0.443508 0.499471 2.08878 0 0 0 152 168 184 255 
0.547831 0.511222 2.168 0 0 0 65 65 96 255 
0.411614 0.496396 2.08405 0 0 0 162 169 180 255 
0.53981 0.422325 2.14187 0 0 0 90 94 108 255 
0.532842 0.298443 2.08028 0 0 0 138 171 199 255 
0.501047 0.336912 2.0342 0 0 0 147 166 176 255 
0.449069 0.414425 2.07061 0 0 0 80 93 113 255 
0.4357 0.415966 2.06856 0 0 0 159 169 187 255 
0.36059 0.511761 2.11844 0 0 0 98 97 102 255 
0.44963 0.434893 2.07474 0 0 0 68 77 103 255 
0.36003 0.251741 2.02568 0 0 0 155 157 172 255 
0.371503 0.525391 2.09265 0 0 0 120 117 127 255 
0.457173 0.547627 2.09037 0 0 0 144 159 177 255 
0.48411 0.406426 2.08117 0 0 0 44 77 121 255 
0.498495 0.400646 2.08751 0 0 0 98 130 160 255 
0.329073 0.475876 2.11123 0 0 0 154 167 186 255 
0.511669 0.431954 2.11037 0 0 0 60 73 92 255 
0.458212 0.54473 2.10414 0 0 0 79 92 115 255 
0.385177 0.474685 2.08172 0 0 0 172 172 181 255 
0.308089 0.436861 2.11611 0 0 0 64 72 92 255 
0.447436 0.412129 2.06992 0 0 0 94 113 139 255 
0.541933 0.400991 2.12447 0 0 0 110 144 180 255 
0.4327 0.417581 2.06818 0 0 0 155 167 189 255 
0.437943 0.53207 2.09899 0 0 0 137 160 183 255 
0.546539 0.511411 2.1683 0 0 0 77 78 108 255 
0.332538 0.535011 2.11897 0 0 0 109 127 156 255 
0.338281 0.497698 2.11119 0 0 0 95 115 143 255 
0.455813 0.440198 2.07697 0 0 0 69 80 103 255 
0.350626 0.460629 2.07403 0 0 0 80 86 89 255 
0.44195 0.499741 2.08874 0 0 0 114 131 155 255 
0.458548 0.514947 2.0984 0 0 0 99 107 120 255 
0.309177 0.489333 2.11894 0 0 0 145 157 171 255 
0.397613 0.552128 2.09969 0 0 0 164 171 169 255 
0.455995 0.409133 2.06637 0 0 0 129 151 172 255 
0.408833 0.501352 2.0855 0 0 0 164 169 175 255 
0.530567 0.405443 2.12476 0 0 0 58 95 131 255 
0.391726 0.423096 2.07382 0 0 0 148 161 185 255 
0.374902 0.503061 2.08138 0 0 0 133 132 137 255 
0.428026 0.47955 2.08325 0 0 0 171 177 186 255 
0.360173 0.508804 2.11514 0 0 0 131 130 135 255 
0.398426 0.443804 2.07089 0 0 0 87 89 89 255 
0.448233 0.435914 2.07482 0 0 0 84 91 116 255 
0.351816 0.447773 2.11291 0 0 0 75 74 81 255 
0.526 0.420811 2.1255 0 0 0 138 143 160 255 
0.377285 0.424855 2.07688 0 0 0 152 164 179 255 
0.500314 0.33889 2.03397 0 0 0 140 161 171 255 
0.532753 0.300954 2.07995 0 0 0 138 171 199 255 
0.491357 0.552287 2.12232 0 0 0 187 181 192 255 
0.456545 0.542684 2.10332 0 0 0 144 151 165 255 
0.4902 0.401655 2.0818 0 0 0 51 91 123 255 
0.435512 0.421273 2.0846 0 0 0 138 148 180 255 
0.482727 0.407661 2.08154 0 0 0 39 71 110 255 
0.529157 0.501949 2.14515 0 0 0 112 117 143 255 
0.456172 0.41107 2.06659 0 0 0 129 151 172 255 
0.520754 0.422325 2.11984 0 0 0 133 140 154 255 
0.509002 0.429238 2.10822 0 0 0 86 97 115 255 
0.390966 0.422857 2.07395 0 0 0 148 161 185 255 
0.456536 0.511709 2.09689 0 0 0 101 114 131 255 
0.335138 0.530389 2.11639 0 0 0 153 169 194 255 
0.481689 0.548164 2.12002 0 0 0 175 180 188 255 
0.45417 0.4368 2.07565 0 0 0 91 100 118 255 
0.42617 0.479754 2.08237 0 0 0 171 176 186 255 
0.442352 0.495206 2.08706 0 0 0 101 117 136 255 
0.437724 0.529051 2.09834 0 0 0 80 108 141 255 
0.40764 0.503363 2.0871 0 0 0 164 169 175 255 
0.395896 0.443002 2.07 0 0 0 87 89 89 255 
0.307165 0.484036 2.1183 0 0 0 152 165 180 255 
0.391644 0.458784 2.0758 0 0 0 120 121 125 255 
0.500462 0.33731 2.03444 0 0 0 140 161 171 255 
0.528629 0.300185 2.0791 0 0 0 143 167 175 255 
0.399867 0.546578 2.0969 0 0 0 173 174 164 255 
0.371966 0.425563 2.07718 0 0 0 153 166 181 255 
0.526999 0.400076 2.10863 0 0 0 75 117 165 255 
0.362328 0.464834 2.09781 0 0 0 105 109 111 255 
0.484278 0.405463 2.08087 0 0 0 44 77 121 255 
0.453671 0.518447 2.09982 0 0 0 65 80 100 255 
0.362737 0.427476 2.07752 0 0 0 144 156 176 255 
0.398584 0.546397 2.10157 0 0 0 173 174 164 255 
0.393149 0.423274 2.07375 0 0 0 147 160 184 255 
0.439562 0.532553 2.10029 0 0 0 160 178 195 255 
0.443307 0.497281 2.08795 0 0 0 112 128 150 255 
0.457016 0.44243 2.07786 0 0 0 69 80 103 255 
0.457639 0.415076 2.07168 0 0 0 156 176 195 255 
0.327325 0.463812 2.09767 0 0 0 151 158 170 255 
0.391419 0.459753 2.07551 0 0 0 144 145 148 255 
0.509401 0.430205 2.10907 0 0 0 86 97 115 255 
0.482231 0.546876 2.11961 0 0 0 175 180 188 255 
0.406662 0.507996 2.08886 0 0 0 169 172 172 255 
0.539472 0.400746 2.12485 0 0 0 122 160 204 255 
0.517234 0.300591 2.07305 0 0 0 130 153 168 255 
0.35958 0.245106 2.02276 0 0 0 128 139 152 255 
0.542808 0.512385 2.16715 0 0 0 125 125 137 255 
0.504134 0.333075 2.03806 0 0 0 157 165 178 255 
0.514562 0.427373 2.11248 0 0 0 67 80 99 255 
0.555415 0.565992 2.2063 0 0 0 58 82 120 255 
0.495 0.546574 2.14158 0 0 0 178 182 190 255 
0.44725 0.53058 2.10355 0 0 0 166 179 199 255 
0.340358 0.510986 2.11107 0 0 0 171 177 188 255 
0.392803 0.539982 2.1031 0 0 0 169 165 176 255 
0.51552 0.254952 2.0256 0 0 0 79 118 153 255 
0.328382 0.479723 2.10101 0 0 0 92 106 126 255 
0.427124 0.471143 2.08659 0 0 0 175 175 187 255 
0.452874 0.43852 2.07599 0 0 0 68 79 106 255 
0.402742 0.539417 2.09229 0 0 0 174 174 169 255 
0.341208 0.511433 2.11965 0 0 0 144 160 185 255 
0.522076 0.559304 2.14858 0 0 0 42 79 126 255 
0.392822 0.544829 2.10447 0 0 0 177 175 178 255 
0.440088 0.529751 2.10029 0 0 0 155 175 197 255 
0.42596 0.499354 2.08699 0 0 0 46 65 105 255 
0.321213 0.495042 2.11793 0 0 0 39 59 94 255 
0.504752 0.432138 2.09466 0 0 0 84 95 112 255 
0.519836 0.561974 2.1562 0 0 0 31 89 133 255 
0.599146 0.193562 2.16334 0 0 0 227 219 225 255 
0.315665 0.499289 2.11864 0 0 0 28 55 100 255 
0.449722 0.532879 2.09801 0 0 0 173 178 188 255 
0.422447 0.505837 2.08907 0 0 0 80 97 122 255 
0.337553 0.508766 2.11701 0 0 0 81 99 126 255 
0.590051 0.174488 2.16927 0 0 0 225 226 227 255 
0.312392 0.140494 2.17431 0 0 0 190 178 172 255 
0.601248 0.177307 2.18332 0 0 0 213 219 224 255 
0.60223 0.158192 2.24039 0 0 0 122 137 155 255 
0.323135 0.238495 2.06582 0 0 0 11 60 107 255 
0.319592 0.49053 2.11741 0 0 0 41 56 80 255 
0.548898 0.471584 2.14037 0 0 0 152 187 210 255 
0.554797 0.501789 2.16016 0 0 0 155 184 210 255 
0.554838 0.445823 2.14901 0 0 0 163 193 215 255 
0.569381 0.535505 2.20565 0 0 0 60 83 110 255 
0.582661 0.528467 2.20953 0 0 0 147 171 197 255 
0.557926 0.383203 2.1247 0 0 0 119 163 208 255 
0.554251 0.668577 2.25936 0 0 0 5 82 133 255 
0.381229 0.479344 2.0833 0 0 0 150 161 177 255 
0.33054 0.497438 2.1143 0 0 0 118 134 163 255 
0.30867 0.4291 2.11598 0 0 0 118 131 170 255 
0.301003 0.437401 2.1209 0 0 0 19 36 67 255 
0.321405 0.479845 2.11258 0 0 0 119 151 177 255 
0.320789 0.479345 2.11252 0 0 0 110 133 161 255 
0.461564 0.40544 2.07115 0 0 0 105 134 163 255 
0.280865 0.424908 2.14757 0 0 0 100 125 151 255 
0.292833 0.426688 2.13305 0 0 0 135 165 200 255 
0.345266 0.464787 2.09416 0 0 0 58 83 97 255 
0.348913 0.442858 2.08655 0 0 0 60 84 102 255 
0.43969 0.540556 2.10159 0 0 0 135 172 208 255 
0.409221 0.464975 2.07696 0 0 0 70 88 105 255 
0.312524 0.424564 2.11413 0 0 0 83 125 171 255 
0.267231 0.479316 2.16177 0 0 0 122 158 185 255 
0.457328 0.547235 2.10665 0 0 0 54 76 103 255 
0.52214 0.338292 2.08972 0 0 0 128 167 200 255 
0.319253 0.422986 2.10973 0 0 0 21 60 103 255 
0.334913 0.239868 2.06391 0 0 0 122 169 189 255 
0.400675 0.468695 2.08146 0 0 0 86 104 119 255 
0.4376 0.537883 2.0996 0 0 0 74 126 157 255 
0.348066 0.442298 2.08712 0 0 0 97 118 130 255 
0.455508 0.5454 2.10666 0 0 0 125 137 159 255 
0.3017 0.488929 2.12425 0 0 0 156 172 188 255 
0.294136 0.427924 2.13124 0 0 0 135 165 200 255 
0.333581 0.23418 2.0611 0 0 0 74 130 155 255 
0.344355 0.464757 2.09519 0 0 0 64 89 102 255 
0.368324 0.418806 2.07615 0 0 0 90 138 174 255 
0.320285 0.472569 2.11302 0 0 0 100 134 162 255 
0.284039 0.433641 2.14313 0 0 0 106 137 143 255 
0.293144 0.427966 2.13261 0 0 0 135 165 200 255 
0.330563 0.421223 2.10427 0 0 0 95 137 177 255 
0.30048 0.487087 2.12646 0 0 0 156 172 188 255 
0.343873 0.465156 2.0958 0 0 0 64 89 102 255 
0.271806 0.484356 2.17119 0 0 0 122 158 185 255 
0.297378 0.489828 2.12744 0 0 0 152 170 189 255 
0.303242 0.424948 2.11995 0 0 0 10 55 103 255 
0.297984 0.488314 2.12875 0 0 0 154 169 183 255 
0.694076 0.181646 2.29346 0 0 0 204 227 236 255 
0.548845 0.224891 2.08498 0 0 0 170 192 210 255 
0.328661 0.523691 2.11448 0 0 0 57 113 154 255 
0.460566 0.532999 2.10565 0 0 0 162 184 209 255 
0.342073 0.53118 2.11519 0 0 0 153 184 185 255 
0.278189 0.458238 2.15744 0 0 0 141 158 171 255 
0.290177 0.482132 2.13949 0 0 0 148 159 171 255 
0.465366 0.412169 2.07331 0 0 0 166 211 248 255 
0.481523 0.556289 2.12034 0 0 0 168 204 231 255 
0.523558 0.393187 2.10338 0 0 0 38 121 153 255 
0.360122 0.51287 2.10991 0 0 0 88 113 139 255 
0.372475 0.588849 2.11395 0 0 0 133 212 229 255 
0.361744 0.592468 2.11465 0 0 0 66 131 164 255 
0.381818 0.531473 2.09576 0 0 0 88 113 139 255 
0.526302 0.286512 2.06856 0 0 0 134 175 215 255 
0.382757 0.510792 2.08828 0 0 0 79 106 134 255 
0.336431 0.228983 2.06045 0 0 0 130 191 221 255 
0.330214 0.577748 2.12675 0 0 0 46 100 139 255 
0.348644 0.590671 2.12138 0 0 0 43 111 148 255 
0.409383 0.441242 2.07332 0 0 0 88 116 133 255 
0.337139 0.592022 2.1265 0 0 0 148 203 237 255 
0.370224 0.234743 2.03706 0 0 0 142 189 225 255 
0.354152 0.531404 2.11366 0 0 0 107 136 152 255 
0.490131 0.329039 2.05231 0 0 0 56 125 160 255 
0.367843 0.247056 2.03731 0 0 0 150 184 219 255 
0.432148 0.484166 2.08409 0 0 0 129 165 202 255 
0.380012 0.531527 2.09339 0 0 0 88 116 141 255 
0.360308 0.510717 2.10922 0 0 0 139 164 189 255 
0.368765 0.236622 2.03763 0 0 0 144 180 218 255 
0.382371 0.51187 2.0892 0 0 0 88 116 143 255 
0.357428 0.530602 2.1131 0 0 0 132 160 181 255 
0.623725 0.373346 2.23303 0 0 0 60 133 167 255 
0.379788 0.510112 2.09051 0 0 0 138 171 194 255 
0.378736 0.528531 2.09481 0 0 0 151 176 200 255 
0.366562 0.242565 2.03834 0 0 0 145 167 185 255 
0.631474 0.379216 2.24319 0 0 0 121 197 231 255 
0.448515 0.492062 2.08676 0 0 0 151 208 244 255 
0.628967 0.377673 2.24035 0 0 0 115 184 217 255 
0.409517 0.438528 2.0724 0 0 0 110 136 153 255 
0.546381 0.578672 2.20916 0 0 0 22 109 152 255 
0.626314 0.600971 2.3158 0 0 0 187 200 219 255 
0.64539 0.378298 2.25201 0 0 0 151 181 198 255 
0.587943 0.166168 2.09928 0 0 0 77 101 119 255 
0.565154 0.57891 2.2327 0 0 0 32 116 165 255 
0.339297 0.232485 2.05952 0 0 0 133 188 216 255 
0.36919 0.237165 2.0374 0 0 0 144 180 218 255 
0.52121 0.572307 2.17505 0 0 0 118 153 184 255 
0.450868 0.537146 2.10576 0 0 0 162 197 220 255 
0.622875 0.600755 2.30707 0 0 0 180 201 233 255 
0.297991 0.123025 2.18001 0 0 0 178 185 192 255 
0.365216 0.235288 2.0387 0 0 0 137 172 210 255 
0.58387 0.166011 2.09913 0 0 0 75 96 115 255 
0.631815 0.373203 2.23643 0 0 0 141 172 189 255 
0.602776 0.204675 2.15072 0 0 0 219 243 243 255 
0.324881 0.43525 2.10722 0 0 0 140 176 193 255 
0.273676 0.477168 2.16286 0 0 0 136 186 215 255 
0.471894 0.636372 2.14253 0 0 0 28 133 154 255 
0.440116 0.4481 2.07702 0 0 0 185 205 217 255 
0.2994 0.123017 2.17567 0 0 0 194 207 215 255 
0.493718 0.319216 2.05326 0 0 0 144 170 193 255 
0.300312 0.125846 2.16963 0 0 0 208 225 234 255 
0.285348 0.44756 2.14492 0 0 0 122 146 166 255 
0.429004 0.50812 2.09042 0 0 0 26 109 152 255 
0.290429 0.469856 2.13851 0 0 0 159 185 202 255 
0.542732 0.550345 2.19043 0 0 0 66 114 150 255 
0.32487 0.584658 2.13022 0 0 0 149 204 231 255 
0.248605 0.598146 2.31433 0 0 0 207 221 236 255 
0.380708 0.597881 2.11356 0 0 0 11 144 179 255 
0.332899 0.586493 2.12694 0 0 0 35 97 132 255 
0.340971 0.604148 2.12526 0 0 0 31 104 149 255 
0.407097 0.550782 2.095 0 0 0 116 164 204 255 
0.542418 0.554501 2.19391 0 0 0 67 123 168 255 
0.468955 0.546393 2.11526 0 0 0 100 130 154 255 
0.240792 0.592323 2.29847 0 0 0 192 197 209 255 
0.312304 0.590232 2.13953 0 0 0 112 137 163 255 
0.537399 0.554358 2.19056 0 0 0 125 166 200 255 
0.247803 0.600485 2.31561 0 0 0 206 215 228 255 
0.504987 0.332015 2.06166 0 0 0 155 202 228 255 
0.333999 0.503233 2.11475 0 0 0 132 182 214 255 
0.539171 0.557614 2.19386 0 0 0 67 123 168 255 
0.240592 0.594702 2.30365 0 0 0 192 197 209 255 
0.541828 0.565149 2.20086 0 0 0 30 100 156 255 
0.455613 0.489432 2.08664 0 0 0 183 212 230 255 
0.334964 0.50485 2.11519 0 0 0 132 182 214 255 
0.24869 0.599299 2.31458 0 0 0 207 221 236 255 
0.52626 0.664952 2.23128 0 0 0 27 102 145 255 
0.445161 0.440977 2.07544 0 0 0 111 139 171 255 
0.421864 0.426074 2.06874 0 0 0 180 209 236 255 
0.353259 0.424616 2.08134 0 0 0 123 165 195 255 
0.53959 0.568791 2.20044 0 0 0 35 105 161 255 
0.238781 0.598515 2.3043 0 0 0 220 231 243 255 
0.298906 0.428576 2.12514 0 0 0 52 99 143 255 
0.23262 0.603442 2.31008 0 0 0 231 249 255 255 
0.603459 0.186819 2.15152 0 0 0 232 247 252 255 
0.308973 0.121526 2.17697 0 0 0 219 236 243 255 
0.576515 0.542606 2.20005 0 0 0 162 110 105 255 
0.497992 0.637588 2.17086 0 0 0 87 134 162 255 
0.618618 0.18496 2.17851 0 0 0 231 241 246 255 
0.534468 0.562728 2.19053 0 0 0 63 109 151 255 
0.433491 0.498593 2.08654 0 0 0 44 110 159 255 
0.343889 0.524432 2.1158 0 0 0 173 203 223 255 
0.335811 0.430573 2.09894 0 0 0 162 198 217 255 
0.714575 0.17558 2.29832 0 0 0 72 89 101 255 
0.481484 0.637152 2.14811 0 0 0 50 114 153 255 
0.28832 0.478616 2.14638 0 0 0 150 170 190 255 
0.517359 0.395423 2.09605 0 0 0 64 94 140 255 
0.513405 0.392573 2.09219 0 0 0 53 94 158 255 
0.513405 0.392573 2.09219 0 0 0 53 94 158 255 
0.276741 0.431044 2.16093 0 0 0 86 117 173 255 
0.503914 0.425346 2.0919 0 0 0 125 148 184 255 
0.279868 0.432551 2.15205 0 0 0 154 182 216 255 
0.418494 0.488305 2.07942 0 0 0 72 92 136 255 
0.523167 0.2493 2.05434 0 0 0 119 163 219 255 
0.487973 0.289347 2.0489 0 0 0 30 102 180 255 
0.319553 0.215752 2.07293 0 0 0 43 82 152 255 
0.418277 0.489851 2.08005 0 0 0 72 92 136 255 
0.503094 0.551134 2.12627 0 0 0 109 137 190 255 
0.397084 0.522592 2.0948 0 0 0 191 203 230 255 
0.596418 0.178813 2.14968 0 0 0 244 253 255 255 
0.236884 0.568099 2.31641 0 0 0 156 139 142 255 
0.447469 0.453665 2.07375 0 0 0 75 99 163 255 
0.464104 0.526928 2.10504 0 0 0 194 211 242 255 
0.557095 0.507348 2.16449 0 0 0 134 109 109 255 
0.323176 0.239952 2.0685 0 0 0 33 84 158 255 
0.445962 0.541426 2.10619 0 0 0 173 214 239 255 
0.342812 0.443933 2.09326 0 0 0 78 109 122 255 
0.404728 0.464037 2.07904 0 0 0 92 122 133 255 
0.53257 0.390314 2.10849 0 0 0 132 194 230 255 
0.54859 0.561956 2.20076 0 0 0 50 101 143 255 
0.34246 0.443296 2.09354 0 0 0 122 152 169 255 
0.32695 0.487408 2.11456 0 0 0 56 103 135 255 
0.475993 0.406469 2.0762 0 0 0 7 97 156 255 
0.549282 0.55955 2.19864 0 0 0 92 127 157 255 
0.326963 0.492532 2.11745 0 0 0 31 87 124 255 
0.296571 0.438495 2.12587 0 0 0 96 133 156 255 
0.524691 0.291935 2.06817 0 0 0 136 185 212 255 
0.510685 0.326886 2.0631 0 0 0 152 188 220 255 
0.52663 0.29375 2.06943 0 0 0 135 181 207 255 
0.359887 0.233772 2.03908 0 0 0 150 182 200 255 
0.600072 0.175717 2.13845 0 0 0 199 202 206 255 
0.617772 0.211761 2.1517 0 0 0 123 101 101 255 
0.309477 0.498057 2.11913 0 0 0 32 89 133 255 
0.473288 0.424454 2.07972 0 0 0 181 216 231 255 
0.456413 0.286665 2.03576 0 0 0 51 142 190 255 
0.430459 0.289898 2.03788 0 0 0 0 116 162 255 
0.319045 0.271423 2.08443 0 0 0 50 114 154 255 
0.514932 0.301487 2.06417 0 0 0 136 180 202 255 
0.590396 0.210052 2.14923 0 0 0 213 238 253 255 
0.50805 0.321749 2.0604 0 0 0 127 160 192 255 
0.631472 0.209393 2.16613 0 0 0 127 98 91 255 
0.433423 0.29076 2.03747 0 0 0 0 114 160 255 
0.452402 0.425478 2.0741 0 0 0 186 218 236 255 
0.452969 0.425681 2.07445 0 0 0 186 218 236 255 
0.330611 0.539985 2.11748 0 0 0 104 157 194 255 
0.533051 0.29211 2.07235 0 0 0 121 177 215 255 
0.524245 0.504839 2.1293 0 0 0 80 119 152 255 
0.461314 0.512499 2.10094 0 0 0 128 159 179 255 
0.410675 0.414001 2.0665 0 0 0 26 91 135 255 
0.531209 0.492469 2.13303 0 0 0 69 108 142 255 
0.529684 0.50155 2.13474 0 0 0 54 96 132 255 
0.511342 0.413065 2.0938 0 0 0 123 159 184 255 
0.458381 0.422908 2.07533 0 0 0 186 217 236 255 
0.52807 0.502831 2.13324 0 0 0 54 96 132 255 
0.356094 0.607379 2.1261 0 0 0 145 190 221 255 
0.463109 0.50999 2.10058 0 0 0 161 188 202 255 
0.43028 0.411932 2.06353 0 0 0 96 149 183 255 
0.299329 0.481296 2.12771 0 0 0 141 159 185 255 
0.532419 0.494115 2.13415 0 0 0 69 108 142 255 
0.49904 0.430073 2.08932 0 0 0 140 173 188 255 
0.521737 0.4045 2.10154 0 0 0 130 182 210 255 
0.31667 0.276994 2.08607 0 0 0 120 156 170 255 
0.394561 0.431334 2.07932 0 0 0 175 207 219 255 
0.516562 0.400344 2.09592 0 0 0 75 137 176 255 
0.316427 0.278283 2.0864 0 0 0 120 156 170 255 
0.60583 0.126341 2.29765 0 0 0 65 58 63 255 
0.316879 0.10816 2.18987 0 0 0 136 131 130 255 
0.323399 0.218405 2.06931 0 0 0 9 89 137 255 
0.428963 0.282094 2.03728 0 0 0 0 112 170 255 
0.326591 0.249467 2.0708 0 0 0 2 94 149 255 
0.522652 0.299395 2.06909 0 0 0 134 171 183 255 
0.277255 0.443795 2.16089 0 0 0 135 166 194 255 
0.450123 0.45235 2.08023 0 0 0 35 102 148 255 
0.589551 0.20718 2.11708 0 0 0 186 213 222 255 
0.529424 0.493417 2.13169 0 0 0 107 143 178 255 
0.511078 0.43542 2.09536 0 0 0 68 112 144 255 
0.543876 0.48524 2.13944 0 0 0 174 200 206 255 
0.475987 0.555486 2.11467 0 0 0 142 165 195 255 
0.542363 0.48291 2.13895 0 0 0 180 201 199 255 
0.537314 0.516812 2.14866 0 0 0 127 167 184 255 
0.541868 0.481733 2.13887 0 0 0 183 202 200 255 
0.536157 0.521712 2.14995 0 0 0 141 176 187 255 
0.485238 0.325584 2.04746 0 0 0 99 136 164 255 
0.451686 0.498771 2.08877 0 0 0 184 205 212 255 
0.463939 0.546595 2.11225 0 0 0 116 127 150 255 
0.54117 0.481047 2.13895 0 0 0 137 159 178 255 
0.432978 0.471306 2.07483 0 0 0 177 197 202 255 
0.505077 0.419758 2.09255 0 0 0 90 132 150 255 
0.535005 0.523235 2.14937 0 0 0 131 157 168 255 
0.410162 0.458125 2.07448 0 0 0 172 185 184 255 
0.495635 0.393914 2.08201 0 0 0 20 99 144 255 
0.543014 0.474762 2.13957 0 0 0 172 183 196 255 
0.427609 0.430575 2.06868 0 0 0 178 200 204 255 
0.4641 0.421228 2.07793 0 0 0 185 203 213 255 
0.357475 0.429243 2.08047 0 0 0 168 195 204 255 
0.361025 0.238795 2.04012 0 0 0 134 151 169 255 
0.3287 0.466974 2.10865 0 0 0 166 187 194 255 
0.524623 0.521032 2.13745 0 0 0 173 198 209 255 
0.313227 0.272795 2.08694 0 0 0 20 68 105 255 
0.575295 0.534757 2.22392 0 0 0 165 161 165 255 
0.54046 0.47496 2.13847 0 0 0 121 137 155 255 
0.600238 0.168698 2.16223 0 0 0 215 235 247 255 
0.353166 0.432637 2.08105 0 0 0 172 190 199 255 
0.540323 0.475943 2.13836 0 0 0 121 139 157 255 
0.46598 0.418519 2.0768 0 0 0 183 204 211 255 
0.589577 0.148515 2.17557 0 0 0 174 211 231 255 
0.303675 0.128473 2.14101 0 0 0 203 207 204 255 
0.523023 0.400311 2.10341 0 0 0 164 196 212 255 
0.598636 0.169135 2.16154 0 0 0 215 235 247 255 
0.313893 0.282006 2.08632 0 0 0 133 166 177 255 
0.595428 0.189654 2.16568 0 0 0 215 237 249 255 
0.294081 0.191401 2.14195 0 0 0 154 163 169 255 
0.596573 0.152802 2.18014 0 0 0 152 193 212 255 
0.577143 0.226981 2.15778 0 0 0 179 201 217 255 
0.529199 0.408202 2.10904 0 0 0 181 202 208 255 
0.496237 0.284732 2.05525 0 0 0 3 103 158 255 
0.464544 0.283621 2.03823 0 0 0 39 113 162 255 
0.51934 0.329229 2.0676 0 0 0 170 185 203 255 
0.54538 0.491346 2.13855 0 0 0 162 184 198 255 
0.501495 0.437834 2.08995 0 0 0 86 115 144 255 
0.384901 0.42064 2.07894 0 0 0 131 166 198 255 
0.557347 0.37666 2.13374 0 0 0 140 179 205 255 
0.461383 0.439525 2.08277 0 0 0 80 100 131 255 
0.533982 0.386923 2.11364 0 0 0 136 179 212 255 
0.481301 0.460333 2.09231 0 0 0 93 105 113 255 
0.559294 0.379016 2.13492 0 0 0 140 179 205 255 
0.556228 0.376435 2.13321 0 0 0 60 119 175 255 
0.545274 0.469938 2.14236 0 0 0 173 196 212 255 
0.343426 0.418973 2.09329 0 0 0 30 63 111 255 
0.554954 0.378144 2.13265 0 0 0 60 119 175 255 
0.446278 0.405631 2.07011 0 0 0 28 70 119 255 
0.530226 0.249583 2.05799 0 0 0 115 164 198 255 
0.559049 0.381012 2.13523 0 0 0 159 189 211 255 
0.321635 0.42997 2.1108 0 0 0 127 155 172 255 
0.423012 0.419664 2.06627 0 0 0 152 183 209 255 
0.506286 0.390537 2.09094 0 0 0 5 85 140 255 
0.537789 0.376349 2.11713 0 0 0 4 96 145 255 
0.527475 0.252116 2.05727 0 0 0 102 148 183 255 
0.551492 0.383831 2.12866 0 0 0 46 92 148 255 
0.29185 0.136782 2.1649 0 0 0 168 154 146 255 
0.488694 0.285623 2.05535 0 0 0 4 99 150 255 
0.524732 0.253882 2.05559 0 0 0 120 160 192 255 
0.326949 0.273452 2.08201 0 0 0 168 168 132 255 
0.457852 0.282899 2.0403 0 0 0 14 100 141 255 
0.486367 0.28145 2.05292 0 0 0 1 98 150 255 
0.601385 0.209937 2.2166 0 0 0 191 204 211 255 
0.594358 0.163332 2.17488 0 0 0 221 241 254 255 
0.289572 0.149416 2.15423 0 0 0 182 168 162 255 
0.312164 0.11667 2.18458 0 0 0 155 142 136 255 
0.555048 0.12228 2.21856 0 0 0 153 153 148 255 
0.530216 0.517543 2.14288 0 0 0 86 119 148 255 
0.370169 0.592467 2.12169 0 0 0 165 195 207 255 
0.382451 0.597418 2.11164 0 0 0 27 123 147 255 
0.524289 0.541354 2.14562 0 0 0 75 98 118 255 
0.535488 0.542595 2.15111 0 0 0 167 185 212 255 
0.538415 0.485457 2.13628 0 0 0 160 179 208 255 
0.466825 0.657437 2.14245 0 0 0 171 165 149 255 
0.544263 0.526791 2.15938 0 0 0 169 183 209 255 
0.46744 0.513947 2.10423 0 0 0 109 127 144 255 
0.383007 0.598683 2.11196 0 0 0 27 123 147 255 
0.529226 0.518138 2.1421 0 0 0 86 129 158 255 
0.371175 0.592508 2.12126 0 0 0 165 195 207 255 
0.545304 0.434414 2.12053 0 0 0 172 194 210 255 
0.532765 0.540621 2.14958 0 0 0 179 198 206 255 
0.532568 0.542535 2.14997 0 0 0 165 183 209 255 
0.53447 0.539974 2.15019 0 0 0 179 198 206 255 
0.534792 0.531382 2.14973 0 0 0 177 202 205 255 
0.39621 0.418195 2.07617 0 0 0 144 165 200 255 
0.548951 0.479363 2.14177 0 0 0 190 193 200 255 
0.429455 0.467959 2.06748 0 0 0 186 198 204 255 
0.536198 0.530629 2.15066 0 0 0 178 206 211 255 
0.586576 0.14417 2.20628 0 0 0 189 193 192 255 
0.517752 0.387744 2.09985 0 0 0 30 96 147 255 
0.597054 0.19021 2.10877 0 0 0 195 206 217 255 
0.425378 0.459734 2.06658 0 0 0 190 202 198 255 
0.290378 0.167814 2.12776 0 0 0 156 150 145 255 
0.586576 0.14417 2.20628 0 0 0 189 193 192 255 
0.621644 0.210875 2.29343 0 0 0 135 136 142 255 
0.547922 0.466842 2.14674 0 0 0 145 183 216 255 
0.536019 0.45501 2.13439 0 0 0 164 195 223 255 
0.520533 0.509432 2.12917 0 0 0 52 80 102 255 
0.566964 0.378002 2.12921 0 0 0 123 167 184 255 
0.252326 0.581195 2.20585 0 0 0 217 229 232 255 
0.444481 0.523583 2.09718 0 0 0 111 153 194 255 
0.562371 0.38214 2.14587 0 0 0 130 163 198 255 
0.252621 0.579953 2.2054 0 0 0 196 206 209 255 
0.445331 0.522317 2.09744 0 0 0 48 104 149 255 
0.555751 0.475001 2.14859 0 0 0 171 199 220 255 
0.524846 0.390111 2.11378 0 0 0 146 192 222 255 
0.544576 0.425233 2.11651 0 0 0 178 204 211 255 
0.524356 0.388541 2.11305 0 0 0 103 158 195 255 
0.503278 0.542029 2.12841 0 0 0 141 167 194 255 
0.426351 0.46898 2.06037 0 0 0 185 203 210 255 
0.476754 0.546371 2.11695 0 0 0 171 191 201 255 
0.570254 0.590996 2.28274 0 0 0 175 184 192 255 
0.515296 0.541517 2.14201 0 0 0 102 130 162 255 
0.404206 0.509668 2.07779 0 0 0 180 199 203 255 
0.50248 0.539719 2.12656 0 0 0 141 167 194 255 
0.5698 0.585331 2.27921 0 0 0 148 167 183 255 
0.41748 0.496957 2.08809 0 0 0 46 97 132 255 
0.589525 0.185757 2.17185 0 0 0 205 230 244 255 
0.402878 0.424815 2.07353 0 0 0 171 193 211 255 
0.361703 0.50982 2.09959 0 0 0 90 121 128 255 
0.496884 0.511866 2.10839 0 0 0 90 124 138 255 
0.546754 0.452085 2.1362 0 0 0 17 72 111 255 
0.418679 0.492845 2.09173 0 0 0 27 71 123 255 
0.206416 0.619672 2.30817 0 0 0 206 221 227 255 
0.55276 0.44658 2.13043 0 0 0 36 100 141 255 
0.552434 0.444331 2.12785 0 0 0 99 147 175 255 
0.52817 0.525621 2.14647 0 0 0 134 177 191 255 
0.575552 0.234866 2.12359 0 0 0 4 83 146 255 
0.573798 0.142065 2.24391 0 0 0 197 224 232 255 
0.415612 0.435417 2.07827 0 0 0 173 199 218 255 
0.554362 0.623619 2.32799 0 0 0 131 180 196 255 
0.46389 0.478624 2.0769 0 0 0 177 202 217 255 
0.549792 0.389672 2.13225 0 0 0 110 163 210 255 
0.564079 0.233536 2.14869 0 0 0 11 80 140 255 
0.508123 0.399895 2.10026 0 0 0 55 76 144 255 
0.48017 0.410941 2.07461 0 0 0 69 99 149 255 
0.498329 0.544286 2.12478 0 0 0 78 111 167 255 
0.360668 0.472945 2.08994 0 0 0 177 194 227 255 
0.463187 0.498071 2.08088 0 0 0 176 200 231 255 
0.413985 0.539078 2.06848 0 0 0 173 202 235 255 
0.598722 0.228801 2.14305 0 0 0 158 179 225 255 
0.555515 0.471119 2.13654 0 0 0 165 194 234 255 
0.597693 0.227769 2.15345 0 0 0 158 179 225 255 
0.476752 0.539305 2.12578 0 0 0 192 212 234 255 
0.472472 0.425055 2.06924 0 0 0 182 206 236 255 
0.581861 0.229394 2.13096 0 0 0 23 81 163 255 
0.539512 0.683726 2.2788 0 0 0 36 80 154 255 
0.503619 0.488896 2.1048 0 0 0 113 129 168 255 
0.589112 0.20079 2.1387 0 0 0 183 206 239 255 
0.483834 0.53409 2.12721 0 0 0 189 210 232 255 
0.539308 0.683067 2.27946 0 0 0 36 81 155 255 
0.514456 0.590424 2.16396 0 0 0 148 158 185 255 
0.55387 0.436039 2.11704 0 0 0 133 163 179 255 
0.556261 0.495584 2.13261 0 0 0 125 158 181 255 
0.541612 0.544601 2.15514 0 0 0 125 160 190 255 
0.557162 0.492625 2.13078 0 0 0 140 171 192 255 
0.227367 0.634379 2.24234 0 0 0 173 187 197 255 
0.228073 0.635838 2.2422 0 0 0 174 188 198 255 
0.478438 0.401958 2.08171 0 0 0 13 65 106 255 
0.593657 0.168493 2.1948 0 0 0 163 184 193 255 
0.54482 0.64491 2.35331 0 0 0 154 176 190 255 
0.557129 0.371167 2.1274 0 0 0 107 143 183 255 
0.403411 0.326168 2.08863 0 0 0 40 70 95 255 
0.511207 0.426749 2.09256 0 0 0 29 56 94 255 
0.189823 0.609335 2.29846 0 0 0 72 71 71 255 
0.561744 0.522537 1.96305 0 0 0 158 175 178 255 
0.543223 0.181926 2.30013 0 0 0 154 172 183 255 
0.190567 0.605849 2.29629 0 0 0 66 61 60 255 
0.32746 0.686399 2.14186 0 0 0 13 77 121 255 
0.427085 0.480475 2.09427 0 0 0 145 170 185 255 
