ply
format ascii 1.0
comment VCGLIB generated
element vertex 330
property float x
property float y
property float z
property float nx
property float ny
property float nz
property uchar red
property uchar green
property uchar blue
property uchar alpha
element face 0
property list uchar int vertex_indices
end_header
0.110957 1.5802 3.6648 0 0 0 0 255 255 255
0.139284 1.54705 3.60123 0 0 0 0 255 255 255
0.147447 1.54091 3.58893 0 0 0 0 255 255 255
0.143063 1.54929 3.54231 0 0 0 0 255 255 255
0.234288 1.5027 3.6815 0 0 0 0 255 255 255
0.241204 1.50008 3.6819 0 0 0 0 255 255 255
0.153925 1.54366 3.52996 0 0 0 0 255 255 255
0.172901 1.52605 3.55673 0 0 0 0 255 255 255
0.167493 1.53405 3.53073 0 0 0 0 255 255 255
0.240488 1.49182 3.6321 0 0 0 0 255 255 255
0.255094 1.48504 3.59445 0 0 0 0 255 255 255
0.258758 1.4843 3.57989 0 0 0 0 255 255 255
0.411197 1.54204 3.82022 0 0 0 0 255 255 255
0.424089 1.51032 3.7659 0 0 0 0 255 255 255
0.426944 1.52584 3.79272 0 0 0 0 255 255 255
0.440863 1.51271 3.76452 0 0 0 0 255 255 255
0.439241 1.5535 3.82848 0 0 0 0 255 255 255
0.442591 1.54671 3.81867 0 0 0 0 255 255 255
0.423111 1.57924 3.86108 0 0 0 0 255 255 255
0.448058 1.5588 3.83226 0 0 0 0 255 255 255
0.441939 1.48192 3.67797 0 0 0 0 255 255 255
0.476699 1.54511 3.80234 0 0 0 0 255 255 255
0.478293 1.50083 3.71296 0 0 0 0 255 255 255
0.221777 1.53356 3.44471 0 0 0 0 255 255 255
0.470504 1.49115 3.68817 0 0 0 0 255 255 255
0.470054 1.48959 3.68239 0 0 0 0 255 255 255
0.496538 1.51444 3.73247 0 0 0 0 255 255 255
0.491748 1.58877 3.84774 0 0 0 0 255 255 255
0.49249 1.59833 3.85673 0 0 0 0 255 255 255
0.516903 1.5198 3.72478 0 0 0 0 255 255 255
0.496634 1.60036 3.85666 0 0 0 0 255 255 255
0.521253 1.57535 3.81584 0 0 0 0 255 255 255
0.532587 1.52894 3.72867 0 0 0 0 255 255 255
0.501784 1.61873 3.87026 0 0 0 0 255 255 255
0.559556 1.56227 3.76357 0 0 0 0 255 255 255
0.395447 1.47125 3.54287 0 0 0 0 255 255 255
0.517533 1.49903 3.64403 0 0 0 0 255 255 255
0.565928 1.57626 3.77857 0 0 0 0 255 255 255
0.581029 1.59894 3.79305 0 0 0 0 255 255 255
0.497848 1.48842 3.58746 0 0 0 0 255 255 255
0.493192 1.48719 3.57822 0 0 0 0 255 255 255
0.325238 1.49804 3.45433 0 0 0 0 255 255 255
0.346813 1.49144 3.46536 0 0 0 0 255 255 255
0.585218 1.65593 3.84438 0 0 0 0 255 255 255
0.579763 1.6684 3.85777 0 0 0 0 255 255 255
0.425061 1.48192 3.50537 0 0 0 0 255 255 255
0.623467 1.62294 3.76999 0 0 0 0 255 255 255
0.267519 1.53902 3.40183 0 0 0 0 255 255 255
0.286772 1.52695 3.41183 0 0 0 0 255 255 255
0.270209 1.54451 3.39223 0 0 0 0 255 255 255
0.271047 1.54404 3.39251 0 0 0 0 255 255 255
0.282483 1.53569 3.39963 0 0 0 0 255 255 255
0.426113 1.48829 3.4839 0 0 0 0 255 255 255
0.556767 1.719 3.90051 0 0 0 0 255 255 255
0.348738 1.50833 3.42694 0 0 0 0 255 255 255
0.564916 1.52565 3.5375 0 0 0 0 255 255 255
0.67003 1.62953 3.68084 0 0 0 0 255 255 255
0.419365 1.49671 3.45796 0 0 0 0 255 255 255
0.581191 1.74312 3.89335 0 0 0 0 255 255 255
0.471773 1.5009 3.4766 0 0 0 0 255 255 255
0.456859 1.50158 3.46395 0 0 0 0 255 255 255
0.381299 1.5065 3.42926 0 0 0 0 255 255 255
0.458113 1.50238 3.46274 0 0 0 0 255 255 255
0.61148 1.55753 3.5465 0 0 0 0 255 255 255
0.339238 1.52443 3.39993 0 0 0 0 255 255 255
0.493004 1.51252 3.46445 0 0 0 0 255 255 255
0.376203 1.51432 3.41433 0 0 0 0 255 255 255
0.573847 1.77794 3.90771 0 0 0 0 255 255 255
0.702349 1.70732 3.71431 0 0 0 0 255 255 255
0.484127 1.51468 3.45193 0 0 0 0 255 255 255
0.50163 1.51947 3.45586 0 0 0 0 255 255 255
0.619336 1.77853 3.87288 0 0 0 0 255 255 255
0.620188 1.77829 3.87205 0 0 0 0 255 255 255
0.707 1.71932 3.71427 0 0 0 0 255 255 255
0.708463 1.71643 3.70674 0 0 0 0 255 255 255
0.66346 1.61043 3.54978 0 0 0 0 255 255 255
0.651976 1.77683 3.8391 0 0 0 0 255 255 255
0.495901 1.52144 3.44656 0 0 0 0 255 255 255
0.654507 1.60416 3.53066 0 0 0 0 255 255 255
0.714508 1.72915 3.70169 0 0 0 0 255 255 255
0.711077 1.74222 3.72393 0 0 0 0 255 255 255
0.711057 1.74385 3.72526 0 0 0 0 255 255 255
0.366416 1.53114 3.38708 0 0 0 0 255 255 255
0.329698 1.54808 3.36777 0 0 0 0 255 255 255
0.477901 1.52522 3.42624 0 0 0 0 255 255 255
0.674627 1.63151 3.52717 0 0 0 0 255 255 255
0.702762 1.78346 3.76516 0 0 0 0 255 255 255
0.723552 1.75405 3.69533 0 0 0 0 255 255 255
0.402376 1.52685 3.39581 0 0 0 0 255 255 255
0.57595 1.56124 3.45455 0 0 0 0 255 255 255
0.719634 1.77375 3.72161 0 0 0 0 255 255 255
0.430455 1.52764 3.40086 0 0 0 0 255 255 255
0.556826 1.55569 3.44025 0 0 0 0 255 255 255
0.526393 1.54671 3.42478 0 0 0 0 255 255 255
0.669189 1.63601 3.49712 0 0 0 0 255 255 255
0.397467 1.53455 3.38361 0 0 0 0 255 255 255
0.729023 1.78371 3.69766 0 0 0 0 255 255 255
0.492045 1.53921 3.41099 0 0 0 0 255 255 255
0.491837 1.54346 3.40413 0 0 0 0 255 255 255
0.676477 1.65116 3.48936 0 0 0 0 255 255 255
0.670699 1.64801 3.47933 0 0 0 0 255 255 255
0.582808 1.58945 3.41691 0 0 0 0 255 255 255
0.4106 1.54603 3.36986 0 0 0 0 255 255 255
0.415404 1.54788 3.36834 0 0 0 0 255 255 255
0.494748 1.55653 3.387 0 0 0 0 255 255 255
0.70391 1.70456 3.48908 0 0 0 0 255 255 255
0.34625 1.56975 3.3403 0 0 0 0 255 255 255
0.653959 1.65114 3.43976 0 0 0 0 255 255 255
0.615885 1.6205 3.41784 0 0 0 0 255 255 255
0.631344 1.63285 3.42484 0 0 0 0 255 255 255
0.517658 1.56988 3.38399 0 0 0 0 255 255 255
0.611298 1.62245 3.40948 0 0 0 0 255 255 255
0.443016 1.55531 3.36587 0 0 0 0 255 255 255
0.733432 1.76537 3.53185 0 0 0 0 255 255 255
0.724208 1.74744 3.50909 0 0 0 0 255 255 255
0.733341 1.76648 3.53009 0 0 0 0 255 255 255
0.426579 1.55676 3.35969 0 0 0 0 255 255 255
0.727971 1.75724 3.51437 0 0 0 0 255 255 255
0.726992 1.75534 3.51217 0 0 0 0 255 255 255
0.686242 1.70077 3.44882 0 0 0 0 255 255 255
0.569582 1.60329 3.38582 0 0 0 0 255 255 255
0.725961 1.75907 3.50455 0 0 0 0 255 255 255
0.722574 1.75437 3.49639 0 0 0 0 255 255 255
0.444477 1.56253 3.35765 0 0 0 0 255 255 255
0.67432 1.69132 3.43411 0 0 0 0 255 255 255
0.724871 1.76537 3.49545 0 0 0 0 255 255 255
0.666248 1.6875 3.4233 0 0 0 0 255 255 255
0.364142 1.57573 3.333 0 0 0 0 255 255 255
0.71639 1.75384 3.47741 0 0 0 0 255 255 255
0.707786 1.74136 3.46365 0 0 0 0 255 255 255
0.627995 1.65883 3.39324 0 0 0 0 255 255 255
0.720931 1.76885 3.48047 0 0 0 0 255 255 255
0.719467 1.76969 3.4757 0 0 0 0 255 255 255
0.713087 1.75998 3.46435 0 0 0 0 255 255 255
0.594791 1.64032 3.37278 0 0 0 0 255 255 255
0.717895 1.77399 3.46894 0 0 0 0 255 255 255
0.639698 1.68196 3.38888 0 0 0 0 255 255 255
0.716595 1.77721 3.4639 0 0 0 0 255 255 255
0.552882 1.61988 3.35508 0 0 0 0 255 255 255
0.718613 1.78635 3.465 0 0 0 0 255 255 255
0.744538 1.8596 3.55588 0 0 0 0 255 255 255
0.642236 1.69199 3.38475 0 0 0 0 255 255 255
0.743581 1.89374 3.60767 0 0 0 0 255 255 255
0.677609 1.73459 3.40815 0 0 0 0 255 255 255
0.671096 1.72684 3.40239 0 0 0 0 255 255 255
0.642144 1.69905 3.37983 0 0 0 0 255 255 255
0.668659 1.72921 3.39735 0 0 0 0 255 255 255
0.66682 1.72709 3.39585 0 0 0 0 255 255 255
0.588013 1.65335 3.35551 0 0 0 0 255 255 255
0.70559 1.77931 3.43757 0 0 0 0 255 255 255
0.742706 1.90052 3.59915 0 0 0 0 255 255 255
0.661805 1.72401 3.39043 0 0 0 0 255 255 255
0.661155 1.72503 3.38894 0 0 0 0 255 255 255
0.665479 1.73173 3.39135 0 0 0 0 255 255 255
0.60765 1.67668 3.3568 0 0 0 0 255 255 255
0.643926 1.71259 3.37367 0 0 0 0 255 255 255
0.741661 1.90365 3.57774 0 0 0 0 255 255 255
0.636941 1.70892 3.36753 0 0 0 0 255 255 255
0.601744 1.67792 3.35033 0 0 0 0 255 255 255
0.693281 1.78 3.41387 0 0 0 0 255 255 255
0.575335 1.66047 3.33961 0 0 0 0 255 255 255
0.69814 1.7925 3.41871 0 0 0 0 255 255 255
0.444179 1.59569 3.32366 0 0 0 0 255 255 255
0.542388 1.64082 3.33045 0 0 0 0 255 255 255
0.626685 1.71192 3.35459 0 0 0 0 255 255 255
0.665896 1.76199 3.3784 0 0 0 0 255 255 255
0.664754 1.76059 3.37739 0 0 0 0 255 255 255
0.665189 1.76215 3.37739 0 0 0 0 255 255 255
0.458711 1.60665 3.3183 0 0 0 0 255 255 255
0.573045 1.68374 3.32302 0 0 0 0 255 255 255
0.451088 1.61299 3.31087 0 0 0 0 255 255 255
0.642539 1.75506 3.35248 0 0 0 0 255 255 255
0.640942 1.75535 3.35063 0 0 0 0 255 255 255
0.668922 1.79308 3.37339 0 0 0 0 255 255 255
0.652786 1.77358 3.35821 0 0 0 0 255 255 255
0.652574 1.77443 3.35772 0 0 0 0 255 255 255
0.565183 1.68873 3.31467 0 0 0 0 255 255 255
0.478231 1.63078 3.30605 0 0 0 0 255 255 255
0.628247 1.75181 3.33868 0 0 0 0 255 255 255
0.566602 1.69357 3.31307 0 0 0 0 255 255 255
0.723504 1.97341 3.59139 0 0 0 0 255 255 255
0.560287 1.69477 3.30823 0 0 0 0 255 255 255
0.67102 1.81631 3.37232 0 0 0 0 255 255 255
0.561721 1.69787 3.30761 0 0 0 0 255 255 255
0.717051 1.91163 3.46751 0 0 0 0 255 255 255
0.684197 1.84147 3.38938 0 0 0 0 255 255 255
0.647892 1.79037 3.34851 0 0 0 0 255 255 255
0.700749 1.87566 3.41979 0 0 0 0 255 255 255
0.684555 1.84745 3.38999 0 0 0 0 255 255 255
0.679307 1.84165 3.38222 0 0 0 0 255 255 255
0.709578 1.90426 3.44597 0 0 0 0 255 255 255
0.68322 1.85071 3.3881 0 0 0 0 255 255 255
0.695394 1.87697 3.41047 0 0 0 0 255 255 255
0.715364 1.93569 3.4786 0 0 0 0 255 255 255
0.69092 1.87286 3.40224 0 0 0 0 255 255 255
0.717463 1.97688 3.54001 0 0 0 0 255 255 255
0.713212 1.94959 3.4843 0 0 0 0 255 255 255
0.712722 1.95636 3.48957 0 0 0 0 255 255 255
0.712408 1.96625 3.49998 0 0 0 0 255 255 255
0.711863 1.96144 3.49239 0 0 0 0 255 255 255
0.712054 1.9751 3.51101 0 0 0 0 255 255 255
0.711024 1.96301 3.49148 0 0 0 0 255 255 255
0.707905 1.94632 3.46675 0 0 0 0 255 255 255
0.709581 1.96829 3.49303 0 0 0 0 255 255 255
0.372588 1.63411 3.28497 0 0 0 0 255 255 255
0.517247 1.70809 3.27846 0 0 0 0 255 255 255
0.583287 1.77344 3.29509 0 0 0 0 255 255 255
0.638815 1.84247 3.3337 0 0 0 0 255 255 255
0.577057 1.77552 3.29038 0 0 0 0 255 255 255
0.697705 2.01729 3.53393 0 0 0 0 255 255 255
0.518372 1.72777 3.2714 0 0 0 0 255 255 255
0.374023 1.64266 3.27945 0 0 0 0 255 255 255
0.56129 1.76942 3.28175 0 0 0 0 255 255 255
0.694996 2.02242 3.53442 0 0 0 0 255 255 255
0.691291 1.97145 3.4488 0 0 0 0 255 255 255
0.391656 1.64745 3.27712 0 0 0 0 255 255 255
0.50535 1.72705 3.2661 0 0 0 0 255 255 255
0.385776 1.64859 3.27611 0 0 0 0 255 255 255
0.494554 1.72389 3.26305 0 0 0 0 255 255 255
0.680267 2.04398 3.52655 0 0 0 0 255 255 255
0.600475 1.85307 3.30007 0 0 0 0 255 255 255
0.602626 1.86005 3.30208 0 0 0 0 255 255 255
0.455749 1.72913 3.24953 0 0 0 0 255 255 255
0.562199 1.82682 3.2744 0 0 0 0 255 255 255
0.670691 2.05853 3.52846 0 0 0 0 255 255 255
0.597887 1.87736 3.29998 0 0 0 0 255 255 255
0.427259 1.72035 3.24679 0 0 0 0 255 255 255
0.566546 1.84667 3.27668 0 0 0 0 255 255 255
0.557791 1.83696 3.27153 0 0 0 0 255 255 255
0.462538 1.74844 3.24553 0 0 0 0 255 255 255
0.411089 1.71086 3.24802 0 0 0 0 255 255 255
0.662453 2.02138 3.44164 0 0 0 0 255 255 255
0.378966 1.69885 3.2506 0 0 0 0 255 255 255
0.430315 1.74158 3.24062 0 0 0 0 255 255 255
0.40407 1.72259 3.24313 0 0 0 0 255 255 255
0.45034 1.75972 3.23982 0 0 0 0 255 255 255
0.568766 1.87632 3.27984 0 0 0 0 255 255 255
0.570831 1.88176 3.28177 0 0 0 0 255 255 255
0.565149 1.88073 3.27813 0 0 0 0 255 255 255
0.561849 1.88115 3.27621 0 0 0 0 255 255 255
0.415192 1.75274 3.23553 0 0 0 0 255 255 255
0.474654 1.80459 3.23849 0 0 0 0 255 255 255
0.444259 1.77799 3.23484 0 0 0 0 255 255 255
0.473782 1.80628 3.23807 0 0 0 0 255 255 255
0.422055 1.7628 3.23408 0 0 0 0 255 255 255
0.394634 1.75031 3.23425 0 0 0 0 255 255 255
0.46749 1.81663 3.23547 0 0 0 0 255 255 255
0.399987 1.75817 3.23273 0 0 0 0 255 255 255
0.588484 1.96617 3.31727 0 0 0 0 255 255 255
0.455621 1.81793 3.23244 0 0 0 0 255 255 255
0.622429 2.07323 3.44042 0 0 0 0 255 255 255
0.62004 2.07337 3.43688 0 0 0 0 255 255 255
0.616024 2.05463 3.40754 0 0 0 0 255 255 255
0.509808 1.88869 3.2516 0 0 0 0 255 255 255
0.36793 1.7505 3.23351 0 0 0 0 255 255 255
0.356601 1.73788 3.23721 0 0 0 0 255 255 255
0.388426 1.77205 3.22912 0 0 0 0 255 255 255
0.341899 1.72044 3.24364 0 0 0 0 255 255 255
0.578673 1.98859 3.3207 0 0 0 0 255 255 255
0.610007 2.09461 3.45462 0 0 0 0 255 255 255
0.447601 1.83735 3.22993 0 0 0 0 255 255 255
0.57233 1.99091 3.31729 0 0 0 0 255 255 255
0.603977 2.10807 3.46992 0 0 0 0 255 255 255
0.358204 1.77634 3.2282 0 0 0 0 255 255 255
0.313027 1.66814 3.27006 0 0 0 0 255 255 255
0.317601 1.71413 3.24878 0 0 0 0 255 255 255
0.344007 1.76631 3.23092 0 0 0 0 255 255 255
0.340129 1.76547 3.23141 0 0 0 0 255 255 255
0.30794 1.67212 3.26892 0 0 0 0 255 255 255
0.314887 1.65021 3.27988 0 0 0 0 255 255 255
0.372577 1.81465 3.22316 0 0 0 0 255 255 255
0.312398 1.72965 3.24431 0 0 0 0 255 255 255
0.311742 1.7442 3.24012 0 0 0 0 255 255 255
0.292024 1.65382 3.28265 0 0 0 0 255 255 255
0.409817 1.92049 3.23243 0 0 0 0 255 255 255
0.301052 1.77669 3.2347 0 0 0 0 255 255 255
0.302445 1.78067 3.23374 0 0 0 0 255 255 255
0.394101 1.91034 3.2291 0 0 0 0 255 255 255
0.361016 1.87635 3.22388 0 0 0 0 255 255 255
0.405483 1.95403 3.24084 0 0 0 0 255 255 255
0.282751 1.78499 3.23734 0 0 0 0 255 255 255
0.362889 1.95759 3.24049 0 0 0 0 255 255 255
0.286107 1.622 3.30566 0 0 0 0 255 255 255
0.352171 1.96187 3.24233 0 0 0 0 255 255 255
0.335669 1.95377 3.24098 0 0 0 0 255 255 255
0.356535 1.98829 3.25214 0 0 0 0 255 255 255
0.370487 2.02629 3.27047 0 0 0 0 255 255 255
0.320533 1.94686 3.24074 0 0 0 0 255 255 255
0.258389 1.86003 3.24012 0 0 0 0 255 255 255
0.350485 2.02917 3.2728 0 0 0 0 255 255 255
0.301343 1.94796 3.24435 0 0 0 0 255 255 255
0.232827 1.83308 3.2489 0 0 0 0 255 255 255
0.260568 1.9215 3.2479 0 0 0 0 255 255 255
0.25845 1.92168 3.24862 0 0 0 0 255 255 255
0.242657 1.63134 3.31488 0 0 0 0 255 255 255
0.204584 1.79126 3.26525 0 0 0 0 255 255 255
0.299646 2.07808 3.31464 0 0 0 0 255 255 255
0.276272 2.07776 3.32137 0 0 0 0 255 255 255
0.20469 1.91292 3.2689 0 0 0 0 255 255 255
0.134275 1.81633 3.30788 0 0 0 0 255 255 255
0.11794 1.81296 3.3224 0 0 0 0 255 255 255
0.135522 1.69257 3.34688 0 0 0 0 255 255 255
0.10564 1.82089 3.33352 0 0 0 0 255 255 255
0.122088 2.01795 3.37912 0 0 0 0 255 255 255
0.103955 1.97735 3.3718 0 0 0 0 255 255 255
0.0992788 1.9799 3.37905 0 0 0 0 255 255 255
0.0937346 1.77942 3.35307 0 0 0 0 255 255 255
0.0974329 2.0333 3.42674 0 0 0 0 255 255 255
0.0975335 2.04188 3.43668 0 0 0 0 255 255 255
0.0951952 2.01698 3.41339 0 0 0 0 255 255 255
0.144422 1.63607 3.38101 0 0 0 0 255 255 255
0.131093 1.63925 3.39271 0 0 0 0 255 255 255
0.103954 1.68514 3.38621 0 0 0 0 255 255 255
0.0606034 1.97056 3.43118 0 0 0 0 255 255 255
0.0629565 1.78724 3.39105 0 0 0 0 255 255 255
0.0562178 1.82119 3.39505 0 0 0 0 255 255 255
0.0538216 1.81513 3.39956 0 0 0 0 255 255 255
0.0526977 1.81091 3.402 0 0 0 0 255 255 255
0.0437581 1.96464 3.46186 0 0 0 0 255 255 255
0.0380375 1.91959 3.4438 0 0 0 0 255 255 255
0.0327683 2.00094 3.56748 0 0 0 0 255 255 255
0.0274675 1.81633 3.4498 0 0 0 0 255 255 255
0.0742545 1.66788 3.44861 0 0 0 0 255 255 255
0.0173447 1.81574 3.47616 0 0 0 0 255 255 255
0.0973135 1.6277 3.45696 0 0 0 0 255 255 255
0.0594155 1.65571 3.50391 0 0 0 0 255 255 255
0.0548335 1.65131 3.53245 0 0 0 0 255 255 255
0.0108209 1.74021 3.57682 0 0 0 0 255 255 255
0.0176248 1.71957 3.57179 0 0 0 0 255 255 255
0.0236441 1.70138 3.60837 0 0 0 0 255 255 255
