ply
format ascii 1.0
comment VCGLIB generated
element vertex 114
property float x
property float y
property float z
property float nx
property float ny
property float nz
property uchar red
property uchar green
property uchar blue
property uchar alpha
element face 0
property list uchar int vertex_indices
end_header
-0.270534 0.61601 4.11859 0 0 0 0 128 128 255
-0.196397 0.468741 4.13652 0 0 0 0 128 128 255
-0.122726 0.494631 4.16084 0 0 0 0 128 128 255
0.0493205 0.314707 4.20856 0 0 0 0 128 128 255
0.049558 0.336891 4.20947 0 0 0 0 128 128 255
0.0505036 0.328947 4.20947 0 0 0 0 128 128 255
0.0825393 0.0920729 4.21068 0 0 0 0 128 128 255
0.0834857 0.100242 4.21129 0 0 0 0 128 128 255
0.0763939 0.175934 4.2119 0 0 0 0 128 128 255
0.0760396 0.18697 4.2122 0 0 0 0 128 128 255
0.0844324 0.116468 4.2122 0 0 0 0 128 128 255
0.0828964 0.14549 4.21281 0 0 0 0 128 128 255
0.0987387 0.0688248 4.21494 0 0 0 0 128 128 255
0.0855008 0.212266 4.21616 0 0 0 0 128 128 255
0.0889298 0.207639 4.21707 0 0 0 0 128 128 255
0.0982683 0.129192 4.21707 0 0 0 0 128 128 255
0.102406 0.0944378 4.21707 0 0 0 0 128 128 255
0.0979161 0.188567 4.21919 0 0 0 0 128 128 255
0.110095 0.158798 4.22193 0 0 0 0 128 128 255
0.118846 0.190052 4.22588 0 0 0 0 128 128 255
0.131141 0.11095 4.22679 0 0 0 0 128 128 255
0.132087 0.103006 4.22679 0 0 0 0 128 128 255
0.109982 0.296752 4.2271 0 0 0 0 128 128 255
0.151953 0.105371 4.23318 0 0 0 0 128 128 255
0.157037 0.0868424 4.23409 0 0 0 0 128 128 255
0.133042 0.312589 4.235 0 0 0 0 128 128 255
0.160939 0.0782434 4.235 0 0 0 0 128 128 255
0.138244 0.301123 4.23622 0 0 0 0 128 128 255
0.140136 0.285235 4.23622 0 0 0 0 128 128 255
0.16295 0.101645 4.23652 0 0 0 0 128 128 255
0.14912 0.225881 4.23682 0 0 0 0 128 128 255
0.163423 0.10573 4.23682 0 0 0 0 128 128 255
0.141201 0.308525 4.23743 0 0 0 0 128 128 255
0.144629 0.287785 4.23774 0 0 0 0 128 128 255
0.146403 0.289003 4.23834 0 0 0 0 128 128 255
0.153732 0.227437 4.23834 0 0 0 0 128 128 255
0.15456 0.228543 4.23865 0 0 0 0 128 128 255
0.15716 0.206697 4.23865 0 0 0 0 128 128 255
0.158817 0.225022 4.23986 0 0 0 0 128 128 255
0.170874 0.123737 4.23986 0 0 0 0 128 128 255
0.176194 0.0871087 4.24017 0 0 0 0 128 128 255
0.178559 0.0994751 4.24138 0 0 0 0 128 128 255
0.180096 0.102679 4.24199 0 0 0 0 128 128 255
0.161066 0.278664 4.2426 0 0 0 0 128 128 255
0.167923 0.24524 4.24351 0 0 0 0 128 128 255
0.184235 0.108207 4.24351 0 0 0 0 128 128 255
0.186009 0.101369 4.24381 0 0 0 0 128 128 255
0.190147 0.0746709 4.24412 0 0 0 0 128 128 255
0.185421 0.186899 4.24685 0 0 0 0 128 128 255
0.19937 0.0697265 4.24685 0 0 0 0 128 128 255
0.181403 0.236774 4.24746 0 0 0 0 128 128 255
0.202091 0.0952269 4.24868 0 0 0 0 128 128 255
0.190035 0.228738 4.24989 0 0 0 0 128 128 255
0.181879 0.313367 4.2505 0 0 0 0 128 128 255
0.186018 0.302782 4.25141 0 0 0 0 128 128 255
0.208241 0.1161 4.25141 0 0 0 0 128 128 255
0.209069 0.125262 4.25202 0 0 0 0 128 128 255
0.21498 0.0836694 4.25232 0 0 0 0 128 128 255
0.19453 0.263513 4.25263 0 0 0 0 128 128 255
0.209188 0.140382 4.25263 0 0 0 0 128 128 255
0.195832 0.284816 4.25384 0 0 0 0 128 128 255
0.20978 0.167644 4.25384 0 0 0 0 128 128 255
0.205999 0.223589 4.25476 0 0 0 0 128 128 255
0.198788 0.292218 4.25506 0 0 0 0 128 128 255
0.212028 0.181003 4.25506 0 0 0 0 128 128 255
0.217466 0.167551 4.25628 0 0 0 0 128 128 255
0.217585 0.166559 4.25628 0 0 0 0 128 128 255
0.223377 0.117902 4.25628 0 0 0 0 128 128 255
0.201272 0.311648 4.25658 0 0 0 0 128 128 255
0.230471 0.0905488 4.25749 0 0 0 0 128 128 255
0.232717 0.071682 4.25749 0 0 0 0 128 128 255
0.215931 0.220743 4.2578 0 0 0 0 128 128 255
0.227517 0.139543 4.2584 0 0 0 0 128 128 255
0.22149 0.230468 4.25992 0 0 0 0 128 128 255
0.23863 0.0864848 4.25992 0 0 0 0 128 128 255
0.213334 0.315097 4.26053 0 0 0 0 128 128 255
0.219245 0.289618 4.26144 0 0 0 0 128 128 255
0.227757 0.226179 4.26175 0 0 0 0 128 128 255
0.221019 0.290836 4.26205 0 0 0 0 128 128 255
0.244306 0.095217 4.26205 0 0 0 0 128 128 255
0.240997 0.139134 4.26266 0 0 0 0 128 128 255
0.225512 0.277272 4.26296 0 0 0 0 128 128 255
0.241943 0.139246 4.26296 0 0 0 0 128 128 255
0.221967 0.323175 4.26357 0 0 0 0 128 128 255
0.251755 0.0729413 4.26357 0 0 0 0 128 128 255
0.222203 0.329245 4.26387 0 0 0 0 128 128 255
0.22575 0.315568 4.26448 0 0 0 0 128 128 255
0.227878 0.297695 4.26448 0 0 0 0 128 128 255
0.243363 0.167613 4.26448 0 0 0 0 128 128 255
0.252111 0.094132 4.26448 0 0 0 0 128 128 255
0.232961 0.263053 4.26479 0 0 0 0 128 128 255
0.257904 0.0777016 4.2657 0 0 0 0 128 128 255
0.257078 0.108822 4.26661 0 0 0 0 128 128 255
0.236865 0.28668 4.26691 0 0 0 0 128 128 255
0.240885 0.285144 4.26813 0 0 0 0 128 128 255
0.241595 0.295299 4.26874 0 0 0 0 128 128 255
0.26701 0.0898632 4.26904 0 0 0 0 128 128 255
0.243369 0.296518 4.26935 0 0 0 0 128 128 255
0.263582 0.126716 4.26935 0 0 0 0 128 128 255
0.261338 0.169753 4.27026 0 0 0 0 128 128 255
0.263821 0.165013 4.27087 0 0 0 0 128 128 255
0.269496 0.141519 4.27178 0 0 0 0 128 128 255
0.279307 0.0671577 4.27208 0 0 0 0 128 128 255
0.277062 0.110194 4.27299 0 0 0 0 128 128 255
0.272335 0.174083 4.27391 0 0 0 0 128 128 255
0.277539 0.2029 4.27664 0 0 0 0 128 128 255
0.283451 0.185477 4.27786 0 0 0 0 128 128 255
0.28357 0.192541 4.27816 0 0 0 0 128 128 255
0.293856 0.15449 4.27998 0 0 0 0 128 128 255
0.284518 0.240992 4.28029 0 0 0 0 128 128 255
0.302606 0.137404 4.28211 0 0 0 0 128 128 255
0.300952 0.175476 4.28302 0 0 0 0 128 128 255
0.302016 0.182652 4.28363 0 0 0 0 128 128 255
0.308284 0.186419 4.28576 0 0 0 0 128 128 255
