ply
format ascii 1.0
comment VCGLIB generated
element vertex 592
property float x
property float y
property float z
property float nx
property float ny
property float nz
property uchar red
property uchar green
property uchar blue
property uchar alpha
element face 0
property list uchar int vertex_indices
end_header
0.0162592 0.254311 4.44239 0 0 0 128 128 0 255
0.0113635 0.274107 4.43728 0 0 0 128 128 0 255
0.00274374 0.258273 4.42806 0 0 0 128 128 0 255
0.00672947 0.320066 4.43134 0 0 0 128 128 0 255
0.00798604 0.354094 4.43203 0 0 0 128 128 0 255
-0.0104901 0.247282 4.41154 0 0 0 128 128 0 255
-0.00771113 0.402051 4.40825 0 0 0 128 128 0 255
-0.0192084 0.255869 4.39783 0 0 0 128 128 0 255
-0.0191258 0.284106 4.39621 0 0 0 128 128 0 255
-0.0233852 0.227387 4.3925 0 0 0 128 128 0 255
-0.0178995 0.307087 4.39684 0 0 0 128 128 0 255
0.0210321 0.838646 4.42985 0 0 0 128 128 0 255
-0.0124457 0.39285 4.4007 0 0 0 128 128 0 255
-0.0237615 0.248657 4.3904 0 0 0 128 128 0 255
-0.025178 0.248935 4.38777 0 0 0 128 128 0 255
-0.029102 0.221442 4.38241 0 0 0 128 128 0 255
-0.0329821 0.181822 4.37802 0 0 0 128 128 0 255
-0.0228849 0.32222 4.3863 0 0 0 128 128 0 255
-0.0338698 0.175943 4.37674 0 0 0 128 128 0 255
-0.0223844 0.346375 4.38517 0 0 0 128 128 0 255
-0.00349751 0.609257 4.40054 0 0 0 128 128 0 255
-0.0226622 0.370708 4.38221 0 0 0 128 128 0 255
0.00525497 0.808699 4.39878 0 0 0 128 128 0 255
-0.0296426 0.343997 4.36839 0 0 0 128 128 0 255
-0.00966272 0.614746 4.38516 0 0 0 128 128 0 255
-0.0272236 0.380902 4.36987 0 0 0 128 128 0 255
0.00684577 0.843787 4.39825 0 0 0 128 128 0 255
-0.0315407 0.354638 4.36153 0 0 0 128 128 0 255
-0.0242372 0.460287 4.36653 0 0 0 128 128 0 255
-0.0353737 0.32015 4.35546 0 0 0 128 128 0 255
0.00289208 0.833695 4.38808 0 0 0 128 128 0 255
-0.0295396 0.401831 4.35984 0 0 0 128 128 0 255
-0.0254943 0.459629 4.36266 0 0 0 128 128 0 255
-0.0264325 0.454821 4.36042 0 0 0 128 128 0 255
-0.0276282 0.4389 4.35938 0 0 0 128 128 0 255
-0.0325602 0.373225 4.35509 0 0 0 128 128 0 255
-0.0359229 0.328446 4.35216 0 0 0 128 128 0 255
-0.0365954 0.319491 4.35157 0 0 0 128 128 0 255
-0.025662 0.468836 4.36038 0 0 0 128 128 0 255
-0.0242571 0.494874 4.36015 0 0 0 128 128 0 255
-0.0345695 0.357553 4.35117 0 0 0 128 128 0 255
0.00208347 0.849204 4.38235 0 0 0 128 128 0 255
-0.0183507 0.580615 4.36382 0 0 0 128 128 0 255
-0.028962 0.439314 4.35458 0 0 0 128 128 0 255
-0.0374808 0.325875 4.34716 0 0 0 128 128 0 255
-0.0289024 0.453572 4.35163 0 0 0 128 128 0 255
-0.0286148 0.460619 4.35112 0 0 0 128 128 0 255
-0.026586 0.502813 4.34899 0 0 0 128 128 0 255
-0.0297835 0.463089 4.34541 0 0 0 128 128 0 255
-0.0267742 0.505957 4.34723 0 0 0 128 128 0 255
-0.0278204 0.492026 4.34632 0 0 0 128 128 0 255
-0.0246301 0.545078 4.34586 0 0 0 128 128 0 255
-0.0340028 0.422761 4.33688 0 0 0 128 128 0 255
-0.0346207 0.430263 4.33045 0 0 0 128 128 0 255
-0.0207683 0.620548 4.33991 0 0 0 128 128 0 255
-0.0356953 0.423597 4.32604 0 0 0 128 128 0 255
-0.0476517 0.264384 4.31563 0 0 0 128 128 0 255
-0.00455815 0.841678 4.35139 0 0 0 128 128 0 255
-0.0304885 0.496386 4.32881 0 0 0 128 128 0 255
-0.0295228 0.512454 4.32787 0 0 0 128 128 0 255
-0.00668961 0.818016 4.34686 0 0 0 128 128 0 255
-0.0376267 0.406053 4.31992 0 0 0 128 128 0 255
-0.0328729 0.470806 4.32315 0 0 0 128 128 0 255
-0.0411917 0.36142 4.315 0 0 0 128 128 0 255
-0.0277926 0.545866 4.32207 0 0 0 128 128 0 255
-0.031069 0.504213 4.31735 0 0 0 128 128 0 255
-0.0318035 0.495328 4.31577 0 0 0 128 128 0 255
-0.0415755 0.366037 4.30631 0 0 0 128 128 0 255
-0.0277461 0.552323 4.31549 0 0 0 128 128 0 255
-0.0406273 0.382368 4.30137 0 0 0 128 128 0 255
-0.0251839 0.588416 4.31385 0 0 0 128 128 0 255
-0.041325 0.373479 4.29979 0 0 0 128 128 0 255
-0.0261917 0.575613 4.31101 0 0 0 128 128 0 255
-0.0390448 0.40446 4.29981 0 0 0 128 128 0 255
-0.0254643 0.585761 4.30866 0 0 0 128 128 0 255
-0.0294248 0.533022 4.30521 0 0 0 128 128 0 255
-0.0067725 0.834661 4.32293 0 0 0 128 128 0 255
-0.0252182 0.588941 4.30586 0 0 0 128 128 0 255
-0.0442737 0.335196 4.28927 0 0 0 128 128 0 255
-0.005192 0.851271 4.313 0 0 0 128 128 0 255
-0.0241727 0.598521 4.29648 0 0 0 128 128 0 255
-0.0053609 0.847411 4.31075 0 0 0 128 128 0 255
-0.0399606 0.384818 4.2785 0 0 0 128 128 0 255
-0.0285691 0.533261 4.28522 0 0 0 128 128 0 255
-0.0218982 0.620885 4.28995 0 0 0 128 128 0 255
-0.0226454 0.610935 4.2893 0 0 0 128 128 0 255
-0.0235287 0.595185 4.28528 0 0 0 128 128 0 255
-0.031492 0.482964 4.27396 0 0 0 128 128 0 255
-0.0220194 0.607404 4.2811 0 0 0 128 128 0 255
-0.0135716 0.706289 4.28064 0 0 0 128 128 0 255
-0.000864774 0.839323 4.27559 0 0 0 128 128 0 255
-0.0326199 0.386963 4.23727 0 0 0 128 128 0 255
-0.0250793 0.436241 4.22807 0 0 0 128 128 0 255
-0.00666733 0.668204 4.2404 0 0 0 128 128 0 255
-0.00395145 0.676372 4.23531 0 0 0 128 128 0 255
0.0184389 0.848177 4.2256 0 0 0 128 128 0 255
-0.0194615 0.324833 4.18872 0 0 0 128 128 0 255
-0.0183819 0.307025 4.18318 0 0 0 128 128 0 255
-0.0141485 0.356799 4.18557 0 0 0 128 128 0 255
-0.00759459 0.437419 4.18997 0 0 0 128 128 0 255
0.00895251 0.637484 4.20047 0 0 0 128 128 0 255
0.0611954 1.2983 4.23942 0 0 0 128 128 0 255
0.0280299 0.849532 4.20923 0 0 0 128 128 0 255
0.0347568 0.841723 4.19797 0 0 0 128 128 0 255
0.0186157 0.626786 4.18392 0 0 0 128 128 0 255
0.0248917 0.596016 4.17085 0 0 0 128 128 0 255
0.0199746 0.513428 4.16392 0 0 0 128 128 0 255
0.017185 0.467656 4.16016 0 0 0 128 128 0 255
0.0171638 0.458701 4.15882 0 0 0 128 128 0 255
0.0205088 0.494524 4.1604 0 0 0 128 128 0 255
0.0181175 0.462681 4.15832 0 0 0 128 128 0 255
0.0178186 0.458701 4.15806 0 0 0 128 128 0 255
0.0278926 0.584081 4.16551 0 0 0 128 128 0 255
0.0272841 0.567164 4.16365 0 0 0 128 128 0 255
0.0295312 0.506432 4.15236 0 0 0 128 128 0 255
0.0432624 0.670608 4.16167 0 0 0 128 128 0 255
0.037882 0.598962 4.15698 0 0 0 128 128 0 255
0.0385128 0.59796 4.15621 0 0 0 128 128 0 255
0.0295455 0.478551 4.1484 0 0 0 128 128 0 255
0.0371826 0.542205 4.14976 0 0 0 128 128 0 255
0.0405528 0.558098 4.14874 0 0 0 128 128 0 255
0.072208 0.960089 4.17366 0 0 0 128 128 0 255
0.0468589 0.602833 4.14896 0 0 0 128 128 0 255
0.0407312 0.521236 4.14362 0 0 0 128 128 0 255
0.0392367 0.501334 4.14232 0 0 0 128 128 0 255
0.0452112 0.570978 4.14621 0 0 0 128 128 0 255
0.0405034 0.508288 4.14211 0 0 0 128 128 0 255
0.0464063 0.576936 4.14593 0 0 0 128 128 0 255
0.0421633 0.490323 4.1383 0 0 0 128 128 0 255
0.0441925 0.507225 4.13875 0 0 0 128 128 0 255
0.0424738 0.484339 4.13725 0 0 0 128 128 0 255
0.077087 0.935094 4.16608 0 0 0 128 128 0 255
0.0477367 0.534062 4.13922 0 0 0 128 128 0 255
0.0563124 0.596669 4.14015 0 0 0 128 128 0 255
0.0612425 0.641411 4.14183 0 0 0 128 128 0 255
0.0547486 0.502001 4.12968 0 0 0 128 128 0 255
0.0593727 0.487912 4.12467 0 0 0 128 128 0 255
0.0657233 0.561524 4.12892 0 0 0 128 128 0 255
0.0727802 0.600203 4.12866 0 0 0 128 128 0 255
0.0683712 0.541494 4.12482 0 0 0 128 128 0 255
0.0985752 0.932533 4.14984 0 0 0 128 128 0 255
0.0693569 0.543457 4.1244 0 0 0 128 128 0 255
0.0681032 0.515567 4.12203 0 0 0 128 128 0 255
0.102169 0.935406 4.14788 0 0 0 128 128 0 255
0.0717068 0.518438 4.12009 0 0 0 128 128 0 255
0.0755732 0.524288 4.11841 0 0 0 128 128 0 255
0.073705 0.499411 4.11678 0 0 0 128 128 0 255
0.0803942 0.576996 4.12135 0 0 0 128 128 0 255
0.0907675 0.59855 4.11792 0 0 0 128 128 0 255
0.116452 0.916903 4.13781 0 0 0 128 128 0 255
0.0869969 0.500885 4.10971 0 0 0 128 128 0 255
0.0874419 0.494877 4.10887 0 0 0 128 128 0 255
0.125704 0.968419 4.13852 0 0 0 128 128 0 255
0.123542 0.927581 4.13542 0 0 0 128 128 0 255
0.0931538 0.48664 4.10533 0 0 0 128 128 0 255
0.0889691 0.430915 4.10169 0 0 0 128 128 0 255
0.148121 1.18208 4.14958 0 0 0 128 128 0 255
0.0915528 0.4288 4.10033 0 0 0 128 128 0 255
0.102299 0.535145 4.1061 0 0 0 128 128 0 255
0.0959954 0.426594 4.09823 0 0 0 128 128 0 255
0.096695 0.423564 4.09765 0 0 0 128 128 0 255
0.0957523 0.398642 4.09565 0 0 0 128 128 0 255
0.123282 0.752845 4.11844 0 0 0 128 128 0 255
0.113077 0.604533 4.10838 0 0 0 128 128 0 255
0.111093 0.565679 4.10548 0 0 0 128 128 0 255
0.118003 0.645238 4.11033 0 0 0 128 128 0 255
0.112997 0.578568 4.10597 0 0 0 128 128 0 255
0.111801 0.562647 4.10493 0 0 0 128 128 0 255
0.111913 0.551654 4.10386 0 0 0 128 128 0 255
0.0995082 0.386471 4.09305 0 0 0 128 128 0 255
0.114866 0.578474 4.10526 0 0 0 128 128 0 255
0.101415 0.39936 4.09355 0 0 0 128 128 0 255
0.104445 0.427174 4.09503 0 0 0 128 128 0 255
0.102726 0.404287 4.09353 0 0 0 128 128 0 255
0.146751 0.965415 4.12955 0 0 0 128 128 0 255
0.145032 0.942528 4.12805 0 0 0 128 128 0 255
0.105995 0.410112 4.09291 0 0 0 128 128 0 255
0.147761 0.928399 4.12584 0 0 0 128 128 0 255
0.117646 0.527382 4.09961 0 0 0 128 128 0 255
0.168938 1.18503 4.142 0 0 0 128 128 0 255
0.114029 0.415677 4.09079 0 0 0 128 128 0 255
0.130796 0.600603 4.10203 0 0 0 128 128 0 255
0.129974 0.589657 4.10131 0 0 0 128 128 0 255
0.117345 0.421488 4.09032 0 0 0 128 128 0 255
0.158656 0.958777 4.12517 0 0 0 128 128 0 255
0.13975 0.707022 4.10871 0 0 0 128 128 0 255
0.119275 0.434371 4.09088 0 0 0 128 128 0 255
0.143101 0.738811 4.11052 0 0 0 128 128 0 255
0.16056 0.932687 4.12241 0 0 0 128 128 0 255
0.164508 0.959442 4.12365 0 0 0 128 128 0 255
0.14754 0.720567 4.10779 0 0 0 128 128 0 255
0.163005 0.913556 4.12016 0 0 0 128 128 0 255
0.149851 0.725429 4.10763 0 0 0 128 128 0 255
0.125938 0.407003 4.08681 0 0 0 128 128 0 255
0.125415 0.400038 4.08635 0 0 0 128 128 0 255
0.151942 0.727304 4.10729 0 0 0 128 128 0 255
0.153063 0.729236 4.10719 0 0 0 128 128 0 255
0.15254 0.72227 4.10674 0 0 0 128 128 0 255
0.170409 0.921109 4.1191 0 0 0 128 128 0 255
0.142984 0.555915 4.09522 0 0 0 128 128 0 255
0.132298 0.413619 4.08592 0 0 0 128 128 0 255
0.178587 0.96459 4.12097 0 0 0 128 128 0 255
0.177615 0.951654 4.12012 0 0 0 128 128 0 255
0.138832 0.435208 4.08635 0 0 0 128 128 0 255
0.137786 0.421277 4.08544 0 0 0 128 128 0 255
0.157757 0.660968 4.10075 0 0 0 128 128 0 255
0.139995 0.398142 4.08323 0 0 0 128 128 0 255
0.141066 0.386075 4.08212 0 0 0 128 128 0 255
0.168281 0.735284 4.1048 0 0 0 128 128 0 255
0.166413 0.710407 4.10317 0 0 0 128 128 0 255
0.156848 0.583037 4.09484 0 0 0 128 128 0 255
0.156175 0.574081 4.09426 0 0 0 128 128 0 255
0.173527 0.79194 4.10835 0 0 0 128 128 0 255
0.145803 0.422765 4.08421 0 0 0 128 128 0 255
0.168386 0.710279 4.10287 0 0 0 128 128 0 255
0.155906 0.544101 4.092 0 0 0 128 128 0 255
0.145834 0.396764 4.08223 0 0 0 128 128 0 255
0.172827 0.742987 4.10473 0 0 0 128 128 0 255
0.161693 0.59472 4.09504 0 0 0 128 128 0 255
0.153697 0.488247 4.08807 0 0 0 128 128 0 255
0.164101 0.613561 4.09614 0 0 0 128 128 0 255
0.160906 0.557771 4.09236 0 0 0 128 128 0 255
0.157842 0.516973 4.08969 0 0 0 128 128 0 255
0.158776 0.502909 4.08853 0 0 0 128 128 0 255
0.151751 0.409372 4.08242 0 0 0 128 128 0 255
0.192143 0.920708 4.11563 0 0 0 128 128 0 255
0.163074 0.533623 4.09032 0 0 0 128 128 0 255
0.184488 0.792208 4.10703 0 0 0 128 128 0 255
0.162539 0.486651 4.08695 0 0 0 128 128 0 255
0.159071 0.413873 4.08202 0 0 0 128 128 0 255
0.166118 0.494405 4.08721 0 0 0 128 128 0 255
0.160737 0.422759 4.08252 0 0 0 128 128 0 255
0.201038 0.946101 4.11667 0 0 0 128 128 0 255
0.230304 1.30917 4.14027 0 0 0 128 128 0 255
0.172988 0.54594 4.09036 0 0 0 128 128 0 255
0.231 1.30511 4.13994 0 0 0 128 128 0 255
0.221584 1.17973 4.13174 0 0 0 128 128 0 255
0.205019 0.94582 4.11639 0 0 0 128 128 0 255
0.174082 0.533858 4.08945 0 0 0 128 128 0 255
0.20183 0.890025 4.11269 0 0 0 128 128 0 255
0.210498 0.965436 4.11749 0 0 0 128 128 0 255
0.17971 0.555464 4.09068 0 0 0 128 128 0 255
0.167231 0.389285 4.07982 0 0 0 128 128 0 255
0.184294 0.603155 4.09377 0 0 0 128 128 0 255
0.230302 1.18911 4.13203 0 0 0 128 128 0 255
0.230701 1.18108 4.13148 0 0 0 128 128 0 255
0.230477 1.17809 4.13129 0 0 0 128 128 0 255
0.223228 1.08157 4.12498 0 0 0 128 128 0 255
0.197298 0.736277 4.1024 0 0 0 128 128 0 255
0.195878 0.71737 4.10116 0 0 0 128 128 0 255
0.173759 0.422827 4.0819 0 0 0 128 128 0 255
0.171667 0.394965 4.08008 0 0 0 128 128 0 255
0.222133 1.05363 4.12313 0 0 0 128 128 0 255
0.174457 0.418773 4.08162 0 0 0 128 128 0 255
0.19989 0.74409 4.10288 0 0 0 128 128 0 255
0.188733 0.568807 4.09141 0 0 0 128 128 0 255
0.186715 0.54194 4.08966 0 0 0 128 128 0 255
0.17842 0.431487 4.08243 0 0 0 128 128 0 255
0.191822 0.596595 4.09323 0 0 0 128 128 0 255
0.207242 0.78857 4.10579 0 0 0 128 128 0 255
0.177724 0.395514 4.08009 0 0 0 128 128 0 255
0.203157 0.720829 4.10138 0 0 0 128 128 0 255
0.181412 0.431261 4.08244 0 0 0 128 128 0 255
0.239601 1.17941 4.1314 0 0 0 128 128 0 255
0.212276 0.802198 4.10676 0 0 0 128 128 0 255
0.242865 1.19617 4.13256 0 0 0 128 128 0 255
0.195712 0.568278 4.0915 0 0 0 128 128 0 255
0.242964 1.18415 4.13181 0 0 0 128 128 0 255
0.19611 0.56024 4.09101 0 0 0 128 128 0 255
0.199573 0.593001 4.09319 0 0 0 128 128 0 255
0.195538 0.539267 4.08968 0 0 0 128 128 0 255
0.194641 0.527326 4.0889 0 0 0 128 128 0 255
0.187118 0.413809 4.08152 0 0 0 128 128 0 255
0.186296 0.402863 4.0808 0 0 0 128 128 0 255
0.192822 0.476422 4.08566 0 0 0 128 128 0 255
0.247995 1.19778 4.13288 0 0 0 128 128 0 255
0.196831 0.503132 4.08752 0 0 0 128 128 0 255
0.230603 0.912868 4.11452 0 0 0 128 128 0 255
0.217003 0.731764 4.10268 0 0 0 128 128 0 255
0.208357 0.60332 4.09435 0 0 0 128 128 0 255
0.254284 1.18827 4.13277 0 0 0 128 128 0 255
0.235752 0.941487 4.11664 0 0 0 128 128 0 255
0.234108 0.919595 4.1152 0 0 0 128 128 0 255
0.220881 0.743466 4.10369 0 0 0 128 128 0 255
0.215276 0.668835 4.09881 0 0 0 128 128 0 255
0.23968 0.967198 4.1185 0 0 0 128 128 0 255
0.2207 0.714448 4.10198 0 0 0 128 128 0 255
0.250632 1.08645 4.12651 0 0 0 128 128 0 255
0.202527 0.432598 4.08386 0 0 0 128 128 0 255
0.242226 0.947967 4.11768 0 0 0 128 128 0 255
0.214876 0.583768 4.09386 0 0 0 128 128 0 255
0.261226 1.1877 4.13347 0 0 0 128 128 0 255
0.244786 0.968782 4.11916 0 0 0 128 128 0 255
0.227766 0.728886 4.10359 0 0 0 128 128 0 255
0.218891 0.597453 4.09513 0 0 0 128 128 0 255
0.213602 0.513784 4.08979 0 0 0 128 128 0 255
0.215487 0.525642 4.0907 0 0 0 128 128 0 255
0.205847 0.397277 4.08231 0 0 0 128 128 0 255
0.207895 0.398106 4.08265 0 0 0 128 128 0 255
0.26687 1.1702 4.13329 0 0 0 128 128 0 255
0.268677 1.18107 4.13415 0 0 0 128 128 0 255
0.221897 0.558146 4.09342 0 0 0 128 128 0 255
0.224003 0.572988 4.09455 0 0 0 128 128 0 255
0.272151 1.18778 4.13509 0 0 0 128 128 0 255
0.234563 0.687253 4.10236 0 0 0 128 128 0 255
0.272311 1.17675 4.13454 0 0 0 128 128 0 255
0.244298 0.790572 4.10947 0 0 0 128 128 0 255
0.241608 0.754749 4.10712 0 0 0 128 128 0 255
0.215378 0.405476 4.08429 0 0 0 128 128 0 255
0.223765 0.490882 4.09024 0 0 0 128 128 0 255
0.257623 0.928631 4.11906 0 0 0 128 128 0 255
0.231095 0.575378 4.09596 0 0 0 128 128 0 255
0.220334 0.432087 4.08659 0 0 0 128 128 0 255
0.260395 0.952427 4.12081 0 0 0 128 128 0 255
0.260774 0.944381 4.12049 0 0 0 128 128 0 255
0.242764 0.704567 4.1048 0 0 0 128 128 0 255
0.234549 0.582085 4.097 0 0 0 128 128 0 255
0.222518 0.421878 4.08653 0 0 0 128 128 0 255
0.264294 0.965104 4.12226 0 0 0 128 128 0 255
0.263248 0.951173 4.12135 0 0 0 128 128 0 255
0.281708 1.18393 4.13678 0 0 0 128 128 0 255
0.222972 0.401803 4.08564 0 0 0 128 128 0 255
0.234033 0.536051 4.09464 0 0 0 128 128 0 255
0.236051 0.549895 4.09577 0 0 0 128 128 0 255
0.227084 0.430486 4.08796 0 0 0 128 128 0 255
0.238291 0.5537 4.09648 0 0 0 128 128 0 255
0.268926 0.948659 4.12254 0 0 0 128 128 0 255
0.266909 0.921792 4.12078 0 0 0 128 128 0 255
0.23657 0.51779 4.09437 0 0 0 128 128 0 255
0.236491 0.50377 4.09369 0 0 0 128 128 0 255
0.236337 0.488756 4.09296 0 0 0 128 128 0 255
0.23907 0.473474 4.09299 0 0 0 128 128 0 255
0.234287 0.409789 4.08883 0 0 0 128 128 0 255
0.293685 1.18785 4.13997 0 0 0 128 128 0 255
0.24967 0.60175 4.10165 0 0 0 128 128 0 255
0.247279 0.569907 4.09956 0 0 0 128 128 0 255
0.236444 0.425621 4.09013 0 0 0 128 128 0 255
0.294345 1.18378 4.13998 0 0 0 128 128 0 255
0.2383 0.437472 4.09118 0 0 0 128 128 0 255
0.250377 0.572623 4.10058 0 0 0 128 128 0 255
0.240198 0.424267 4.09116 0 0 0 128 128 0 255
0.251091 0.556522 4.1001 0 0 0 128 128 0 255
0.248775 0.525674 4.09808 0 0 0 128 128 0 255
0.25167 0.551456 4.10007 0 0 0 128 128 0 255
0.255985 0.596144 4.10329 0 0 0 128 128 0 255
0.25038 0.521513 4.09841 0 0 0 128 128 0 255
0.255365 0.575156 4.10222 0 0 0 128 128 0 255
0.250284 0.507491 4.0978 0 0 0 128 128 0 255
0.245753 0.421732 4.09281 0 0 0 128 128 0 255
0.251481 0.485325 4.09729 0 0 0 128 128 0 255
0.247222 0.428606 4.09358 0 0 0 128 128 0 255
0.286024 0.919991 4.12636 0 0 0 128 128 0 255
0.25703 0.533901 4.10111 0 0 0 128 128 0 255
0.254862 0.505044 4.09923 0 0 0 128 128 0 255
0.264067 0.602377 4.10626 0 0 0 128 128 0 255
0.260521 0.54258 4.10269 0 0 0 128 128 0 255
0.264372 0.581296 4.10556 0 0 0 128 128 0 255
0.25817 0.498704 4.10016 0 0 0 128 128 0 255
0.293366 0.942324 4.12987 0 0 0 128 128 0 255
0.294821 0.949197 4.13068 0 0 0 128 128 0 255
0.259774 0.482505 4.10016 0 0 0 128 128 0 255
0.253123 0.393943 4.09437 0 0 0 128 128 0 255
0.296423 0.958059 4.13162 0 0 0 128 128 0 255
0.273548 0.591403 4.10952 0 0 0 128 128 0 255
0.26757 0.511796 4.10431 0 0 0 128 128 0 255
0.265478 0.483934 4.10249 0 0 0 128 128 0 255
0.272824 0.569417 4.10847 0 0 0 128 128 0 255
0.273479 0.541272 4.10782 0 0 0 128 128 0 255
0.270581 0.490428 4.1049 0 0 0 128 128 0 255
0.279068 0.554729 4.11076 0 0 0 128 128 0 255
0.299699 0.817334 4.12836 0 0 0 128 128 0 255
0.277804 0.525776 4.10929 0 0 0 128 128 0 255
0.271676 0.44418 4.10396 0 0 0 128 128 0 255
0.283487 0.589366 4.11388 0 0 0 128 128 0 255
0.282665 0.57842 4.11317 0 0 0 128 128 0 255
0.279975 0.542597 4.11082 0 0 0 128 128 0 255
0.289746 0.600732 4.11729 0 0 0 128 128 0 255
0.322009 0.959377 4.14356 0 0 0 128 128 0 255
0.343348 1.19681 4.16105 0 0 0 128 128 0 255
0.301397 0.603454 4.12376 0 0 0 128 128 0 255
0.328815 0.945566 4.14716 0 0 0 128 128 0 255
0.302645 0.574207 4.12392 0 0 0 128 128 0 255
0.351019 1.20698 4.16582 0 0 0 128 128 0 255
0.304987 0.594011 4.12574 0 0 0 128 128 0 255
0.30217 0.545154 4.12308 0 0 0 128 128 0 255
0.299576 0.499282 4.12061 0 0 0 128 128 0 255
0.293 0.411715 4.11489 0 0 0 128 128 0 255
0.307515 0.593717 4.12733 0 0 0 128 128 0 255
0.30562 0.523669 4.12494 0 0 0 128 128 0 255
0.309661 0.566359 4.12829 0 0 0 128 128 0 255
0.297032 0.398191 4.1173 0 0 0 128 128 0 255
0.312878 0.598103 4.13093 0 0 0 128 128 0 255
0.308095 0.534418 4.12677 0 0 0 128 128 0 255
0.304508 0.486654 4.12365 0 0 0 128 128 0 255
0.340749 0.947179 4.1549 0 0 0 128 128 0 255
0.307271 0.501384 4.12575 0 0 0 128 128 0 255
0.300695 0.413817 4.12002 0 0 0 128 128 0 255
0.302252 0.412625 4.12109 0 0 0 128 128 0 255
0.30031 0.386753 4.1194 0 0 0 128 128 0 255
0.310911 0.517009 4.1285 0 0 0 128 128 0 255
0.30199 0.376506 4.12049 0 0 0 128 128 0 255
0.315049 0.5396 4.13175 0 0 0 128 128 0 255
0.303242 0.382378 4.12147 0 0 0 128 128 0 255
0.31159 0.482782 4.12863 0 0 0 128 128 0 255
0.307406 0.427057 4.12499 0 0 0 128 128 0 255
0.30798 0.423973 4.12538 0 0 0 128 128 0 255
0.320582 0.581097 4.13626 0 0 0 128 128 0 255
0.319237 0.563185 4.13509 0 0 0 128 128 0 255
0.316397 0.525373 4.13262 0 0 0 128 128 0 255
0.348351 0.940222 4.16035 0 0 0 128 128 0 255
0.318983 0.549155 4.13478 0 0 0 128 128 0 255
0.308489 0.3988 4.12556 0 0 0 128 128 0 255
0.320411 0.546968 4.13587 0 0 0 128 128 0 255
0.311369 0.426563 4.12799 0 0 0 128 128 0 255
0.30965 0.403676 4.1265 0 0 0 128 128 0 255
0.317757 0.501095 4.13349 0 0 0 128 128 0 255
0.331467 0.673145 4.14536 0 0 0 128 128 0 255
0.323919 0.572642 4.13879 0 0 0 128 128 0 255
0.353169 0.951668 4.1642 0 0 0 128 128 0 255
0.343305 0.820317 4.15561 0 0 0 128 128 0 255
0.315358 0.417013 4.13114 0 0 0 128 128 0 255
0.320982 0.481594 4.136 0 0 0 128 128 0 255
0.334032 0.614539 4.14729 0 0 0 128 128 0 255
0.330296 0.564785 4.14404 0 0 0 128 128 0 255
0.320582 0.435424 4.13558 0 0 0 128 128 0 255
0.335159 0.609365 4.14828 0 0 0 128 128 0 255
0.338366 0.632054 4.15109 0 0 0 128 128 0 255
0.335676 0.596231 4.14875 0 0 0 128 128 0 255
0.320805 0.39821 4.1358 0 0 0 128 128 0 255
0.341112 0.648772 4.15353 0 0 0 128 128 0 255
0.337824 0.604989 4.15067 0 0 0 128 128 0 255
0.334611 0.5622 4.14787 0 0 0 128 128 0 255
0.320773 0.368061 4.13586 0 0 0 128 128 0 255
0.32225 0.377912 4.13719 0 0 0 128 128 0 255
0.334611 0.522996 4.14805 0 0 0 128 128 0 255
0.323925 0.3807 4.13874 0 0 0 128 128 0 255
0.346316 0.669173 4.1583 0 0 0 128 128 0 255
0.341958 0.582305 4.15472 0 0 0 128 128 0 255
0.335157 0.491753 4.1488 0 0 0 128 128 0 255
0.331645 0.444984 4.14574 0 0 0 128 128 0 255
0.331456 0.432944 4.14566 0 0 0 128 128 0 255
0.337616 0.505486 4.15111 0 0 0 128 128 0 255
0.345142 0.586885 4.15786 0 0 0 128 128 0 255
0.350545 0.649476 4.16267 0 0 0 128 128 0 255
0.334438 0.41643 4.14888 0 0 0 128 128 0 255
0.348424 0.593456 4.16119 0 0 0 128 128 0 255
0.343267 0.524795 4.1567 0 0 0 128 128 0 255
0.339979 0.481012 4.15383 0 0 0 128 128 0 255
0.337588 0.449169 4.15175 0 0 0 128 128 0 255
0.335346 0.419317 4.1498 0 0 0 128 128 0 255
0.336033 0.410164 4.15067 0 0 0 128 128 0 255
0.343575 0.483504 4.15769 0 0 0 128 128 0 255
0.374044 0.871389 4.18455 0 0 0 128 128 0 255
0.375618 0.839953 4.18706 0 0 0 128 128 0 255
0.348147 0.448594 4.16379 0 0 0 128 128 0 255
0.367216 0.669111 4.18135 0 0 0 128 128 0 255
0.352973 0.44682 4.17 0 0 0 128 128 0 255
0.354945 0.433401 4.17317 0 0 0 128 128 0 255
0.356559 0.42406 4.17584 0 0 0 128 128 0 255
0.356186 0.419085 4.17552 0 0 0 128 128 0 255
0.388432 0.840902 4.20393 0 0 0 128 128 0 255
0.358085 0.421783 4.17819 0 0 0 128 128 0 255
0.424919 1.30432 4.23673 0 0 0 128 128 0 255
0.358038 0.413726 4.17849 0 0 0 128 128 0 255
0.376893 0.657425 4.19527 0 0 0 128 128 0 255
0.360489 0.424386 4.18171 0 0 0 128 128 0 255
0.358185 0.386478 4.18008 0 0 0 128 128 0 255
0.364175 0.451964 4.18606 0 0 0 128 128 0 255
0.362681 0.432062 4.18476 0 0 0 128 128 0 255
0.428665 1.30366 4.24261 0 0 0 128 128 0 255
0.39354 0.828909 4.21242 0 0 0 128 128 0 255
0.383417 0.673394 4.20483 0 0 0 128 128 0 255
0.346557 0.175761 4.17315 0 0 0 128 128 0 255
0.376947 0.503021 4.20511 0 0 0 128 128 0 255
0.352512 0.165506 4.18483 0 0 0 128 128 0 255
0.362346 0.27867 4.19493 0 0 0 128 128 0 255
0.35533 0.167944 4.19041 0 0 0 128 128 0 255
0.406397 0.820265 4.23763 0 0 0 128 128 0 255
0.409757 0.838726 4.24345 0 0 0 128 128 0 255
0.362455 0.208841 4.20227 0 0 0 128 128 0 255
0.44555 1.30524 4.27582 0 0 0 128 128 0 255
0.425356 1.02644 4.25945 0 0 0 128 128 0 255
0.411382 0.840364 4.24728 0 0 0 128 128 0 255
0.418882 0.916548 4.25696 0 0 0 128 128 0 255
0.380137 0.396036 4.22387 0 0 0 128 128 0 255
0.424109 0.931362 4.27031 0 0 0 128 128 0 255
0.408043 0.71742 4.25632 0 0 0 128 128 0 255
0.387249 0.436725 4.23893 0 0 0 128 128 0 255
0.393216 0.505136 4.24629 0 0 0 128 128 0 255
0.41612 0.806562 4.26697 0 0 0 128 128 0 255
0.409918 0.723971 4.26157 0 0 0 128 128 0 255
0.392536 0.478854 4.24942 0 0 0 128 128 0 255
0.3888 0.4291 4.24617 0 0 0 128 128 0 255
0.374452 0.238045 4.23368 0 0 0 128 128 0 255
0.383434 0.354388 4.24226 0 0 0 128 128 0 255
0.427613 0.930216 4.28381 0 0 0 128 128 0 255
0.370663 0.168901 4.23501 0 0 0 128 128 0 255
0.426472 0.90916 4.28439 0 0 0 128 128 0 255
0.435722 1.02949 4.29324 0 0 0 128 128 0 255
0.426434 0.903031 4.28595 0 0 0 128 128 0 255
0.390549 0.417197 4.25713 0 0 0 128 128 0 255
0.427408 0.900573 4.2917 0 0 0 128 128 0 255
0.38429 0.326412 4.25415 0 0 0 128 128 0 255
0.438265 1.04279 4.30198 0 0 0 128 128 0 255
0.412671 0.69528 4.28223 0 0 0 128 128 0 255
0.374262 0.183809 4.24878 0 0 0 128 128 0 255
0.37253 0.15266 4.25071 0 0 0 128 128 0 255
0.376381 0.200274 4.25581 0 0 0 128 128 0 255
0.398178 0.488773 4.27567 0 0 0 128 128 0 255
0.438768 1.02597 4.31279 0 0 0 128 128 0 255
0.414033 0.696597 4.29125 0 0 0 128 128 0 255
0.40003 0.504256 4.28266 0 0 0 128 128 0 255
0.389569 0.364945 4.27355 0 0 0 128 128 0 255
0.387103 0.332108 4.2714 0 0 0 128 128 0 255
0.441896 1.06043 4.32002 0 0 0 128 128 0 255
0.432794 0.937967 4.31301 0 0 0 128 128 0 255
0.398433 0.478098 4.28494 0 0 0 128 128 0 255
0.39948 0.490964 4.28678 0 0 0 128 128 0 255
0.437802 0.999309 4.32202 0 0 0 128 128 0 255
0.37518 0.165432 4.2675 0 0 0 128 128 0 255
0.417462 0.727582 4.30525 0 0 0 128 128 0 255
0.397659 0.463886 4.28801 0 0 0 128 128 0 255
0.387721 0.331541 4.27936 0 0 0 128 128 0 255
0.39383 0.412073 4.28562 0 0 0 128 128 0 255
0.393681 0.410083 4.28549 0 0 0 128 128 0 255
0.376321 0.17816 4.27133 0 0 0 128 128 0 255
0.399011 0.479601 4.29204 0 0 0 128 128 0 255
0.381898 0.251727 4.27714 0 0 0 128 128 0 255
0.451475 1.17701 4.33965 0 0 0 128 128 0 255
0.451239 1.1729 4.34138 0 0 0 128 128 0 255
0.396712 0.446424 4.29488 0 0 0 128 128 0 255
0.441359 1.04035 4.33572 0 0 0 128 128 0 255
0.397195 0.452262 4.29727 0 0 0 128 128 0 255
0.386733 0.312951 4.28816 0 0 0 128 128 0 255
0.388318 0.333716 4.29152 0 0 0 128 128 0 255
0.417534 0.722661 4.31895 0 0 0 128 128 0 255
0.449721 1.15141 4.349 0 0 0 128 128 0 255
0.401596 0.510581 4.30709 0 0 0 128 128 0 255
0.439743 1.01894 4.34234 0 0 0 128 128 0 255
0.376523 0.177102 4.28729 0 0 0 128 128 0 255
0.448982 1.14226 4.3514 0 0 0 128 128 0 255
0.460384 1.29445 4.36236 0 0 0 128 128 0 255
0.413229 0.667425 4.32336 0 0 0 128 128 0 255
0.398508 0.471394 4.31054 0 0 0 128 128 0 255
0.381151 0.241408 4.2975 0 0 0 128 128 0 255
0.437158 0.98859 4.34836 0 0 0 128 128 0 255
0.404428 0.552745 4.31986 0 0 0 128 128 0 255
0.374033 0.150554 4.29656 0 0 0 128 128 0 255
0.458622 1.27792 4.37128 0 0 0 128 128 0 255
0.37619 0.181283 4.30057 0 0 0 128 128 0 255
0.368643 0.0807799 4.294 0 0 0 128 128 0 255
0.396205 0.448901 4.31907 0 0 0 128 128 0 255
0.379018 0.220032 4.3041 0 0 0 128 128 0 255
0.385008 0.303446 4.31255 0 0 0 128 128 0 255
0.400934 0.518269 4.32859 0 0 0 128 128 0 255
0.396301 0.456574 4.32455 0 0 0 128 128 0 255
0.368744 0.0941978 4.30384 0 0 0 128 128 0 255
0.367644 0.0812066 4.30399 0 0 0 128 128 0 255
0.366092 0.0622454 4.30374 0 0 0 128 128 0 255
0.389046 0.36967 4.32484 0 0 0 128 128 0 255
0.368132 0.0968579 4.30997 0 0 0 128 128 0 255
0.39159 0.41125 4.33152 0 0 0 128 128 0 255
0.384256 0.31567 4.32626 0 0 0 128 128 0 255
0.4381 1.037 4.3754 0 0 0 128 128 0 255
0.365764 0.0737621 4.31242 0 0 0 128 128 0 255
0.413913 0.724341 4.3589 0 0 0 128 128 0 255
0.401195 0.560054 4.35012 0 0 0 128 128 0 255
0.398356 0.522241 4.34765 0 0 0 128 128 0 255
0.377058 0.238643 4.3291 0 0 0 128 128 0 255
0.364976 0.080377 4.31974 0 0 0 128 128 0 255
0.410144 0.687279 4.36138 0 0 0 128 128 0 255
0.385125 0.359803 4.34193 0 0 0 128 128 0 255
0.384304 0.351795 4.34238 0 0 0 128 128 0 255
0.389382 0.422399 4.34797 0 0 0 128 128 0 255
0.36248 0.0641709 4.32455 0 0 0 128 128 0 255
0.369558 0.164582 4.33306 0 0 0 128 128 0 255
0.43214 1.00434 4.38992 0 0 0 128 128 0 255
0.362569 0.0779202 4.32934 0 0 0 128 128 0 255
0.396104 0.534529 4.3621 0 0 0 128 128 0 255
0.37987 0.336297 4.35396 0 0 0 128 128 0 255
0.36769 0.174099 4.34335 0 0 0 128 128 0 255
0.381901 0.367103 4.35693 0 0 0 128 128 0 255
0.37006 0.237467 4.35514 0 0 0 128 128 0 255
0.374895 0.306089 4.36057 0 0 0 128 128 0 255
0.363733 0.179532 4.35702 0 0 0 128 128 0 255
0.425449 1.01529 4.41448 0 0 0 128 128 0 255
0.374283 0.343549 4.37242 0 0 0 128 128 0 255
0.416651 0.986915 4.42827 0 0 0 128 128 0 255
0.348889 0.0903224 4.37054 0 0 0 128 128 0 255
0.416839 1.01268 4.43355 0 0 0 128 128 0 255
0.34434 0.0652958 4.37428 0 0 0 128 128 0 255
0.400705 1.06977 4.47046 0 0 0 128 128 0 255
