ply
format ascii 1.0
comment VCGLIB generated
element vertex 1028
property float x
property float y
property float z
property float nx
property float ny
property float nz
property uchar red
property uchar green
property uchar blue
property uchar alpha
element face 0
property list uchar int vertex_indices
end_header
0.914249 1.35811 4.65721 0 0 0 142 173 160 255
-0.323167 0.101537 4.60436 0 0 0 35 74 110 255
0.386886 0.115494 4.81122 0 0 0 28 57 42 255
0.388824 0.142245 4.81247 0 0 0 48 86 64 255
0.475052 0.227862 4.65049 0 0 0 107 136 128 255
0.597204 0.235796 4.58908 0 0 0 141 154 149 255
0.720553 0.216456 4.5678 0 0 0 68 108 74 255
0.787969 0.222894 4.57005 0 0 0 84 112 107 255
0.528894 0.26311 4.61894 0 0 0 123 132 131 255
0.45375 0.345067 4.66946 0 0 0 132 139 131 255
1.00895 0.338869 4.68286 0 0 0 118 68 71 255
0.639803 0.372609 4.58498 0 0 0 160 162 157 255
-0.313524 0.364423 4.25808 0 0 0 75 122 156 255
0.867395 0.41296 4.60059 0 0 0 122 53 62 255
0.653201 0.416721 4.58275 0 0 0 165 114 121 255
0.840679 0.424796 4.59239 0 0 0 142 59 65 255
-0.300207 0.44799 4.29346 0 0 0 19 80 124 255
0.501685 0.535957 4.65293 0 0 0 143 157 153 255
1.1157 0.547099 4.84874 0 0 0 80 104 80 255
0.852214 0.552599 4.61085 0 0 0 162 168 166 255
0.936926 0.548954 4.62657 0 0 0 157 163 161 255
0.689693 0.561296 4.58392 0 0 0 157 169 169 255
0.762476 0.561455 4.58584 0 0 0 151 169 167 255
0.388383 0.599644 4.7481 0 0 0 126 145 145 255
0.943808 0.582429 4.63368 0 0 0 159 164 162 255
1.03272 0.592226 4.70475 0 0 0 125 164 155 255
0.772144 0.606412 4.58704 0 0 0 164 169 167 255
0.488739 0.617572 4.66351 0 0 0 53 86 78 255
0.821436 0.637185 4.60573 0 0 0 91 102 87 255
-0.308176 0.663041 4.31427 0 0 0 156 159 160 255
0.555732 0.692062 4.62905 0 0 0 154 164 162 255
0.820197 0.760949 4.60995 0 0 0 71 117 87 255
1.05076 0.763701 4.6865 0 0 0 108 141 127 255
0.946697 0.787766 4.6435 0 0 0 159 166 164 255
-0.290392 0.785393 4.32475 0 0 0 142 149 153 255
0.756927 0.819743 4.59863 0 0 0 167 172 170 255
0.935279 0.825031 4.63455 0 0 0 154 166 164 255
0.853205 0.841386 4.62048 0 0 0 163 171 168 255
0.744533 0.843954 4.59879 0 0 0 157 174 171 255
0.471297 0.907524 4.69796 0 0 0 140 154 153 255
0.575197 0.922745 4.63855 0 0 0 158 166 166 255
1.88645 1.37669 6.64131 0 0 0 155 151 143 255
1.89717 1.36019 6.51513 0 0 0 139 136 128 255
2.1425 1.36871 6.2847 0 0 0 128 125 118 255
1.73381 1.44985 6.70923 0 0 0 124 123 117 255
1.87709 1.39718 6.34671 0 0 0 82 80 79 255
0.963441 1.10117 4.67252 0 0 0 28 83 125 255
0.453739 1.16751 4.72096 0 0 0 131 138 137 255
0.447662 1.15408 4.74832 0 0 0 113 133 124 255
0.937772 1.11905 4.6618 0 0 0 43 81 106 255
0.572954 1.15026 4.64584 0 0 0 137 154 151 255
0.864642 1.1823 4.62815 0 0 0 102 96 67 255
0.444262 1.26236 4.73901 0 0 0 129 136 135 255
0.573933 1.27061 4.66261 0 0 0 143 146 145 255
0.64065 1.25659 4.6216 0 0 0 91 116 85 255
0.331853 1.40359 4.99448 0 0 0 75 92 82 255
0.919046 1.35682 4.65831 0 0 0 154 161 159 255
0.333389 0.0908575 4.87197 0 0 0 72 99 83 255
1.11529 0.0949274 4.94237 0 0 0 66 101 78 255
0.53644 0.384759 4.61381 0 0 0 164 152 156 255
0.782046 0.374557 4.57651 0 0 0 164 167 166 255
0.835712 0.389748 4.59015 0 0 0 108 74 74 255
1.06667 0.550511 4.73898 0 0 0 65 104 75 255
0.815378 0.574953 4.60293 0 0 0 162 169 169 255
0.924614 0.571094 4.62542 0 0 0 157 167 164 255
0.682378 0.58303 4.58408 0 0 0 154 170 167 255
0.796104 0.578908 4.59238 0 0 0 165 169 168 255
0.554467 0.667651 4.63396 0 0 0 158 163 161 255
-0.316493 0.654147 4.30106 0 0 0 160 162 163 255
0.936117 0.803128 4.63221 0 0 0 160 167 167 255
0.82226 0.828108 4.61428 0 0 0 170 173 172 255
0.748828 0.840642 4.59858 0 0 0 157 174 172 255
0.581188 0.896118 4.63672 0 0 0 160 166 164 255
1.75864 1.46201 6.69555 0 0 0 103 102 100 255
0.443147 1.1586 4.75149 0 0 0 124 135 133 255
0.71645 1.14373 4.61087 0 0 0 140 155 150 255
0.408646 1.23549 4.77654 0 0 0 123 143 132 255
0.71617 1.26686 4.62149 0 0 0 145 150 148 255
0.340184 1.39224 4.99603 0 0 0 79 94 81 255
1.11666 0.0901524 4.93491 0 0 0 64 101 80 255
-0.343904 0.144837 4.56191 0 0 0 17 69 115 255
0.515749 0.245484 4.62906 0 0 0 142 139 140 255
0.782165 0.250273 4.57026 0 0 0 150 155 154 255
0.908294 0.24617 4.60853 0 0 0 139 150 151 255
0.641585 0.365476 4.58458 0 0 0 156 160 153 255
1.07224 0.537039 4.75534 0 0 0 82 110 73 255
0.450884 0.616042 4.68136 0 0 0 141 153 156 255
0.556797 0.643673 4.63415 0 0 0 157 163 162 255
0.768707 0.833141 4.60031 0 0 0 168 173 172 255
0.47579 0.885157 4.69192 0 0 0 142 154 154 255
2.10862 1.38253 6.43098 0 0 0 133 130 122 255
0.940497 1.05685 4.66386 0 0 0 42 93 122 255
0.936633 1.10767 4.66144 0 0 0 47 83 104 255
0.882062 1.16148 4.6342 0 0 0 169 149 74 255
0.420318 1.24146 4.76005 0 0 0 135 141 141 255
0.358004 0.128185 4.87338 0 0 0 59 95 67 255
1.02087 0.112606 4.65231 0 0 0 57 102 74 255
-0.349569 0.130739 4.54765 0 0 0 19 70 118 255
-0.318431 0.58318 4.26686 0 0 0 27 81 121 255
0.466607 1.16368 4.71278 0 0 0 134 142 142 255
2.3205 -0.221355 3.9114 0 0 0 55 55 55 255
2.35858 -0.219644 3.90552 0 0 0 66 57 63 255
2.33793 -0.2108 3.91031 0 0 0 153 157 163 255
2.24679 -0.166509 3.84534 0 0 0 138 84 84 255
2.37865 -0.168699 3.8437 0 0 0 127 62 57 255
2.33232 -0.145349 3.86044 0 0 0 167 64 83 255
2.10013 -0.149645 3.98551 0 0 0 147 143 140 255
2.34217 -0.112069 3.9349 0 0 0 95 96 98 255
2.35657 -0.113678 3.91589 0 0 0 100 98 100 255
2.32487 -0.0790365 3.91627 0 0 0 55 55 62 255
2.13759 -0.0752257 3.96949 0 0 0 70 71 78 255
2.50654 -0.0496219 4.00171 0 0 0 39 44 42 255
2.34455 0.00788155 3.92974 0 0 0 200 205 207 255
2.35003 0.0716007 3.93844 0 0 0 250 252 254 255
2.36107 0.115099 3.92221 0 0 0 253 251 252 255
2.0587 0.132072 3.99545 0 0 0 123 121 117 255
2.55022 0.134621 3.96913 0 0 0 54 53 58 255
-1.04998 0.194595 4.31205 0 0 0 68 78 91 255
2.31102 0.253222 3.70807 0 0 0 122 112 94 255
-0.491939 0.254838 4.0924 0 0 0 20 46 86 255
-0.474157 0.254499 4.10064 0 0 0 99 103 125 255
2.22591 0.25769 3.72018 0 0 0 139 109 74 255
2.26813 0.258855 3.70909 0 0 0 114 99 81 255
2.41061 0.254441 3.71705 0 0 0 91 78 70 255
-0.648788 0.264746 4.04404 0 0 0 123 104 95 255
-0.623839 0.262397 4.04988 0 0 0 129 107 101 255
-0.508939 0.259749 4.08188 0 0 0 125 105 96 255
-0.44247 0.26088 4.11402 0 0 0 83 87 115 255
0.494832 0.251312 4.64026 0 0 0 100 111 110 255
-0.855787 0.263242 4.07383 0 0 0 100 102 114 255
-0.79558 0.267612 4.05051 0 0 0 97 97 97 255
-0.768025 0.259856 4.04794 0 0 0 89 75 84 255
-0.725441 0.265973 4.04494 0 0 0 106 100 99 255
-0.689999 0.267106 4.04257 0 0 0 140 126 102 255
-0.560813 0.265938 4.06327 0 0 0 110 103 101 255
0.885569 0.259762 4.60154 0 0 0 62 76 74 255
2.38752 0.272486 3.71147 0 0 0 100 56 21 255
-0.827399 0.271166 4.05613 0 0 0 120 118 85 255
-0.545304 0.275126 4.06802 0 0 0 134 110 79 255
-0.870016 0.280051 4.08416 0 0 0 126 125 102 255
-0.796021 0.279912 4.05073 0 0 0 128 122 98 255
-0.607282 0.278819 4.05116 0 0 0 122 102 59 255
2.23441 0.283987 3.71087 0 0 0 106 68 33 255
2.27266 0.282203 3.70072 0 0 0 160 122 66 255
2.31385 0.281005 3.70329 0 0 0 87 49 40 255
2.38517 0.280925 3.71047 0 0 0 91 51 24 255
-0.776323 0.290163 4.04838 0 0 0 36 44 62 255
-0.490711 0.289373 4.09466 0 0 0 77 63 50 255
0.718079 0.285136 4.57001 0 0 0 76 95 91 255
-0.852222 0.29038 4.06553 0 0 0 78 76 46 255
-0.813121 0.295755 4.05348 0 0 0 38 39 53 255
-0.681999 0.297275 4.042 0 0 0 38 39 43 255
-0.641953 0.295912 4.04545 0 0 0 89 71 48 255
-0.605814 0.295099 4.0504 0 0 0 59 57 62 255
-0.575047 0.298378 4.0572 0 0 0 23 46 93 255
-0.546357 0.288132 4.06737 0 0 0 65 47 33 255
-0.509539 0.295673 4.08152 0 0 0 140 115 87 255
2.40332 0.296877 3.70411 0 0 0 91 74 60 255
-0.485433 0.306169 4.09677 0 0 0 98 76 83 255
2.20795 0.302851 3.70615 0 0 0 108 89 64 255
2.25959 0.307445 3.69925 0 0 0 153 118 70 255
2.28079 0.308337 3.69199 0 0 0 135 96 61 255
2.30568 0.304417 3.69977 0 0 0 165 133 81 255
-0.8469 0.311006 4.06247 0 0 0 86 93 132 255
-0.781426 0.315642 4.04957 0 0 0 87 84 115 255
-0.728501 0.314959 4.04706 0 0 0 83 94 128 255
-0.654373 0.315854 4.04287 0 0 0 128 111 86 255
-0.622227 0.312832 4.04921 0 0 0 145 116 97 255
-0.54125 0.312521 4.07026 0 0 0 113 106 101 255
-1.01827 0.328921 4.24526 0 0 0 81 104 136 255
0.613065 0.329114 4.58636 0 0 0 138 142 131 255
0.760519 0.323301 4.57301 0 0 0 141 155 125 255
1.99191 0.337613 3.97015 0 0 0 70 75 76 255
0.583794 0.353736 4.60074 0 0 0 178 129 137 255
0.601744 0.351342 4.59372 0 0 0 121 77 78 255
-0.490462 0.353955 4.09558 0 0 0 54 109 155 255
-0.387077 0.35068 4.1721 0 0 0 14 87 133 255
0.820158 0.358786 4.58675 0 0 0 164 123 128 255
1.03013 0.360643 4.69475 0 0 0 172 130 136 255
1.09917 0.360405 4.76389 0 0 0 91 101 86 255
-0.901835 0.357145 4.10087 0 0 0 35 72 108 255
-0.755059 0.356594 4.04415 0 0 0 22 78 129 255
-0.63414 0.359305 4.0471 0 0 0 122 132 142 255
-0.606072 0.358671 4.05416 0 0 0 9 73 123 255
-0.584698 0.36074 4.06299 0 0 0 96 119 159 255
1.94745 0.361159 3.97445 0 0 0 86 81 79 255
-0.880214 0.36293 4.09338 0 0 0 76 99 128 255
-0.517498 0.363837 4.0856 0 0 0 7 73 123 255
-0.336417 0.367573 4.22785 0 0 0 101 88 100 255
1.05093 0.376404 4.70954 0 0 0 151 125 132 255
-0.48943 0.38076 4.09903 0 0 0 55 87 113 255
0.873862 0.382589 4.60177 0 0 0 157 138 142 255
1.95823 0.375305 3.96744 0 0 0 117 119 118 255
-0.555854 0.383469 4.07041 0 0 0 26 81 117 255
-0.531705 0.386217 4.08013 0 0 0 140 150 161 255
-0.41006 0.383602 4.15231 0 0 0 73 89 111 255
1.98737 0.37686 3.94687 0 0 0 112 117 117 255
-0.636303 0.38278 4.04672 0 0 0 68 97 95 255
-0.479016 0.386703 4.1045 0 0 0 25 65 100 255
-0.439375 0.394836 4.13115 0 0 0 36 61 105 255
-0.365064 0.388152 4.19259 0 0 0 78 80 99 255
2.45044 0.382358 3.70713 0 0 0 103 102 105 255
2.49588 0.386926 3.72389 0 0 0 123 130 133 255
2.56988 0.379118 3.79475 0 0 0 79 84 88 255
-0.500978 0.392213 4.09168 0 0 0 33 72 114 255
0.531368 0.402144 4.61503 0 0 0 121 111 114 255
2.06698 0.385992 3.76107 0 0 0 103 107 108 255
2.17365 0.391684 3.70038 0 0 0 132 134 137 255
2.19198 0.388611 3.6953 0 0 0 81 81 81 255
2.27595 0.385612 3.67807 0 0 0 81 83 84 255
2.29037 0.382153 3.67548 0 0 0 88 87 89 255
2.3021 0.389146 3.67302 0 0 0 137 136 137 255
-0.475004 0.404826 4.10643 0 0 0 121 134 152 255
-0.467117 0.407306 4.11075 0 0 0 139 150 165 255
1.05449 0.411088 4.71912 0 0 0 126 90 88 255
1.97354 0.38977 3.95438 0 0 0 73 68 66 255
2.45734 0.398286 3.71531 0 0 0 138 141 140 255
-0.593564 0.410078 4.06049 0 0 0 25 93 124 255
-0.573455 0.41015 4.06615 0 0 0 147 155 163 255
-0.396062 0.410794 4.16316 0 0 0 141 145 164 255
-0.54718 0.423265 4.07064 0 0 0 42 84 121 255
-0.509302 0.415366 4.08752 0 0 0 153 158 160 255
-0.4749 0.421486 4.10681 0 0 0 152 153 157 255
-0.437298 0.420351 4.13281 0 0 0 149 150 154 255
2.10217 0.412411 3.73828 0 0 0 60 39 39 255
2.43606 0.409999 3.7049 0 0 0 61 44 39 255
-0.536066 0.424659 4.07718 0 0 0 81 103 123 255
-0.454781 0.427105 4.12055 0 0 0 63 79 103 255
-0.356339 0.43228 4.20403 0 0 0 103 96 115 255
2.52279 0.411659 3.72777 0 0 0 76 66 67 255
-0.592665 0.42993 4.0615 0 0 0 19 93 125 255
-0.386461 0.43876 4.1692 0 0 0 79 87 98 255
-0.535532 0.438769 4.07735 0 0 0 11 83 127 255
-0.499756 0.439219 4.09293 0 0 0 30 76 115 255
-0.555408 0.445007 4.06841 0 0 0 116 163 192 255
-0.466225 0.444232 4.11151 0 0 0 39 62 90 255
-0.441455 0.44776 4.12929 0 0 0 17 60 109 255
-0.396667 0.446591 4.16159 0 0 0 57 71 108 255
-0.336614 0.451696 4.23036 0 0 0 120 89 112 255
-0.710281 0.450444 4.04183 0 0 0 142 149 136 255
-0.668714 0.450304 4.04713 0 0 0 140 149 148 255
-0.542543 0.461105 4.07481 0 0 0 25 89 126 255
-0.474342 0.459772 4.1071 0 0 0 22 70 125 255
2.10392 0.450679 3.73409 0 0 0 58 39 39 255
-0.6675 0.467256 4.04663 0 0 0 80 95 94 255
-0.626254 0.468149 4.05116 0 0 0 58 94 92 255
-0.576913 0.467582 4.06498 0 0 0 81 103 120 255
-0.423648 0.477595 4.14466 0 0 0 45 84 117 255
2.14128 0.46562 3.71404 0 0 0 91 65 52 255
-1.03541 0.493224 4.29236 0 0 0 110 92 99 255
-0.648769 0.480981 4.04745 0 0 0 84 120 108 255
-0.385643 0.490303 4.17404 0 0 0 73 98 117 255
-0.323036 0.485458 4.26262 0 0 0 31 84 119 255
-0.99573 0.497641 4.25184 0 0 0 108 94 96 255
2.28217 0.47192 3.67496 0 0 0 80 62 54 255
-0.729351 0.493893 4.04547 0 0 0 87 106 123 255
1.96784 0.496782 3.96099 0 0 0 95 96 91 255
2.10403 0.485799 3.73857 0 0 0 67 46 41 255
-0.427907 0.503594 4.14637 0 0 0 60 108 147 255
2.51528 0.480501 3.72604 0 0 0 109 105 106 255
2.12081 0.495065 3.72764 0 0 0 37 43 44 255
2.27113 0.508217 3.68167 0 0 0 87 75 65 255
2.27506 0.506761 3.68081 0 0 0 74 55 41 255
2.29647 0.505648 3.67973 0 0 0 60 51 47 255
1.10634 0.576856 4.81509 0 0 0 106 143 126 255
1.95987 0.548421 3.99164 0 0 0 119 116 115 255
2.42629 0.529592 3.69064 0 0 0 64 53 57 255
-0.438147 0.56089 4.13869 0 0 0 145 149 167 255
2.20831 0.540137 3.68879 0 0 0 81 66 56 255
2.2166 0.532082 3.68712 0 0 0 50 37 39 255
-1.02682 0.572582 4.27141 0 0 0 107 113 138 255
-0.870908 0.561852 4.09658 0 0 0 104 117 151 255
-0.832461 0.565269 4.09566 0 0 0 141 145 147 255
2.45581 0.551224 3.7124 0 0 0 101 103 109 255
2.56005 0.544381 3.76875 0 0 0 131 138 138 255
-0.637312 0.569183 4.06102 0 0 0 138 140 171 255
1.95354 0.571065 4.03334 0 0 0 77 67 61 255
2.5 0.550818 3.73535 0 0 0 129 138 140 255
2.17192 0.559506 3.70101 0 0 0 114 129 133 255
-0.901163 0.58542 4.11469 0 0 0 24 52 91 255
2.24191 0.558 3.68399 0 0 0 139 136 137 255
2.32194 0.559992 3.67683 0 0 0 93 103 105 255
2.35773 0.559643 3.68646 0 0 0 140 141 143 255
-0.955757 0.592544 4.16835 0 0 0 33 58 91 255
1.04655 0.626171 4.71626 0 0 0 71 73 73 255
-0.492996 0.60364 4.08512 0 0 0 84 89 109 255
-0.573113 0.613105 4.0876 0 0 0 53 59 75 255
-0.985466 0.652991 4.19675 0 0 0 127 129 132 255
-0.364604 0.639599 4.20527 0 0 0 36 66 115 255
-0.483814 0.651077 4.06812 0 0 0 91 90 94 255
-0.575302 0.665226 4.08784 0 0 0 61 68 87 255
-0.87101 0.679041 4.10385 0 0 0 56 60 71 255
-0.333145 0.678341 4.22756 0 0 0 116 116 118 255
-0.951924 0.690945 4.16992 0 0 0 37 42 54 255
0.549817 0.713814 4.63592 0 0 0 85 123 102 255
-1.01058 0.686926 4.20603 0 0 0 88 95 105 255
-0.434147 0.688017 4.14535 0 0 0 151 158 159 255
1.07226 0.731199 4.75672 0 0 0 127 137 136 255
-0.740359 0.695704 4.06142 0 0 0 123 125 141 255
-0.402513 0.720127 4.17894 0 0 0 132 140 162 255
0.837218 0.747596 4.61186 0 0 0 65 109 78 255
-0.879414 0.717452 4.10868 0 0 0 122 125 129 255
-0.642011 0.717451 4.06672 0 0 0 136 142 163 255
-0.333574 0.732737 4.22879 0 0 0 113 116 127 255
-0.551303 0.747681 4.08823 0 0 0 141 150 171 255
-0.513383 0.745034 4.10088 0 0 0 152 152 158 255
2.25688 0.715252 3.68915 0 0 0 79 76 68 255
2.38253 0.719875 3.70596 0 0 0 86 76 66 255
-0.788515 0.760184 4.0615 0 0 0 78 82 95 255
-0.687247 0.765234 4.07106 0 0 0 131 136 162 255
-0.447472 0.772111 4.14204 0 0 0 70 74 90 255
-1.00578 0.782785 4.21907 0 0 0 130 137 137 255
-0.3324 0.786634 4.23901 0 0 0 60 71 94 255
-0.301642 0.819576 4.2944 0 0 0 97 106 117 255
-0.319119 0.817937 4.26734 0 0 0 127 132 153 255
2.25049 0.762394 3.6895 0 0 0 89 76 57 255
-0.826759 0.807917 4.08354 0 0 0 117 120 126 255
-0.608435 0.804785 4.07548 0 0 0 79 86 105 255
2.30472 0.765762 3.68971 0 0 0 98 74 53 255
-0.625005 0.809509 4.07497 0 0 0 53 63 89 255
-0.382382 0.822816 4.19675 0 0 0 56 73 95 255
-0.442906 0.830448 4.13833 0 0 0 90 89 97 255
-0.809687 0.834409 4.08244 0 0 0 74 80 99 255
-0.35973 0.847585 4.21373 0 0 0 155 157 160 255
0.548871 0.901667 4.65207 0 0 0 71 111 93 255
-0.377323 0.865512 4.19935 0 0 0 82 92 100 255
-0.39576 0.878657 4.18677 0 0 0 156 158 157 255
-0.606477 0.867773 4.07574 0 0 0 103 105 107 255
-0.625465 0.878189 4.07558 0 0 0 67 83 105 255
-0.958323 0.897164 4.17583 0 0 0 79 88 101 255
-0.360365 0.905426 4.20375 0 0 0 73 96 127 255
-0.714131 0.901245 4.07257 0 0 0 35 64 104 255
-0.5099 0.912475 4.10645 0 0 0 157 157 163 255
1.07817 1.00257 4.75415 0 0 0 121 139 124 255
-0.547188 0.92544 4.09388 0 0 0 155 159 160 255
-0.424046 0.928707 4.15099 0 0 0 73 92 125 255
-0.721576 0.930717 4.07183 0 0 0 159 160 161 255
-0.601374 0.938521 4.07284 0 0 0 125 125 125 255
-0.584087 0.938217 4.07714 0 0 0 148 150 152 255
-0.885572 0.958508 4.13622 0 0 0 35 51 92 255
-0.706677 0.95034 4.07351 0 0 0 81 91 108 255
-0.686013 0.964223 4.07742 0 0 0 153 149 159 255
-0.57319 0.975894 4.08672 0 0 0 75 92 137 255
-0.743895 0.976972 4.0716 0 0 0 157 157 157 255
-0.605757 0.986505 4.07684 0 0 0 68 89 127 255
-0.357665 1.01261 4.22862 0 0 0 118 140 158 255
1.17933 1.14 5.06062 0 0 0 172 176 170 255
-0.863155 1.00213 4.07028 0 0 0 40 50 84 255
-0.695195 1.00565 4.08126 0 0 0 66 84 118 255
1.92944 1.37594 6.59192 0 0 0 144 141 136 255
-0.36998 1.03128 4.22098 0 0 0 52 101 130 255
-0.91347 1.0217 4.10525 0 0 0 135 131 139 255
-0.906258 1.02461 4.14331 0 0 0 145 149 150 255
1.20433 1.17627 5.07618 0 0 0 120 118 116 255
-0.992373 1.03957 4.2015 0 0 0 116 120 122 255
-0.49623 1.04309 4.1191 0 0 0 41 99 138 255
-0.497228 1.08364 4.12329 0 0 0 60 110 140 255
-0.366467 1.11253 4.22466 0 0 0 28 73 120 255
-0.333811 1.1211 4.24897 0 0 0 29 75 113 255
2.07197 1.04978 3.79506 0 0 0 107 110 109 255
2.12085 1.05194 3.76351 0 0 0 117 117 118 255
2.17105 1.05136 3.74248 0 0 0 90 86 85 255
2.10908 1.05794 3.77311 0 0 0 99 103 103 255
2.13943 1.05644 3.76568 0 0 0 97 94 95 255
2.21385 1.0527 3.73067 0 0 0 90 92 91 255
-0.392603 1.13899 4.20576 0 0 0 135 146 156 255
-0.316655 1.14721 4.27808 0 0 0 109 132 145 255
2.25447 1.05152 3.71207 0 0 0 80 81 80 255
2.31512 1.05636 3.71084 0 0 0 103 98 100 255
2.34462 1.05419 3.71271 0 0 0 96 94 96 255
2.21469 1.06948 3.72917 0 0 0 121 124 123 255
2.21308 1.07036 3.7318 0 0 0 121 124 123 255
2.22226 1.08409 3.72776 0 0 0 86 84 84 255
-0.326298 1.17984 4.26619 0 0 0 51 76 100 255
2.16669 1.08921 3.73758 0 0 0 84 89 89 255
2.25254 1.08274 3.70471 0 0 0 83 78 76 255
2.28578 1.07804 3.71644 0 0 0 89 81 83 255
2.36135 1.08683 3.7171 0 0 0 78 78 79 255
2.48138 1.08429 3.73883 0 0 0 73 74 76 255
-0.614923 1.1553 4.08519 0 0 0 24 111 147 255
2.22222 1.0844 3.72903 0 0 0 98 105 102 255
2.40273 1.09174 3.72767 0 0 0 87 92 90 255
-0.863444 1.17532 4.12317 0 0 0 88 116 142 255
-0.631409 1.16737 4.05989 0 0 0 148 149 158 255
2.13561 1.13522 3.76783 0 0 0 102 103 105 255
-0.624116 1.19224 4.06794 0 0 0 66 85 118 255
-0.73425 1.20901 4.09325 0 0 0 115 99 115 255
-0.83587 1.22343 4.12258 0 0 0 107 103 113 255
-0.688807 1.21123 4.07537 0 0 0 113 103 118 255
2.07897 1.17289 3.80032 0 0 0 103 105 104 255
2.25626 1.17777 3.71817 0 0 0 106 107 111 255
2.07282 1.20851 3.8062 0 0 0 115 113 112 255
-0.894436 1.36473 4.13447 0 0 0 69 106 141 255
-0.370825 1.38319 4.21694 0 0 0 140 152 167 255
-0.845416 1.36351 4.11786 0 0 0 65 104 137 255
-0.388759 1.39405 4.20133 0 0 0 93 102 120 255
-0.459567 1.38778 4.14433 0 0 0 93 128 163 255
-0.815698 1.39123 4.10708 0 0 0 22 83 123 255
-0.456219 1.41693 4.15177 0 0 0 157 159 160 255
-0.893999 1.41727 4.138 0 0 0 89 108 133 255
2.46126 1.4045 3.79337 0 0 0 84 82 84 255
2.25145 1.41287 3.79984 0 0 0 112 112 112 255
2.1707 1.43021 3.83099 0 0 0 100 100 100 255
2.31051 1.41643 3.77491 0 0 0 106 106 106 255
2.38519 1.63083 3.98878 0 0 0 191 193 199 255
2.39535 1.62889 3.98083 0 0 0 207 207 208 255
2.33365 -0.211638 3.912 0 0 0 153 157 163 255
2.36623 -0.211816 3.90493 0 0 0 46 45 44 255
2.23528 -0.166182 3.85094 0 0 0 140 73 68 255
0.949062 -0.243833 4.7106 0 0 0 211 211 212 255
2.34557 0.0143519 3.92656 0 0 0 200 205 207 255
-1.08182 0.130469 4.34315 0 0 0 22 47 84 255
2.04824 0.136864 4.02323 0 0 0 135 135 134 255
2.21508 0.256258 3.72354 0 0 0 121 103 80 255
2.31501 0.249633 3.70868 0 0 0 80 75 76 255
2.40545 0.252908 3.71757 0 0 0 93 77 67 255
-0.71981 0.261241 4.04519 0 0 0 113 104 82 255
-0.855733 0.269115 4.07386 0 0 0 132 125 125 255
-0.56137 0.269686 4.06335 0 0 0 110 103 101 255
-0.47876 0.27126 4.09787 0 0 0 124 109 113 255
2.38467 0.280176 3.7102 0 0 0 91 51 24 255
2.3042 0.305739 3.69915 0 0 0 165 133 81 255
-0.556855 0.311956 4.06521 0 0 0 147 121 91 255
-0.91187 0.327531 4.07938 0 0 0 68 103 139 255
-0.894607 0.358343 4.08822 0 0 0 37 76 112 255
-0.639332 0.354529 4.04593 0 0 0 46 99 143 255
-0.429653 0.348417 4.13809 0 0 0 105 129 149 255
0.411414 0.367548 4.70816 0 0 0 111 87 83 255
0.799342 0.366113 4.57931 0 0 0 144 132 134 255
0.875063 0.375085 4.60281 0 0 0 136 117 121 255
-0.651765 0.38953 4.04527 0 0 0 29 88 75 255
-0.48247 0.389148 4.10201 0 0 0 30 73 108 255
-0.389038 0.396813 4.16978 0 0 0 152 156 156 255
1.98501 0.380334 3.94876 0 0 0 77 84 85 255
2.12058 0.389288 3.72347 0 0 0 89 89 90 255
2.49297 0.387888 3.72588 0 0 0 110 118 121 255
1.93374 0.408042 3.9613 0 0 0 125 120 116 255
-0.588049 0.43086 4.06249 0 0 0 19 93 125 255
2.10261 0.41894 3.73819 0 0 0 58 40 40 255
2.42268 0.409635 3.70005 0 0 0 83 63 45 255
-0.45299 0.441322 4.12288 0 0 0 16 60 108 255
1.97695 0.444333 3.93095 0 0 0 82 76 67 255
2.10376 0.434233 3.73509 0 0 0 58 42 39 255
2.45823 0.429995 3.71245 0 0 0 34 38 37 255
-0.609157 0.454337 4.05793 0 0 0 147 154 154 255
2.1419 0.466174 3.71365 0 0 0 91 65 52 255
-0.54812 0.490404 4.07331 0 0 0 104 120 136 255
-0.422583 0.504649 4.15158 0 0 0 78 121 156 255
1.94272 0.497643 4.00316 0 0 0 122 120 119 255
2.10496 0.500117 3.73931 0 0 0 55 39 39 255
1.08291 0.581262 4.76684 0 0 0 126 142 138 255
2.10214 0.527538 3.7394 0 0 0 50 42 47 255
2.21331 0.527747 3.68789 0 0 0 55 39 41 255
2.28195 0.519518 3.68143 0 0 0 46 36 38 255
2.42372 0.526208 3.70523 0 0 0 57 40 43 255
2.56775 0.542942 3.78895 0 0 0 104 112 118 255
1.94989 0.574863 4.03313 0 0 0 108 100 94 255
2.49182 0.547324 3.72969 0 0 0 123 130 131 255
2.36436 0.560456 3.67922 0 0 0 108 94 86 255
2.40519 0.550044 3.67939 0 0 0 140 142 143 255
2.4253 0.551343 3.69653 0 0 0 143 143 143 255
-1.01318 0.588899 4.24641 0 0 0 134 137 140 255
-0.923293 0.587168 4.13347 0 0 0 32 55 90 255
2.14804 0.555222 3.70884 0 0 0 107 90 75 255
-0.73509 0.610982 4.05398 0 0 0 155 156 156 255
-0.497852 0.604505 4.0839 0 0 0 88 94 113 255
-0.728502 0.646008 4.05793 0 0 0 154 156 158 255
-0.436455 0.684386 4.14257 0 0 0 151 158 159 255
-0.988451 0.707387 4.16651 0 0 0 133 131 130 255
-0.732282 0.714284 4.06196 0 0 0 156 159 161 255
-0.638939 0.706651 4.06562 0 0 0 137 143 162 255
-0.406983 0.726706 4.17791 0 0 0 155 160 168 255
-0.867481 0.723568 4.07816 0 0 0 109 111 116 255
-0.555551 0.759385 4.08723 0 0 0 158 162 163 255
2.2579 0.722968 3.68969 0 0 0 96 76 55 255
-0.892911 0.773266 4.11658 0 0 0 97 108 118 255
-0.689824 0.758371 4.06955 0 0 0 52 69 110 255
-0.460642 0.775328 4.13605 0 0 0 92 94 101 255
-0.332159 0.785647 4.2393 0 0 0 40 53 83 255
-0.318477 0.812707 4.26859 0 0 0 128 133 152 255
-0.625054 0.809528 4.07501 0 0 0 53 63 89 255
-0.452224 0.833977 4.13203 0 0 0 58 66 93 255
-0.413284 0.886075 4.17112 0 0 0 156 157 159 255
-0.444411 0.894659 4.13288 0 0 0 113 117 126 255
-0.955262 0.913001 4.17034 0 0 0 69 69 80 255
-0.505327 0.911438 4.10854 0 0 0 156 159 158 255
-0.563697 0.929968 4.088 0 0 0 160 162 163 255
-0.736259 0.932021 4.06833 0 0 0 157 161 163 255
-0.882117 0.944815 4.12663 0 0 0 33 52 93 255
-0.674424 0.96086 4.08235 0 0 0 158 160 161 255
-0.711027 0.964496 4.07397 0 0 0 59 71 96 255
-0.744673 0.974493 4.07124 0 0 0 157 157 157 255
-0.47735 0.994958 4.12722 0 0 0 130 149 169 255
-0.849361 1.00923 4.11441 0 0 0 151 154 153 255
-0.934049 1.02796 4.18203 0 0 0 149 147 151 255
-0.500104 1.03544 4.11964 0 0 0 40 99 138 255
0.955025 1.11627 4.66938 0 0 0 29 77 115 255
0.509651 1.15119 4.69884 0 0 0 69 104 73 255
2.34999 1.06806 3.7169 0 0 0 87 86 87 255
0.800611 1.24704 4.61764 0 0 0 101 120 98 255
-0.624593 1.16146 4.04555 0 0 0 136 140 153 255
-0.867516 1.17011 4.12552 0 0 0 88 116 142 255
-0.725666 1.17477 4.11207 0 0 0 85 131 170 255
-0.784659 1.19083 4.09005 0 0 0 21 85 131 255
-0.828519 1.23751 4.10132 0 0 0 80 84 109 255
-0.904309 1.27197 4.13632 0 0 0 124 142 163 255
-0.62953 1.29072 4.0711 0 0 0 37 76 110 255
-0.857059 1.32244 4.12318 0 0 0 101 111 122 255
-0.719027 1.32003 4.09126 0 0 0 95 108 135 255
-0.844025 1.36494 4.11684 0 0 0 65 104 137 255
2.39948 1.41094 3.78612 0 0 0 98 94 97 255
2.30281 -0.211817 3.91785 0 0 0 45 43 44 255
2.37489 -0.20824 3.87568 0 0 0 45 45 45 255
2.46069 -0.199346 3.92215 0 0 0 47 52 53 255
0.943942 -0.242834 4.7227 0 0 0 211 211 212 255
2.0992 -0.0565359 3.97714 0 0 0 93 84 83 255
2.47559 -0.0451291 3.91844 0 0 0 35 39 39 255
2.3456 0.0102522 3.92891 0 0 0 200 205 207 255
2.47312 0.0364109 3.93063 0 0 0 84 85 92 255
2.35245 0.0897909 3.93306 0 0 0 248 250 254 255
2.35731 0.115375 3.9248 0 0 0 255 252 253 255
2.06737 0.135672 4.03999 0 0 0 63 63 62 255
2.53587 0.140241 3.94896 0 0 0 50 50 54 255
2.31234 0.259152 3.7066 0 0 0 161 144 114 255
-0.468246 0.263492 4.103 0 0 0 148 121 89 255
2.21705 0.266541 3.71829 0 0 0 95 75 60 255
2.36347 0.261819 3.70862 0 0 0 125 88 55 255
-0.824823 0.28147 4.05532 0 0 0 139 126 66 255
-0.794994 0.275755 4.04835 0 0 0 75 73 68 255
-0.762295 0.272257 4.04809 0 0 0 114 95 99 255
-0.62323 0.272019 4.05003 0 0 0 133 111 101 255
-0.698357 0.283862 4.04244 0 0 0 113 107 101 255
2.21512 0.297601 3.70745 0 0 0 130 106 77 255
2.37711 0.298175 3.70506 0 0 0 138 101 62 255
-0.966117 0.334408 4.1725 0 0 0 95 110 126 255
0.582652 0.374043 4.60061 0 0 0 118 39 43 255
-0.609787 0.398983 4.05567 0 0 0 149 155 160 255
-0.529321 0.398769 4.08038 0 0 0 152 158 165 255
-0.389872 0.394969 4.16952 0 0 0 148 155 155 255
0.604111 0.401827 4.59194 0 0 0 156 147 148 255
1.98538 0.386133 3.94434 0 0 0 112 121 123 255
2.07344 0.397108 3.7545 0 0 0 127 133 134 255
2.12955 0.406069 3.71969 0 0 0 131 137 139 255
2.1545 0.394526 3.70762 0 0 0 40 39 44 255
2.1845 0.395369 3.69771 0 0 0 135 136 140 255
2.28947 0.394354 3.67638 0 0 0 138 147 149 255
2.42101 0.383486 3.70101 0 0 0 125 129 132 255
2.1308 0.41321 3.71959 0 0 0 123 136 140 255
2.42713 0.417195 3.69616 0 0 0 61 43 33 255
-0.598028 0.45598 4.0604 0 0 0 144 156 158 255
-0.983642 0.483463 4.22878 0 0 0 127 120 122 255
2.14814 0.467903 3.71127 0 0 0 61 40 29 255
-0.347802 0.539012 4.21942 0 0 0 32 80 117 255
2.10784 0.514275 3.73709 0 0 0 47 38 40 255
2.21749 0.520619 3.68769 0 0 0 52 36 38 255
2.42601 0.508356 3.69618 0 0 0 39 38 42 255
1.98225 0.550996 3.89486 0 0 0 130 133 131 255
2.2867 0.525217 3.6817 0 0 0 37 39 43 255
-0.925274 0.587396 4.13929 0 0 0 22 55 94 255
-0.850943 0.57094 4.0926 0 0 0 152 152 152 255
-0.632263 0.57361 4.06168 0 0 0 153 155 167 255
-0.452003 0.569457 4.13339 0 0 0 156 158 162 255
2.12063 0.550712 3.7268 0 0 0 137 139 139 255
2.14916 0.552009 3.70827 0 0 0 107 90 75 255
2.19284 0.556562 3.69406 0 0 0 137 141 142 255
2.23549 0.559042 3.68519 0 0 0 142 141 144 255
2.33346 0.550751 3.67712 0 0 0 141 146 147 255
2.38105 0.553039 3.67611 0 0 0 45 41 45 255
2.42876 0.553311 3.70115 0 0 0 143 143 143 255
-0.801404 0.586455 4.08263 0 0 0 29 51 90 255
-0.735408 0.608046 4.0539 0 0 0 156 156 156 255
-0.574848 0.621894 4.11153 0 0 0 104 112 143 255
1.04122 0.646302 4.72265 0 0 0 40 80 74 255
-0.736176 0.620918 4.05463 0 0 0 156 159 158 255
-0.357367 0.654827 4.21217 0 0 0 146 151 161 255
-0.577423 0.667475 4.1039 0 0 0 61 68 87 255
-0.512756 0.661197 4.0823 0 0 0 59 65 84 255
-0.43305 0.668102 4.14342 0 0 0 153 157 159 255
-0.95346 0.686959 4.16268 0 0 0 28 44 82 255
-0.879697 0.674686 4.11998 0 0 0 56 60 71 255
-0.774278 0.675187 4.05889 0 0 0 34 53 94 255
-0.360268 0.679211 4.20907 0 0 0 146 152 161 255
-0.959661 0.700338 4.16381 0 0 0 24 46 91 255
-0.862789 0.703961 4.07517 0 0 0 111 118 126 255
-0.736812 0.708526 4.06205 0 0 0 153 157 160 255
-0.414103 0.729941 4.17498 0 0 0 154 159 171 255
-0.888807 0.76048 4.10656 0 0 0 107 117 124 255
2.27765 0.735234 3.69055 0 0 0 110 80 42 255
-0.676019 0.773679 4.07396 0 0 0 156 158 163 255
-1.00206 0.815222 4.22218 0 0 0 39 52 75 255
-0.383979 0.799235 4.19428 0 0 0 103 118 135 255
-0.28952 0.807787 4.3208 0 0 0 149 153 154 255
-0.619581 0.811765 4.07542 0 0 0 49 59 86 255
-0.334556 0.816042 4.23955 0 0 0 33 58 96 255
-0.806982 0.826797 4.07176 0 0 0 74 80 99 255
-0.615128 0.877221 4.07539 0 0 0 58 75 97 255
-0.41018 0.901845 4.17476 0 0 0 61 73 100 255
-0.741331 0.882516 4.06485 0 0 0 60 75 95 255
-0.494318 0.89334 4.11097 0 0 0 160 162 163 255
-0.874518 0.911287 4.11847 0 0 0 31 51 92 255
-0.565256 0.930428 4.0872 0 0 0 160 162 163 255
-0.862067 0.924877 4.0875 0 0 0 26 52 95 255
-0.66329 0.949307 4.08538 0 0 0 159 162 161 255
-0.613682 0.947866 4.073 0 0 0 77 85 106 255
-0.798718 0.98304 4.09259 0 0 0 41 55 91 255
1.18608 1.12182 5.05932 0 0 0 168 174 170 255
-0.471072 0.996255 4.1293 0 0 0 137 155 172 255
-0.359546 1.0168 4.22755 0 0 0 122 144 164 255
-0.924794 1.01747 4.16493 0 0 0 148 150 151 255
1.18907 1.22395 5.07185 0 0 0 158 162 161 255
-0.616613 1.07512 4.08847 0 0 0 113 153 184 255
-0.386787 1.14197 4.21356 0 0 0 145 152 158 255
2.1273 1.06427 3.75637 0 0 0 95 95 94 255
2.28674 1.07194 3.71617 0 0 0 86 79 81 255
-0.671596 1.15384 4.07182 0 0 0 23 88 136 255
-0.630051 1.15197 4.07381 0 0 0 142 157 181 255
-0.583876 1.14289 4.07101 0 0 0 9 108 147 255
-0.877094 1.20585 4.15776 0 0 0 142 144 146 255
-0.784738 1.18171 4.10587 0 0 0 19 84 129 255
-0.631023 1.19826 4.08011 0 0 0 46 80 123 255
-0.328815 1.23279 4.25511 0 0 0 162 140 95 255
-0.912405 1.22174 4.14513 0 0 0 82 104 140 255
-0.894975 1.26915 4.12364 0 0 0 124 142 163 255
-0.854157 1.30268 4.10013 0 0 0 124 131 141 255
-0.793609 1.31186 4.09537 0 0 0 29 74 114 255
-0.700063 1.29454 4.07913 0 0 0 111 112 122 255
-0.371817 1.38822 4.2163 0 0 0 152 154 156 255
-0.891569 1.39344 4.16267 0 0 0 84 129 157 255
2.4102 1.41273 3.7808 0 0 0 93 90 94 255
2.39289 1.62949 3.9852 0 0 0 205 206 212 255
2.24078 -0.20377 3.83254 0 0 0 42 41 42 255
2.46518 -0.193888 3.94959 0 0 0 63 43 41 255
2.12446 -0.0512644 3.9736 0 0 0 47 49 51 255
2.47921 0.0497969 3.93486 0 0 0 83 86 92 255
-1.06708 0.134136 4.30866 0 0 0 22 47 84 255
-0.651133 0.273727 4.04364 0 0 0 129 110 99 255
2.29004 0.269216 3.69969 0 0 0 118 95 70 255
-0.361267 0.353856 4.19918 0 0 0 124 141 155 255
1.96215 0.338306 4.02941 0 0 0 59 58 59 255
-0.928012 0.353897 4.09834 0 0 0 96 99 113 255
-0.880173 0.331888 4.09238 0 0 0 8 56 107 255
0.768221 0.388157 4.57635 0 0 0 159 159 159 255
2.39747 0.397444 3.68848 0 0 0 122 130 137 255
-0.435068 0.421039 4.13465 0 0 0 149 150 154 255
2.07401 0.398073 3.75376 0 0 0 124 136 136 255
2.18463 0.413307 3.6985 0 0 0 132 143 146 255
2.28835 0.391181 3.67645 0 0 0 143 143 143 255
2.3437 0.437654 3.67348 0 0 0 40 41 47 255
-0.944541 0.469844 4.17479 0 0 0 145 109 78 255
2.26823 0.48996 3.67934 0 0 0 136 136 137 255
-0.457135 0.587364 4.13125 0 0 0 158 160 160 255
1.97752 0.597391 4.03752 0 0 0 45 46 47 255
-0.632692 0.572617 4.06145 0 0 0 153 155 167 255
-0.731548 0.627273 4.05535 0 0 0 156 159 159 255
-0.359111 0.649868 4.21095 0 0 0 113 126 151 255
-0.966723 0.693103 4.17144 0 0 0 22 44 84 255
-0.631709 0.687132 4.06776 0 0 0 154 158 160 255
-0.417601 0.681221 4.1651 0 0 0 32 60 105 255
-0.867586 0.721924 4.07376 0 0 0 122 125 129 255
0.788652 0.758562 4.60518 0 0 0 70 110 74 255
-0.741539 0.728821 4.05907 0 0 0 159 160 160 255
-0.409534 0.878847 4.17441 0 0 0 158 161 161 255
-0.875683 0.907203 4.11085 0 0 0 29 52 93 255
-0.762834 0.939894 4.07055 0 0 0 158 161 160 255
-0.985939 1.068 4.22199 0 0 0 23 53 95 255
-0.399631 1.1028 4.20116 0 0 0 3 94 141 255
-0.351546 1.14277 4.24123 0 0 0 146 150 155 255
-0.570627 1.14139 4.05633 0 0 0 4 108 151 255
-0.869436 1.19144 4.13482 0 0 0 141 143 145 255
-0.784769 1.18757 4.10605 0 0 0 20 85 131 255
-0.712873 1.17465 4.07402 0 0 0 126 144 160 255
-0.654623 1.1759 4.08159 0 0 0 33 87 135 255
-0.338712 1.25123 4.24713 0 0 0 164 148 92 255
0.364342 1.40201 4.92545 0 0 0 67 94 81 255
-0.891031 1.27744 4.15477 0 0 0 138 143 146 255
-0.769834 1.27475 4.10672 0 0 0 157 157 158 255
-0.350194 1.27806 4.2401 0 0 0 168 154 103 255
-0.788085 1.30428 4.10058 0 0 0 36 74 113 255
-0.694045 1.29443 4.01701 0 0 0 132 130 139 255
-0.619501 1.29641 4.03952 0 0 0 28 75 118 255
-0.543671 1.30736 4.0672 0 0 0 166 160 125 255
-0.294996 1.46103 4.65304 0 0 0 45 86 123 255
2.13285 -0.0819187 3.97296 0 0 0 65 66 72 255
-0.341222 0.111161 4.60323 0 0 0 26 61 102 255
2.05426 0.164712 4.03018 0 0 0 55 58 57 255
-0.356766 0.367364 4.20427 0 0 0 138 149 156 255
-0.877939 0.407509 4.05925 0 0 0 143 135 116 255
-0.600218 0.391387 4.05838 0 0 0 135 143 155 255
-0.525564 0.397647 4.08182 0 0 0 153 159 162 255
1.97408 0.415421 3.93906 0 0 0 111 113 111 255
-0.921774 0.449545 4.14334 0 0 0 147 142 134 255
-0.722001 0.457449 4.04151 0 0 0 117 125 105 255
-0.351533 0.463671 4.21462 0 0 0 151 153 161 255
1.08695 0.525112 4.79501 0 0 0 93 113 86 255
1.98239 0.509055 3.93363 0 0 0 121 128 125 255
-0.976717 0.531586 4.20312 0 0 0 12 59 104 255
0.830984 0.59511 4.60533 0 0 0 156 160 161 255
2.07906 0.551177 3.75278 0 0 0 135 139 140 255
2.20315 0.552209 3.68989 0 0 0 143 142 139 255
-0.617869 0.587271 4.06824 0 0 0 157 159 161 255
-0.461021 0.594746 4.13006 0 0 0 157 160 162 255
1.96831 0.605834 4.03821 0 0 0 50 52 52 255
-0.907953 0.631225 4.12854 0 0 0 150 152 151 255
-0.830101 0.59965 4.09422 0 0 0 146 152 155 255
-0.503836 0.644459 4.06442 0 0 0 156 158 158 255
-0.312965 0.688822 4.3036 0 0 0 146 153 154 255
-0.972248 0.701825 4.18418 0 0 0 23 46 87 255
0.947044 0.750707 4.64927 0 0 0 116 146 130 255
1.08655 0.770682 4.77506 0 0 0 48 91 74 255
-0.663669 0.729762 4.069 0 0 0 27 55 103 255
-1.00769 0.823943 4.22464 0 0 0 23 61 94 255
-0.728749 0.862345 4.0686 0 0 0 37 61 107 255
-0.447162 0.828925 4.13464 0 0 0 107 104 108 255
-0.605279 0.90786 4.07709 0 0 0 158 161 165 255
-0.843844 0.972733 4.10366 0 0 0 152 154 156 255
-0.466158 0.994927 4.13096 0 0 0 137 155 172 255
-0.360524 1.02391 4.22664 0 0 0 127 129 131 255
-0.477019 1.06199 4.12976 0 0 0 148 152 158 255
-0.343672 1.20727 4.25116 0 0 0 140 124 104 255
1.11239 1.40716 5.09772 0 0 0 68 108 88 255
-0.518998 1.31548 4.08566 0 0 0 174 163 107 255
-0.948401 1.41496 4.19433 0 0 0 44 79 117 255
-0.506226 1.43563 4.11885 0 0 0 45 86 124 255
1.99596 1.57777 4.10465 0 0 0 110 112 108 255
2.12683 -0.201495 3.97688 0 0 0 84 67 60 255
2.12006 -0.126231 3.98077 0 0 0 72 57 57 255
1.05262 0.111256 4.83127 0 0 0 45 91 64 255
2.04721 0.178648 4.03679 0 0 0 54 54 54 255
2.07863 0.170965 4.01432 0 0 0 40 47 49 255
1.97884 0.270044 4.02103 0 0 0 109 101 98 255
-0.856098 0.424459 4.09989 0 0 0 147 132 77 255
1.95943 0.471225 3.9745 0 0 0 128 132 131 255
-0.402669 0.62198 4.15912 0 0 0 25 57 105 255
-0.838067 0.647668 4.09677 0 0 0 154 153 154 255
-0.690359 0.636936 4.05358 0 0 0 23 56 107 255
1.05436 0.810531 4.74627 0 0 0 50 95 71 255
-0.727157 0.815444 4.06031 0 0 0 73 84 96 255
-0.302046 0.874477 4.28113 0 0 0 18 64 112 255
1.99622 0.90466 4.08078 0 0 0 46 51 52 255
-0.380047 1.21847 4.21783 0 0 0 153 126 99 255
0.383232 1.38529 4.8978 0 0 0 64 93 79 255
-0.8284 1.21307 4.10651 0 0 0 131 129 136 255
-0.452004 1.30921 4.15702 0 0 0 173 160 74 255
-0.335438 1.44315 4.63277 0 0 0 30 78 119 255
-0.873002 1.43288 4.11136 0 0 0 50 80 110 255
2.20077 -0.193793 3.88774 0 0 0 129 93 98 255
2.50007 -0.188899 3.96829 0 0 0 82 87 87 255
2.30732 -0.172188 3.93038 0 0 0 138 103 105 255
2.50684 -0.0975989 3.99437 0 0 0 115 122 124 255
2.50797 -0.0741166 3.96728 0 0 0 81 85 86 255
2.49854 -0.0136882 3.9695 0 0 0 120 127 129 255
2.21389 0.0165009 3.91566 0 0 0 162 162 162 255
2.54822 0.119873 3.98832 0 0 0 113 115 117 255
-0.29546 0.0979208 4.6009 0 0 0 81 87 99 255
2.34083 0.253962 3.70702 0 0 0 155 135 115 255
0.648628 0.248298 4.58337 0 0 0 30 53 50 255
0.9207 0.258218 4.61436 0 0 0 96 101 99 255
0.462196 0.274057 4.665 0 0 0 121 130 129 255
0.959937 0.267891 4.63368 0 0 0 83 112 100 255
2.34747 0.303284 3.70405 0 0 0 76 50 28 255
-0.733548 0.289233 4.04531 0 0 0 30 47 93 255
2.32103 0.306903 3.70256 0 0 0 153 123 92 255
0.671394 0.316757 4.57426 0 0 0 123 149 104 255
-0.383965 0.320529 4.17763 0 0 0 62 112 157 255
-0.335222 0.406597 4.22953 0 0 0 114 88 103 255
2.51668 0.425658 3.73112 0 0 0 99 98 98 255
-0.423679 0.44901 4.14358 0 0 0 150 151 157 255
2.28118 0.452134 3.6763 0 0 0 86 81 78 255
-0.511491 0.479288 4.08581 0 0 0 40 83 116 255
2.11652 0.525338 3.72976 0 0 0 38 42 46 255
2.22644 0.537957 3.68524 0 0 0 35 40 52 255
2.06547 0.556976 3.76161 0 0 0 75 86 87 255
0.576013 0.683586 4.62638 0 0 0 145 153 151 255
1.10873 0.73739 4.79592 0 0 0 136 148 146 255
1.08781 0.755091 4.77365 0 0 0 134 142 139 255
1.05397 0.768522 4.73788 0 0 0 144 153 153 255
-0.784221 0.755931 4.01779 0 0 0 86 89 99 255
2.33431 0.716462 3.68767 0 0 0 73 61 49 255
-0.816228 0.875265 3.98785 0 0 0 57 71 86 255
-0.812472 0.87758 3.98545 0 0 0 61 67 88 255
1.88377 1.43387 6.96335 0 0 0 147 145 139 255
1.32183 1.39243 6.58272 0 0 0 133 131 125 255
1.23883 1.37377 6.43488 0 0 0 142 141 133 255
0.906011 1.17882 4.64585 0 0 0 95 89 43 255
2.403 1.04879 3.72067 0 0 0 99 97 98 255
2.42471 1.04593 3.69587 0 0 0 107 115 115 255
2.16809 1.06882 3.74311 0 0 0 125 133 133 255
2.07771 1.08705 3.78555 0 0 0 90 93 94 255
2.21144 1.08874 3.71666 0 0 0 73 75 74 255
2.31156 1.08687 3.71253 0 0 0 87 89 90 255
2.34188 1.08804 3.71071 0 0 0 87 93 93 255
2.2106 1.1667 3.68018 0 0 0 99 102 104 255
2.22954 1.24146 3.67373 0 0 0 109 118 116 255
2.39411 1.23792 3.66336 0 0 0 100 98 98 255
-0.414205 1.39759 4.1791 0 0 0 113 120 126 255
-0.66955 1.36864 3.82981 0 0 0 70 107 143 255
2.15161 1.36978 3.70583 0 0 0 117 120 119 255
2.18877 1.38095 3.67737 0 0 0 119 121 125 255
2.21858 1.39572 3.66468 0 0 0 100 102 104 255
2.50114 -0.00157262 3.96798 0 0 0 138 145 145 255
2.37945 0.313781 3.7025 0 0 0 106 86 56 255
0.609859 0.374275 4.59011 0 0 0 90 60 64 255
-0.72145 0.392371 4.04045 0 0 0 119 120 112 255
-0.509723 0.487234 4.08663 0 0 0 19 83 128 255
2.51442 0.493664 3.71709 0 0 0 68 49 45 255
2.64422 0.902901 3.90007 0 0 0 90 99 99 255
-0.653546 0.937333 4.00167 0 0 0 159 159 164 255
2.39581 1.03557 3.68094 0 0 0 81 82 82 255
-0.686886 1.36258 3.82798 0 0 0 80 126 160 255
-0.508772 1.41784 4.13224 0 0 0 64 114 148 255
2.11476 -0.201164 3.97871 0 0 0 109 98 94 255
2.10849 -0.0122239 3.98904 0 0 0 149 149 147 255
0.678685 0.24194 4.57206 0 0 0 96 99 99 255
2.38222 0.260882 3.71259 0 0 0 155 118 75 255
-0.708549 0.295799 4.04311 0 0 0 143 131 87 255
2.39183 0.319141 3.70026 0 0 0 64 43 28 255
0.885909 0.394232 4.60576 0 0 0 153 144 145 255
1.02766 0.415317 4.69494 0 0 0 131 63 70 255
-0.720624 0.400473 4.03964 0 0 0 145 145 130 255
0.446395 0.424443 4.67556 0 0 0 140 139 139 255
2.34677 0.463921 3.67639 0 0 0 47 44 47 255
-0.469199 0.485371 4.1105 0 0 0 114 121 130 255
2.37248 0.544949 3.67709 0 0 0 41 40 45 255
-0.847759 0.738048 4.02828 0 0 0 93 101 111 255
2.36726 0.730444 3.69968 0 0 0 91 69 44 255
-0.683384 0.785785 4.07433 0 0 0 159 158 161 255
2.36428 0.750181 3.69631 0 0 0 97 71 33 255
-0.571547 0.911272 4.08523 0 0 0 161 161 163 255
0.859266 1.13883 4.6234 0 0 0 152 156 133 255
-0.381991 1.10733 4.21633 0 0 0 9 82 129 255
0.889439 1.176 4.63522 0 0 0 125 121 72 255
-0.448986 1.39894 4.13151 0 0 0 155 159 162 255
2.45797 1.36813 3.65215 0 0 0 88 84 87 255
2.12999 -0.143393 3.97491 0 0 0 68 46 46 255
2.47764 -0.0667444 3.967 0 0 0 60 67 75 255
2.21105 0.0150236 3.91525 0 0 0 156 158 160 255
2.47443 0.0392558 4.00428 0 0 0 89 89 89 255
2.12944 0.0420114 3.9674 0 0 0 93 96 95 255
-0.357251 0.317802 4.20141 0 0 0 50 96 131 255
2.28913 0.432008 3.67783 0 0 0 141 142 141 255
2.42541 0.453395 3.68475 0 0 0 35 37 41 255
2.20896 0.484487 3.67591 0 0 0 61 36 28 255
0.797183 0.555949 4.58953 0 0 0 154 159 157 255
0.441333 0.602241 4.69514 0 0 0 86 114 109 255
2.39233 0.538054 3.67279 0 0 0 142 145 146 255
1.95895 0.592801 4.00311 0 0 0 59 59 62 255
2.24294 0.545846 3.68312 0 0 0 132 142 144 255
2.28624 0.555769 3.68164 0 0 0 35 36 40 255
-0.452094 0.64743 4.13424 0 0 0 158 159 161 255
-0.406268 0.666844 4.16897 0 0 0 25 59 107 255
-0.630869 0.660658 4.06422 0 0 0 158 158 162 255
-0.741151 0.674595 4.05936 0 0 0 36 50 91 255
-0.289146 0.765751 4.32585 0 0 0 128 132 139 255
-0.481111 0.895549 4.12161 0 0 0 159 161 160 255
-0.793318 0.971263 3.96483 0 0 0 151 150 152 255
-0.405064 1.08089 4.19523 0 0 0 1 98 145 255
-0.589252 1.09798 4.00392 0 0 0 131 148 162 255
-0.524048 1.12158 3.99897 0 0 0 0 106 149 255
-0.332351 1.16506 4.25881 0 0 0 133 134 139 255
2.40711 -0.221333 3.85749 0 0 0 144 144 144 255
2.21586 0.021054 3.91718 0 0 0 162 162 162 255
1.09346 0.105622 4.93782 0 0 0 50 93 69 255
1.03344 0.31047 4.70129 0 0 0 143 145 133 255
-0.870926 0.397019 4.11114 0 0 0 151 135 77 255
-0.731557 0.384162 4.03974 0 0 0 129 131 116 255
2.23172 0.491002 3.68351 0 0 0 35 37 41 255
0.780534 0.593818 4.59092 0 0 0 157 162 160 255
1.98525 0.529506 3.93974 0 0 0 127 133 136 255
2.39028 0.541205 3.6717 0 0 0 122 130 132 255
-0.609818 0.634295 4.07239 0 0 0 159 160 161 255
-0.404282 0.639589 4.16128 0 0 0 25 59 105 255
0.772597 0.685048 4.60299 0 0 0 67 110 68 255
-0.308123 0.750452 4.30673 0 0 0 153 156 155 255
0.786815 0.820132 4.60166 0 0 0 158 163 161 255
-0.421227 0.83325 4.16765 0 0 0 158 160 162 255
-0.625274 0.896695 4.07601 0 0 0 100 113 139 255
-0.449352 0.995746 4.13743 0 0 0 134 150 165 255
-0.366152 1.13741 4.22915 0 0 0 128 140 152 255
-0.534801 1.14423 4.10649 0 0 0 1 98 146 255
-0.346661 1.2467 4.22977 0 0 0 155 139 84 255
-0.302276 1.47198 4.65139 0 0 0 87 119 151 255
-0.448783 1.4179 4.07027 0 0 0 36 80 123 255
2.14468 -0.0570437 3.96101 0 0 0 33 41 36 255
1.0741 0.112887 4.90267 0 0 0 48 91 67 255
-0.358211 0.400609 4.19918 0 0 0 97 69 102 255
1.94752 0.47538 3.99054 0 0 0 90 90 87 255
2.13339 0.539202 3.71882 0 0 0 134 142 146 255
-0.395128 0.640634 4.16433 0 0 0 24 59 106 255
-0.69793 0.694197 4.05753 0 0 0 25 58 111 255
0.80316 0.777469 4.60692 0 0 0 77 116 99 255
1.07367 1.39453 5.0887 0 0 0 66 105 77 255
2.21908 -0.209941 3.88907 0 0 0 119 120 121 255
2.10464 -0.18641 3.97187 0 0 0 110 105 104 255
2.10644 -0.130463 3.97257 0 0 0 136 136 133 255
2.10437 -0.108693 3.9658 0 0 0 143 141 139 255
2.12238 -0.0766922 3.96147 0 0 0 72 73 74 255
2.36156 -0.0535555 3.86628 0 0 0 79 83 86 255
0.376405 0.150296 4.80501 0 0 0 28 59 44 255
2.36057 0.249848 3.71188 0 0 0 88 83 82 255
2.2873 0.253912 3.70331 0 0 0 57 56 59 255
2.20529 0.270516 3.72115 0 0 0 62 49 47 255
2.32567 0.277302 3.70533 0 0 0 69 58 57 255
2.32858 0.277634 3.70503 0 0 0 69 58 57 255
-0.456985 0.278246 4.1076 0 0 0 73 55 38 255
-0.444404 0.304948 4.11938 0 0 0 97 82 94 255
-0.761503 0.300139 4.04643 0 0 0 131 109 116 255
-0.458095 0.328649 4.11176 0 0 0 63 100 144 255
-0.465383 0.372411 4.11006 0 0 0 137 137 146 255
-0.493703 0.46871 4.09513 0 0 0 128 145 164 255
-0.702003 0.464447 4.04285 0 0 0 120 127 124 255
1.03692 0.5122 4.72879 0 0 0 122 136 112 255
-0.370148 0.506808 4.19777 0 0 0 73 114 148 255
-0.34867 0.522546 4.22029 0 0 0 32 82 125 255
1.09891 0.709792 4.78132 0 0 0 111 118 117 255
0.46243 0.942632 4.71745 0 0 0 101 113 109 255
1.1639 1.25065 5.43691 0 0 0 140 139 133 255
2.41144 1.07323 3.74312 0 0 0 125 129 128 255
-1.04183 1.23511 4.40411 0 0 0 54 99 133 255
-0.959713 1.25659 4.37486 0 0 0 27 84 124 255
-0.841227 1.25165 4.25768 0 0 0 115 96 111 255
-0.99493 1.28337 4.36501 0 0 0 106 105 114 255
2.16297 1.18127 3.77569 0 0 0 99 100 102 255
2.3888 1.18382 3.75673 0 0 0 106 105 109 255
2.37911 1.22688 3.76648 0 0 0 103 103 103 255
2.28352 1.26563 3.75132 0 0 0 103 107 110 255
-1.14095 1.49307 4.58569 0 0 0 59 110 152 255
-0.367569 1.40984 4.21723 0 0 0 160 157 163 255
-1.20878 1.58613 4.68725 0 0 0 98 112 134 255
2.23371 1.40191 3.76223 0 0 0 113 113 115 255
-0.444025 0.278539 4.11702 0 0 0 140 103 88 255
-0.464048 0.371064 4.11107 0 0 0 119 135 153 255
0.666966 0.403131 4.57897 0 0 0 124 46 49 255
-0.407275 0.486695 4.15618 0 0 0 98 119 145 255
1.10729 0.59412 4.8101 0 0 0 139 146 146 255
-0.471468 0.662807 4.06508 0 0 0 100 107 129 255
-0.724718 0.884342 4.06961 0 0 0 32 62 104 255
-0.791174 1.21047 4.21922 0 0 0 134 145 147 255
-0.96473 1.25708 4.37259 0 0 0 33 90 128 255
2.38761 1.41871 3.78822 0 0 0 95 95 99 255
2.45521 -0.218843 3.95957 0 0 0 74 74 76 255
2.3562 0.285862 3.70681 0 0 0 149 124 96 255
2.38846 0.301128 3.70558 0 0 0 133 97 66 255
2.42196 0.42069 3.69726 0 0 0 61 34 20 255
-0.648363 0.410875 4.04656 0 0 0 23 91 75 255
-0.293305 0.416341 4.31519 0 0 0 67 117 147 255
2.1499 0.509915 3.71545 0 0 0 136 140 137 255
-0.353991 0.495537 4.21841 0 0 0 125 137 153 255
0.781049 0.55331 4.58667 0 0 0 155 159 160 255
-0.497362 0.749443 4.10619 0 0 0 158 159 160 255
-0.373855 0.783672 4.19872 0 0 0 62 75 103 255
-0.814336 1.22707 4.23287 0 0 0 139 138 140 255
-0.802272 1.21426 4.22802 0 0 0 137 144 146 255
2.40001 1.41669 3.80006 0 0 0 98 92 97 255
2.14582 -0.205078 3.95775 0 0 0 47 44 45 255
2.26784 -0.206917 3.8591 0 0 0 42 40 39 255
2.1395 -0.21344 3.97 0 0 0 56 55 55 255
2.13724 -0.112522 3.96055 0 0 0 39 41 40 255
2.28706 0.284289 3.69822 0 0 0 158 127 80 255
2.40916 0.390012 3.69126 0 0 0 119 136 144 255
2.33084 0.428463 3.67729 0 0 0 56 43 41 255
2.37166 0.442465 3.67732 0 0 0 134 144 147 255
-0.639717 0.419989 4.0485 0 0 0 37 102 91 255
-0.573589 0.440749 4.06652 0 0 0 114 141 165 255
2.41198 0.481782 3.68211 0 0 0 36 40 43 255
1.96878 0.511757 3.90722 0 0 0 109 111 110 255
0.831131 0.567651 4.6046 0 0 0 157 162 160 255
1.08612 0.599988 4.76704 0 0 0 144 149 147 255
-0.532548 0.762668 4.09376 0 0 0 97 117 135 255
0.951294 1.09189 4.66598 0 0 0 29 80 119 255
0.535144 1.23528 4.67439 0 0 0 149 152 151 255
-0.382121 1.42419 4.29873 0 0 0 28 78 122 255
2.39756 1.42295 3.79994 0 0 0 95 95 104 255
2.44026 -0.220661 3.95113 0 0 0 60 61 61 255
-0.30407 0.133334 4.52864 0 0 0 25 66 103 255
0.381229 0.0992291 4.79033 0 0 0 61 83 76 255
2.25579 0.290507 3.7098 0 0 0 140 105 63 255
1.02699 0.281439 4.70043 0 0 0 113 129 108 255
2.11759 0.413552 3.72799 0 0 0 45 49 59 255
-0.418083 0.412564 4.14655 0 0 0 129 141 148 255
-0.326822 0.4162 4.23973 0 0 0 149 130 136 255
-0.342277 0.475676 4.22962 0 0 0 147 151 157 255
2.21837 0.555005 3.68829 0 0 0 139 142 142 255
-0.299578 0.742915 4.32423 0 0 0 152 152 152 255
-0.438152 0.877792 4.14391 0 0 0 157 160 159 255
-0.347152 1.17109 4.25207 0 0 0 144 142 144 255
-0.309409 1.44814 4.61836 0 0 0 32 76 114 255
2.4115 -0.191398 3.86176 0 0 0 88 44 45 255
2.41734 -0.119697 3.8701 0 0 0 34 33 35 255
2.39816 -0.0392325 3.84054 0 0 0 35 37 41 255
2.30828 0.00228752 3.88764 0 0 0 128 130 129 255
2.33673 0.088632 3.93084 0 0 0 186 188 190 255
1.08783 0.146582 4.84468 0 0 0 49 94 67 255
-0.346127 0.168134 4.52534 0 0 0 6 57 103 255
2.08083 0.445933 3.73979 0 0 0 134 137 137 255
1.94612 0.476168 3.88595 0 0 0 133 136 135 255
0.736763 0.687257 4.58791 0 0 0 62 108 73 255
-0.323662 0.706282 4.24836 0 0 0 153 155 157 255
0.804905 0.827274 4.60575 0 0 0 160 162 162 255
2.24574 0.737873 3.69088 0 0 0 54 44 38 255
2.27606 -0.161426 3.83844 0 0 0 140 105 100 255
2.49801 -0.0157084 3.98291 0 0 0 108 115 113 255
2.228 0.0193539 3.91113 0 0 0 169 166 167 255
2.55258 0.130399 4.03301 0 0 0 89 93 94 255
-0.979321 0.131528 4.14298 0 0 0 47 61 76 255
-3.06549 0.162156 6.41803 0 0 0 49 45 43 255
0.554973 0.243855 4.60034 0 0 0 35 59 57 255
0.935917 0.256346 4.62213 0 0 0 54 87 82 255
2.47256 0.279879 3.73961 0 0 0 89 70 78 255
0.940246 0.333986 4.62805 0 0 0 143 146 143 255
2.36515 0.303955 3.70331 0 0 0 157 124 73 255
-0.909032 0.326697 4.08928 0 0 0 91 102 119 255
-0.461713 0.343662 4.11136 0 0 0 6 68 120 255
1.02982 0.375796 4.69426 0 0 0 107 47 57 255
-0.570445 0.383773 4.06832 0 0 0 45 80 108 255
2.55756 0.375314 3.76719 0 0 0 64 72 75 255
2.48994 0.385481 3.72571 0 0 0 119 128 132 255
2.51054 0.384563 3.73868 0 0 0 128 128 131 255
2.51505 0.428371 3.73676 0 0 0 118 118 118 255
2.54646 0.435816 3.75714 0 0 0 75 63 58 255
-0.97749 0.512201 4.17999 0 0 0 40 65 93 255
1.06394 0.583285 4.73769 0 0 0 111 147 136 255
2.52002 0.486367 3.7361 0 0 0 107 100 94 255
1.1029 0.60658 4.79236 0 0 0 113 113 113 255
1.07478 0.613711 4.74475 0 0 0 126 133 130 255
1.10108 0.656842 4.79227 0 0 0 110 117 115 255
2.45696 0.536517 3.72162 0 0 0 87 97 105 255
1.07434 0.667844 4.75641 0 0 0 116 123 123 255
-0.94418 0.675895 4.13278 0 0 0 49 62 78 255
