ply
format ascii 1.0
comment VCGLIB generated
element vertex 1030
property float x
property float y
property float z
property float nx
property float ny
property float nz
property uchar red
property uchar green
property uchar blue
property uchar alpha
element face 0
property list uchar int vertex_indices
end_header
2.41064 0.254434 3.71716 0 0 0 91 78 70 255
-0.648872 0.264677 4.04416 0 0 0 123 104 95 255
-0.623697 0.262243 4.04959 0 0 0 129 107 101 255
-0.509068 0.259686 4.08208 0 0 0 125 105 96 255
-0.442539 0.260614 4.11405 0 0 0 83 87 115 255
0.494756 0.251301 4.64053 0 0 0 100 111 110 255
-0.855922 0.263441 4.07418 0 0 0 100 102 114 255
-0.795731 0.267416 4.0507 0 0 0 97 97 97 255
-0.767832 0.259609 4.04757 0 0 0 89 75 84 255
-0.725202 0.265921 4.04455 0 0 0 106 100 99 255
-0.690199 0.26718 4.04293 0 0 0 140 126 102 255
-0.560822 0.265735 4.06322 0 0 0 110 103 101 255
0.885616 0.259638 4.60134 0 0 0 62 76 74 255
2.38755 0.272481 3.71158 0 0 0 100 56 21 255
-0.827569 0.271017 4.05638 0 0 0 120 118 85 255
-0.5453 0.274908 4.06794 0 0 0 134 110 79 255
-0.870027 0.280057 4.0842 0 0 0 126 125 102 255
-0.796168 0.279838 4.05095 0 0 0 128 122 98 255
-0.607234 0.278572 4.051 0 0 0 122 102 59 255
2.23443 0.283982 3.71096 0 0 0 106 68 33 255
2.27268 0.282198 3.70081 0 0 0 160 122 66 255
2.31388 0.281 3.70339 0 0 0 87 49 40 255
2.3852 0.28092 3.71058 0 0 0 91 51 24 255
-0.776182 0.290107 4.04816 0 0 0 36 44 62 255
-0.490572 0.289399 4.09443 0 0 0 77 63 50 255
0.71804 0.285005 4.57012 0 0 0 76 95 91 255
-0.852686 0.290771 4.06653 0 0 0 78 76 46 255
-0.813276 0.295837 4.05377 0 0 0 38 39 53 255
-0.682022 0.297505 4.04212 0 0 0 38 39 43 255
-0.641946 0.296034 4.04549 0 0 0 89 71 48 255
-0.605671 0.295068 4.05015 0 0 0 59 57 62 255
-0.575068 0.29838 4.05724 0 0 0 23 46 93 255
-0.546332 0.288066 4.06731 0 0 0 65 47 33 255
-0.509544 0.295763 4.08156 0 0 0 140 115 87 255
2.40335 0.296874 3.70421 0 0 0 91 74 60 255
-0.485309 0.306179 4.09655 0 0 0 98 76 83 255
2.20797 0.302847 3.70623 0 0 0 108 89 64 255
2.25961 0.307442 3.69934 0 0 0 153 118 70 255
2.28081 0.308334 3.69208 0 0 0 135 96 61 255
2.30571 0.304413 3.69986 0 0 0 165 133 81 255
-0.847257 0.311284 4.06318 0 0 0 86 93 132 255
-0.781121 0.315512 4.04907 0 0 0 87 84 115 255
-0.727897 0.314824 4.04607 0 0 0 83 94 128 255
-0.65423 0.315886 4.04266 0 0 0 128 111 86 255
-0.622028 0.312827 4.04888 0 0 0 145 116 97 255
-0.541161 0.312584 4.07013 0 0 0 113 106 101 255
-1.01789 0.328981 4.24426 0 0 0 81 104 136 255
0.613084 0.328809 4.58618 0 0 0 138 142 131 255
0.760405 0.323439 4.57354 0 0 0 141 155 125 255
1.99193 0.337609 3.97023 0 0 0 70 75 76 255
0.583803 0.353515 4.60065 0 0 0 178 129 137 255
0.601723 0.351112 4.59372 0 0 0 121 77 78 255
-0.49042 0.353905 4.0955 0 0 0 54 109 155 255
-0.387141 0.350705 4.17224 0 0 0 14 87 133 255
0.82019 0.358609 4.58659 0 0 0 164 123 128 255
1.02989 0.360682 4.69598 0 0 0 172 130 136 255
1.09883 0.361054 4.76619 0 0 0 91 101 86 255
-0.901771 0.357159 4.1008 0 0 0 35 72 108 255
-0.754891 0.356776 4.04396 0 0 0 22 78 129 255
-0.63413 0.359439 4.04714 0 0 0 122 132 142 255
-0.60617 0.358787 4.05437 0 0 0 9 73 123 255
-0.584853 0.360831 4.06329 0 0 0 96 119 159 255
1.94746 0.361159 3.97455 0 0 0 86 81 79 255
-0.879731 0.363129 4.09268 0 0 0 76 99 128 255
-0.517454 0.363913 4.08556 0 0 0 7 73 123 255
-0.336433 0.367587 4.2279 0 0 0 101 88 100 255
1.05057 0.376653 4.71145 0 0 0 151 125 132 255
-0.489399 0.380634 4.09894 0 0 0 55 87 113 255
0.873877 0.38255 4.60177 0 0 0 157 138 142 255
1.95824 0.375299 3.96758 0 0 0 117 119 118 255
-0.555894 0.383454 4.07049 0 0 0 26 81 117 255
-0.531661 0.386229 4.08006 0 0 0 140 150 161 255
-0.410109 0.383528 4.15239 0 0 0 73 89 111 255
1.98738 0.376862 3.94696 0 0 0 112 117 117 255
-0.636306 0.382996 4.04681 0 0 0 68 97 95 255
-0.479057 0.386561 4.10453 0 0 0 25 65 100 255
-0.439217 0.394615 4.1308 0 0 0 36 61 105 255
-0.365235 0.388204 4.19294 0 0 0 78 80 99 255
2.45046 0.382359 3.70719 0 0 0 103 102 105 255
2.49591 0.386927 3.72397 0 0 0 123 130 133 255
2.56992 0.37912 3.79484 0 0 0 79 84 88 255
-0.501063 0.392274 4.09186 0 0 0 33 72 114 255
0.531215 0.402169 4.61556 0 0 0 121 111 114 255
2.06699 0.385993 3.76114 0 0 0 103 107 108 255
2.17367 0.391686 3.70046 0 0 0 132 134 137 255
2.192 0.388613 3.69538 0 0 0 81 81 81 255
2.27597 0.385615 3.67816 0 0 0 81 83 84 255
2.2904 0.382156 3.67557 0 0 0 88 87 89 255
2.30212 0.389149 3.67311 0 0 0 137 136 137 255
-0.474919 0.40473 4.10626 0 0 0 121 134 152 255
-0.467127 0.407109 4.11071 0 0 0 139 150 165 255
1.05422 0.411271 4.72063 0 0 0 126 90 88 255
1.97356 0.389772 3.95447 0 0 0 73 68 66 255
2.45738 0.398292 3.71542 0 0 0 138 141 140 255
-0.593655 0.410066 4.06065 0 0 0 25 93 124 255
-0.573552 0.410159 4.06633 0 0 0 147 155 163 255
-0.396331 0.410985 4.16373 0 0 0 141 145 164 255
-0.547277 0.423236 4.07081 0 0 0 42 84 121 255
-0.509421 0.415495 4.08777 0 0 0 153 158 160 255
-0.474834 0.421428 4.10669 0 0 0 152 153 157 255
-0.437172 0.420153 4.13253 0 0 0 149 150 154 255
2.10218 0.412415 3.73835 0 0 0 60 39 39 255
2.43608 0.410001 3.70496 0 0 0 61 44 39 255
-0.535921 0.424635 4.07694 0 0 0 81 103 123 255
-0.454737 0.426901 4.12042 0 0 0 63 79 103 255
-0.356433 0.432403 4.20426 0 0 0 103 96 115 255
2.52282 0.411661 3.72785 0 0 0 76 66 67 255
-0.5927 0.429929 4.06157 0 0 0 19 93 125 255
-0.386637 0.438774 4.16954 0 0 0 79 87 98 255
-0.535322 0.438734 4.077 0 0 0 11 83 127 255
-0.499733 0.439211 4.0929 0 0 0 30 76 115 255
-0.555437 0.444937 4.06845 0 0 0 116 163 192 255
-0.466267 0.444248 4.1116 0 0 0 39 62 90 255
-0.441341 0.447692 4.12908 0 0 0 17 60 109 255
-0.396773 0.446622 4.16181 0 0 0 57 71 108 255
-0.336102 0.451811 4.22945 0 0 0 120 89 112 255
-0.710002 0.450022 4.04129 0 0 0 142 149 136 255
-0.668376 0.44998 4.04651 0 0 0 140 149 148 255
-0.542382 0.461105 4.07456 0 0 0 25 89 126 255
-0.474284 0.459634 4.10697 0 0 0 22 70 125 255
2.10394 0.450685 3.73416 0 0 0 58 39 39 255
-0.667105 0.467053 4.04595 0 0 0 80 95 94 255
-0.626182 0.468048 4.05104 0 0 0 58 94 92 255
-0.576851 0.46757 4.06489 0 0 0 81 103 120 255
-0.423539 0.477744 4.14453 0 0 0 45 84 117 255
2.1413 0.465627 3.71411 0 0 0 91 65 52 255
-1.03531 0.493222 4.29211 0 0 0 110 92 99 255
-0.648471 0.480926 4.04698 0 0 0 84 120 108 255
-0.385779 0.490503 4.17437 0 0 0 73 98 117 255
-0.321595 0.485181 4.25982 0 0 0 31 84 119 255
-0.99573 0.497641 4.25184 0 0 0 108 94 96 255
2.28219 0.47193 3.67504 0 0 0 80 62 54 255
-0.728875 0.493589 4.04466 0 0 0 87 106 123 255
1.968 0.496775 3.96173 0 0 0 95 96 91 255
2.10404 0.485808 3.73864 0 0 0 67 46 41 255
-0.427789 0.503646 4.14619 0 0 0 60 108 147 255
2.51531 0.480506 3.72613 0 0 0 109 105 106 255
2.12082 0.495074 3.72771 0 0 0 37 43 44 255
2.27116 0.508229 3.68175 0 0 0 87 75 65 255
2.27508 0.506773 3.68089 0 0 0 74 55 41 255
2.2965 0.50566 3.67981 0 0 0 60 51 47 255
1.10635 0.576876 4.81525 0 0 0 106 143 126 255
1.95996 0.548416 3.99214 0 0 0 119 116 115 255
2.42632 0.529609 3.69074 0 0 0 64 53 57 255
-0.438158 0.561034 4.13878 0 0 0 145 149 167 255
2.20833 0.54015 3.68886 0 0 0 81 66 56 255
2.21662 0.532095 3.68719 0 0 0 50 37 39 255
-1.02653 0.572562 4.27068 0 0 0 107 113 138 255
-0.870865 0.562037 4.09664 0 0 0 104 117 151 255
-0.832906 0.565811 4.0966 0 0 0 141 145 147 255
2.45585 0.551246 3.71251 0 0 0 101 103 109 255
2.56005 0.544381 3.76875 0 0 0 131 138 138 255
-0.637588 0.569418 4.06157 0 0 0 138 140 171 255
1.95363 0.571063 4.03381 0 0 0 77 67 61 255
2.50004 0.550838 3.73546 0 0 0 129 138 140 255
2.17194 0.55952 3.70108 0 0 0 114 129 133 255
-0.900873 0.58519 4.1139 0 0 0 24 52 91 255
2.24193 0.558015 3.68407 0 0 0 139 136 137 255
2.32197 0.560008 3.67691 0 0 0 93 103 105 255
2.35776 0.55966 3.68655 0 0 0 140 141 143 255
-0.955757 0.592544 4.16835 0 0 0 33 58 91 255
1.04655 0.626196 4.71643 0 0 0 71 73 73 255
-0.492995 0.603644 4.08515 0 0 0 84 89 109 255
-0.574164 0.613473 4.08949 0 0 0 53 59 75 255
-0.985466 0.652991 4.19675 0 0 0 127 129 132 255
-0.365164 0.640214 4.20653 0 0 0 36 66 115 255
-0.483814 0.651083 4.06814 0 0 0 91 90 94 255
-0.57558 0.665203 4.08836 0 0 0 61 68 87 255
-0.870371 0.678608 4.10202 0 0 0 56 60 71 255
-0.333709 0.678909 4.22883 0 0 0 116 116 118 255
-0.950753 0.688905 4.16507 0 0 0 37 42 54 255
0.54975 0.713196 4.63616 0 0 0 85 123 102 255
-1.01043 0.688661 4.20731 0 0 0 88 95 105 255
-0.433851 0.687694 4.14477 0 0 0 151 158 159 255
1.07227 0.731229 4.75689 0 0 0 127 137 136 255
-0.740435 0.695828 4.06162 0 0 0 123 125 141 255
-0.402324 0.719929 4.17858 0 0 0 132 140 162 255
0.837449 0.747515 4.61109 0 0 0 65 109 78 255
-0.878904 0.717698 4.10761 0 0 0 122 125 129 255
-0.642094 0.717301 4.06685 0 0 0 136 142 163 255
-0.334193 0.732843 4.23003 0 0 0 113 116 127 255
-0.551261 0.747757 4.08822 0 0 0 141 150 171 255
-0.513747 0.745318 4.10162 0 0 0 152 152 158 255
2.25691 0.715279 3.68922 0 0 0 79 76 68 255
2.38257 0.719905 3.70605 0 0 0 86 76 66 255
-0.787441 0.759203 4.05964 0 0 0 78 82 95 255
-0.687464 0.765681 4.07158 0 0 0 131 136 162 255
-0.447107 0.772096 4.14143 0 0 0 70 74 90 255
-1.0055 0.782714 4.21836 0 0 0 130 137 137 255
-0.332617 0.786182 4.23934 0 0 0 60 71 94 255
-0.301554 0.819556 4.29427 0 0 0 97 106 117 255
-0.31888 0.817232 4.26676 0 0 0 127 132 153 255
2.25052 0.762424 3.68957 0 0 0 89 76 57 255
-0.826607 0.80784 4.08335 0 0 0 117 120 126 255
-0.608507 0.805007 4.07571 0 0 0 79 86 105 255
2.30475 0.765793 3.68979 0 0 0 98 74 53 255
-0.625311 0.809737 4.07558 0 0 0 53 63 89 255
-0.382358 0.822997 4.1968 0 0 0 56 73 95 255
-0.44291 0.830533 4.13841 0 0 0 90 89 97 255
-0.8089 0.833385 4.08085 0 0 0 74 80 99 255
-0.359014 0.846811 4.21226 0 0 0 155 157 160 255
0.548827 0.901401 4.65224 0 0 0 71 111 93 255
-0.377419 0.865409 4.19955 0 0 0 82 92 100 255
-0.395939 0.878711 4.18716 0 0 0 156 158 157 255
-0.606547 0.868003 4.07596 0 0 0 103 105 107 255
-0.6256 0.878275 4.07588 0 0 0 67 83 105 255
-0.958002 0.897042 4.175 0 0 0 79 88 101 255
-0.358891 0.904506 4.20085 0 0 0 73 96 127 255
-0.713993 0.900959 4.07237 0 0 0 35 64 104 255
-0.510094 0.912447 4.10683 0 0 0 157 157 163 255
1.07818 1.00262 4.75432 0 0 0 121 139 124 255
-0.547012 0.925152 4.09357 0 0 0 155 159 160 255
-0.424391 0.929024 4.15171 0 0 0 73 92 125 255
-0.721546 0.930374 4.07179 0 0 0 159 160 161 255
-0.601556 0.938608 4.07321 0 0 0 125 125 125 255
-0.584039 0.938228 4.07712 0 0 0 148 150 152 255
-0.885472 0.957809 4.13573 0 0 0 35 51 92 255
-0.706713 0.950221 4.07362 0 0 0 81 91 108 255
-0.686153 0.964309 4.07774 0 0 0 153 149 159 255
-0.573207 0.976133 4.08686 0 0 0 75 92 137 255
-0.74398 0.976788 4.07178 0 0 0 157 157 157 255
-0.605887 0.98693 4.07722 0 0 0 68 89 127 255
-0.356447 1.01222 4.22634 0 0 0 118 140 158 255
1.17934 1.14004 5.06089 0 0 0 172 176 170 255
-0.86315 1.00213 4.07029 0 0 0 40 50 84 255
-0.694325 1.0053 4.07988 0 0 0 66 84 118 255
1.92957 1.37607 6.59283 0 0 0 144 141 136 255
-0.369847 1.03149 4.22085 0 0 0 52 101 130 255
-0.913472 1.02171 4.10528 0 0 0 135 131 139 255
-0.906965 1.02513 4.1462 0 0 0 145 149 150 255
1.20434 1.17632 5.07645 0 0 0 120 118 116 255
-0.992373 1.03957 4.2015 0 0 0 116 120 122 255
-0.49673 1.04353 4.12012 0 0 0 41 99 138 255
-0.497003 1.08357 4.12296 0 0 0 60 110 140 255
-0.366389 1.11249 4.22458 0 0 0 28 73 120 255
-0.333734 1.12106 4.24889 0 0 0 29 75 113 255
2.072 1.04983 3.79512 0 0 0 107 110 109 255
2.12086 1.05196 3.76355 0 0 0 117 117 118 255
2.17107 1.05139 3.74252 0 0 0 90 86 85 255
2.1091 1.05797 3.77315 0 0 0 99 103 103 255
2.13945 1.05647 3.76572 0 0 0 97 94 95 255
2.21387 1.05273 3.73072 0 0 0 90 92 91 255
-0.392522 1.13895 4.20567 0 0 0 135 146 156 255
-0.314914 1.14637 4.2747 0 0 0 109 132 145 255
2.2545 1.05157 3.71213 0 0 0 80 81 80 255
2.31513 1.05638 3.71088 0 0 0 103 98 100 255
2.34465 1.05424 3.71279 0 0 0 96 94 96 255
2.21471 1.06951 3.72921 0 0 0 121 124 123 255
2.2131 1.07039 3.73184 0 0 0 121 124 123 255
2.22228 1.08412 3.72781 0 0 0 86 84 84 255
-0.326213 1.1798 4.2661 0 0 0 51 76 100 255
2.16671 1.08926 3.73764 0 0 0 84 89 89 255
2.25257 1.08279 3.70477 0 0 0 83 78 76 255
2.2858 1.07807 3.7165 0 0 0 89 81 83 255
2.36139 1.08688 3.71718 0 0 0 78 78 79 255
2.48141 1.08431 3.73892 0 0 0 73 74 76 255
-0.614774 1.15522 4.08495 0 0 0 24 111 147 255
2.22224 1.08443 3.72908 0 0 0 98 105 102 255
2.40276 1.09176 3.72773 0 0 0 87 92 90 255
-0.863444 1.17532 4.12317 0 0 0 88 116 142 255
-0.631314 1.1673 4.0597 0 0 0 148 149 158 255
2.13563 1.13525 3.76787 0 0 0 102 103 105 255
-0.624019 1.19217 4.06774 0 0 0 66 85 118 255
-0.734083 1.20888 4.09281 0 0 0 115 99 115 255
-0.835652 1.22328 4.12202 0 0 0 107 103 113 255
-0.6887 1.21116 4.07518 0 0 0 113 103 118 255
2.07899 1.17291 3.80036 0 0 0 103 105 104 255
2.25628 1.1778 3.71822 0 0 0 106 107 111 255
2.07283 1.20854 3.80625 0 0 0 115 113 112 255
-0.894176 1.36454 4.13382 0 0 0 69 106 141 255
-0.370759 1.38317 4.21688 0 0 0 140 152 167 255
-0.845181 1.36333 4.11727 0 0 0 65 104 137 255
-0.388692 1.39404 4.20127 0 0 0 93 102 120 255
-0.459495 1.38776 4.14426 0 0 0 93 128 163 255
-0.815698 1.39123 4.10708 0 0 0 22 83 123 255
-0.456148 1.4169 4.15171 0 0 0 157 159 160 255
-0.893733 1.41707 4.13734 0 0 0 89 108 133 255
2.46126 1.4045 3.79337 0 0 0 84 82 84 255
2.25145 1.41287 3.79984 0 0 0 112 112 112 255
2.1707 1.43021 3.83099 0 0 0 100 100 100 255
2.31051 1.41643 3.77491 0 0 0 106 106 106 255
2.38519 1.63083 3.98878 0 0 0 191 193 199 255
2.39535 1.62889 3.98083 0 0 0 207 207 208 255
2.33369 -0.211686 3.91215 0 0 0 153 157 163 255
2.36627 -0.211865 3.90508 0 0 0 46 45 44 255
2.2353 -0.166225 3.85107 0 0 0 140 73 68 255
0.948999 -0.243846 4.71094 0 0 0 211 211 212 255
2.34561 0.0143246 3.92671 0 0 0 200 205 207 255
-1.07779 0.130159 4.32995 0 0 0 22 47 84 255
2.04828 0.136833 4.02356 0 0 0 135 135 134 255
2.2151 0.256251 3.72363 0 0 0 121 103 80 255
2.31504 0.249626 3.70877 0 0 0 80 75 76 255
2.40548 0.252901 3.71768 0 0 0 93 77 67 255
-0.719701 0.261196 4.04501 0 0 0 113 104 82 255
-0.856439 0.269076 4.07511 0 0 0 132 125 125 255
-0.561357 0.269433 4.06324 0 0 0 110 103 101 255
-0.478814 0.271199 4.09794 0 0 0 124 109 113 255
2.3847 0.280171 3.71031 0 0 0 91 51 24 255
2.30422 0.305736 3.69925 0 0 0 165 133 81 255
-0.556638 0.312012 4.06487 0 0 0 147 121 91 255
-0.910933 0.326908 4.07576 0 0 0 68 103 139 255
-0.893467 0.357897 4.08408 0 0 0 37 76 112 255
-0.639376 0.354694 4.04607 0 0 0 46 99 143 255
-0.42959 0.348531 4.13802 0 0 0 105 129 149 255
0.411329 0.367202 4.7083 0 0 0 111 87 83 255
0.79918 0.365867 4.57982 0 0 0 144 132 134 255
0.8751 0.374909 4.60264 0 0 0 136 117 121 255
-0.651703 0.389797 4.04527 0 0 0 29 88 75 255
-0.482449 0.38903 4.10195 0 0 0 30 73 108 255
-0.389344 0.397121 4.17046 0 0 0 152 156 156 255
1.98502 0.380336 3.94885 0 0 0 77 84 85 255
2.12059 0.38929 3.72354 0 0 0 89 89 90 255
2.493 0.387889 3.72595 0 0 0 110 118 121 255
1.93375 0.408037 3.96145 0 0 0 125 120 116 255
-0.588113 0.430869 4.06262 0 0 0 19 93 125 255
2.10262 0.418944 3.73826 0 0 0 58 40 40 255
2.42272 0.409642 3.70015 0 0 0 83 63 45 255
-0.452925 0.441219 4.12275 0 0 0 16 60 108 255
1.97697 0.444325 3.93115 0 0 0 82 76 67 255
2.10378 0.434238 3.73516 0 0 0 58 42 39 255
2.45825 0.429998 3.71252 0 0 0 34 38 37 255
-0.609151 0.454193 4.05789 0 0 0 147 154 154 255
2.14192 0.466181 3.71372 0 0 0 91 65 52 255
-0.54802 0.490512 4.0732 0 0 0 104 120 136 255
-0.422253 0.504617 4.151 0 0 0 78 121 156 255
1.94289 0.497654 4.00394 0 0 0 122 120 119 255
2.10498 0.500126 3.73938 0 0 0 55 39 39 255
1.08292 0.581287 4.76701 0 0 0 126 142 138 255
2.10215 0.527549 3.73947 0 0 0 50 42 47 255
2.21333 0.52776 3.68796 0 0 0 55 39 41 255
2.28197 0.519532 3.68151 0 0 0 46 36 38 255
2.42375 0.526224 3.70533 0 0 0 57 40 43 255
2.56781 0.542964 3.78908 0 0 0 104 112 118 255
1.94997 0.574859 4.03358 0 0 0 108 100 94 255
2.49185 0.54733 3.72976 0 0 0 123 130 131 255
2.36438 0.560461 3.67927 0 0 0 108 94 86 255
2.40521 0.550048 3.67944 0 0 0 140 142 143 255
2.42532 0.551348 3.69659 0 0 0 143 143 143 255
-1.0129 0.58887 4.24571 0 0 0 134 137 140 255
-0.922796 0.586777 4.13272 0 0 0 32 55 90 255
2.14806 0.555236 3.70891 0 0 0 107 90 75 255
-0.7352 0.610699 4.05411 0 0 0 155 156 156 255
-0.497828 0.604683 4.08394 0 0 0 88 94 113 255
-0.728476 0.645745 4.05786 0 0 0 154 156 158 255
-0.436258 0.684071 4.14216 0 0 0 151 158 159 255
-0.988451 0.707387 4.16651 0 0 0 133 131 130 255
-0.732397 0.714398 4.06222 0 0 0 156 159 161 255
-0.638909 0.706329 4.06552 0 0 0 137 143 162 255
-0.406694 0.726498 4.17737 0 0 0 155 160 168 255
-0.86752 0.72358 4.07826 0 0 0 109 111 116 255
-0.555491 0.759553 4.08722 0 0 0 158 162 163 255
2.25793 0.722996 3.68976 0 0 0 96 76 55 255
-0.892368 0.77296 4.11515 0 0 0 97 108 118 255
-0.689979 0.758705 4.06994 0 0 0 52 69 110 255
-0.460841 0.775512 4.13649 0 0 0 92 94 101 255
-0.332384 0.785178 4.23964 0 0 0 40 53 83 255
-0.318337 0.812042 4.2682 0 0 0 128 133 152 255
-0.625359 0.809756 4.07562 0 0 0 53 63 89 255
-0.452248 0.834028 4.13214 0 0 0 58 66 93 255
-0.413452 0.886024 4.17146 0 0 0 156 157 159 255
-0.444304 0.894631 4.13273 0 0 0 113 117 126 255
-0.955262 0.913001 4.17034 0 0 0 69 69 80 255
-0.505647 0.911504 4.10915 0 0 0 156 159 158 255
-0.5634 0.929744 4.0875 0 0 0 160 162 163 255
-0.736236 0.931652 4.0683 0 0 0 157 161 163 255
-0.881883 0.944252 4.12581 0 0 0 33 52 93 255
-0.674495 0.96082 4.08254 0 0 0 158 160 161 255
-0.711111 0.964483 4.07418 0 0 0 59 71 96 255
-0.744772 0.974296 4.07143 0 0 0 157 157 157 255
-0.477625 0.995413 4.12787 0 0 0 130 149 169 255
-0.848392 1.00792 4.11091 0 0 0 151 154 153 255
-0.932963 1.02675 4.17826 0 0 0 149 147 151 255
-0.500029 1.0354 4.11955 0 0 0 40 99 138 255
0.955052 1.1163 4.66946 0 0 0 29 77 115 255
0.509644 1.1512 4.69904 0 0 0 69 104 73 255
2.35002 1.06809 3.71696 0 0 0 87 86 87 255
0.800642 1.24706 4.61768 0 0 0 101 120 98 255
-0.62462 1.16147 4.04563 0 0 0 136 140 153 255
-0.867516 1.17011 4.12552 0 0 0 88 116 142 255
-0.725654 1.17477 4.11205 0 0 0 85 131 170 255
-0.784473 1.1907 4.08957 0 0 0 21 85 131 255
-0.828519 1.23751 4.10132 0 0 0 80 84 109 255
-0.904309 1.27197 4.13632 0 0 0 124 142 163 255
-0.629419 1.29063 4.07086 0 0 0 37 76 110 255
-0.857059 1.32244 4.12318 0 0 0 101 111 122 255
-0.718852 1.31987 4.09081 0 0 0 95 108 135 255
-0.843864 1.36483 4.11643 0 0 0 65 104 137 255
2.39948 1.41094 3.78612 0 0 0 98 94 97 255
2.30285 -0.211864 3.91799 0 0 0 45 43 44 255
2.37493 -0.208282 3.87583 0 0 0 45 45 45 255
2.46072 -0.199361 3.92224 0 0 0 47 52 53 255
0.943871 -0.242843 4.72306 0 0 0 211 211 212 255
2.09921 -0.0565741 3.97732 0 0 0 93 84 83 255
2.47562 -0.0451407 3.91853 0 0 0 35 39 39 255
2.34564 0.0102247 3.92905 0 0 0 200 205 207 255
2.47316 0.0364014 3.93073 0 0 0 84 85 92 255
2.35249 0.0897705 3.9332 0 0 0 248 250 254 255
2.35735 0.115364 3.92491 0 0 0 255 252 253 255
2.06742 0.13564 4.04034 0 0 0 63 63 62 255
2.53591 0.140234 3.94908 0 0 0 50 50 54 255
2.31237 0.259145 3.70669 0 0 0 161 144 114 255
-0.468332 0.263384 4.10312 0 0 0 148 121 89 255
2.21707 0.266535 3.71838 0 0 0 95 75 60 255
2.3635 0.261813 3.70872 0 0 0 125 88 55 255
-0.824902 0.281376 4.05544 0 0 0 139 126 66 255
-0.795101 0.275574 4.04848 0 0 0 75 73 68 255
-0.762103 0.272033 4.04773 0 0 0 114 95 99 255
-0.623108 0.271745 4.04974 0 0 0 133 111 101 255
-0.698397 0.28397 4.04255 0 0 0 113 107 101 255
2.21514 0.297597 3.70753 0 0 0 130 106 77 255
2.37714 0.298172 3.70516 0 0 0 138 101 62 255
-0.96606 0.334412 4.17236 0 0 0 95 110 126 255
0.582646 0.373936 4.60063 0 0 0 118 39 43 255
-0.609982 0.39915 4.05606 0 0 0 149 155 160 255
-0.529304 0.398853 4.08039 0 0 0 152 158 165 255
-0.390115 0.395255 4.17008 0 0 0 148 155 155 255
0.60404 0.401967 4.59229 0 0 0 156 147 148 255
1.9854 0.386135 3.94443 0 0 0 112 121 123 255
2.07345 0.397111 3.75458 0 0 0 127 133 134 255
2.12957 0.406072 3.71976 0 0 0 131 137 139 255
2.15451 0.394529 3.7077 0 0 0 40 39 44 255
2.18452 0.395371 3.69778 0 0 0 135 136 140 255
2.28949 0.394358 3.67647 0 0 0 138 147 149 255
2.42104 0.383491 3.70111 0 0 0 125 129 132 255
2.13082 0.413214 3.71966 0 0 0 123 136 140 255
2.42715 0.417197 3.69622 0 0 0 61 43 33 255
-0.598051 0.455911 4.06044 0 0 0 144 156 158 255
-0.983642 0.483463 4.22878 0 0 0 127 120 122 255
2.14816 0.467911 3.71134 0 0 0 61 40 29 255
-0.347799 0.539017 4.21944 0 0 0 32 80 117 255
2.10785 0.514286 3.73716 0 0 0 47 38 40 255
2.21751 0.520631 3.68776 0 0 0 52 36 38 255
2.42603 0.508361 3.69624 0 0 0 39 38 42 255
1.98226 0.550995 3.895 0 0 0 130 133 131 255
2.28673 0.52523 3.68178 0 0 0 37 39 43 255
-0.925202 0.586662 4.13865 0 0 0 22 55 94 255
-0.851174 0.571484 4.09321 0 0 0 152 152 152 255
-0.632532 0.573906 4.06224 0 0 0 153 155 167 255
-0.451825 0.569562 4.13313 0 0 0 156 158 162 255
2.12064 0.550725 3.72687 0 0 0 137 139 139 255
2.14918 0.552023 3.70834 0 0 0 107 90 75 255
2.19285 0.556577 3.69413 0 0 0 137 141 142 255
2.23551 0.559057 3.68526 0 0 0 142 141 144 255
2.33349 0.550767 3.67721 0 0 0 141 146 147 255
2.38107 0.553044 3.67616 0 0 0 45 41 45 255
2.42879 0.553316 3.70121 0 0 0 143 143 143 255
-0.801318 0.586787 4.08265 0 0 0 29 51 90 255
-0.735538 0.607767 4.05407 0 0 0 156 156 156 255
-0.574859 0.621903 4.11158 0 0 0 104 112 143 255
1.04122 0.64633 4.72284 0 0 0 40 80 74 255
-0.736441 0.620791 4.05505 0 0 0 156 159 158 255
-0.357406 0.655268 4.21241 0 0 0 146 151 161 255
-0.577432 0.667486 4.10394 0 0 0 61 68 87 255
-0.512761 0.661203 4.08232 0 0 0 59 65 84 255
-0.432739 0.667584 4.14275 0 0 0 153 157 159 255
-0.95346 0.686959 4.16268 0 0 0 28 44 82 255
-0.879605 0.674972 4.12003 0 0 0 56 60 71 255
-0.774006 0.675214 4.05853 0 0 0 34 53 94 255
-0.360646 0.679665 4.20995 0 0 0 146 152 161 255
-0.959661 0.700338 4.16381 0 0 0 24 46 91 255
-0.862826 0.703973 4.07526 0 0 0 111 118 126 255
-0.736934 0.708717 4.06235 0 0 0 153 157 160 255
-0.41375 0.729706 4.17432 0 0 0 154 159 171 255
-0.88856 0.761125 4.10645 0 0 0 107 117 124 255
2.27768 0.735262 3.69063 0 0 0 110 80 42 255
-0.676588 0.77424 4.07507 0 0 0 156 158 163 255
-1.00206 0.815222 4.22218 0 0 0 39 52 75 255
-0.38402 0.799815 4.19456 0 0 0 103 118 135 255
-0.289479 0.807791 4.32077 0 0 0 149 153 154 255
-0.619742 0.811779 4.07573 0 0 0 49 59 86 255
-0.334239 0.815354 4.23882 0 0 0 33 58 96 255
-0.807013 0.826812 4.07185 0 0 0 74 80 99 255
-0.615155 0.877254 4.07549 0 0 0 58 75 97 255
-0.410406 0.901928 4.17524 0 0 0 61 73 100 255
-0.741212 0.88242 4.0647 0 0 0 60 75 95 255
-0.494742 0.89352 4.1118 0 0 0 160 162 163 255
-0.874137 0.91133 4.1176 0 0 0 31 51 92 255
-0.564879 0.930188 4.08657 0 0 0 160 162 163 255
-0.862071 0.924886 4.08753 0 0 0 26 52 95 255
-0.663292 0.949084 4.08541 0 0 0 159 162 161 255
-0.613732 0.947837 4.07314 0 0 0 77 85 106 255
-0.79864 0.983466 4.09258 0 0 0 41 55 91 255
1.1861 1.12186 5.05959 0 0 0 168 174 170 255
-0.471436 0.99673 4.13011 0 0 0 137 155 172 255
-0.358568 1.01657 4.22575 0 0 0 122 144 164 255
-0.924794 1.01747 4.16493 0 0 0 148 150 151 255
1.18908 1.224 5.07212 0 0 0 158 162 161 255
-0.616256 1.07532 4.088 0 0 0 113 153 184 255
-0.386748 1.14211 4.2136 0 0 0 145 152 158 255
2.12732 1.0643 3.7564 0 0 0 95 95 94 255
2.28676 1.07196 3.71622 0 0 0 86 79 81 255
-0.671602 1.15386 4.07186 0 0 0 23 88 136 255
-0.629986 1.15195 4.07376 0 0 0 142 157 181 255
-0.583818 1.14287 4.07096 0 0 0 9 108 147 255
-0.877065 1.20584 4.1577 0 0 0 142 144 146 255
-0.784738 1.18171 4.10587 0 0 0 19 84 129 255
-0.630922 1.19819 4.0799 0 0 0 46 80 123 255
-0.32876 1.23278 4.25506 0 0 0 162 140 95 255
-0.912405 1.22174 4.14513 0 0 0 82 104 140 255
-0.894731 1.26899 4.12304 0 0 0 124 142 163 255
-0.853992 1.30257 4.09971 0 0 0 124 131 141 255
-0.793408 1.3117 4.09486 0 0 0 29 74 114 255
-0.699903 1.2944 4.0787 0 0 0 111 112 122 255
-0.371752 1.38821 4.21624 0 0 0 152 154 156 255
-0.891509 1.39341 4.16252 0 0 0 84 129 157 255
2.4102 1.41273 3.7808 0 0 0 93 90 94 255
2.39289 1.62949 3.9852 0 0 0 205 206 212 255
2.24081 -0.203805 3.83264 0 0 0 42 41 42 255
2.46523 -0.193917 3.94973 0 0 0 63 43 41 255
2.12447 -0.0513016 3.97379 0 0 0 47 49 51 255
2.47925 0.0497877 3.93496 0 0 0 83 86 92 255
-1.06698 0.134156 4.30841 0 0 0 22 47 84 255
-0.651145 0.273636 4.04363 0 0 0 129 110 99 255
2.29007 0.26921 3.69978 0 0 0 118 95 70 255
-0.360986 0.354098 4.19875 0 0 0 124 141 155 255
1.96219 0.338291 4.02971 0 0 0 59 58 59 255
-0.927941 0.353895 4.09817 0 0 0 96 99 113 255
-0.8802 0.331893 4.09244 0 0 0 8 56 107 255
0.76807 0.388153 4.57694 0 0 0 159 159 159 255
2.3975 0.397449 3.68858 0 0 0 122 130 137 255
-0.434904 0.420866 4.13431 0 0 0 149 150 154 255
2.07402 0.398075 3.75384 0 0 0 124 136 136 255
2.18464 0.413312 3.69857 0 0 0 132 143 146 255
2.28837 0.391184 3.67653 0 0 0 143 143 143 255
2.34373 0.437662 3.67357 0 0 0 40 41 47 255
-0.944541 0.469844 4.17479 0 0 0 145 109 78 255
2.26825 0.489971 3.67942 0 0 0 136 136 137 255
-0.456865 0.587556 4.13086 0 0 0 158 160 160 255
1.97756 0.597386 4.03785 0 0 0 45 46 47 255
-0.63296 0.572894 4.062 0 0 0 153 155 167 255
-0.731747 0.627196 4.05568 0 0 0 156 159 159 255
-0.359308 0.650372 4.21151 0 0 0 113 126 151 255
-0.965533 0.691298 4.16661 0 0 0 22 44 84 255
-0.63165 0.686653 4.06757 0 0 0 154 158 160 255
-0.417283 0.680804 4.16445 0 0 0 32 60 105 255
-0.867624 0.721936 4.07386 0 0 0 122 125 129 255
0.789038 0.758437 4.60387 0 0 0 70 110 74 255
-0.74154 0.72903 4.05918 0 0 0 159 160 160 255
-0.409577 0.878741 4.17451 0 0 0 158 161 161 255
-0.874981 0.90701 4.10887 0 0 0 29 52 93 255
-0.763006 0.939904 4.0709 0 0 0 158 161 160 255
-0.985939 1.068 4.22199 0 0 0 23 53 95 255
-0.399549 1.10275 4.20106 0 0 0 3 94 141 255
-0.351465 1.14273 4.24114 0 0 0 146 150 155 255
-0.570651 1.1414 4.05641 0 0 0 4 108 151 255
-0.86921 1.1913 4.13426 0 0 0 141 143 145 255
-0.784769 1.18757 4.10605 0 0 0 20 85 131 255
-0.712725 1.17453 4.07363 0 0 0 126 144 160 255
-0.654651 1.17592 4.08168 0 0 0 33 87 135 255
-0.338713 1.25126 4.24717 0 0 0 164 148 92 255
0.364314 1.40206 4.92572 0 0 0 67 94 81 255
-0.890776 1.27727 4.15413 0 0 0 138 143 146 255
-0.769834 1.27475 4.10672 0 0 0 157 157 158 255
-0.350198 1.27809 4.24015 0 0 0 168 154 103 255
-0.787885 1.30412 4.10006 0 0 0 36 74 113 255
-0.694035 1.29443 4.01701 0 0 0 132 130 139 255
-0.619529 1.29643 4.0396 0 0 0 28 75 118 255
-0.543697 1.30738 4.06728 0 0 0 166 160 125 255
-0.294996 1.46103 4.65304 0 0 0 45 86 123 255
2.13286 -0.0819588 3.97315 0 0 0 65 66 72 255
-0.341253 0.111156 4.60336 0 0 0 26 61 102 255
2.05428 0.164705 4.03027 0 0 0 55 58 57 255
-0.356571 0.367771 4.20406 0 0 0 138 149 156 255
-0.877922 0.407512 4.05923 0 0 0 143 135 116 255
-0.600386 0.391501 4.05871 0 0 0 135 143 155 255
-0.525582 0.397727 4.08188 0 0 0 153 159 162 255
1.97409 0.415424 3.93914 0 0 0 111 113 111 255
-0.921774 0.449545 4.14334 0 0 0 147 142 134 255
-0.721719 0.457013 4.04096 0 0 0 117 125 105 255
-0.351007 0.463403 4.21357 0 0 0 151 153 161 255
1.08695 0.525137 4.79521 0 0 0 93 113 86 255
1.9824 0.509056 3.93367 0 0 0 121 128 125 255
-0.976133 0.532634 4.20239 0 0 0 12 59 104 255
0.831277 0.594878 4.60423 0 0 0 156 160 161 255
2.07908 0.55119 3.75285 0 0 0 135 139 140 255
2.20317 0.552223 3.68996 0 0 0 143 142 139 255
-0.618309 0.587671 4.06911 0 0 0 157 159 161 255
-0.460732 0.594952 4.12964 0 0 0 157 160 162 255
1.96834 0.605821 4.03848 0 0 0 50 52 52 255
-0.907953 0.631225 4.12854 0 0 0 150 152 151 255
-0.830818 0.600589 4.0956 0 0 0 146 152 155 255
-0.503845 0.644468 4.06445 0 0 0 156 158 158 255
-0.312878 0.688813 4.30348 0 0 0 146 153 154 255
-0.971848 0.700943 4.18253 0 0 0 23 46 87 255
0.947045 0.750729 4.64942 0 0 0 116 146 130 255
1.08656 0.770716 4.77522 0 0 0 48 91 74 255
-0.664094 0.729851 4.06975 0 0 0 27 55 103 255
-1.00769 0.823943 4.22464 0 0 0 23 61 94 255
-0.72858 0.862001 4.06836 0 0 0 37 61 107 255
-0.447088 0.829032 4.13459 0 0 0 107 104 108 255
-0.605315 0.907712 4.07716 0 0 0 158 161 165 255
-0.843829 0.972732 4.10363 0 0 0 152 154 156 255
-0.466579 0.995399 4.13187 0 0 0 137 155 172 255
-0.359674 1.02378 4.22511 0 0 0 127 129 131 255
-0.476943 1.06195 4.12967 0 0 0 148 152 158 255
-0.343619 1.20726 4.25112 0 0 0 140 124 104 255
1.11242 1.40723 5.09798 0 0 0 68 108 88 255
-0.519023 1.3155 4.08574 0 0 0 174 163 107 255
-0.948401 1.41496 4.19433 0 0 0 44 79 117 255
-0.506243 1.43565 4.11892 0 0 0 45 86 124 255
1.996 1.57781 4.10478 0 0 0 110 112 108 255
2.12685 -0.201544 3.97707 0 0 0 84 67 60 255
2.12008 -0.126275 3.98096 0 0 0 72 57 57 255
1.0526 0.111284 4.8316 0 0 0 45 91 64 255
2.04725 0.178626 4.03712 0 0 0 54 54 54 255
2.07865 0.170959 4.0144 0 0 0 40 47 49 255
1.97885 0.270042 4.0211 0 0 0 109 101 98 255
-0.856036 0.424472 4.09983 0 0 0 147 132 77 255
1.95943 0.471225 3.9745 0 0 0 128 132 131 255
-0.402669 0.621987 4.15915 0 0 0 25 57 105 255
-0.838086 0.647769 4.09689 0 0 0 154 153 154 255
-0.690089 0.63663 4.05311 0 0 0 23 56 107 255
1.05438 0.810564 4.74642 0 0 0 50 95 71 255
-0.727116 0.815443 4.06028 0 0 0 73 84 96 255
-0.302034 0.87449 4.28115 0 0 0 18 64 112 255
1.99624 0.904674 4.08086 0 0 0 46 51 52 255
-0.379993 1.21846 4.21778 0 0 0 153 126 99 255
0.383208 1.38534 4.89804 0 0 0 64 93 79 255
-0.8284 1.21307 4.10651 0 0 0 131 129 136 255
-0.452005 1.30923 4.15706 0 0 0 173 160 74 255
-0.335438 1.44315 4.63277 0 0 0 30 78 119 255
-0.873002 1.43288 4.11136 0 0 0 50 80 110 255
2.20078 -0.193838 3.8879 0 0 0 129 93 98 255
2.50013 -0.188945 3.96848 0 0 0 82 87 87 255
2.30736 -0.172218 3.93053 0 0 0 138 103 105 255
2.5069 -0.097638 3.99456 0 0 0 115 122 124 255
2.50803 -0.0741523 3.96748 0 0 0 81 85 86 255
2.4986 -0.0137096 3.96971 0 0 0 120 127 129 255
2.21392 0.0164742 3.91579 0 0 0 162 162 162 255
2.54829 0.119857 3.98857 0 0 0 113 115 117 255
-0.295495 0.0979548 4.60103 0 0 0 81 87 99 255
2.34086 0.253955 3.70713 0 0 0 155 135 115 255
0.648466 0.248268 4.58391 0 0 0 30 53 50 255
0.920715 0.258078 4.61427 0 0 0 96 101 99 255
0.461818 0.273949 4.66609 0 0 0 121 130 129 255
0.960067 0.267892 4.63324 0 0 0 83 112 100 255
2.34749 0.303282 3.70416 0 0 0 76 50 28 255
-0.733228 0.289266 4.04484 0 0 0 30 47 93 255
2.32106 0.306901 3.70267 0 0 0 153 123 92 255
0.671364 0.316876 4.57446 0 0 0 123 149 104 255
-0.383958 0.320754 4.1777 0 0 0 62 112 157 255
-0.334965 0.407222 4.22929 0 0 0 114 88 103 255
2.51673 0.425663 3.73128 0 0 0 99 98 98 255
-0.423645 0.449017 4.14354 0 0 0 150 151 157 255
2.2812 0.452144 3.67639 0 0 0 86 81 78 255
-0.511416 0.479245 4.08569 0 0 0 40 83 116 255
2.11653 0.525351 3.72984 0 0 0 38 42 46 255
2.22645 0.537973 3.68532 0 0 0 35 40 52 255
2.06549 0.556973 3.76163 0 0 0 75 86 87 255
0.575884 0.683689 4.62701 0 0 0 145 153 151 255
1.10874 0.737423 4.79608 0 0 0 136 148 146 255
1.08782 0.755124 4.77381 0 0 0 134 142 139 255
1.05399 0.768548 4.738 0 0 0 144 153 153 255
-0.784292 0.755952 4.01794 0 0 0 86 89 99 255
2.33434 0.716493 3.68776 0 0 0 73 61 49 255
-0.816302 0.87529 3.98801 0 0 0 57 71 86 255
-0.812545 0.877605 3.98561 0 0 0 61 67 88 255
1.88398 1.43421 6.96557 0 0 0 147 145 139 255
1.3219 1.39259 6.58351 0 0 0 133 131 125 255
1.23884 1.37401 6.43647 0 0 0 142 141 133 255
0.906043 1.17884 4.64591 0 0 0 95 89 43 255
2.40302 1.04882 3.72073 0 0 0 99 97 98 255
2.42475 1.04596 3.69603 0 0 0 107 115 115 255
2.16811 1.06885 3.74315 0 0 0 125 133 133 255
2.07773 1.08708 3.78559 0 0 0 90 93 94 255
2.21147 1.0888 3.71672 0 0 0 73 75 74 255
2.31159 1.08691 3.71259 0 0 0 87 89 90 255
2.3419 1.08808 3.71077 0 0 0 87 93 93 255
2.21062 1.16672 3.68026 0 0 0 99 102 104 255
2.22956 1.24149 3.67382 0 0 0 109 118 116 255
2.39415 1.23796 3.6635 0 0 0 100 98 98 255
-0.414164 1.39759 4.17908 0 0 0 113 120 126 255
-0.669606 1.36867 3.82993 0 0 0 70 107 143 255
2.15163 1.36981 3.70592 0 0 0 117 120 119 255
2.18879 1.38099 3.67746 0 0 0 119 121 125 255
2.2186 1.39576 3.66477 0 0 0 100 102 104 255
2.50121 -0.00159332 3.96819 0 0 0 138 145 145 255
2.37948 0.31378 3.70261 0 0 0 106 86 56 255
0.609845 0.37408 4.59011 0 0 0 90 60 64 255
-0.72119 0.392639 4.04016 0 0 0 119 120 112 255
-0.509631 0.487219 4.08649 0 0 0 19 83 128 255
2.51446 0.493672 3.71724 0 0 0 68 49 45 255
2.64431 0.902949 3.90037 0 0 0 90 99 99 255
-0.653602 0.937356 4.0018 0 0 0 159 159 164 255
2.39585 1.0356 3.68108 0 0 0 81 82 82 255
-0.686943 1.36262 3.8281 0 0 0 80 126 160 255
-0.508815 1.41788 4.13236 0 0 0 64 114 148 255
2.11477 -0.201217 3.97892 0 0 0 109 98 94 255
2.10851 -0.0122599 3.98921 0 0 0 149 149 147 255
0.678581 0.241952 4.57243 0 0 0 96 99 99 255
2.38225 0.260876 3.7127 0 0 0 155 118 75 255
-0.708512 0.296039 4.04314 0 0 0 143 131 87 255
2.39186 0.31914 3.70037 0 0 0 64 43 28 255
0.885931 0.394269 4.60578 0 0 0 153 144 145 255
1.02758 0.415291 4.69539 0 0 0 131 63 70 255
-0.720433 0.400802 4.03947 0 0 0 145 145 130 255
0.446223 0.424644 4.67622 0 0 0 140 139 139 255
2.3468 0.463933 3.67648 0 0 0 47 44 47 255
-0.468999 0.485355 4.11018 0 0 0 114 121 130 255
2.37251 0.544969 3.67719 0 0 0 41 40 45 255
-0.847839 0.738069 4.02845 0 0 0 93 101 111 255
2.3673 0.730479 3.69977 0 0 0 91 69 44 255
-0.683743 0.786503 4.07509 0 0 0 159 158 161 255
2.36431 0.750216 3.6964 0 0 0 97 71 33 255
-0.571186 0.910908 4.08462 0 0 0 161 161 163 255
0.859307 1.13884 4.62342 0 0 0 152 156 133 255
-0.3819 1.10727 4.21621 0 0 0 9 82 129 255
0.88947 1.17602 4.63528 0 0 0 125 121 72 255
-0.448919 1.3989 4.13137 0 0 0 155 159 162 255
2.45801 1.36819 3.65231 0 0 0 88 84 87 255
2.13 -0.143441 3.9751 0 0 0 68 46 46 255
2.4777 -0.0667678 3.9672 0 0 0 60 67 75 255
2.21107 0.0149968 3.91538 0 0 0 156 158 160 255
2.47449 0.0392298 4.00446 0 0 0 89 89 89 255
2.12946 0.0419845 3.96753 0 0 0 93 96 95 255
-0.357291 0.31784 4.20151 0 0 0 50 96 131 255
2.28915 0.432016 3.67792 0 0 0 141 142 141 255
2.42544 0.4534 3.68486 0 0 0 35 37 41 255
2.20897 0.484491 3.67595 0 0 0 61 36 28 255
0.79669 0.556216 4.59143 0 0 0 154 159 157 255
0.44136 0.601931 4.69497 0 0 0 86 114 109 255
2.39235 0.538063 3.67289 0 0 0 142 145 146 255
1.95897 0.592811 4.00321 0 0 0 59 59 62 255
2.24296 0.545862 3.6832 0 0 0 132 142 144 255
2.28626 0.555787 3.68173 0 0 0 35 36 40 255
-0.451846 0.647149 4.13379 0 0 0 158 159 161 255
-0.406175 0.666527 4.16876 0 0 0 25 59 107 255
-0.63096 0.661363 4.06459 0 0 0 158 158 162 255
-0.741186 0.674491 4.05944 0 0 0 36 50 91 255
-0.289121 0.765762 4.32585 0 0 0 128 132 139 255
-0.481434 0.895632 4.12222 0 0 0 159 161 160 255
-0.79339 0.97129 3.96498 0 0 0 151 150 152 255
-0.404976 1.08084 4.19512 0 0 0 1 98 145 255
-0.589304 1.09801 4.00405 0 0 0 131 148 162 255
-0.524094 1.12161 3.99909 0 0 0 0 106 149 255
-0.332258 1.16501 4.2587 0 0 0 133 134 139 255
2.40715 -0.221378 3.85766 0 0 0 144 144 144 255
2.21589 0.0210276 3.91731 0 0 0 162 162 162 255
1.09344 0.105658 4.93813 0 0 0 50 93 69 255
1.03334 0.310835 4.70205 0 0 0 143 145 133 255
-0.870974 0.397029 4.11125 0 0 0 151 135 77 255
-0.731546 0.384455 4.03984 0 0 0 129 131 116 255
2.23173 0.491014 3.68359 0 0 0 35 37 41 255
0.780207 0.594061 4.59223 0 0 0 157 162 160 255
1.98534 0.529488 3.9403 0 0 0 127 133 136 255
2.39031 0.541213 3.6718 0 0 0 122 130 132 255
-0.609966 0.634346 4.07267 0 0 0 159 160 161 255
-0.40447 0.639998 4.16176 0 0 0 25 59 105 255
0.772192 0.685504 4.60466 0 0 0 67 110 68 255
-0.308074 0.750454 4.30669 0 0 0 153 156 155 255
0.786326 0.82069 4.60366 0 0 0 158 163 161 255
-0.421368 0.833268 4.16795 0 0 0 158 160 162 255
-0.625399 0.89656 4.07623 0 0 0 100 113 139 255
-0.449786 0.996112 4.13831 0 0 0 134 150 165 255
-0.366062 1.13736 4.22904 0 0 0 128 140 152 255
-0.534739 1.14421 4.10643 0 0 0 1 98 146 255
-0.346667 1.24673 4.22982 0 0 0 155 139 84 255
-0.302306 1.47204 4.65155 0 0 0 87 119 151 255
-0.448838 1.41794 4.07042 0 0 0 36 80 123 255
2.14469 -0.0570836 3.96122 0 0 0 33 41 36 255
1.07408 0.112965 4.90283 0 0 0 48 91 67 255
-0.358522 0.400894 4.19986 0 0 0 97 69 102 255
1.94754 0.475386 3.99065 0 0 0 90 90 87 255
2.13341 0.539216 3.7189 0 0 0 134 142 146 255
-0.395546 0.641403 4.16529 0 0 0 24 59 106 255
-0.697458 0.693969 4.05679 0 0 0 25 58 111 255
0.803379 0.77746 4.6063 0 0 0 77 116 99 255
1.0737 1.3946 5.08891 0 0 0 66 105 77 255
2.2191 -0.209992 3.8892 0 0 0 119 120 121 255
2.10466 -0.186457 3.97201 0 0 0 110 105 104 255
2.10646 -0.130505 3.97271 0 0 0 136 136 133 255
2.10438 -0.108733 3.96593 0 0 0 143 141 139 255
2.1224 -0.0767296 3.96161 0 0 0 72 73 74 255
2.3616 -0.0535933 3.86642 0 0 0 79 83 86 255
0.376393 0.150289 4.80517 0 0 0 28 59 44 255
2.36059 0.24984 3.71198 0 0 0 88 83 82 255
2.28732 0.253905 3.70342 0 0 0 57 56 59 255
2.20531 0.27051 3.72125 0 0 0 62 49 47 255
2.32569 0.277297 3.70543 0 0 0 69 58 57 255
2.32861 0.277629 3.70513 0 0 0 69 58 57 255
-0.457035 0.27824 4.10767 0 0 0 73 55 38 255
-0.44432 0.304824 4.11919 0 0 0 97 82 94 255
-0.76118 0.300143 4.04598 0 0 0 131 109 116 255
-0.458071 0.328296 4.11161 0 0 0 63 100 144 255
-0.4655 0.372282 4.11022 0 0 0 137 137 146 255
-0.493641 0.468684 4.09504 0 0 0 128 145 164 255
-0.70167 0.46412 4.04228 0 0 0 120 127 124 255
1.03692 0.51223 4.72899 0 0 0 122 136 112 255
-0.369541 0.506426 4.19663 0 0 0 73 114 148 255
-0.348664 0.522556 4.22032 0 0 0 32 82 125 255
1.09892 0.709829 4.78152 0 0 0 111 118 117 255
0.462412 0.942683 4.71763 0 0 0 101 113 109 255
1.16393 1.25073 5.43734 0 0 0 140 139 133 255
2.41147 1.07326 3.74314 0 0 0 125 129 128 255
-1.04187 1.23515 4.40427 0 0 0 54 99 133 255
-0.959755 1.25663 4.37501 0 0 0 27 84 124 255
-0.841252 1.25168 4.25779 0 0 0 115 96 111 255
-0.994972 1.28341 4.36516 0 0 0 106 105 114 255
2.16298 1.1813 3.77573 0 0 0 99 100 102 255
2.38883 1.18386 3.7568 0 0 0 106 105 109 255
2.37915 1.22692 3.76655 0 0 0 103 103 103 255
2.28355 1.26567 3.75137 0 0 0 103 107 110 255
-1.14102 1.49313 4.58592 0 0 0 59 110 152 255
-0.367555 1.40986 4.21726 0 0 0 160 157 163 255
-1.20887 1.5862 4.68752 0 0 0 98 112 134 255
2.23373 1.40196 3.76227 0 0 0 113 113 115 255
-0.44401 0.278472 4.11697 0 0 0 140 103 88 255
-0.464133 0.370976 4.11118 0 0 0 119 135 153 255
0.666896 0.403149 4.57925 0 0 0 124 46 49 255
-0.40727 0.486865 4.15625 0 0 0 98 119 145 255
1.10731 0.594145 4.81026 0 0 0 139 146 146 255
-0.471474 0.662818 4.06511 0 0 0 100 107 129 255
-0.724578 0.884109 4.06944 0 0 0 32 62 104 255
-0.791194 1.21049 4.21932 0 0 0 134 145 147 255
-0.964772 1.25711 4.37274 0 0 0 33 90 128 255
2.38765 1.41876 3.78829 0 0 0 95 95 99 255
2.45526 -0.218893 3.95976 0 0 0 74 74 76 255
2.35623 0.285858 3.70692 0 0 0 149 124 96 255
2.3885 0.301125 3.70569 0 0 0 133 97 66 255
2.422 0.4207 3.69737 0 0 0 61 34 20 255
-0.648326 0.411001 4.04656 0 0 0 23 91 75 255
-0.29371 0.417121 4.31624 0 0 0 67 117 147 255
2.14992 0.509929 3.71553 0 0 0 136 140 137 255
-0.352836 0.494795 4.21618 0 0 0 125 137 153 255
0.780569 0.55355 4.5884 0 0 0 155 159 160 255
-0.49778 0.749774 4.10699 0 0 0 158 159 160 255
-0.373804 0.784401 4.19886 0 0 0 62 75 103 255
-0.814358 1.2271 4.23297 0 0 0 139 138 140 255
-0.802294 1.21429 4.22812 0 0 0 137 144 146 255
2.40005 1.41676 3.80012 0 0 0 98 92 97 255
2.14584 -0.205128 3.95789 0 0 0 47 44 45 255
2.26787 -0.206971 3.85924 0 0 0 42 40 39 255
2.13951 -0.213497 3.97022 0 0 0 56 55 55 255
2.13726 -0.112563 3.96069 0 0 0 39 41 40 255
2.28708 0.284284 3.69832 0 0 0 158 127 80 255
2.40919 0.390018 3.69136 0 0 0 119 136 144 255
2.33086 0.428472 3.67739 0 0 0 56 43 41 255
2.37169 0.442475 3.67742 0 0 0 134 144 147 255
-0.639563 0.41999 4.04829 0 0 0 37 102 91 255
-0.573604 0.440727 4.06656 0 0 0 114 141 165 255
2.41201 0.481796 3.68221 0 0 0 36 40 43 255
1.9688 0.511765 3.90729 0 0 0 109 111 110 255
0.831452 0.567405 4.60352 0 0 0 157 162 160 255
1.08613 0.600015 4.7672 0 0 0 144 149 147 255
-0.532722 0.763097 4.09419 0 0 0 97 117 135 255
0.951324 1.09192 4.66606 0 0 0 29 80 119 255
0.535223 1.23526 4.67433 0 0 0 149 152 151 255
-0.382135 1.42422 4.29882 0 0 0 28 78 122 255
2.39759 1.42301 3.80001 0 0 0 95 95 104 255
2.44031 -0.22071 3.95132 0 0 0 60 61 61 255
-0.304085 0.133335 4.52873 0 0 0 25 66 103 255
0.381215 0.0992189 4.79048 0 0 0 61 83 76 255
2.25581 0.290503 3.7099 0 0 0 140 105 63 255
1.02715 0.281952 4.70025 0 0 0 113 129 108 255
2.1176 0.413557 3.72808 0 0 0 45 49 59 255
-0.418043 0.412492 4.14647 0 0 0 129 141 148 255
-0.326409 0.416845 4.23924 0 0 0 149 130 136 255
-0.341252 0.475302 4.22772 0 0 0 147 151 157 255
2.21839 0.555023 3.68838 0 0 0 139 142 142 255
-0.299474 0.742898 4.3241 0 0 0 152 152 152 255
-0.438009 0.877549 4.14367 0 0 0 157 160 159 255
-0.347049 1.17104 4.25195 0 0 0 144 142 144 255
-0.309404 1.44817 4.61845 0 0 0 32 76 114 255
2.41154 -0.191453 3.86192 0 0 0 88 44 45 255
2.41738 -0.119741 3.87026 0 0 0 34 33 35 255
2.3982 -0.0392691 3.84068 0 0 0 35 37 41 255
2.30832 0.00226154 3.88778 0 0 0 128 130 129 255
2.33677 0.0886129 3.93099 0 0 0 186 188 190 255
1.08784 0.14657 4.84486 0 0 0 49 94 67 255
-0.346147 0.168137 4.52544 0 0 0 6 57 103 255
2.08085 0.445931 3.73983 0 0 0 134 137 137 255
1.94613 0.476175 3.88601 0 0 0 133 136 135 255
0.736152 0.687973 4.59016 0 0 0 62 108 73 255
-0.324583 0.70627 4.25003 0 0 0 153 155 157 255
0.805277 0.827027 4.60458 0 0 0 160 162 162 255
2.24576 0.737907 3.69096 0 0 0 54 44 38 255
2.27609 -0.161476 3.83857 0 0 0 140 105 100 255
2.49807 -0.0157409 3.98306 0 0 0 108 115 113 255
2.22803 0.0193235 3.91126 0 0 0 169 166 167 255
2.55264 0.130379 4.03318 0 0 0 89 93 94 255
-0.979414 0.131536 4.14314 0 0 0 47 61 76 255
-3.06548 0.162172 6.41836 0 0 0 49 45 43 255
0.555092 0.243682 4.59993 0 0 0 35 59 57 255
0.935891 0.256297 4.62225 0 0 0 54 87 82 255
2.4726 0.279874 3.73973 0 0 0 89 70 78 255
0.940199 0.333972 4.62828 0 0 0 143 146 143 255
2.36518 0.303952 3.70341 0 0 0 157 124 73 255
-0.909056 0.326704 4.08934 0 0 0 91 102 119 255
-0.461706 0.343456 4.11128 0 0 0 6 68 120 255
1.02951 0.376024 4.69568 0 0 0 107 47 57 255
-0.570519 0.383798 4.06845 0 0 0 45 80 108 255
2.55761 0.375319 3.76731 0 0 0 64 72 75 255
2.48998 0.385487 3.72582 0 0 0 119 128 132 255
2.51059 0.384569 3.73879 0 0 0 128 128 131 255
2.5151 0.428382 3.73687 0 0 0 118 118 118 255
2.54652 0.435827 3.75726 0 0 0 75 63 58 255
-0.977497 0.512212 4.18005 0 0 0 40 65 93 255
1.06389 0.58293 4.73783 0 0 0 111 147 136 255
2.52007 0.486385 3.73621 0 0 0 107 100 94 255
1.10292 0.606608 4.79251 0 0 0 113 113 113 255
1.07479 0.613739 4.74492 0 0 0 126 133 130 255
1.10108 0.65688 4.79248 0 0 0 110 117 115 255
2.457 0.536537 3.72172 0 0 0 87 97 105 255
1.07434 0.66788 4.75661 0 0 0 116 123 123 255
-0.944183 0.675909 4.13284 0 0 0 49 62 78 255
-0.889747 0.67971 4.12819 0 0 0 74 80 86 255
1.10598 0.755387 4.79833 0 0 0 139 146 145 255
-0.893382 0.72462 4.12974 0 0 0 124 128 129 255
0.866358 0.855364 4.62288 0 0 0 152 159 157 255
2.38405 0.766098 3.70171 0 0 0 107 81 51 255
-0.866173 0.94436 4.10721 0 0 0 42 53 93 255
-0.453879 0.951652 4.13762 0 0 0 77 97 137 255
-0.892904 1.01903 4.14545 0 0 0 56 62 84 255
-0.853786 1.00853 4.12226 0 0 0 147 149 152 255
-0.865703 1.00831 4.07642 0 0 0 138 139 146 255
-0.303525 1.09566 4.62924 0 0 0 65 108 139 255
1.2456 1.40568 6.6363 0 0 0 152 148 142 255
1.08863 1.4262 6.36591 0 0 0 141 142 140 255
1.04021 1.1724 4.74549 0 0 0 137 119 47 255
-0.301222 1.20237 4.63072 0 0 0 57 98 126 255
-0.629868 1.20212 4.08868 0 0 0 64 85 114 255
-0.732304 1.20589 3.96481 0 0 0 88 102 117 255
2.48009 1.04026 3.71029 0 0 0 92 91 91 255
2.52781 1.04376 3.74971 0 0 0 79 80 79 255
2.22625 1.06057 3.73282 0 0 0 76 82 80 255
2.30112 1.05455 3.71231 0 0 0 131 136 139 255
2.28902 1.06884 3.75671 0 0 0 92 94 94 255
2.43807 1.04622 3.70653 0 0 0 101 98 99 255
-0.681852 1.25611 3.93317 0 0 0 72 91 109 255
-0.734921 1.26731 3.94352 0 0 0 114 123 134 255
2.39874 1.085 3.72668 0 0 0 75 73 74 255
2.44034 1.08652 3.71898 0 0 0 76 76 76 255
2.44946 1.09036 3.7384 0 0 0 86 90 91 255
-0.62483 1.34699 3.86515 0 0 0 66 103 130 255
2.50263 -0.0155521 3.97703 0 0 0 139 146 144 255
-0.372737 0.331369 4.18879 0 0 0 72 111 144 255
1.05004 0.352175 4.71214 0 0 0 87 87 87 255
0.746731 0.357906 4.5748 0 0 0 89 49 51 255
0.906115 0.36995 4.61486 0 0 0 150 130 132 255
2.55342 0.38476 3.76177 0 0 0 121 133 134 255
2.43993 0.387603 3.70835 0 0 0 139 139 139 255
-0.519901 0.430052 4.08356 0 0 0 146 154 157 255
-0.638325 0.452131 4.04784 0 0 0 42 95 86 255
2.5199 0.423479 3.74428 0 0 0 90 64 61 255
2.15258 0.482468 3.71122 0 0 0 40 40 43 255
2.52274 0.49689 3.75332 0 0 0 104 75 62 255
-0.927637 0.574464 4.13304 0 0 0 17 53 94 255
2.44704 0.537777 3.71917 0 0 0 62 65 69 255
-0.942727 0.681316 4.12905 0 0 0 35 51 66 255
-0.89469 0.737138 4.12994 0 0 0 118 122 123 255
2.33886 0.759312 3.68547 0 0 0 99 76 48 255
-0.873446 1.04084 4.07318 0 0 0 34 55 89 255
1.10096 1.42399 6.38775 0 0 0 142 144 140 255
-0.731508 1.26042 3.9419 0 0 0 121 131 139 255
-0.679409 1.26011 3.93549 0 0 0 53 76 103 255
-0.62422 1.27556 3.94349 0 0 0 129 131 135 255
-0.64044 1.34624 3.86537 0 0 0 97 130 147 255
2.50187 -0.0152141 4.01344 0 0 0 139 146 144 255
2.4873 0.0438128 4.03004 0 0 0 88 88 92 255
2.07817 0.143525 3.91577 0 0 0 50 52 55 255
-0.965108 0.134216 4.13522 0 0 0 32 47 67 255
2.32491 0.263333 3.70689 0 0 0 147 112 61 255
2.47474 0.287772 3.74069 0 0 0 81 81 85 255
-0.961973 0.291659 4.12782 0 0 0 39 63 82 255
1.00023 0.364651 4.67756 0 0 0 113 74 78 255
-0.305987 0.355487 4.26746 0 0 0 71 112 142 255
-0.564213 0.367474 4.06823 0 0 0 84 125 160 255
2.43538 0.384544 3.70571 0 0 0 131 133 136 255
2.50066 0.389854 3.73159 0 0 0 135 139 140 255
2.13423 0.427358 3.71654 0 0 0 132 140 142 255
-0.968359 0.524556 4.16002 0 0 0 32 67 94 255
-0.361531 0.514223 4.21232 0 0 0 76 112 141 255
2.39942 0.45621 3.68122 0 0 0 105 81 65 255
2.52811 0.502557 3.75357 0 0 0 40 39 40 255
-0.809289 0.572981 4.08633 0 0 0 30 53 77 255
2.43563 0.554513 3.70747 0 0 0 142 144 146 255
2.41964 0.548337 3.69653 0 0 0 143 146 145 255
-0.949977 0.67034 4.13664 0 0 0 74 78 86 255
-0.420363 0.699359 4.16502 0 0 0 42 59 81 255
-0.495413 0.72048 4.11439 0 0 0 46 55 92 255
0.934793 0.785854 4.63569 0 0 0 153 160 158 255
-0.871471 0.917502 4.12035 0 0 0 31 52 90 255
2.34837 0.746686 3.68813 0 0 0 99 64 32 255
-0.867692 0.939832 4.11593 0 0 0 38 54 91 255
0.873061 1.0677 4.62623 0 0 0 33 95 134 255
1.11014 1.42398 6.36399 0 0 0 142 144 140 255
-0.594849 1.15572 4.11772 0 0 0 4 105 150 255
-0.777962 1.16207 4.00533 0 0 0 141 143 144 255
-0.630414 1.20349 4.08558 0 0 0 60 88 126 255
1.14088 1.39751 5.08882 0 0 0 77 108 91 255
-0.572259 1.26957 3.99236 0 0 0 50 73 95 255
-0.62443 1.27012 3.9437 0 0 0 127 126 132 255
2.28206 -0.206038 3.87011 0 0 0 43 43 43 255
2.3899 -0.205579 3.87469 0 0 0 44 44 44 255
2.13612 -0.19392 3.97395 0 0 0 81 54 55 255
2.48281 -0.0907698 3.92189 0 0 0 49 51 53 255
-1.00632 -0.149478 4.20144 0 0 0 159 161 162 255
2.48595 -0.0498063 4.02684 0 0 0 41 47 46 255
2.19586 0.0272969 3.91856 0 0 0 112 112 112 255
0.37983 0.117425 4.78351 0 0 0 38 68 51 255
-0.66982 0.27412 4.04241 0 0 0 76 71 70 255
0.776588 0.355187 4.57529 0 0 0 150 142 143 255
-0.855799 0.38105 4.094 0 0 0 137 140 135 255
-0.340512 0.38122 4.22408 0 0 0 116 85 104 255
0.882975 0.412868 4.60507 0 0 0 191 119 128 255
2.19217 0.424579 3.69783 0 0 0 138 140 142 255
2.28417 0.404097 3.67595 0 0 0 140 147 149 255
-0.899008 0.472032 4.14575 0 0 0 156 145 106 255
2.50211 0.434606 3.72648 0 0 0 133 140 142 255
2.41839 0.437522 3.68822 0 0 0 38 39 39 255
2.20611 0.513112 3.69148 0 0 0 94 66 58 255
2.41784 0.497104 3.68942 0 0 0 36 40 43 255
0.547987 0.627008 4.63634 0 0 0 149 153 152 255
2.28508 0.538278 3.681 0 0 0 35 37 41 255
2.41457 0.548567 3.69392 0 0 0 143 146 145 255
2.48673 0.55072 3.73009 0 0 0 98 114 123 255
-0.463543 0.88394 4.12776 0 0 0 158 161 160 255
2.40765 0.777753 3.70098 0 0 0 90 85 75 255
-0.82974 0.980549 4.10832 0 0 0 152 154 155 255
-0.871965 1.05048 4.08325 0 0 0 26 57 96 255
-0.84331 1.13459 4.05165 0 0 0 32 79 116 255
1.06 1.19711 4.76981 0 0 0 157 137 70 255
2.48134 1.06864 3.74864 0 0 0 91 91 92 255
-0.622523 1.27126 3.94451 0 0 0 127 126 132 255
-0.571659 1.27731 3.99594 0 0 0 28 74 114 255
-0.29136 1.42893 4.65949 0 0 0 52 86 118 255
0.85639 1.38381 4.64255 0 0 0 56 98 75 255
2.14947 0.0356746 3.95325 0 0 0 88 89 89 255
2.34634 0.112865 3.84476 0 0 0 252 250 252 255
-0.957161 0.103354 4.19346 0 0 0 147 149 148 255
