ply
format ascii 1.0
comment VCGLIB generated
element vertex 1030
property float x
property float y
property float z
property float nx
property float ny
property float nz
property uchar red
property uchar green
property uchar blue
property uchar alpha
element face 0
property list uchar int vertex_indices
end_header
0.864439 1.18278 4.62837 0 0 0 102 96 67 255
0.444235 1.26235 4.73964 0 0 0 129 136 135 255
0.573855 1.27059 4.66309 0 0 0 143 146 145 255
0.640577 1.25658 4.62192 0 0 0 91 116 85 255
0.331858 1.40364 4.99489 0 0 0 75 92 82 255
0.918958 1.35669 4.65823 0 0 0 154 161 159 255
0.333371 0.090907 4.87261 0 0 0 72 99 83 255
1.11529 0.0950178 4.94203 0 0 0 66 101 78 255
0.537686 0.384304 4.61182 0 0 0 164 152 156 255
0.782896 0.374651 4.57389 0 0 0 164 167 166 255
0.836109 0.389532 4.58909 0 0 0 108 74 74 255
1.06671 0.550508 4.73832 0 0 0 65 104 75 255
0.814632 0.57578 4.60503 0 0 0 162 169 169 255
0.924546 0.571191 4.62511 0 0 0 157 167 164 255
0.681975 0.583517 4.58527 0 0 0 154 170 167 255
0.795411 0.579113 4.59389 0 0 0 165 169 168 255
0.554936 0.666187 4.63403 0 0 0 158 163 161 255
-0.315695 0.654722 4.3001 0 0 0 160 162 163 255
0.936491 0.801343 4.63194 0 0 0 160 167 167 255
0.822024 0.82841 4.61568 0 0 0 170 173 172 255
0.74941 0.839574 4.59865 0 0 0 157 174 172 255
0.580857 0.894601 4.64014 0 0 0 160 166 164 255
1.75875 1.46205 6.69615 0 0 0 103 102 100 255
0.443066 1.15862 4.75224 0 0 0 124 135 133 255
0.716375 1.14371 4.61108 0 0 0 140 155 150 255
0.408605 1.23548 4.77722 0 0 0 123 143 132 255
0.716086 1.26679 4.62173 0 0 0 145 150 148 255
0.34019 1.39228 4.99644 0 0 0 79 94 81 255
1.11666 0.0902668 4.93454 0 0 0 64 101 80 255
-0.344196 0.144935 4.5636 0 0 0 17 69 115 255
0.514199 0.245001 4.63338 0 0 0 142 139 140 255
0.782488 0.249581 4.56962 0 0 0 150 155 154 255
0.907524 0.246536 4.61 0 0 0 139 150 151 255
0.641425 0.366184 4.58457 0 0 0 156 160 153 255
1.0723 0.537036 4.75459 0 0 0 82 110 73 255
0.451725 0.615988 4.67884 0 0 0 141 153 156 255
0.556802 0.643704 4.63443 0 0 0 157 163 162 255
0.769337 0.832157 4.59967 0 0 0 168 173 172 255
0.475765 0.885156 4.69247 0 0 0 142 154 154 255
2.10862 1.38253 6.43098 0 0 0 133 130 122 255
0.94046 1.05675 4.6636 0 0 0 42 93 122 255
0.936588 1.10757 4.66121 0 0 0 47 83 104 255
0.882006 1.16138 4.63408 0 0 0 169 149 74 255
0.420291 1.24145 4.7607 0 0 0 135 141 141 255
0.357992 0.128236 4.87399 0 0 0 59 95 67 255
1.02087 0.112765 4.65174 0 0 0 57 102 74 255
-0.349926 0.130783 4.54947 0 0 0 19 70 118 255
-0.318896 0.583355 4.26876 0 0 0 27 81 121 255
0.466373 1.16356 4.71392 0 0 0 134 142 142 255
2.31955 -0.220802 3.90821 0 0 0 55 55 55 255
2.35757 -0.219068 3.9022 0 0 0 66 57 63 255
2.33696 -0.210199 3.90693 0 0 0 153 157 163 255
2.24592 -0.165953 3.84186 0 0 0 138 84 84 255
2.3776 -0.168185 3.8404 0 0 0 127 62 57 255
2.33134 -0.144816 3.85705 0 0 0 167 64 83 255
2.09943 -0.149161 3.98251 0 0 0 147 143 140 255
2.34119 -0.111593 3.93158 0 0 0 95 96 98 255
2.35557 -0.113196 3.91255 0 0 0 100 98 100 255
2.3239 -0.0786006 3.91297 0 0 0 55 55 62 255
2.13687 -0.0747972 3.96631 0 0 0 70 71 78 255
2.50542 -0.0491916 3.99804 0 0 0 39 44 42 255
2.34356 0.00823151 3.92644 0 0 0 200 205 207 255
2.34904 0.0718733 3.93516 0 0 0 250 252 254 255
2.36013 0.115277 3.91924 0 0 0 253 251 252 255
2.05807 0.1323 3.99238 0 0 0 123 121 117 255
2.54929 0.134738 3.96657 0 0 0 54 53 58 255
-1.0507 0.194431 4.31359 0 0 0 68 78 91 255
2.30998 0.253304 3.70472 0 0 0 122 112 94 255
-0.493782 0.255791 4.09595 0 0 0 20 46 86 255
-0.476178 0.255971 4.10389 0 0 0 99 103 125 255
2.22498 0.257768 3.71693 0 0 0 139 109 74 255
2.26715 0.258931 3.70579 0 0 0 114 99 81 255
2.40945 0.254523 3.71359 0 0 0 91 78 70 255
-0.649434 0.264991 4.0464 0 0 0 123 104 95 255
-0.625098 0.263339 4.05242 0 0 0 129 107 101 255
-0.508893 0.260243 4.0833 0 0 0 125 105 96 255
-0.442488 0.26181 4.11531 0 0 0 83 87 115 255
0.494201 0.250718 4.64108 0 0 0 100 111 110 255
-0.856929 0.263057 4.07652 0 0 0 100 102 114 255
-0.795363 0.267843 4.05176 0 0 0 97 97 97 255
-0.769247 0.260813 4.05062 0 0 0 89 75 84 255
-0.727222 0.26657 4.04833 0 0 0 106 100 99 255
-0.690558 0.266965 4.04503 0 0 0 140 126 102 255
-0.561156 0.266127 4.06559 0 0 0 110 103 101 255
0.885139 0.260117 4.60187 0 0 0 62 76 74 255
2.38639 0.272547 3.70804 0 0 0 100 56 21 255
-0.827457 0.271203 4.05788 0 0 0 120 118 85 255
-0.546041 0.275945 4.07019 0 0 0 134 110 79 255
-0.871176 0.280232 4.08719 0 0 0 126 125 102 255
-0.795694 0.279732 4.052 0 0 0 128 122 98 255
-0.607899 0.279908 4.05283 0 0 0 122 102 59 255
2.23347 0.284035 3.70762 0 0 0 106 68 33 255
2.27167 0.282252 3.69742 0 0 0 160 122 66 255
2.31281 0.281056 3.69994 0 0 0 87 49 40 255
2.38404 0.280976 3.70704 0 0 0 91 51 24 255
-0.776593 0.290123 4.05029 0 0 0 36 44 62 255
-0.491467 0.289264 4.0971 0 0 0 77 63 50 255
0.718802 0.285554 4.56765 0 0 0 76 95 91 255
-0.852282 0.288919 4.06807 0 0 0 78 76 46 255
-0.81301 0.29483 4.05526 0 0 0 38 39 53 255
-0.682975 0.296307 4.04519 0 0 0 38 39 43 255
-0.642489 0.29546 4.04772 0 0 0 89 71 48 255
-0.606822 0.295225 4.053 0 0 0 59 57 62 255
-0.575726 0.298363 4.05926 0 0 0 23 46 93 255
-0.546973 0.288122 4.0698 0 0 0 65 47 33 255
-0.50953 0.295423 4.08312 0 0 0 140 115 87 255
2.40216 0.296909 3.70066 0 0 0 91 74 60 255
-0.48631 0.305895 4.09949 0 0 0 98 76 83 255
2.20704 0.302877 3.70293 0 0 0 108 89 64 255
2.25861 0.307465 3.69597 0 0 0 153 118 70 255
2.27979 0.308355 3.68868 0 0 0 135 96 61 255
2.30465 0.304439 3.69643 0 0 0 165 133 81 255
-0.846127 0.30957 4.06381 0 0 0 86 93 132 255
-0.781418 0.315312 4.05113 0 0 0 87 84 115 255
-0.729831 0.315213 4.04977 0 0 0 83 94 128 255
-0.654438 0.315397 4.04469 0 0 0 128 111 86 255
-0.623306 0.312821 4.05174 0 0 0 145 116 97 255
-0.542189 0.312119 4.07303 0 0 0 113 106 101 255
-1.01922 0.32886 4.24746 0 0 0 81 104 136 255
0.613376 0.329987 4.58546 0 0 0 138 142 131 255
0.761014 0.322006 4.57268 0 0 0 141 155 125 255
1.9913 0.337629 3.96744 0 0 0 70 75 76 255
0.583444 0.354576 4.60121 0 0 0 178 129 137 255
0.601234 0.352299 4.59463 0 0 0 121 77 78 255
-0.491639 0.353833 4.09891 0 0 0 54 109 155 255
-0.389496 0.35227 4.17539 0 0 0 14 87 133 255
0.819663 0.360113 4.5868 0 0 0 164 123 128 255
1.03005 0.362725 4.69137 0 0 0 172 130 136 255
1.09932 0.361646 4.75978 0 0 0 91 101 86 255
-0.903025 0.357314 4.10394 0 0 0 35 72 108 255
-0.754973 0.355581 4.04614 0 0 0 22 78 129 255
-0.635292 0.359007 4.05048 0 0 0 122 132 142 255
-0.606771 0.358539 4.05685 0 0 0 9 73 123 255
-0.58657 0.360961 4.06668 0 0 0 96 119 159 255
1.94691 0.361149 3.97164 0 0 0 86 81 79 255
-0.880593 0.362682 4.09431 0 0 0 76 99 128 255
-0.518863 0.363885 4.08924 0 0 0 7 73 123 255
-0.336954 0.367731 4.22983 0 0 0 101 88 100 255
1.0513 0.377314 4.70539 0 0 0 151 125 132 255
-0.490511 0.381229 4.10205 0 0 0 55 87 113 255
0.873937 0.382324 4.60159 0 0 0 157 138 142 255
1.95768 0.375277 3.96463 0 0 0 117 119 118 255
-0.557081 0.383718 4.07346 0 0 0 26 81 117 255
-0.532833 0.386648 4.08323 0 0 0 140 150 161 255
-0.41083 0.385232 4.15367 0 0 0 73 89 111 255
1.98676 0.376833 3.94413 0 0 0 112 117 117 255
-0.637418 0.382111 4.05048 0 0 0 68 97 95 255
-0.480278 0.387143 4.10767 0 0 0 25 65 100 255
-0.437639 0.395709 4.13024 0 0 0 36 61 105 255
-0.366139 0.389937 4.1938 0 0 0 78 80 99 255
2.44954 0.382311 3.70464 0 0 0 103 102 105 255
2.49493 0.386874 3.72135 0 0 0 123 130 133 255
2.56887 0.379071 3.79212 0 0 0 79 84 88 255
-0.502363 0.39248 4.09501 0 0 0 33 72 114 255
0.532901 0.400888 4.61298 0 0 0 121 111 114 255
2.06624 0.385935 3.75807 0 0 0 103 107 108 255
2.17277 0.39161 3.69723 0 0 0 132 134 137 255
2.19108 0.38854 3.69212 0 0 0 81 81 81 255
2.27494 0.38554 3.67478 0 0 0 81 83 84 255
2.28935 0.382085 3.67217 0 0 0 88 87 89 255
2.30106 0.389069 3.6697 0 0 0 137 136 137 255
-0.476541 0.405375 4.10968 0 0 0 121 134 152 255
-0.46688 0.407554 4.11211 0 0 0 139 150 165 255
1.05507 0.411688 4.71453 0 0 0 126 90 88 255
1.97295 0.389733 3.95166 0 0 0 73 68 66 255
2.45612 0.3982 3.71183 0 0 0 138 141 140 255
-0.594662 0.410105 4.06332 0 0 0 25 93 124 255
-0.573205 0.40997 4.06763 0 0 0 147 155 163 255
-0.397005 0.411781 4.16479 0 0 0 141 145 164 255
-0.547002 0.423215 4.07228 0 0 0 42 84 121 255
-0.50999 0.415257 4.09 0 0 0 153 158 160 255
-0.47606 0.421511 4.10981 0 0 0 152 153 157 255
-0.43853 0.421078 4.13558 0 0 0 149 150 154 255
2.10138 0.412322 3.73524 0 0 0 60 39 39 255
2.43517 0.409933 3.70243 0 0 0 61 44 39 255
-0.53551 0.424661 4.07839 0 0 0 81 103 123 255
-0.455233 0.427175 4.12278 0 0 0 63 79 103 255
-0.356594 0.432157 4.20555 0 0 0 103 96 115 255
2.52182 0.411589 3.72519 0 0 0 76 66 67 255
-0.593595 0.429837 4.06412 0 0 0 19 93 125 255
-0.38536 0.438242 4.16915 0 0 0 79 87 98 255
-0.536144 0.438761 4.07989 0 0 0 11 83 127 255
-0.500374 0.439015 4.09526 0 0 0 30 76 115 255
-0.555838 0.445057 4.07052 0 0 0 116 163 192 255
-0.465976 0.44345 4.11331 0 0 0 39 62 90 255
-0.441876 0.447645 4.13154 0 0 0 17 60 109 255
-0.397624 0.446442 4.16393 0 0 0 57 71 108 255
-0.336922 0.451527 4.23293 0 0 0 120 89 112 255
-0.710289 0.450878 4.0437 0 0 0 142 149 136 255
-0.669599 0.450826 4.04979 0 0 0 140 149 148 255
-0.543376 0.461208 4.07743 0 0 0 25 89 126 255
-0.474757 0.459516 4.10923 0 0 0 22 70 125 255
2.10313 0.450548 3.73105 0 0 0 58 39 39 255
-0.668312 0.467426 4.04932 0 0 0 80 95 94 255
-0.626584 0.468176 4.05315 0 0 0 58 94 92 255
-0.578122 0.467701 4.06771 0 0 0 81 103 120 255
-0.42412 0.476817 4.14713 0 0 0 45 84 117 255
2.14044 0.465468 3.71095 0 0 0 91 65 52 255
-1.03643 0.493294 4.29471 0 0 0 110 92 99 255
-0.64924 0.480711 4.04994 0 0 0 84 120 108 255
-0.387346 0.490136 4.17725 0 0 0 73 98 117 255
-0.32354 0.487644 4.26474 0 0 0 31 84 119 255
-0.99573 0.497641 4.25184 0 0 0 108 94 96 255
2.28114 0.471749 3.67168 0 0 0 80 62 54 255
-0.729464 0.494014 4.04749 0 0 0 87 106 123 255
1.96724 0.496789 3.95812 0 0 0 95 96 91 255
2.10324 0.485631 3.73555 0 0 0 67 46 41 255
-0.429318 0.503658 4.14925 0 0 0 60 108 147 255
2.51424 0.48036 3.72318 0 0 0 109 105 106 255
2.11999 0.494884 3.7246 0 0 0 37 43 44 255
2.27012 0.508006 3.67842 0 0 0 87 75 65 255
2.27404 0.506551 3.67755 0 0 0 74 55 41 255
2.29543 0.505439 3.67645 0 0 0 60 51 47 255
1.10642 0.576816 4.81422 0 0 0 106 143 126 255
1.95928 0.548351 3.98879 0 0 0 119 116 115 255
2.42509 0.529352 3.68722 0 0 0 64 53 57 255
-0.439241 0.561711 4.14127 0 0 0 145 149 167 255
2.20738 0.539896 3.68563 0 0 0 81 66 56 255
2.21566 0.531849 3.68394 0 0 0 50 37 39 255
-1.02791 0.572674 4.27393 0 0 0 107 113 138 255
-0.871891 0.561414 4.09981 0 0 0 104 117 151 255
-0.834055 0.564946 4.09824 0 0 0 141 145 147 255
2.45459 0.550951 3.70896 0 0 0 101 103 109 255
2.56005 0.544381 3.76875 0 0 0 131 138 138 255
-0.638907 0.569306 4.06477 0 0 0 138 140 171 255
1.95297 0.570984 4.03052 0 0 0 77 67 61 255
2.49873 0.550558 3.73187 0 0 0 129 138 140 255
2.17104 0.559248 3.6979 0 0 0 114 129 133 255
-0.901501 0.585391 4.11305 0 0 0 24 52 91 255
2.24093 0.557736 3.68079 0 0 0 139 136 137 255
2.32087 0.559719 3.67353 0 0 0 93 103 105 255
2.35662 0.55937 3.68312 0 0 0 140 141 143 255
-0.955757 0.592544 4.16835 0 0 0 33 58 91 255
1.04661 0.626133 4.7155 0 0 0 71 73 73 255
-0.493745 0.603863 4.08745 0 0 0 84 89 109 255
-0.575588 0.613605 4.09122 0 0 0 53 59 75 255
-0.985466 0.652991 4.19675 0 0 0 127 129 132 255
-0.365054 0.639247 4.20709 0 0 0 36 66 115 255
-0.484505 0.651285 4.07034 0 0 0 91 90 94 255
-0.575689 0.665999 4.08711 0 0 0 61 68 87 255
-0.873126 0.679958 4.10593 0 0 0 56 60 71 255
-0.334067 0.678157 4.23041 0 0 0 116 116 118 255
-0.952873 0.691997 4.16278 0 0 0 37 42 54 255
0.55073 0.714028 4.63306 0 0 0 85 123 102 255
-1.01254 0.685271 4.20676 0 0 0 88 95 105 255
-0.43471 0.689135 4.14771 0 0 0 151 158 159 255
1.07229 0.731133 4.75608 0 0 0 127 137 136 255
-0.74139 0.695525 4.06451 0 0 0 123 125 141 255
-0.402991 0.721765 4.18044 0 0 0 132 140 162 255
0.837257 0.746944 4.61289 0 0 0 65 109 78 255
-0.881545 0.717738 4.10975 0 0 0 122 125 129 255
-0.642596 0.717711 4.06899 0 0 0 136 142 163 255
-0.333473 0.732744 4.22972 0 0 0 113 116 127 255
-0.552723 0.748559 4.09184 0 0 0 141 150 171 255
-0.514669 0.745409 4.10389 0 0 0 152 152 158 255
2.25589 0.714814 3.68598 0 0 0 79 76 68 255
2.38139 0.719424 3.70264 0 0 0 86 76 66 255
-0.789848 0.762352 4.0654 0 0 0 78 82 95 255
-0.688754 0.765092 4.07433 0 0 0 131 136 162 255
-0.448871 0.772855 4.1451 0 0 0 70 74 90 255
-1.00698 0.783068 4.22185 0 0 0 130 137 137 255
-0.335026 0.788146 4.24315 0 0 0 60 71 94 255
-0.302218 0.819801 4.29648 0 0 0 97 106 117 255
-0.31979 0.818813 4.26957 0 0 0 127 132 153 255
2.2495 0.761905 3.68635 0 0 0 89 76 57 255
-0.828115 0.807822 4.08723 0 0 0 117 120 126 255
-0.609821 0.804869 4.07886 0 0 0 79 86 105 255
2.30366 0.765263 3.6865 0 0 0 98 74 53 255
-0.625716 0.80965 4.07749 0 0 0 53 63 89 255
-0.383293 0.823452 4.19921 0 0 0 56 73 95 255
-0.443412 0.829738 4.14134 0 0 0 90 89 97 255
-0.8107 0.836043 4.08479 0 0 0 74 80 99 255
-0.360212 0.84742 4.21731 0 0 0 155 157 160 255
0.549057 0.902932 4.6505 0 0 0 71 111 93 255
-0.377863 0.866302 4.20148 0 0 0 82 92 100 255
-0.39628 0.879587 4.18818 0 0 0 156 158 157 255
-0.607803 0.867618 4.07911 0 0 0 103 105 107 255
-0.62628 0.87853 4.07823 0 0 0 67 83 105 255
-0.959461 0.897508 4.17842 0 0 0 79 88 101 255
-0.361141 0.905715 4.20616 0 0 0 73 96 127 255
-0.715286 0.901915 4.07529 0 0 0 35 64 104 255
-0.51043 0.912227 4.10871 0 0 0 157 157 163 255
1.07813 1.00242 4.75371 0 0 0 121 139 124 255
-0.547745 0.925685 4.09652 0 0 0 155 159 160 255
-0.423891 0.928111 4.15232 0 0 0 73 92 125 255
-0.722566 0.931429 4.07444 0 0 0 159 160 161 255
-0.60314 0.938709 4.07731 0 0 0 125 125 125 255
-0.583537 0.937445 4.07855 0 0 0 148 150 152 255
-0.886601 0.95899 4.12914 0 0 0 35 51 92 255
-0.70786 0.950715 4.07643 0 0 0 81 91 108 255
-0.687291 0.964641 4.08019 0 0 0 153 149 159 255
-0.574497 0.9761 4.09031 0 0 0 75 92 137 255
-0.743778 0.976868 4.07358 0 0 0 157 157 157 255
-0.606688 0.986119 4.08025 0 0 0 68 89 127 255
-0.358453 1.01444 4.23122 0 0 0 118 140 158 255
1.17932 1.13994 5.0605 0 0 0 172 176 170 255
-0.8641 1.00251 4.0726 0 0 0 40 50 84 255
-0.697422 1.00708 4.08434 0 0 0 66 84 118 255
1.92946 1.37592 6.59203 0 0 0 144 141 136 255
-0.370447 1.03259 4.22288 0 0 0 52 101 130 255
-0.914493 1.02212 4.10767 0 0 0 135 131 139 255
-0.906407 1.02424 4.14093 0 0 0 145 149 150 255
1.20432 1.17621 5.07603 0 0 0 120 118 116 255
-0.992373 1.03957 4.2015 0 0 0 116 120 122 255
-0.496469 1.04214 4.12244 0 0 0 41 99 138 255
-0.498087 1.08431 4.12635 0 0 0 60 110 140 255
-0.367212 1.11288 4.22702 0 0 0 28 73 120 255
-0.334517 1.12144 4.25126 0 0 0 29 75 113 255
2.0712 1.04907 3.79228 0 0 0 107 110 109 255
2.12008 1.05131 3.76077 0 0 0 117 117 118 255
2.17022 1.05071 3.73965 0 0 0 90 86 85 255
2.10827 1.05723 3.77032 0 0 0 99 103 103 255
2.13864 1.05581 3.7629 0 0 0 97 94 95 255
2.21297 1.05204 3.72777 0 0 0 90 92 91 255
-0.393386 1.13936 4.20818 0 0 0 135 146 156 255
-0.318375 1.14876 4.28216 0 0 0 109 132 145 255
2.25347 1.05073 3.70901 0 0 0 80 81 80 255
2.31418 1.05572 3.70805 0 0 0 103 98 100 255
2.34353 1.05339 3.70951 0 0 0 96 94 96 255
2.21381 1.0688 3.72627 0 0 0 121 124 123 255
2.2122 1.06968 3.7289 0 0 0 121 124 123 255
2.22137 1.0834 3.72486 0 0 0 86 84 84 255
-0.327001 1.18018 4.26848 0 0 0 51 76 100 255
2.16582 1.08842 3.73462 0 0 0 84 89 89 255
2.25156 1.08192 3.70162 0 0 0 83 78 76 255
2.28481 1.07734 3.71344 0 0 0 89 81 83 255
2.36026 1.086 3.71389 0 0 0 78 78 79 255
2.48049 1.08378 3.73642 0 0 0 73 74 76 255
-0.616112 1.15583 4.09172 0 0 0 24 111 147 255
2.22133 1.08371 3.72613 0 0 0 98 105 102 255
2.40168 1.09105 3.7246 0 0 0 87 92 90 255
-0.863444 1.17532 4.12317 0 0 0 88 116 142 255
-0.632474 1.168 4.06279 0 0 0 148 149 158 255
2.13483 1.13452 3.76508 0 0 0 102 103 105 255
-0.625175 1.19288 4.07083 0 0 0 66 85 118 255
-0.735393 1.20969 4.09616 0 0 0 115 99 115 255
-0.837075 1.22409 4.12549 0 0 0 107 103 113 255
-0.689919 1.21184 4.07824 0 0 0 113 103 118 255
2.07832 1.17227 3.79787 0 0 0 103 105 104 255
2.2554 1.17707 3.71543 0 0 0 106 107 111 255
2.07217 1.20787 3.80377 0 0 0 115 113 112 255
-0.895713 1.36548 4.13747 0 0 0 69 106 141 255
-0.371639 1.3836 4.2194 0 0 0 140 152 167 255
-0.846667 1.36428 4.12086 0 0 0 65 104 137 255
-0.389604 1.39449 4.20385 0 0 0 93 102 120 255
-0.460496 1.38825 4.14691 0 0 0 93 128 163 255
-0.815698 1.39123 4.10708 0 0 0 22 83 123 255
-0.457128 1.41745 4.15429 0 0 0 157 159 160 255
-0.895278 1.41805 4.141 0 0 0 89 108 133 255
2.46126 1.4045 3.79337 0 0 0 84 82 84 255
2.25145 1.41287 3.79984 0 0 0 112 112 112 255
2.1707 1.43021 3.83099 0 0 0 100 100 100 255
2.31051 1.41643 3.77491 0 0 0 106 106 106 255
2.38519 1.63083 3.98878 0 0 0 191 193 199 255
2.39535 1.62889 3.98083 0 0 0 207 207 208 255
2.33269 -0.211036 3.90863 0 0 0 153 157 163 255
2.36521 -0.211221 3.90153 0 0 0 46 45 44 255
2.23443 -0.165632 3.8475 0 0 0 140 73 68 255
0.949254 -0.243578 4.70968 0 0 0 211 211 212 255
2.34458 0.0146918 3.92325 0 0 0 200 205 207 255
-1.0799 0.132177 4.3347 0 0 0 22 47 84 255
2.0476 0.137043 4.02022 0 0 0 135 135 134 255
2.21416 0.256337 3.72031 0 0 0 121 103 80 255
2.31397 0.24972 3.70532 0 0 0 80 75 76 255
2.4043 0.252992 3.71411 0 0 0 93 77 67 255
-0.72113 0.261677 4.04806 0 0 0 113 104 82 255
-0.855705 0.269779 4.07418 0 0 0 132 125 125 255
-0.561452 0.270163 4.06513 0 0 0 110 103 101 255
-0.480282 0.271873 4.10107 0 0 0 124 109 113 255
2.38354 0.280228 3.70677 0 0 0 91 51 24 255
2.30316 0.30576 3.69582 0 0 0 165 133 81 255
-0.558383 0.311669 4.06868 0 0 0 147 121 91 255
-0.911647 0.327138 4.08437 0 0 0 68 103 139 255
-0.894882 0.358629 4.08828 0 0 0 37 76 112 255
-0.640287 0.353931 4.04913 0 0 0 46 99 143 255
-0.431066 0.349127 4.14101 0 0 0 105 129 149 255
0.412345 0.368246 4.70568 0 0 0 111 87 83 255
0.798977 0.368378 4.57784 0 0 0 144 132 134 255
0.874863 0.375814 4.60247 0 0 0 136 117 121 255
-0.65309 0.388712 4.0493 0 0 0 29 88 75 255
-0.483356 0.3895 4.1048 0 0 0 30 73 108 255
-0.39013 0.39763 4.17162 0 0 0 152 156 156 255
1.9844 0.380304 3.94603 0 0 0 77 84 85 255
2.11977 0.389221 3.72039 0 0 0 89 89 90 255
2.49203 0.387836 3.72334 0 0 0 110 118 121 255
1.9332 0.408006 3.95856 0 0 0 125 120 116 255
-0.588972 0.430791 4.0651 0 0 0 19 93 125 255
2.10182 0.418843 3.73515 0 0 0 58 40 40 255
2.4215 0.409531 3.69657 0 0 0 83 63 45 255
-0.452977 0.440885 4.12473 0 0 0 16 60 108 255
1.97637 0.444278 3.92814 0 0 0 82 76 67 255
2.10297 0.43412 3.73205 0 0 0 58 42 39 255
2.45732 0.429915 3.70996 0 0 0 34 38 37 255
-0.609535 0.454712 4.05969 0 0 0 147 154 154 255
2.14106 0.466021 3.71057 0 0 0 91 65 52 255
-0.548128 0.490044 4.07487 0 0 0 104 120 136 255
-0.42417 0.505245 4.15457 0 0 0 78 121 156 255
1.94211 0.497588 4.00015 0 0 0 122 120 119 255
2.10417 0.499934 3.73629 0 0 0 55 39 39 255
1.08301 0.581235 4.76591 0 0 0 126 142 138 255
2.10135 0.527326 3.73639 0 0 0 50 42 47 255
2.21237 0.527519 3.68471 0 0 0 55 39 41 255
2.28093 0.519291 3.67817 0 0 0 46 36 38 255
2.42253 0.525974 3.70181 0 0 0 57 40 43 255
2.56642 0.542699 3.78543 0 0 0 104 112 118 255
1.94933 0.574783 4.03036 0 0 0 108 100 94 255
2.49088 0.547163 3.72717 0 0 0 123 130 131 255
2.36354 0.560294 3.67685 0 0 0 108 94 86 255
2.40434 0.549885 3.67697 0 0 0 140 142 143 255
2.42442 0.551182 3.69408 0 0 0 143 143 143 255
-1.01425 0.589017 4.24887 0 0 0 134 137 140 255
-0.923141 0.588082 4.13356 0 0 0 32 55 90 255
2.14719 0.554972 3.70577 0 0 0 107 90 75 255
-0.73559 0.611249 4.05629 0 0 0 155 156 156 255
-0.499661 0.603941 4.09042 0 0 0 88 94 113 255
-0.72878 0.645916 4.05981 0 0 0 154 156 158 255
-0.4368 0.685284 4.1447 0 0 0 151 158 159 255
-0.988451 0.707387 4.16651 0 0 0 133 131 130 255
-0.733494 0.714093 4.0653 0 0 0 156 159 161 255
-0.63939 0.707156 4.06769 0 0 0 137 143 162 255
-0.407639 0.72859 4.17955 0 0 0 155 160 168 255
-0.868454 0.723791 4.08069 0 0 0 109 111 116 255
-0.556971 0.760164 4.09083 0 0 0 158 162 163 255
2.25691 0.722522 3.68652 0 0 0 96 76 55 255
-0.89294 0.770869 4.12028 0 0 0 97 108 118 255
-0.691246 0.758328 4.07273 0 0 0 52 69 110 255
-0.460288 0.775455 4.13716 0 0 0 92 94 101 255
-0.332642 0.786287 4.24111 0 0 0 40 53 83 255
-0.319091 0.813561 4.2707 0 0 0 128 133 152 255
-0.625778 0.809674 4.07754 0 0 0 53 63 89 255
-0.454138 0.834016 4.13637 0 0 0 58 66 93 255
-0.41369 0.886595 4.17242 0 0 0 156 157 159 255
-0.44559 0.894429 4.1366 0 0 0 113 117 126 255
-0.955262 0.913001 4.17034 0 0 0 69 69 80 255
-0.505917 0.911127 4.11078 0 0 0 156 159 158 255
-0.564308 0.93012 4.09104 0 0 0 160 162 163 255
-0.73706 0.932538 4.07118 0 0 0 157 161 163 255
-0.883202 0.944547 4.12308 0 0 0 33 52 93 255
-0.675641 0.961621 4.08438 0 0 0 158 160 161 255
-0.712022 0.964761 4.07692 0 0 0 59 71 96 255
-0.74467 0.974393 4.07343 0 0 0 157 157 157 255
-0.478583 0.994374 4.13138 0 0 0 130 149 169 255
-0.849724 1.00972 4.11202 0 0 0 151 154 153 255
-0.935579 1.02918 4.17785 0 0 0 149 147 151 255
-0.501007 1.03583 4.12224 0 0 0 40 99 138 255
0.95498 1.11616 4.66913 0 0 0 29 77 115 255
0.509357 1.15164 4.69944 0 0 0 69 104 73 255
2.34895 1.06734 3.7138 0 0 0 87 86 87 255
0.800524 1.24696 4.61774 0 0 0 101 120 98 255
-0.625318 1.16181 4.04772 0 0 0 136 140 153 255
-0.867516 1.17011 4.12552 0 0 0 88 116 142 255
-0.726274 1.17505 4.11363 0 0 0 85 131 170 255
-0.78585 1.1915 4.09301 0 0 0 21 85 131 255
-0.828519 1.23751 4.10132 0 0 0 80 84 109 255
-0.904309 1.27197 4.13632 0 0 0 124 142 163 255
-0.630619 1.29143 4.07407 0 0 0 37 76 110 255
-0.857059 1.32244 4.12318 0 0 0 101 111 122 255
-0.720186 1.32082 4.09415 0 0 0 95 108 135 255
-0.845259 1.3657 4.1198 0 0 0 65 104 137 255
2.39948 1.41094 3.78612 0 0 0 98 94 97 255
2.30189 -0.21122 3.91452 0 0 0 45 43 44 255
2.37387 -0.20765 3.87233 0 0 0 45 45 45 255
2.45982 -0.199012 3.91966 0 0 0 47 52 53 255
0.944147 -0.242585 4.72178 0 0 0 211 211 212 255
2.09852 -0.0561386 3.97402 0 0 0 93 84 83 255
2.4747 -0.0448941 3.91593 0 0 0 35 39 39 255
2.34461 0.0105927 3.92561 0 0 0 200 205 207 255
2.47225 0.0365911 3.92814 0 0 0 84 85 92 255
2.35146 0.0900519 3.92976 0 0 0 248 250 254 255
2.35637 0.115553 3.92184 0 0 0 255 252 253 255
2.06672 0.135853 4.03694 0 0 0 63 63 62 255
2.53494 0.140355 3.94641 0 0 0 50 50 54 255
2.31131 0.259228 3.70324 0 0 0 161 144 114 255
-0.470513 0.2645 4.10667 0 0 0 148 121 89 255
2.21613 0.266609 3.71506 0 0 0 95 75 60 255
2.36237 0.261892 3.70521 0 0 0 125 88 55 255
-0.82467 0.281071 4.05707 0 0 0 139 126 66 255
-0.794581 0.275658 4.04961 0 0 0 75 73 68 255
-0.763014 0.272961 4.05025 0 0 0 114 95 99 255
-0.624461 0.273115 4.05244 0 0 0 133 111 101 255
-0.699808 0.283602 4.04593 0 0 0 113 107 101 255
2.2142 0.297633 3.70422 0 0 0 130 106 77 255
2.37599 0.298206 3.70164 0 0 0 138 101 62 255
-0.966991 0.334396 4.17453 0 0 0 95 110 126 255
0.58281 0.374187 4.60034 0 0 0 118 39 43 255
-0.610509 0.398639 4.05837 0 0 0 149 155 160 255
-0.530272 0.399093 4.08325 0 0 0 152 158 165 255
-0.390719 0.395905 4.17094 0 0 0 148 155 155 255
0.604501 0.400471 4.59216 0 0 0 156 147 148 255
1.98478 0.386097 3.9416 0 0 0 112 121 123 255
2.07269 0.397038 3.7515 0 0 0 127 133 134 255
2.12873 0.405983 3.7166 0 0 0 131 137 139 255
2.15364 0.394451 3.7045 0 0 0 40 39 44 255
2.18361 0.39529 3.69454 0 0 0 135 136 140 255
2.28844 0.394272 3.67308 0 0 0 138 147 149 255
2.41983 0.383417 3.69756 0 0 0 125 129 132 255
2.12998 0.413117 3.71651 0 0 0 123 136 140 255
2.42625 0.417125 3.6937 0 0 0 61 43 33 255
-0.59859 0.456243 4.06227 0 0 0 144 156 158 255
-0.983642 0.483463 4.22878 0 0 0 127 120 122 255
2.14729 0.467748 3.70818 0 0 0 61 40 29 255
-0.348386 0.539195 4.22149 0 0 0 32 80 117 255
2.10704 0.514077 3.73407 0 0 0 47 38 40 255
2.21655 0.520398 3.68451 0 0 0 52 36 38 255
2.42514 0.508225 3.69373 0 0 0 39 38 42 255
1.98165 0.550829 3.89201 0 0 0 130 133 131 255
2.28568 0.524986 3.67843 0 0 0 37 39 43 255
-0.924485 0.588181 4.13085 0 0 0 22 55 94 255
-0.852194 0.570216 4.09561 0 0 0 152 152 152 255
-0.633617 0.57342 4.06525 0 0 0 153 155 167 255
-0.453087 0.570099 4.13635 0 0 0 156 158 162 255
2.11981 0.550471 3.72377 0 0 0 137 139 139 255
2.14831 0.551762 3.7052 0 0 0 107 90 75 255
2.19192 0.556305 3.69092 0 0 0 137 141 142 255
2.23452 0.558777 3.682 0 0 0 142 141 144 255
2.33237 0.550488 3.6738 0 0 0 141 146 147 255
2.38022 0.55288 3.67372 0 0 0 45 41 45 255
2.42789 0.553149 3.69871 0 0 0 143 143 143 255
-0.802693 0.586129 4.08485 0 0 0 29 51 90 255
-0.735933 0.608302 4.05627 0 0 0 156 156 156 255
-0.575619 0.622108 4.11395 0 0 0 104 112 143 255
1.04124 0.646261 4.72209 0 0 0 40 80 74 255
-0.736577 0.620783 4.05691 0 0 0 156 159 158 255
-0.358061 0.654548 4.21446 0 0 0 146 151 161 255
-0.578208 0.667691 4.10634 0 0 0 61 68 87 255
-0.513484 0.661424 4.08461 0 0 0 59 65 84 255
-0.433719 0.669458 4.14577 0 0 0 153 157 159 255
-0.95346 0.686959 4.16268 0 0 0 28 44 82 255
-0.881996 0.675262 4.1199 0 0 0 56 60 71 255
-0.774994 0.674858 4.06218 0 0 0 34 53 94 255
-0.361012 0.678889 4.21133 0 0 0 146 152 161 255
-0.959661 0.700338 4.16381 0 0 0 24 46 91 255
-0.863754 0.704174 4.07769 0 0 0 111 118 126 255
-0.737927 0.708404 4.06524 0 0 0 153 157 160 255
-0.414866 0.731944 4.17679 0 0 0 154 159 171 255
-0.889501 0.759697 4.10819 0 0 0 107 117 124 255
2.27663 0.734772 3.68736 0 0 0 110 80 42 255
-0.677214 0.773677 4.07679 0 0 0 156 158 163 255
-1.00206 0.815222 4.22218 0 0 0 39 52 75 255
-0.384908 0.799268 4.19724 0 0 0 103 118 135 255
-0.290079 0.808004 4.32286 0 0 0 149 153 154 255
-0.620363 0.81221 4.07789 0 0 0 49 59 86 255
-0.335171 0.816171 4.24237 0 0 0 33 58 96 255
-0.808061 0.827093 4.07463 0 0 0 74 80 99 255
-0.616116 0.877543 4.07826 0 0 0 58 75 97 255
-0.41109 0.902845 4.17638 0 0 0 61 73 100 255
-0.742264 0.882443 4.06836 0 0 0 60 75 95 255
-0.495237 0.892639 4.11394 0 0 0 160 162 163 255
-0.876552 0.911442 4.11981 0 0 0 31 51 92 255
-0.565896 0.930538 4.09033 0 0 0 160 162 163 255
-0.863168 0.925258 4.09026 0 0 0 26 52 95 255
-0.664908 0.95053 4.0876 0 0 0 159 162 161 255
-0.615408 0.948331 4.07768 0 0 0 77 85 106 255
-0.80223 0.983106 4.09914 0 0 0 41 55 91 255
1.18608 1.12176 5.05918 0 0 0 168 174 170 255
-0.472218 0.99561 4.13323 0 0 0 137 155 172 255
-0.360379 1.01856 4.23023 0 0 0 122 144 164 255
-0.924794 1.01747 4.16493 0 0 0 148 150 151 255
1.18906 1.22389 5.07174 0 0 0 158 162 161 255
-0.620185 1.0761 4.0946 0 0 0 113 153 184 255
-0.387058 1.14188 4.21534 0 0 0 145 152 158 255
2.12652 1.06363 3.75361 0 0 0 95 95 94 255
2.28577 1.07123 3.71317 0 0 0 86 79 81 255
-0.672663 1.15419 4.07471 0 0 0 23 88 136 255
-0.63112 1.15245 4.07663 0 0 0 142 157 181 255
-0.58487 1.14332 4.07371 0 0 0 9 108 147 255
-0.87791 1.20624 4.15964 0 0 0 142 144 146 255
-0.784738 1.18171 4.10587 0 0 0 19 84 129 255
-0.632034 1.19886 4.08268 0 0 0 46 80 123 255
-0.329542 1.23314 4.25744 0 0 0 162 140 95 255
-0.912405 1.22174 4.14513 0 0 0 82 104 140 255
-0.896232 1.26983 4.12658 0 0 0 124 142 163 255
-0.855424 1.30342 4.10318 0 0 0 124 131 141 255
-0.794822 1.31261 4.09835 0 0 0 29 74 114 255
-0.701207 1.2953 4.08208 0 0 0 111 112 122 255
-0.372633 1.38864 4.21876 0 0 0 152 154 156 255
-0.892465 1.39396 4.16473 0 0 0 84 129 157 255
2.4102 1.41273 3.7808 0 0 0 93 90 94 255
2.39289 1.62949 3.9852 0 0 0 205 206 212 255
2.23989 -0.203235 3.82939 0 0 0 42 41 42 255
2.46412 -0.193439 3.94647 0 0 0 63 43 41 255
2.12376 -0.0508616 3.97044 0 0 0 47 49 51 255
2.47834 0.0499685 3.93236 0 0 0 83 86 92 255
-1.0681 0.134004 4.31102 0 0 0 22 47 84 255
-0.651862 0.273947 4.04612 0 0 0 129 110 99 255
2.28903 0.269279 3.69636 0 0 0 118 95 70 255
-0.362674 0.355596 4.20131 0 0 0 124 141 155 255
1.9616 0.338337 4.02661 0 0 0 59 58 59 255
-0.928871 0.353902 4.10034 0 0 0 96 99 113 255
-0.881295 0.332077 4.09534 0 0 0 8 56 107 255
0.76914 0.388095 4.5737 0 0 0 159 159 159 255
2.39631 0.397357 3.68506 0 0 0 122 130 137 255
-0.436392 0.421791 4.1375 0 0 0 149 150 154 255
2.07326 0.398002 3.75077 0 0 0 124 136 136 255
2.18373 0.413209 3.69534 0 0 0 132 143 146 255
2.28732 0.391102 3.67315 0 0 0 143 143 143 255
2.3426 0.437521 3.67012 0 0 0 40 41 47 255
-0.944541 0.469844 4.17479 0 0 0 145 109 78 255
2.26723 0.48977 3.67609 0 0 0 136 136 137 255
-0.457929 0.587737 4.13395 0 0 0 158 160 160 255
1.97694 0.597258 4.03466 0 0 0 45 46 47 255
-0.634026 0.572429 4.06501 0 0 0 153 155 167 255
-0.731998 0.627056 4.05756 0 0 0 156 159 159 255
-0.359717 0.649565 4.21307 0 0 0 113 126 151 255
-0.967574 0.693717 4.16686 0 0 0 22 44 84 255
-0.632169 0.688465 4.0693 0 0 0 154 158 160 255
-0.418186 0.682824 4.16717 0 0 0 32 60 105 255
-0.868558 0.722146 4.07629 0 0 0 122 125 129 255
0.788754 0.758039 4.60631 0 0 0 70 110 74 255
-0.742844 0.728322 4.06289 0 0 0 159 160 160 255
-0.410321 0.879852 4.1761 0 0 0 158 161 161 255
-0.877769 0.907438 4.11527 0 0 0 29 52 93 255
-0.764205 0.939707 4.07478 0 0 0 158 161 160 255
-0.985939 1.068 4.22199 0 0 0 23 53 95 255
-0.400424 1.10317 4.20363 0 0 0 3 94 141 255
-0.352275 1.14312 4.24357 0 0 0 146 150 155 255
-0.571298 1.14172 4.05843 0 0 0 4 108 151 255
-0.870636 1.19205 4.13767 0 0 0 141 143 145 255
-0.784769 1.18757 4.10605 0 0 0 20 85 131 255
-0.714001 1.17531 4.0769 0 0 0 126 144 160 255
-0.655515 1.1763 4.08415 0 0 0 33 87 135 255
-0.339362 1.25145 4.24935 0 0 0 164 148 92 255
0.364245 1.40215 4.92645 0 0 0 67 94 81 255
-0.89226 1.2781 4.15766 0 0 0 138 143 146 255
-0.769834 1.27475 4.10672 0 0 0 157 157 158 255
-0.350862 1.27828 4.24235 0 0 0 168 154 103 255
-0.789287 1.30502 4.10354 0 0 0 36 74 113 255
-0.69482 1.29492 4.01898 0 0 0 132 130 139 255
-0.620229 1.29682 4.04171 0 0 0 28 75 118 255
-0.544324 1.30774 4.06928 0 0 0 166 160 125 255
-0.294996 1.46103 4.65304 0 0 0 45 86 123 255
2.13214 -0.0814842 3.96978 0 0 0 65 66 72 255
-0.341696 0.111323 4.60531 0 0 0 26 61 102 255
2.05366 0.164836 4.02773 0 0 0 55 58 57 255
-0.35784 0.368449 4.20627 0 0 0 138 149 156 255
-0.879053 0.407594 4.06205 0 0 0 143 135 116 255
-0.601375 0.391239 4.06148 0 0 0 135 143 155 255
-0.526294 0.397995 4.08434 0 0 0 153 159 162 255
1.97348 0.415362 3.93636 0 0 0 111 113 111 255
-0.921774 0.449545 4.14334 0 0 0 147 142 134 255
-0.72165 0.457746 4.04313 0 0 0 117 125 105 255
-0.352081 0.464467 4.21675 0 0 0 151 153 161 255
1.08701 0.525117 4.79428 0 0 0 93 113 86 255
1.98198 0.508976 3.93192 0 0 0 121 128 125 255
-0.978994 0.531356 4.20099 0 0 0 12 59 104 255
0.830945 0.595524 4.60589 0 0 0 156 160 161 255
2.0783 0.550944 3.74981 0 0 0 135 139 140 255
2.20222 0.551955 3.68674 0 0 0 143 142 139 255
-0.61921 0.587044 4.07137 0 0 0 157 159 161 255
-0.461935 0.595162 4.133 0 0 0 157 160 162 255
1.96776 0.605728 4.03548 0 0 0 50 52 52 255
-0.907953 0.631225 4.12854 0 0 0 150 152 151 255
-0.831168 0.598177 4.09609 0 0 0 146 152 155 255
-0.50452 0.644653 4.06665 0 0 0 156 158 158 255
-0.313512 0.689019 4.30564 0 0 0 146 153 154 255
-0.973129 0.702064 4.17541 0 0 0 23 46 87 255
0.947084 0.750676 4.64873 0 0 0 116 146 130 255
1.08658 0.770612 4.77439 0 0 0 48 91 74 255
-0.664435 0.73014 4.07141 0 0 0 27 55 103 255
-1.00769 0.823943 4.22464 0 0 0 23 61 94 255
-0.729585 0.862478 4.07184 0 0 0 37 61 107 255
-0.448223 0.828406 4.1382 0 0 0 107 104 108 255
-0.60608 0.908154 4.0796 0 0 0 158 161 165 255
-0.844469 0.972927 4.10517 0 0 0 152 154 156 255
-0.467085 0.994008 4.13464 0 0 0 137 155 172 255
-0.36131 1.02558 4.22925 0 0 0 127 129 131 255
-0.477902 1.06238 4.13233 0 0 0 148 152 158 255
-0.344404 1.20761 4.2535 0 0 0 140 124 104 255
1.11236 1.40699 5.09771 0 0 0 68 108 88 255
-0.519627 1.31586 4.08771 0 0 0 174 163 107 255
-0.948401 1.41496 4.19433 0 0 0 44 79 117 255
-0.507067 1.43607 4.12143 0 0 0 45 86 124 255
1.99553 1.57723 4.1028 0 0 0 110 112 108 255
2.12613 -0.200929 3.97373 0 0 0 84 67 60 255
2.11938 -0.125754 3.9776 0 0 0 72 57 57 255
1.05273 0.111275 4.82999 0 0 0 45 91 64 255
2.04657 0.178791 4.03383 0 0 0 54 54 54 255
2.07801 0.171086 4.01182 0 0 0 40 47 49 255
1.97831 0.270087 4.01866 0 0 0 109 101 98 255
-0.857249 0.424645 4.1029 0 0 0 147 132 77 255
1.95943 0.471225 3.9745 0 0 0 128 132 131 255
-0.403313 0.622177 4.16129 0 0 0 25 57 105 255
-0.839681 0.647674 4.10011 0 0 0 154 153 154 255
-0.691171 0.637167 4.05648 0 0 0 23 56 107 255
1.05438 0.810456 4.74567 0 0 0 50 95 71 255
-0.728256 0.815769 4.06324 0 0 0 73 84 96 255
-0.30262 0.874699 4.2832 0 0 0 18 64 112 255
1.99582 0.904394 4.07906 0 0 0 46 51 52 255
-0.38083 1.21884 4.22025 0 0 0 153 126 99 255
0.383112 1.38541 4.89893 0 0 0 64 93 79 255
-0.8284 1.21307 4.10651 0 0 0 131 129 136 255
-0.452806 1.30948 4.15948 0 0 0 173 160 74 255
-0.335438 1.44315 4.63277 0 0 0 30 78 119 255
-0.873002 1.43288 4.11136 0 0 0 50 80 110 255
2.19998 -0.193208 3.88428 0 0 0 129 93 98 255
2.49895 -0.188306 3.96459 0 0 0 82 87 87 255
2.30631 -0.171642 3.9264 0 0 0 138 103 105 255
2.50573 -0.0971218 3.99069 0 0 0 115 122 124 255
2.50682 -0.0736694 3.96352 0 0 0 81 85 86 255
2.49708 -0.0132791 3.96449 0 0 0 120 127 129 255
2.21308 0.0168467 3.91232 0 0 0 162 162 162 255
2.54667 0.120117 3.98319 0 0 0 113 115 117 255
-0.295673 0.0980273 4.60258 0 0 0 81 87 99 255
2.33978 0.254033 3.70347 0 0 0 155 135 115 255
0.649224 0.247808 4.58182 0 0 0 30 53 50 255
0.920806 0.258393 4.61333 0 0 0 96 101 99 255
0.464017 0.274492 4.65987 0 0 0 121 130 129 255
0.960593 0.267989 4.63168 0 0 0 83 112 100 255
2.3464 0.303294 3.70051 0 0 0 76 50 28 255
-0.735313 0.289396 4.04867 0 0 0 30 47 93 255
2.32 0.306908 3.69905 0 0 0 153 123 92 255
0.671833 0.316137 4.57374 0 0 0 123 149 104 255
-0.386819 0.321023 4.18184 0 0 0 62 112 157 255
-0.335185 0.407484 4.23047 0 0 0 114 88 103 255
2.51505 0.425499 3.72589 0 0 0 99 98 98 255
-0.420901 0.448618 4.1418 0 0 0 150 151 157 255
2.28018 0.451961 3.67286 0 0 0 86 81 78 255
-0.511429 0.478884 4.08721 0 0 0 40 83 116 255
2.11573 0.525096 3.72657 0 0 0 38 42 46 255
2.2255 0.537685 3.6819 0 0 0 35 40 52 255
2.06473 0.556755 3.75869 0 0 0 75 86 87 255
0.576683 0.681167 4.6277 0 0 0 145 153 151 255
1.10877 0.737317 4.79517 0 0 0 136 148 146 255
1.08786 0.755011 4.77294 0 0 0 134 142 139 255
1.05402 0.768439 4.73717 0 0 0 144 153 153 255
-0.786292 0.756385 4.02248 0 0 0 86 89 99 255
2.33324 0.715973 3.68426 0 0 0 73 61 49 255
-0.818381 0.87584 3.99262 0 0 0 57 71 86 255
-0.814616 0.878155 3.99021 0 0 0 61 67 88 255
1.88389 1.43399 6.9645 0 0 0 147 145 139 255
1.3218 1.39283 6.58558 0 0 0 133 131 125 255
1.23885 1.37398 6.43659 0 0 0 142 141 133 255
0.905943 1.17871 4.64573 0 0 0 95 89 43 255
2.40188 1.04797 3.71696 0 0 0 99 97 98 255
2.42327 1.04495 3.69089 0 0 0 107 115 115 255
2.16724 1.06799 3.73972 0 0 0 125 133 133 255
2.07698 1.08625 3.78234 0 0 0 90 93 94 255
2.21054 1.08786 3.71345 0 0 0 73 75 74 255
2.31052 1.08597 3.70889 0 0 0 87 89 90 255
2.34079 1.08713 3.70701 0 0 0 87 93 93 255
2.20956 1.16567 3.67578 0 0 0 99 102 104 255
2.22847 1.24033 3.6693 0 0 0 109 118 116 255
2.39273 1.2367 3.65848 0 0 0 100 98 98 255
-0.415125 1.39799 4.1817 0 0 0 113 120 126 255
-0.671318 1.36942 3.83394 0 0 0 70 107 143 255
2.15068 1.36857 3.70165 0 0 0 117 120 119 255
2.18777 1.3797 3.67308 0 0 0 119 121 125 255
2.21753 1.39442 3.6603 0 0 0 100 102 104 255
2.49968 -0.0011779 3.96296 0 0 0 138 145 145 255
2.37834 0.313778 3.69892 0 0 0 106 86 56 255
0.610288 0.374803 4.58894 0 0 0 90 60 64 255
-0.722105 0.391465 4.04377 0 0 0 119 120 112 255
-0.509724 0.486887 4.08796 0 0 0 19 83 128 255
2.51279 0.49341 3.71184 0 0 0 68 49 45 255
2.64244 0.902087 3.89463 0 0 0 90 99 99 255
-0.65531 0.93789 4.00594 0 0 0 159 159 164 255
2.39442 1.03461 3.67602 0 0 0 81 82 82 255
-0.688692 1.36337 3.83216 0 0 0 80 126 160 255
-0.509996 1.41847 4.13557 0 0 0 64 114 148 255
2.1141 -0.200582 3.97546 0 0 0 109 98 94 255
2.10783 -0.0118502 3.98585 0 0 0 149 149 147 255
0.679227 0.241195 4.57126 0 0 0 96 99 99 255
2.38111 0.260945 3.709 0 0 0 155 118 75 255
-0.709512 0.294954 4.04611 0 0 0 143 131 87 255
2.3907 0.319131 3.69667 0 0 0 64 43 28 255
0.886162 0.393267 4.60566 0 0 0 153 144 145 255
1.02825 0.416434 4.69112 0 0 0 131 63 70 255
-0.721299 0.399399 4.04312 0 0 0 145 145 130 255
0.447909 0.421598 4.67425 0 0 0 140 139 139 255
2.34569 0.463732 3.67287 0 0 0 47 44 47 255
-0.469427 0.485151 4.11217 0 0 0 114 121 130 255
2.37135 0.544653 3.67357 0 0 0 41 40 45 255
-0.849991 0.738506 4.03319 0 0 0 93 101 111 255
2.36614 0.729922 3.69624 0 0 0 91 69 44 255
-0.684955 0.785763 4.07727 0 0 0 159 158 161 255
2.36317 0.749652 3.69288 0 0 0 97 71 33 255
-0.572351 0.911813 4.08834 0 0 0 161 161 163 255
0.859187 1.13875 4.62338 0 0 0 152 156 133 255
-0.382789 1.1077 4.21879 0 0 0 9 82 129 255
0.889369 1.17589 4.63513 0 0 0 125 121 72 255
-0.449927 1.39966 4.13425 0 0 0 155 159 162 255
2.45646 1.3667 3.64712 0 0 0 88 84 87 255
2.12931 -0.142874 3.97166 0 0 0 68 46 46 255
2.47622 -0.0662733 3.96206 0 0 0 60 67 75 255
2.21024 0.0153708 3.91191 0 0 0 156 158 160 255
2.47334 0.0395822 4.0007 0 0 0 89 89 89 255
2.12874 0.0423341 3.96415 0 0 0 93 96 95 255
-0.357832 0.317971 4.20346 0 0 0 50 96 131 255
2.28812 0.431859 3.67438 0 0 0 141 142 141 255
2.42395 0.453204 3.67973 0 0 0 35 37 41 255
2.2079 0.484282 3.67149 0 0 0 61 36 28 255
0.796282 0.556202 4.59102 0 0 0 154 159 157 255
0.441615 0.602953 4.69374 0 0 0 86 114 109 255
2.39092 0.537754 3.66786 0 0 0 142 145 146 255
1.9584 0.592562 3.9999 0 0 0 59 59 62 255
2.24199 0.545564 3.67976 0 0 0 132 142 144 255
2.28523 0.555472 3.67823 0 0 0 35 36 40 255
-0.452511 0.649034 4.13552 0 0 0 158 159 161 255
-0.406831 0.667546 4.17109 0 0 0 25 59 107 255
-0.632381 0.658331 4.06921 0 0 0 158 158 162 255
-0.741741 0.674558 4.06181 0 0 0 36 50 91 255
-0.289718 0.765958 4.32793 0 0 0 128 132 139 255
-0.482502 0.89547 4.12452 0 0 0 159 161 160 255
-0.795413 0.971914 3.9695 0 0 0 151 150 152 255
-0.405886 1.08127 4.19772 0 0 0 1 98 145 255
-0.590875 1.09863 4.008 0 0 0 131 148 162 255
-0.525532 1.12222 4.00284 0 0 0 0 106 149 255
-0.333084 1.1654 4.26113 0 0 0 133 134 139 255
2.40602 -0.220713 3.85373 0 0 0 144 144 144 255
2.21505 0.0213947 3.91383 0 0 0 162 162 162 255
1.09363 0.10565 4.93645 0 0 0 50 93 69 255
1.03269 0.312365 4.70025 0 0 0 143 145 133 255
-0.87273 0.397182 4.11523 0 0 0 151 135 77 255
-0.732329 0.383084 4.04333 0 0 0 129 131 116 255
2.23078 0.490785 3.68014 0 0 0 35 37 41 255
0.780828 0.593277 4.58998 0 0 0 157 162 160 255
1.98461 0.529443 3.93642 0 0 0 127 133 136 255
2.38888 0.5409 3.66677 0 0 0 122 130 132 255
-0.611312 0.634774 4.07525 0 0 0 159 160 161 255
-0.405013 0.639255 4.16358 0 0 0 25 59 105 255
0.773343 0.684235 4.60002 0 0 0 67 110 68 255
-0.308716 0.75067 4.30884 0 0 0 153 156 155 255
0.786891 0.819582 4.60205 0 0 0 158 163 161 255
-0.422237 0.833749 4.17019 0 0 0 158 160 162 255
-0.62571 0.897135 4.07818 0 0 0 100 113 139 255
-0.450576 0.99501 4.14099 0 0 0 134 150 165 255
-0.366925 1.13777 4.23153 0 0 0 128 140 152 255
-0.5358 1.14465 4.10922 0 0 0 1 98 146 255
-0.347405 1.24693 4.2321 0 0 0 155 139 84 255
-0.303141 1.47242 4.65431 0 0 0 87 119 151 255
-0.450116 1.41869 4.07397 0 0 0 36 80 123 255
2.14398 -0.0566211 3.95767 0 0 0 33 41 36 255
1.07434 0.112848 4.90106 0 0 0 48 91 67 255
-0.358518 0.401591 4.20012 0 0 0 97 69 102 255
1.94694 0.475248 3.98703 0 0 0 90 90 87 255
2.13258 0.538941 3.71561 0 0 0 134 142 146 255
-0.395891 0.640887 4.16668 0 0 0 24 59 106 255
-0.699353 0.694619 4.06103 0 0 0 25 58 111 255
0.803217 0.777151 4.60746 0 0 0 77 116 99 255
1.07361 1.39441 5.089 0 0 0 66 105 77 255
2.21825 -0.209316 3.88575 0 0 0 119 120 121 255
2.10398 -0.185823 3.9687 0 0 0 110 105 104 255
2.10577 -0.129939 3.96941 0 0 0 136 136 133 255
2.1037 -0.108193 3.96265 0 0 0 143 141 139 255
2.12169 -0.0762271 3.95831 0 0 0 72 73 74 255
2.36055 -0.0530954 3.86282 0 0 0 79 83 86 255
0.37645 0.150492 4.8056 0 0 0 28 59 44 255
2.35947 0.249939 3.70842 0 0 0 88 83 82 255
2.2863 0.253996 3.69993 0 0 0 57 56 59 255
2.2044 0.27058 3.71786 0 0 0 62 49 47 255
2.32462 0.277358 3.70191 0 0 0 69 58 57 255
2.32752 0.27769 3.70161 0 0 0 69 58 57 255
-0.456453 0.278516 4.10843 0 0 0 73 55 38 255
-0.444562 0.305222 4.12074 0 0 0 97 82 94 255
-0.761749 0.299594 4.0486 0 0 0 131 109 116 255
-0.457775 0.329505 4.11255 0 0 0 63 100 144 255
-0.466366 0.372802 4.11297 0 0 0 137 137 146 255
-0.494116 0.46825 4.09722 0 0 0 128 145 164 255
-0.701945 0.464635 4.04475 0 0 0 120 127 124 255
1.03705 0.512206 4.7279 0 0 0 122 136 112 255
-0.370211 0.508521 4.1994 0 0 0 73 114 148 255
-0.349268 0.522753 4.2224 0 0 0 32 82 125 255
1.09894 0.709729 4.78064 0 0 0 111 118 117 255
0.462322 0.942661 4.71822 0 0 0 101 113 109 255
1.16387 1.25058 5.43734 0 0 0 140 139 133 255
2.4103 1.07241 3.7399 0 0 0 125 129 128 255
-1.04358 1.23573 4.40829 0 0 0 54 99 133 255
-0.961314 1.25718 4.37882 0 0 0 27 84 124 255
-0.842571 1.25215 4.26118 0 0 0 115 96 111 255
-0.996601 1.28399 4.36906 0 0 0 106 105 114 255
2.16215 1.18035 3.7725 0 0 0 99 100 102 255
2.38769 1.18283 3.75321 0 0 0 106 105 109 255
2.37803 1.22585 3.76297 0 0 0 103 103 103 255
2.28255 1.26458 3.74795 0 0 0 103 107 110 255
-1.14302 1.49395 4.59049 0 0 0 59 110 152 255
-0.368255 1.40998 4.21951 0 0 0 160 157 163 255
-1.21107 1.58715 4.69245 0 0 0 98 112 134 255
2.2328 1.40073 3.75893 0 0 0 113 113 115 255
-0.444179 0.279129 4.11833 0 0 0 140 103 88 255
-0.465407 0.371416 4.11446 0 0 0 119 135 153 255
0.667891 0.402192 4.57757 0 0 0 124 46 49 255
-0.408141 0.486111 4.15873 0 0 0 98 119 145 255
1.10739 0.594074 4.80922 0 0 0 139 146 146 255
-0.472058 0.662988 4.06718 0 0 0 100 107 129 255
-0.725486 0.884633 4.07243 0 0 0 32 62 104 255
-0.792418 1.21092 4.22254 0 0 0 134 145 147 255
-0.966341 1.25767 4.37656 0 0 0 33 90 128 255
2.38652 1.41746 3.78468 0 0 0 95 95 99 255
2.45414 -0.21824 3.95628 0 0 0 74 74 76 255
2.35511 0.285908 3.70337 0 0 0 149 124 96 255
2.38733 0.301156 3.70211 0 0 0 133 97 66 255
2.42078 0.420567 3.69378 0 0 0 61 34 20 255
-0.649417 0.410342 4.05011 0 0 0 23 91 75 255
-0.293419 0.416034 4.31632 0 0 0 67 117 147 255
2.14905 0.509695 3.7123 0 0 0 136 140 137 255
-0.355575 0.496995 4.22214 0 0 0 125 137 153 255
0.780802 0.553362 4.58661 0 0 0 155 159 160 255
-0.499132 0.74981 4.10947 0 0 0 158 159 160 255
-0.374666 0.782564 4.20245 0 0 0 62 75 103 255
-0.815624 1.22754 4.23627 0 0 0 139 138 140 255
-0.803537 1.21472 4.23138 0 0 0 137 144 146 255
2.39888 1.41539 3.79654 0 0 0 98 92 97 255
2.14511 -0.204466 3.95452 0 0 0 47 44 45 255
2.26692 -0.206289 3.85575 0 0 0 42 40 39 255
2.13881 -0.212819 3.96676 0 0 0 56 55 55 255
2.13654 -0.112015 3.95736 0 0 0 39 41 40 255
2.28606 0.284336 3.69485 0 0 0 158 127 80 255
2.40798 0.389928 3.68779 0 0 0 119 136 144 255
2.32976 0.42833 3.6739 0 0 0 56 43 41 255
2.37053 0.442314 3.6739 0 0 0 134 144 147 255
-0.640324 0.419781 4.05134 0 0 0 37 102 91 255
-0.574611 0.44105 4.06906 0 0 0 114 141 165 255
2.41079 0.481584 3.67866 0 0 0 36 40 43 255
1.9682 0.511589 3.90425 0 0 0 109 111 110 255
0.831542 0.568186 4.60392 0 0 0 157 162 160 255
1.08624 0.599954 4.76608 0 0 0 144 149 147 255
-0.533987 0.763011 4.09714 0 0 0 97 117 135 255
0.951244 1.09178 4.66573 0 0 0 29 80 119 255
0.535057 1.23527 4.67493 0 0 0 149 152 151 255
-0.382791 1.42449 4.30112 0 0 0 28 78 122 255
2.39643 1.42164 3.79643 0 0 0 95 95 104 255
2.43921 -0.220056 3.94786 0 0 0 60 61 61 255
-0.304431 0.133485 4.53048 0 0 0 25 66 103 255
0.381311 0.0994704 4.79086 0 0 0 61 83 76 255
2.25482 0.290547 3.70646 0 0 0 140 105 63 255
1.02664 0.282928 4.69871 0 0 0 113 129 108 255
2.11679 0.413447 3.72485 0 0 0 45 49 59 255
-0.419386 0.413835 4.14887 0 0 0 129 141 148 255
-0.327699 0.415739 4.24231 0 0 0 149 130 136 255
-0.342674 0.477316 4.23167 0 0 0 147 151 157 255
2.21743 0.554723 3.68507 0 0 0 139 142 142 255
-0.300126 0.743126 4.32628 0 0 0 152 152 152 255
-0.438705 0.87787 4.14649 0 0 0 157 160 159 255
-0.347897 1.17144 4.25441 0 0 0 144 142 144 255
-0.310064 1.4484 4.62083 0 0 0 32 76 114 255
2.41043 -0.19077 3.85827 0 0 0 88 44 45 255
2.41626 -0.119168 3.86663 0 0 0 34 33 35 255
2.3971 -0.0387858 3.83703 0 0 0 35 37 41 255
2.30734 0.00265359 3.88439 0 0 0 128 130 129 255
2.33575 0.0888965 3.92746 0 0 0 186 188 190 255
1.08787 0.146756 4.84409 0 0 0 49 94 67 255
-0.346616 0.16825 4.52742 0 0 0 6 57 103 255
2.08006 0.445817 3.73683 0 0 0 134 137 137 255
1.94556 0.476023 3.88293 0 0 0 133 136 135 255
0.737633 0.685566 4.58628 0 0 0 62 108 73 255
-0.323222 0.707233 4.24825 0 0 0 153 155 157 255
0.805008 0.827173 4.60727 0 0 0 160 162 162 255
2.24475 0.737377 3.68769 0 0 0 54 44 38 255
2.27516 -0.160831 3.83497 0 0 0 140 105 100 255
2.4969 -0.0152869 3.97963 0 0 0 108 115 113 255
2.22717 0.0197224 3.90781 0 0 0 169 166 167 255
2.55141 0.130656 4.02957 0 0 0 89 93 94 255
-0.980403 0.131722 4.14602 0 0 0 47 61 76 255
-3.07321 0.16236 6.4312 0 0 0 49 45 43 255
0.553059 0.243654 4.6046 0 0 0 35 59 57 255
0.936238 0.256228 4.62072 0 0 0 54 87 82 255
2.47134 0.27994 3.73608 0 0 0 89 70 78 255
0.939487 0.33472 4.62889 0 0 0 143 146 143 255
2.36404 0.303979 3.69987 0 0 0 157 124 73 255
-0.910122 0.326973 4.09229 0 0 0 91 102 119 255
-0.462875 0.34435 4.1141 0 0 0 6 68 120 255
1.02979 0.377437 4.69129 0 0 0 107 47 57 255
-0.571738 0.383966 4.07131 0 0 0 45 80 108 255
2.55623 0.375265 3.76365 0 0 0 64 72 75 255
2.48868 0.385412 3.7222 0 0 0 119 128 132 255
2.50926 0.384497 3.73516 0 0 0 128 128 131 255
2.51376 0.428252 3.73326 0 0 0 118 118 118 255
2.54514 0.435692 3.75362 0 0 0 75 63 58 255
-0.978783 0.512508 4.18335 0 0 0 40 65 93 255
1.06412 0.584382 4.73614 0 0 0 111 147 136 255
2.51872 0.486172 3.73258 0 0 0 107 100 94 255
1.10303 0.606538 4.79136 0 0 0 113 113 113 255
1.07489 0.613681 4.74384 0 0 0 126 133 130 255
1.10112 0.656799 4.79157 0 0 0 110 117 115 255
2.45573 0.536262 3.71819 0 0 0 87 97 105 255
1.07434 0.667797 4.75585 0 0 0 116 123 123 255
-0.945476 0.676215 4.13611 0 0 0 49 62 78 255
-0.891874 0.681251 4.13034 0 0 0 74 80 86 255
1.10602 0.755259 4.79742 0 0 0 139 146 145 255
-0.89467 0.724937 4.13299 0 0 0 124 128 129 255
0.866696 0.855488 4.62298 0 0 0 152 159 157 255
2.38284 0.765527 3.69835 0 0 0 107 81 51 255
-0.867394 0.944662 4.11034 0 0 0 42 53 93 255
-0.452994 0.950964 4.13855 0 0 0 77 97 137 255
-0.894227 1.01938 4.14874 0 0 0 56 62 84 255
-0.855108 1.00887 4.12552 0 0 0 147 149 152 255
-0.866948 1.00864 4.07956 0 0 0 138 139 146 255
-0.304162 1.09583 4.63155 0 0 0 65 108 139 255
1.24527 1.40622 6.63949 0 0 0 152 148 142 255
1.08825 1.42663 6.36877 0 0 0 141 142 140 255
1.0401 1.17222 4.74507 0 0 0 137 119 47 255
-0.301903 1.20259 4.63309 0 0 0 57 98 126 255
-0.630911 1.20235 4.09145 0 0 0 64 85 114 255
-0.733458 1.20621 3.96774 0 0 0 88 102 117 255
2.47873 1.03936 3.70699 0 0 0 92 91 91 255
2.52642 1.04287 3.74638 0 0 0 79 80 79 255
2.22527 1.05966 3.72953 0 0 0 76 82 80 255
2.30004 1.05362 3.70889 0 0 0 131 136 139 255
2.28796 1.06798 3.75361 0 0 0 92 94 94 255
2.43681 1.04527 3.70312 0 0 0 101 98 99 255
-0.682958 1.25641 3.936 0 0 0 72 91 109 255
-0.736117 1.26765 3.9465 0 0 0 114 123 134 255
2.39752 1.084 3.72311 0 0 0 75 73 74 255
2.43907 1.08554 3.71564 0 0 0 76 76 76 255
2.44818 1.08934 3.73474 0 0 0 86 90 91 255
-0.625906 1.34728 3.86789 0 0 0 66 103 130 255
2.50145 -0.0150977 3.97359 0 0 0 139 146 144 255
-0.374049 0.332321 4.19147 0 0 0 72 111 144 255
1.05086 0.352543 4.70796 0 0 0 87 87 87 255
0.746835 0.359725 4.57352 0 0 0 89 49 51 255
0.90545 0.371498 4.61504 0 0 0 150 130 132 255
2.55204 0.384693 3.75811 0 0 0 121 133 134 255
2.43869 0.387521 3.70477 0 0 0 139 139 139 255
-0.520417 0.429989 4.08596 0 0 0 146 154 157 255
-0.638625 0.45277 4.05033 0 0 0 42 95 86 255
2.51856 0.423357 3.74066 0 0 0 90 64 61 255
2.15171 0.482264 3.70798 0 0 0 40 40 43 255
2.5214 0.496665 3.74968 0 0 0 104 75 62 255
-0.926803 0.576646 4.13254 0 0 0 17 53 94 255
2.44577 0.5375 3.71565 0 0 0 62 65 69 255
-0.94402 0.681621 4.13232 0 0 0 35 51 66 255
-0.895988 0.737456 4.1332 0 0 0 118 122 123 255
2.33771 0.758747 3.68215 0 0 0 99 76 48 255
-0.874724 1.04118 4.07637 0 0 0 34 55 89 255
1.10061 1.42439 6.39056 0 0 0 142 144 140 255
-0.732693 1.26075 3.94486 0 0 0 121 131 139 255
-0.680514 1.26042 3.93833 0 0 0 53 76 103 255
-0.625253 1.27584 3.94621 0 0 0 129 131 135 255
-0.64154 1.34655 3.86815 0 0 0 97 130 147 255
2.50071 -0.0147545 4.00979 0 0 0 139 146 144 255
