ply
format ascii 1.0
comment VCGLIB generated
element vertex 1035
property float x
property float y
property float z
property float nx
property float ny
property float nz
property uchar red
property uchar green
property uchar blue
property uchar alpha
element face 0
property list uchar int vertex_indices
end_header
-0.429904 0.348463 4.13855 0 0 0 105 129 149 255
0.411688 0.367681 4.70728 0 0 0 111 87 83 255
0.79933 0.36645 4.57944 0 0 0 144 132 134 255
0.874981 0.375236 4.60326 0 0 0 136 117 121 255
-0.652095 0.389335 4.0458 0 0 0 29 88 75 255
-0.482806 0.389346 4.10261 0 0 0 30 73 108 255
-0.389105 0.396661 4.16989 0 0 0 152 156 156 255
1.98512 0.380346 3.94925 0 0 0 77 84 85 255
2.12074 0.389299 3.72404 0 0 0 89 89 90 255
2.49309 0.387896 3.72621 0 0 0 110 118 121 255
1.93384 0.408062 3.96183 0 0 0 125 120 116 255
-0.588035 0.430959 4.06243 0 0 0 19 93 125 255
2.10276 0.418952 3.73875 0 0 0 58 40 40 255
2.42286 0.409636 3.7006 0 0 0 83 63 45 255
-0.45296 0.44141 4.1228 0 0 0 16 60 108 255
1.97706 0.444359 3.93149 0 0 0 82 76 67 255
2.10392 0.434247 3.73566 0 0 0 58 42 39 255
2.45836 0.430007 3.7128 0 0 0 34 38 37 255
-0.60898 0.454568 4.05757 0 0 0 147 154 154 255
2.14206 0.466188 3.71422 0 0 0 91 65 52 255
-0.547901 0.490309 4.07288 0 0 0 104 120 136 255
-0.422635 0.504709 4.15165 0 0 0 78 121 156 255
1.94276 0.497662 4.00341 0 0 0 122 120 119 255
2.10512 0.500133 3.73987 0 0 0 55 39 39 255
1.08295 0.581255 4.76666 0 0 0 126 142 138 255
2.10229 0.527556 3.73996 0 0 0 50 42 47 255
2.21348 0.527762 3.68847 0 0 0 55 39 41 255
2.28212 0.519527 3.682 0 0 0 46 36 38 255
2.42389 0.526213 3.70578 0 0 0 57 40 43 255
2.56791 0.542934 3.78943 0 0 0 104 112 118 255
1.94996 0.574896 4.03347 0 0 0 108 100 94 255
2.49194 0.547342 3.73001 0 0 0 123 130 131 255
2.36449 0.560479 3.67959 0 0 0 108 94 86 255
2.40532 0.550065 3.67975 0 0 0 140 142 143 255
2.42542 0.551363 3.69688 0 0 0 143 143 143 255
-1.01277 0.588836 4.24547 0 0 0 134 137 140 255
-0.922145 0.587076 4.13164 0 0 0 32 55 90 255
2.1482 0.555241 3.70941 0 0 0 107 90 75 255
-0.734767 0.610998 4.05337 0 0 0 155 156 156 255
-0.498793 0.604516 4.08553 0 0 0 88 94 113 255
-0.727896 0.645979 4.05683 0 0 0 154 156 158 255
-0.436571 0.68468 4.14272 0 0 0 151 158 159 255
-0.988451 0.707387 4.16651 0 0 0 133 131 130 255
-0.732123 0.713941 4.06163 0 0 0 156 159 161 255
-0.638774 0.706887 4.06524 0 0 0 137 143 162 255
-0.407199 0.727108 4.17825 0 0 0 155 160 168 255
-0.867402 0.723553 4.07795 0 0 0 109 111 116 255
-0.555901 0.759442 4.0878 0 0 0 158 162 163 255
2.25807 0.72299 3.69027 0 0 0 96 76 55 255
-0.891733 0.772075 4.1134 0 0 0 97 108 118 255
-0.689598 0.75806 4.0691 0 0 0 52 69 110 255
-0.460524 0.775286 4.13576 0 0 0 92 94 101 255
-0.331862 0.785976 4.2386 0 0 0 40 53 83 255
-0.318344 0.813266 4.26823 0 0 0 128 133 152 255
-0.62477 0.80941 4.07443 0 0 0 53 63 89 255
-0.452243 0.833897 4.13201 0 0 0 58 66 93 255
-0.41282 0.886037 4.17013 0 0 0 156 157 159 255
-0.44442 0.894615 4.13283 0 0 0 113 117 126 255
-0.955262 0.913001 4.17034 0 0 0 69 69 80 255
-0.504849 0.911298 4.10756 0 0 0 156 159 158 255
-0.563653 0.930044 4.08782 0 0 0 160 162 163 255
-0.73589 0.932058 4.06757 0 0 0 157 161 163 255
-0.881075 0.944026 4.12295 0 0 0 33 52 93 255
-0.673891 0.960771 4.08131 0 0 0 158 160 161 255
-0.710637 0.964405 4.07319 0 0 0 59 71 96 255
-0.743982 0.974353 4.06994 0 0 0 157 157 157 255
-0.477422 0.994663 4.12731 0 0 0 130 149 169 255
-0.848302 1.0088 4.11014 0 0 0 151 154 153 255
-0.932826 1.02771 4.17751 0 0 0 149 147 151 255
-0.500008 1.03539 4.11941 0 0 0 40 99 138 255
0.955074 1.11623 4.66921 0 0 0 29 77 115 255
0.509833 1.15107 4.69815 0 0 0 69 104 73 255
2.35017 1.06813 3.71748 0 0 0 87 86 87 255
0.800663 1.24699 4.61747 0 0 0 101 120 98 255
-0.624558 1.16145 4.04544 0 0 0 136 140 153 255
-0.867516 1.17011 4.12552 0 0 0 88 116 142 255
-0.725573 1.17472 4.11182 0 0 0 85 131 170 255
-0.78446 1.19066 4.08959 0 0 0 21 85 131 255
-0.828519 1.23751 4.10132 0 0 0 80 84 109 255
-0.904309 1.27197 4.13632 0 0 0 124 142 163 255
-0.629423 1.2906 4.07086 0 0 0 37 76 110 255
-0.857059 1.32244 4.12318 0 0 0 101 111 122 255
-0.718836 1.31981 4.09082 0 0 0 95 108 135 255
-0.843798 1.36476 4.11633 0 0 0 65 104 137 255
2.39948 1.41094 3.78612 0 0 0 98 94 97 255
2.30295 -0.211811 3.91831 0 0 0 45 43 44 255
2.37503 -0.208247 3.87608 0 0 0 45 45 45 255
2.46079 -0.19937 3.92244 0 0 0 47 52 53 255
0.943942 -0.242783 4.72272 0 0 0 211 211 212 255
2.09932 -0.0565355 3.97762 0 0 0 93 84 83 255
2.47569 -0.0451443 3.91872 0 0 0 35 39 39 255
2.34573 0.0102576 3.92935 0 0 0 200 205 207 255
2.47322 0.0364008 3.9309 0 0 0 84 85 92 255
2.35257 0.0897929 3.93347 0 0 0 248 250 254 255
2.35742 0.115368 3.92515 0 0 0 255 252 253 255
2.06747 0.135664 4.04044 0 0 0 63 63 62 255
2.53596 0.140238 3.9492 0 0 0 50 50 54 255
2.31252 0.259153 3.70715 0 0 0 161 144 114 255
-0.468464 0.263722 4.1034 0 0 0 148 121 89 255
2.21722 0.266545 3.71886 0 0 0 95 75 60 255
2.36364 0.261819 3.70917 0 0 0 125 88 55 255
-0.824503 0.281448 4.05474 0 0 0 139 126 66 255
-0.794676 0.275814 4.04779 0 0 0 75 73 68 255
-0.762286 0.272493 4.04804 0 0 0 114 95 99 255
-0.623407 0.272474 4.05031 0 0 0 133 111 101 255
-0.698395 0.283796 4.04247 0 0 0 113 107 101 255
2.21529 0.297606 3.70802 0 0 0 130 106 77 255
2.37728 0.298175 3.70561 0 0 0 138 101 62 255
-0.965851 0.334412 4.17187 0 0 0 95 110 126 255
0.582631 0.374078 4.60072 0 0 0 118 39 43 255
-0.609861 0.398944 4.05577 0 0 0 149 155 160 255
-0.529659 0.398801 4.08097 0 0 0 152 158 165 255
-0.389922 0.394829 4.1696 0 0 0 148 155 155 255
0.604228 0.401642 4.59157 0 0 0 156 147 148 255
1.98549 0.386145 3.94483 0 0 0 112 121 123 255
2.07359 0.397121 3.75506 0 0 0 127 133 134 255
2.12971 0.406081 3.72026 0 0 0 131 137 139 255
2.15466 0.394536 3.7082 0 0 0 40 39 44 255
2.18467 0.395378 3.69828 0 0 0 135 136 140 255
2.28965 0.394361 3.67696 0 0 0 138 147 149 255
2.42119 0.383487 3.70155 0 0 0 125 129 132 255
2.13096 0.413222 3.72016 0 0 0 123 136 140 255
2.42726 0.417206 3.69652 0 0 0 61 43 33 255
-0.59781 0.456148 4.05997 0 0 0 144 156 158 255
-0.983642 0.483463 4.22878 0 0 0 127 120 122 255
2.1483 0.467917 3.71184 0 0 0 61 40 29 255
-0.347774 0.539023 4.21932 0 0 0 32 80 117 255
2.10799 0.514293 3.73766 0 0 0 47 38 40 255
2.21766 0.520633 3.68827 0 0 0 52 36 38 255
2.42614 0.508374 3.69653 0 0 0 39 38 42 255
1.98237 0.551035 3.89545 0 0 0 130 133 131 255
2.28688 0.525228 3.68227 0 0 0 37 39 43 255
-0.92375 0.587232 4.134 0 0 0 22 55 94 255
-0.850527 0.570393 4.09182 0 0 0 152 152 152 255
-0.632411 0.573445 4.06189 0 0 0 153 155 167 255
-0.452355 0.56947 4.13402 0 0 0 156 158 162 255
2.12078 0.55073 3.72737 0 0 0 137 139 139 255
2.14933 0.552027 3.70885 0 0 0 107 90 75 255
2.193 0.556579 3.69463 0 0 0 137 141 142 255
2.23566 0.559057 3.68577 0 0 0 142 141 144 255
2.33364 0.550762 3.67769 0 0 0 141 146 147 255
2.38118 0.553061 3.67648 0 0 0 45 41 45 255
2.42889 0.553331 3.7015 0 0 0 143 143 143 255
-0.800712 0.586008 4.08142 0 0 0 29 51 90 255
-0.735138 0.608041 4.05338 0 0 0 156 156 156 255
-0.574786 0.621894 4.11137 0 0 0 104 112 143 255
1.04125 0.646295 4.72255 0 0 0 40 80 74 255
-0.735694 0.620826 4.05375 0 0 0 156 159 158 255
-0.35735 0.654302 4.21212 0 0 0 146 151 161 255
-0.577359 0.667474 4.10372 0 0 0 61 68 87 255
-0.512727 0.661204 4.08219 0 0 0 59 65 84 255
-0.433324 0.668588 4.14387 0 0 0 153 157 159 255
-0.95346 0.686959 4.16268 0 0 0 28 44 82 255
-0.879293 0.674462 4.11895 0 0 0 56 60 71 255
-0.774099 0.67506 4.05852 0 0 0 34 53 94 255
-0.360083 0.678779 4.20868 0 0 0 146 152 161 255
-0.959661 0.700338 4.16381 0 0 0 24 46 91 255
-0.862711 0.703947 4.07497 0 0 0 111 118 126 255
-0.736668 0.708208 4.06175 0 0 0 153 157 160 255
-0.414372 0.730375 4.17542 0 0 0 154 159 171 255
-0.88809 0.759313 4.10482 0 0 0 107 117 124 255
2.27782 0.735255 3.69113 0 0 0 110 80 42 255
-0.675709 0.773341 4.07337 0 0 0 156 158 163 255
-1.00206 0.815222 4.22218 0 0 0 39 52 75 255
-0.384097 0.798952 4.19448 0 0 0 103 118 135 255
-0.289439 0.80777 4.32058 0 0 0 149 153 154 255
-0.619341 0.811789 4.07491 0 0 0 49 59 86 255
-0.334569 0.816498 4.23947 0 0 0 33 58 96 255
-0.806893 0.826781 4.07153 0 0 0 74 80 99 255
-0.614908 0.877134 4.07491 0 0 0 58 75 97 255
-0.409757 0.901808 4.17385 0 0 0 61 73 100 255
-0.741075 0.882469 4.06431 0 0 0 60 75 95 255
-0.493913 0.893133 4.11015 0 0 0 160 162 163 255
-0.874087 0.91068 4.11745 0 0 0 31 51 92 255
-0.565227 0.930484 4.08705 0 0 0 160 162 163 255
-0.86194 0.924835 4.0872 0 0 0 26 52 95 255
-0.662885 0.949449 4.08451 0 0 0 159 162 161 255
-0.613937 0.948063 4.07335 0 0 0 77 85 106 255
-0.798718 0.982717 4.09261 0 0 0 41 55 91 255
1.18607 1.12179 5.05909 0 0 0 168 174 170 255
-0.471066 0.995935 4.12924 0 0 0 137 155 172 255
-0.360486 1.01727 4.22934 0 0 0 122 144 164 255
-0.924794 1.01747 4.16493 0 0 0 148 150 151 255
1.18906 1.22391 5.0716 0 0 0 158 162 161 255
-0.617106 1.07513 4.08927 0 0 0 113 153 184 255
-0.386753 1.14179 4.21342 0 0 0 145 152 158 255
2.12745 1.06435 3.75697 0 0 0 95 95 94 255
2.28691 1.07201 3.71677 0 0 0 86 79 81 255
-0.671493 1.15381 4.07156 0 0 0 23 88 136 255
-0.62994 1.1519 4.07356 0 0 0 142 157 181 255
-0.583783 1.14283 4.07079 0 0 0 9 108 147 255
-0.876913 1.20574 4.15736 0 0 0 142 144 146 255
-0.784738 1.18171 4.10587 0 0 0 19 84 129 255
-0.63093 1.19817 4.07995 0 0 0 46 80 123 255
-0.32872 1.23274 4.25486 0 0 0 162 140 95 255
-0.912405 1.22174 4.14513 0 0 0 82 104 140 255
-0.894679 1.26892 4.12298 0 0 0 124 142 163 255
-0.85394 1.30251 4.09965 0 0 0 124 131 141 255
-0.793392 1.31165 4.09488 0 0 0 29 74 114 255
-0.699908 1.29437 4.07876 0 0 0 111 112 122 255
-0.37171 1.38815 4.21603 0 0 0 152 154 156 255
-0.891418 1.39334 4.16236 0 0 0 84 129 157 255
2.4102 1.41273 3.7808 0 0 0 93 90 94 255
2.39289 1.62949 3.9852 0 0 0 205 206 212 255
2.24093 -0.203788 3.833 0 0 0 42 41 42 255
2.46528 -0.193903 3.94988 0 0 0 63 43 41 255
2.12457 -0.0512619 3.97408 0 0 0 47 49 51 255
2.47931 0.0497878 3.93513 0 0 0 83 86 92 255
-1.06671 0.134178 4.30781 0 0 0 22 47 84 255
-0.651296 0.273949 4.04389 0 0 0 129 110 99 255
2.29022 0.269218 3.70025 0 0 0 118 95 70 255
-0.361892 0.353797 4.2004 0 0 0 124 141 155 255
1.96224 0.338318 4.02988 0 0 0 59 58 59 255
-0.927831 0.353903 4.09791 0 0 0 96 99 113 255
-0.880057 0.331887 4.09209 0 0 0 8 56 107 255
0.768339 0.388229 4.57596 0 0 0 159 159 159 255
2.39765 0.397446 3.68904 0 0 0 122 130 137 255
-0.435249 0.421284 4.13496 0 0 0 149 150 154 255
2.07416 0.398085 3.75433 0 0 0 124 136 136 255
2.1848 0.413318 3.69907 0 0 0 132 143 146 255
2.28852 0.391187 3.67702 0 0 0 143 143 143 255
2.34388 0.43766 3.67405 0 0 0 40 41 47 255
-0.944541 0.469844 4.17479 0 0 0 145 109 78 255
2.26841 0.489971 3.67991 0 0 0 136 136 137 255
-0.457423 0.587267 4.13176 0 0 0 158 160 160 255
1.9776 0.597435 4.03795 0 0 0 45 46 47 255
-0.632839 0.572463 4.06166 0 0 0 153 155 167 255
-0.731007 0.627102 4.05437 0 0 0 156 159 159 255
-0.359008 0.649323 4.21073 0 0 0 113 126 151 255
-0.965582 0.693043 4.16754 0 0 0 22 44 84 255
-0.631574 0.687592 4.06742 0 0 0 154 158 160 255
-0.417863 0.681712 4.16553 0 0 0 32 60 105 255
-0.867508 0.72191 4.07356 0 0 0 122 125 129 255
0.788503 0.758592 4.60584 0 0 0 70 110 74 255
-0.741507 0.72832 4.05897 0 0 0 159 160 160 255
-0.409245 0.878954 4.17376 0 0 0 158 161 161 255
-0.875468 0.906683 4.11061 0 0 0 29 52 93 255
-0.762386 0.939687 4.06971 0 0 0 158 161 160 255
-0.985939 1.068 4.22199 0 0 0 23 53 95 255
-0.399526 1.10273 4.2009 0 0 0 3 94 141 255
-0.351437 1.1427 4.24097 0 0 0 146 150 155 255
-0.570599 1.14138 4.05625 0 0 0 4 108 151 255
-0.869156 1.19124 4.13419 0 0 0 141 143 145 255
-0.784769 1.18757 4.10605 0 0 0 20 85 131 255
-0.712723 1.1745 4.07366 0 0 0 126 144 160 255
-0.654561 1.17588 4.08142 0 0 0 33 87 135 255
-0.338648 1.25122 4.24693 0 0 0 164 148 92 255
0.364375 1.40195 4.92514 0 0 0 67 94 81 255
-0.89072 1.2772 4.15407 0 0 0 138 143 146 255
-0.769834 1.27475 4.10672 0 0 0 157 157 158 255
-0.350123 1.27804 4.23989 0 0 0 168 154 103 255
-0.78787 1.30408 4.10009 0 0 0 36 74 113 255
-0.694034 1.29441 4.01702 0 0 0 132 130 139 255
-0.619466 1.2964 4.03942 0 0 0 28 75 118 255
-0.543644 1.30735 4.06712 0 0 0 166 160 125 255
-0.294996 1.46103 4.65304 0 0 0 45 86 123 255
2.13296 -0.0819169 3.97344 0 0 0 65 66 72 255
-0.341138 0.111182 4.60293 0 0 0 26 61 102 255
2.05435 0.164707 4.03055 0 0 0 55 58 57 255
-0.357257 0.367082 4.20523 0 0 0 138 149 156 255
-0.877844 0.407503 4.05902 0 0 0 143 135 116 255
-0.600393 0.391424 4.05865 0 0 0 135 143 155 255
-0.525807 0.397673 4.08223 0 0 0 153 159 162 255
1.97419 0.415435 3.93955 0 0 0 111 113 111 255
-0.921774 0.449545 4.14334 0 0 0 147 142 134 255
-0.721871 0.457795 4.04124 0 0 0 117 125 105 255
-0.351863 0.463964 4.21525 0 0 0 151 153 161 255
1.08698 0.525109 4.79483 0 0 0 93 113 86 255
1.98247 0.50907 3.93396 0 0 0 121 128 125 255
-0.976153 0.530689 4.20186 0 0 0 12 59 104 255
0.830819 0.595331 4.60607 0 0 0 156 160 161 255
2.07921 0.551197 3.75334 0 0 0 135 139 140 255
2.20332 0.552225 3.69047 0 0 0 143 142 139 255
-0.617812 0.587038 4.06809 0 0 0 157 159 161 255
-0.461338 0.594641 4.13068 0 0 0 157 160 162 255
1.96839 0.605876 4.03863 0 0 0 50 52 52 255
-0.907953 0.631225 4.12854 0 0 0 150 152 151 255
-0.829031 0.598775 4.09237 0 0 0 146 152 155 255
-0.503789 0.644463 4.0643 0 0 0 156 158 158 255
-0.312881 0.6888 4.30338 0 0 0 146 153 154 255
-0.970785 0.701465 4.17927 0 0 0 23 46 87 255
0.947081 0.750695 4.64917 0 0 0 116 146 130 255
1.08659 0.770654 4.77484 0 0 0 48 91 74 255
-0.663471 0.729786 4.06857 0 0 0 27 55 103 255
-1.00769 0.823943 4.22464 0 0 0 23 61 94 255
-0.728482 0.862461 4.06801 0 0 0 37 61 107 255
-0.447184 0.82872 4.13464 0 0 0 107 104 108 255
-0.604897 0.907861 4.07631 0 0 0 158 161 165 255
-0.843711 0.972684 4.10332 0 0 0 152 154 156 255
-0.46606 0.994556 4.13073 0 0 0 137 155 172 255
-0.361365 1.02427 4.22824 0 0 0 127 129 131 255
-0.476923 1.06193 4.12953 0 0 0 148 152 158 255
-0.343577 1.20722 4.25091 0 0 0 140 124 104 255
1.11238 1.40707 5.09735 0 0 0 68 108 88 255
-0.518972 1.31547 4.08558 0 0 0 174 163 107 255
-0.948401 1.41496 4.19433 0 0 0 44 79 117 255
-0.506153 1.4356 4.11865 0 0 0 45 86 124 255
1.99601 1.57783 4.10484 0 0 0 110 112 108 255
2.12695 -0.201493 3.97736 0 0 0 84 67 60 255
2.12018 -0.12623 3.98125 0 0 0 72 57 57 255
1.05264 0.111283 4.83096 0 0 0 45 91 64 255
2.0473 0.178641 4.03722 0 0 0 54 54 54 255
2.07873 0.17096 4.01469 0 0 0 40 47 49 255
1.97893 0.270044 4.02144 0 0 0 109 101 98 255
-0.855942 0.424468 4.09954 0 0 0 147 132 77 255
1.95943 0.471225 3.9745 0 0 0 128 132 131 255
-0.402642 0.621988 4.15903 0 0 0 25 57 105 255
-0.837708 0.647436 4.09611 0 0 0 154 153 154 255
-0.69035 0.636905 4.05351 0 0 0 23 56 107 255
1.05441 0.810502 4.74607 0 0 0 50 95 71 255
-0.727048 0.815425 4.06005 0 0 0 73 84 96 255
-0.301997 0.874469 4.28097 0 0 0 18 64 112 255
1.99628 0.904692 4.08104 0 0 0 46 51 52 255
-0.379954 1.21842 4.21759 0 0 0 153 126 99 255
0.383265 1.38523 4.89749 0 0 0 64 93 79 255
-0.8284 1.21307 4.10651 0 0 0 131 129 136 255
-0.451925 1.30919 4.1568 0 0 0 173 160 74 255
-0.335438 1.44315 4.63277 0 0 0 30 78 119 255
-0.873002 1.43288 4.11136 0 0 0 50 80 110 255
2.2009 -0.19379 3.88826 0 0 0 129 93 98 255
2.50018 -0.188894 3.96862 0 0 0 82 87 87 255
2.30745 -0.172217 3.93086 0 0 0 138 103 105 255
2.50695 -0.0975939 3.99475 0 0 0 115 122 124 255
2.50808 -0.0741138 3.96762 0 0 0 81 85 86 255
2.49869 -0.0137147 3.97001 0 0 0 120 127 129 255
2.21402 0.0165072 3.91616 0 0 0 162 162 162 255
2.54835 0.119862 3.98877 0 0 0 113 115 117 255
-0.295352 0.0979709 4.60057 0 0 0 81 87 99 255
2.341 0.253965 3.7076 0 0 0 155 135 115 255
0.648747 0.248254 4.58303 0 0 0 30 53 50 255
0.920694 0.258288 4.61449 0 0 0 96 101 99 255
0.462859 0.27405 4.66297 0 0 0 121 130 129 255
0.959784 0.267837 4.63443 0 0 0 83 112 100 255
2.34764 0.303288 3.70464 0 0 0 76 50 28 255
-0.733585 0.289229 4.04533 0 0 0 30 47 93 255
2.32121 0.306908 3.70315 0 0 0 153 123 92 255
0.67138 0.316702 4.57437 0 0 0 123 149 104 255
-0.384202 0.320444 4.17806 0 0 0 62 112 157 255
-0.335576 0.406121 4.23017 0 0 0 114 88 103 255
2.51688 0.425679 3.73177 0 0 0 99 98 98 255
-0.423678 0.449075 4.14355 0 0 0 150 151 157 255
2.28136 0.452146 3.6769 0 0 0 86 81 78 255
-0.511253 0.479288 4.08535 0 0 0 40 83 116 255
2.11667 0.525358 3.73035 0 0 0 38 42 46 255
2.2266 0.537974 3.68584 0 0 0 35 40 52 255
2.06561 0.557018 3.76227 0 0 0 75 86 87 255
0.576286 0.683301 4.62528 0 0 0 145 153 151 255
1.10878 0.737357 4.79566 0 0 0 136 148 146 255
1.08786 0.75506 4.77342 0 0 0 134 142 139 255
1.05402 0.768493 4.73767 0 0 0 144 153 153 255
-0.784104 0.75591 4.01752 0 0 0 86 89 99 255
2.33449 0.71648 3.68827 0 0 0 73 61 49 255
-0.816104 0.875238 3.98757 0 0 0 57 71 86 255
-0.81235 0.877554 3.98518 0 0 0 61 67 88 255
1.8834 1.43325 6.95928 0 0 0 147 145 139 255
1.32173 1.39203 6.58047 0 0 0 133 131 125 255
1.23882 1.37334 6.4321 0 0 0 142 141 133 255
0.906068 1.17876 4.64567 0 0 0 95 89 43 255
2.4032 1.0489 3.7214 0 0 0 99 97 98 255
2.4249 1.04604 3.69655 0 0 0 107 115 115 255
2.16826 1.06893 3.74386 0 0 0 125 133 133 255
2.07786 1.08716 3.78628 0 0 0 90 93 94 255
2.21159 1.08879 3.71726 0 0 0 73 75 74 255
2.31175 1.08698 3.71327 0 0 0 87 89 90 255
2.34206 1.08815 3.71144 0 0 0 87 93 93 255
2.21079 1.16685 3.68096 0 0 0 99 102 104 255
2.22973 1.24162 3.6745 0 0 0 109 118 116 255
2.39432 1.23807 3.66407 0 0 0 100 98 98 255
-0.4141 1.39753 4.17884 0 0 0 113 120 126 255
-0.669521 1.36865 3.82974 0 0 0 70 107 143 255
2.15179 1.36996 3.7066 0 0 0 117 120 119 255
2.18896 1.38114 3.67815 0 0 0 119 121 125 255
2.21877 1.39591 3.66545 0 0 0 100 102 104 255
2.50129 -0.00159787 3.96849 0 0 0 138 145 145 255
2.37962 0.313785 3.70308 0 0 0 106 86 56 255
0.609868 0.37442 4.59013 0 0 0 90 60 64 255
-0.721676 0.39213 4.04077 0 0 0 119 120 112 255
-0.509486 0.487207 4.08617 0 0 0 19 83 128 255
2.51462 0.493695 3.71775 0 0 0 68 49 45 255
2.64434 0.902949 3.90046 0 0 0 90 99 99 255
-0.653484 0.93732 4.00152 0 0 0 159 159 164 255
2.39601 1.03568 3.68164 0 0 0 81 82 82 255
-0.686851 1.3626 3.8279 0 0 0 80 126 160 255
-0.508689 1.41782 4.13203 0 0 0 64 114 148 255
2.11487 -0.201159 3.97923 0 0 0 109 98 94 255
2.1086 -0.0122164 3.98954 0 0 0 149 149 147 255
0.678698 0.241909 4.57209 0 0 0 96 99 99 255
2.38239 0.260885 3.71317 0 0 0 155 118 75 255
-0.708489 0.295604 4.04297 0 0 0 143 131 87 255
2.39201 0.319144 3.70084 0 0 0 64 43 28 255
0.885896 0.394157 4.60591 0 0 0 153 144 145 255
1.02781 0.415403 4.69432 0 0 0 131 63 70 255
-0.720873 0.400197 4.04 0 0 0 145 145 130 255
0.44688 0.423916 4.67406 0 0 0 140 139 139 255
2.34695 0.463931 3.67698 0 0 0 47 44 47 255
-0.469057 0.485359 4.11021 0 0 0 114 121 130 255
2.37265 0.544955 3.67767 0 0 0 41 40 45 255
-0.847612 0.738022 4.02796 0 0 0 93 101 111 255
2.36743 0.730457 3.70027 0 0 0 91 69 44 255
-0.683053 0.785286 4.07375 0 0 0 159 158 161 255
2.36445 0.750199 3.6969 0 0 0 97 71 33 255
-0.571529 0.911443 4.08509 0 0 0 161 161 163 255
0.859328 1.13877 4.62321 0 0 0 152 156 133 255
-0.381878 1.10725 4.21606 0 0 0 9 82 129 255
0.889495 1.17594 4.63505 0 0 0 125 121 72 255
-0.448922 1.39887 4.13136 0 0 0 155 159 162 255
2.45817 1.36829 3.65282 0 0 0 88 84 87 255
2.1301 -0.143388 3.97542 0 0 0 68 46 46 255
2.47779 -0.0667778 3.96753 0 0 0 60 67 75 255
2.21118 0.0150298 3.91576 0 0 0 156 158 160 255
2.47454 0.0392647 4.00465 0 0 0 89 89 89 255
2.12955 0.0420286 3.96788 0 0 0 93 96 95 255
-0.357261 0.317848 4.20139 0 0 0 50 96 131 255
2.2893 0.432019 3.67843 0 0 0 141 142 141 255
2.42562 0.453423 3.68548 0 0 0 35 37 41 255
2.20916 0.484524 3.67675 0 0 0 61 36 28 255
0.797242 0.555901 4.58938 0 0 0 154 159 157 255
0.44153 0.602127 4.69442 0 0 0 86 114 109 255
2.39254 0.538096 3.67354 0 0 0 142 145 146 255
1.95905 0.592837 4.0037 0 0 0 59 59 62 255
2.24311 0.545863 3.68372 0 0 0 132 142 144 255
2.28641 0.555784 3.68224 0 0 0 35 36 40 255
-0.452142 0.647736 4.13423 0 0 0 158 159 161 255
-0.406306 0.667044 4.16899 0 0 0 25 59 107 255
-0.630941 0.660094 4.06428 0 0 0 158 158 162 255
-0.740755 0.674488 4.05864 0 0 0 36 50 91 255
-0.289076 0.765745 4.32565 0 0 0 128 132 139 255
-0.480697 0.895448 4.12078 0 0 0 159 161 160 255
-0.793209 0.971236 3.96458 0 0 0 151 150 152 255
-0.404956 1.08083 4.19497 0 0 0 1 98 145 255
-0.589209 1.09797 4.00381 0 0 0 131 148 162 255
-0.524027 1.12159 3.99892 0 0 0 0 106 149 255
-0.332231 1.16498 4.25853 0 0 0 133 134 139 255
2.40724 -0.22134 3.85793 0 0 0 144 144 144 255
2.21599 0.0210604 3.91768 0 0 0 162 162 162 255
1.0935 0.105651 4.93736 0 0 0 50 93 69 255
1.03343 0.31031 4.70138 0 0 0 143 145 133 255
-0.870759 0.397012 4.11077 0 0 0 151 135 77 255
-0.731707 0.383914 4.03994 0 0 0 129 131 116 255
2.23189 0.491017 3.68411 0 0 0 35 37 41 255
0.780686 0.593784 4.5904 0 0 0 157 162 160 255
1.98534 0.529559 3.94027 0 0 0 127 133 136 255
2.3905 0.541248 3.67244 0 0 0 122 130 132 255
-0.609697 0.634452 4.07211 0 0 0 159 160 161 255
-0.40423 0.638988 4.16115 0 0 0 25 59 105 255
0.77304 0.68477 4.60138 0 0 0 67 110 68 255
-0.308038 0.75044 4.30651 0 0 0 153 156 155 255
0.7868 0.820169 4.60175 0 0 0 158 163 161 255
-0.421032 0.833189 4.16722 0 0 0 158 160 162 255
-0.624874 0.896797 4.07521 0 0 0 100 113 139 255
-0.449188 0.995398 4.13707 0 0 0 134 150 165 255
-0.366037 1.13733 4.22888 0 0 0 128 140 152 255
-0.534703 1.14418 4.10625 0 0 0 1 98 146 255
-0.346582 1.24669 4.22955 0 0 0 155 139 84 255
-0.30212 1.47189 4.65086 0 0 0 87 119 151 255
-0.448759 1.41789 4.0702 0 0 0 36 80 123 255
2.1448 -0.0570385 3.96152 0 0 0 33 41 36 255
1.07412 0.11295 4.90233 0 0 0 48 91 67 255
-0.358336 0.400326 4.1994 0 0 0 97 69 102 255
1.94763 0.475404 3.99118 0 0 0 90 90 87 255
2.13355 0.539222 3.71941 0 0 0 134 142 146 255
-0.395139 0.640641 4.16431 0 0 0 24 59 106 255
-0.698091 0.694163 4.05773 0 0 0 25 58 111 255
0.803109 0.777386 4.60718 0 0 0 77 116 99 255
1.07366 1.39445 5.08838 0 0 0 66 105 77 255
2.21922 -0.20993 3.88958 0 0 0 119 120 121 255
2.10476 -0.186395 3.97235 0 0 0 110 105 104 255
2.10656 -0.130448 3.97305 0 0 0 136 136 133 255
2.10448 -0.108679 3.96628 0 0 0 143 141 139 255
2.1225 -0.0766789 3.96195 0 0 0 72 73 74 255
2.36171 -0.0535456 3.86679 0 0 0 79 83 86 255
0.376428 0.150322 4.80482 0 0 0 28 59 44 255
2.36074 0.24985 3.71244 0 0 0 88 83 82 255
2.28747 0.253916 3.70388 0 0 0 57 56 59 255
2.20546 0.270522 3.72172 0 0 0 62 49 47 255
2.32584 0.277306 3.70589 0 0 0 69 58 57 255
2.32876 0.277637 3.70559 0 0 0 69 58 57 255
-0.457333 0.278399 4.10819 0 0 0 73 55 38 255
-0.444439 0.305191 4.11943 0 0 0 97 82 94 255
-0.76126 0.300104 4.04601 0 0 0 131 109 116 255
-0.458179 0.329102 4.1119 0 0 0 63 100 144 255
-0.465629 0.372625 4.11047 0 0 0 137 137 146 255
-0.493526 0.468703 4.09479 0 0 0 128 145 164 255
-0.701872 0.464709 4.04259 0 0 0 120 127 124 255
1.03696 0.512205 4.72865 0 0 0 122 136 112 255
-0.370852 0.507501 4.19903 0 0 0 73 114 148 255
-0.348644 0.522564 4.2202 0 0 0 32 82 125 255
1.09896 0.709767 4.78111 0 0 0 111 118 117 255
0.462509 0.942587 4.71712 0 0 0 101 113 109 255
1.16388 1.25049 5.43606 0 0 0 140 139 133 255
2.41164 1.07333 3.74386 0 0 0 125 129 128 255
-1.04146 1.235 4.40331 0 0 0 54 99 133 255
-0.959391 1.25649 4.37414 0 0 0 27 84 124 255
-0.840994 1.25158 4.25715 0 0 0 115 96 111 255
-0.994594 1.28326 4.36427 0 0 0 106 105 114 255
2.16313 1.18139 3.77646 0 0 0 99 100 102 255
2.38899 1.18393 3.75746 0 0 0 106 105 109 255
2.3793 1.227 3.76722 0 0 0 103 103 103 255
2.28371 1.26576 3.75209 0 0 0 103 107 110 255
-1.14046 1.49287 4.58461 0 0 0 59 110 152 255
-0.367475 1.40981 4.21699 0 0 0 160 157 163 255
-1.2082 1.58587 4.686 0 0 0 98 112 134 255
2.23389 1.40208 3.76304 0 0 0 113 113 115 255
-0.444183 0.278712 4.11729 0 0 0 140 103 88 255
-0.464387 0.371265 4.11164 0 0 0 119 135 153 255
0.667096 0.403088 4.5786 0 0 0 124 46 49 255
-0.407158 0.486519 4.15593 0 0 0 98 119 145 255
1.10735 0.594104 4.80986 0 0 0 139 146 146 255
-0.471403 0.662811 4.06495 0 0 0 100 107 129 255
-0.724387 0.884336 4.06896 0 0 0 32 62 104 255
-0.790971 1.21041 4.21875 0 0 0 134 145 147 255
-0.964406 1.25697 4.37187 0 0 0 33 90 128 255
2.3878 1.41886 3.78899 0 0 0 95 95 99 255
2.45532 -0.218837 3.95985 0 0 0 74 74 76 255
2.35638 0.285865 3.70738 0 0 0 149 124 96 255
2.38864 0.30113 3.70615 0 0 0 133 97 66 255
2.42214 0.420689 3.69782 0 0 0 61 34 20 255
-0.648651 0.410868 4.04698 0 0 0 23 91 75 255
-0.292863 0.415717 4.31427 0 0 0 67 117 147 255
2.15007 0.509927 3.71601 0 0 0 136 140 137 255
-0.354625 0.496234 4.21956 0 0 0 125 137 153 255
0.781106 0.553286 4.58653 0 0 0 155 159 160 255
-0.497388 0.749357 4.10617 0 0 0 158 159 160 255
-0.374063 0.783246 4.19906 0 0 0 62 75 103 255
-0.814121 1.22701 4.23238 0 0 0 139 138 140 255
-0.802064 1.21421 4.22754 0 0 0 137 144 146 255
2.40019 1.41683 3.80083 0 0 0 98 92 97 255
2.14594 -0.205063 3.95824 0 0 0 47 44 45 255
2.26799 -0.206902 3.85961 0 0 0 42 40 39 255
2.13962 -0.213429 3.97053 0 0 0 56 55 55 255
2.13736 -0.112508 3.96104 0 0 0 39 41 40 255
2.28724 0.284293 3.69879 0 0 0 158 127 80 255
2.40934 0.390013 3.69183 0 0 0 119 136 144 255
2.33102 0.428468 3.67787 0 0 0 56 43 41 255
2.37184 0.442468 3.6779 0 0 0 134 144 147 255
-0.639894 0.42004 4.04874 0 0 0 37 102 91 255
-0.573602 0.440896 4.0665 0 0 0 114 141 165 255
2.41216 0.481784 3.68268 0 0 0 36 40 43 255
1.9689 0.511785 3.90783 0 0 0 109 111 110 255
0.830962 0.567882 4.6053 0 0 0 157 162 160 255
1.08617 0.599977 4.76684 0 0 0 144 149 147 255
-0.532717 0.762489 4.09398 0 0 0 97 117 135 255
0.951355 1.09184 4.66579 0 0 0 29 80 119 255
0.535254 1.23518 4.67404 0 0 0 149 152 151 255
-0.382021 1.42416 4.29845 0 0 0 28 78 122 255
2.39773 1.42308 3.80071 0 0 0 95 95 104 255
2.44037 -0.220656 3.95143 0 0 0 60 61 61 255
-0.303994 0.133344 4.52837 0 0 0 25 66 103 255
0.38123 0.0992669 4.79021 0 0 0 61 83 76 255
2.25596 0.290513 3.71036 0 0 0 140 105 63 255
1.02687 0.281109 4.701 0 0 0 113 129 108 255
2.11775 0.413562 3.72855 0 0 0 45 49 59 255
-0.418225 0.412741 4.14678 0 0 0 129 141 148 255
-0.327185 0.415597 4.24033 0 0 0 149 130 136 255
-0.342831 0.47613 4.23063 0 0 0 147 151 157 255
2.21855 0.555016 3.68886 0 0 0 139 142 142 255
-0.299474 0.742898 4.32398 0 0 0 152 152 152 255
-0.438021 0.877878 4.14359 0 0 0 157 160 159 255
-0.347026 1.17101 4.25178 0 0 0 144 142 144 255
-0.30929 1.44807 4.61792 0 0 0 32 76 114 255
2.41165 -0.191379 3.86222 0 0 0 88 44 45 255
2.41749 -0.119686 3.87056 0 0 0 34 33 35 255
2.39831 -0.0392239 3.84106 0 0 0 35 37 41 255
2.30842 0.00228304 3.88806 0 0 0 128 130 129 255
2.33685 0.08863 3.93123 0 0 0 186 188 190 255
1.08783 0.1466 4.84453 0 0 0 49 94 67 255
-0.34602 0.168142 4.52499 0 0 0 6 57 103 255
2.08097 0.44596 3.74042 0 0 0 134 137 137 255
1.94624 0.476196 3.88659 0 0 0 133 136 135 255
0.737135 0.686931 4.58671 0 0 0 62 108 73 255
-0.323023 0.706542 4.24706 0 0 0 153 155 157 255
0.804684 0.82757 4.60659 0 0 0 160 162 162 255
2.24591 0.737887 3.69144 0 0 0 54 44 38 255
2.27621 -0.161412 3.83898 0 0 0 140 105 100 255
2.49812 -0.0157017 3.98332 0 0 0 108 115 113 255
2.22813 0.0193682 3.91164 0 0 0 169 166 167 255
2.55268 0.130414 4.03344 0 0 0 89 93 94 255
-0.979199 0.131529 4.14266 0 0 0 47 61 76 255
-3.06399 0.162173 6.41494 0 0 0 49 45 43 255
0.554497 0.244013 4.60184 0 0 0 35 59 57 255
0.93591 0.256323 4.62226 0 0 0 54 87 82 255
2.47273 0.279879 3.74016 0 0 0 89 70 78 255
0.940106 0.334053 4.62869 0 0 0 143 146 143 255
2.36533 0.303957 3.70387 0 0 0 157 124 73 255
-0.908902 0.326695 4.08897 0 0 0 91 102 119 255
-0.461996 0.343992 4.11184 0 0 0 6 68 120 255
1.03002 0.37574 4.69351 0 0 0 107 47 57 255
-0.570774 0.383941 4.06883 0 0 0 45 80 108 255
2.55772 0.37531 3.76773 0 0 0 64 72 75 255
2.49011 0.385479 3.72626 0 0 0 119 128 132 255
2.51071 0.38456 3.73922 0 0 0 128 128 131 255
2.51522 0.428367 3.7373 0 0 0 118 118 118 255
2.54663 0.43581 3.75767 0 0 0 75 63 58 255
-0.977351 0.512193 4.17962 0 0 0 40 65 93 255
1.06408 0.583813 4.73712 0 0 0 111 147 136 255
2.52019 0.486361 3.73664 0 0 0 107 100 94 255
1.10296 0.606564 4.79213 0 0 0 113 113 113 255
1.07483 0.6137 4.74458 0 0 0 126 133 130 255
1.10113 0.656819 4.79205 0 0 0 110 117 115 255
2.45713 0.536512 3.72216 0 0 0 87 97 105 255
1.07435 0.66784 4.75632 0 0 0 116 123 123 255
-0.944022 0.67588 4.1324 0 0 0 49 62 78 255
-0.8892 0.67957 4.12718 0 0 0 74 80 86 255
1.10603 0.755311 4.79789 0 0 0 139 146 145 255
-0.893256 0.724597 4.12937 0 0 0 124 128 129 255
0.866135 0.856064 4.62362 0 0 0 152 159 157 255
2.38418 0.766052 3.70216 0 0 0 107 81 51 255
-0.86606 0.944325 4.10684 0 0 0 42 53 93 255
-0.453773 0.951785 4.13729 0 0 0 77 97 137 255
-0.892733 1.01898 4.14498 0 0 0 56 62 84 255
-0.853686 1.0085 4.12191 0 0 0 147 149 152 255
-0.865543 1.00827 4.076 0 0 0 138 139 146 255
-0.303462 1.0956 4.62881 0 0 0 65 108 139 255
1.24528 1.40526 6.63404 0 0 0 152 148 142 255
1.08835 1.42588 6.36428 0 0 0 141 142 140 255
1.04024 1.17228 4.74512 0 0 0 137 119 47 255
-0.301018 1.20223 4.63007 0 0 0 57 98 126 255
-0.629784 1.20209 4.0884 0 0 0 64 85 114 255
-0.732155 1.20585 3.96448 0 0 0 88 102 117 255
2.48019 1.04018 3.7108 0 0 0 92 91 91 255
2.52791 1.04367 3.75019 0 0 0 79 80 79 255
2.22639 1.06062 3.73349 0 0 0 76 82 80 255
2.30127 1.05459 3.71299 0 0 0 131 136 139 255
2.28915 1.06885 3.75723 0 0 0 92 94 94 255
2.43819 1.04613 3.70701 0 0 0 101 98 99 255
-0.681715 1.25608 3.93287 0 0 0 72 91 109 255
-0.734778 1.26728 3.94321 0 0 0 114 123 134 255
2.39888 1.08503 3.72737 0 0 0 75 73 74 255
2.44046 1.08643 3.71941 0 0 0 76 76 76 255
2.4496 1.09039 3.73908 0 0 0 86 90 91 255
-0.624707 1.34697 3.86491 0 0 0 66 103 130 255
2.50268 -0.0155131 3.97729 0 0 0 139 146 144 255
-0.373851 0.331058 4.19061 0 0 0 72 111 144 255
1.05068 0.352004 4.70945 0 0 0 87 87 87 255
0.746725 0.358423 4.57499 0 0 0 89 49 51 255
0.905895 0.370206 4.61575 0 0 0 150 130 132 255
2.55353 0.38475 3.76219 0 0 0 121 133 134 255
2.44007 0.387596 3.7088 0 0 0 139 139 139 255
-0.519953 0.430094 4.08359 0 0 0 146 154 157 255
-0.638468 0.452809 4.04809 0 0 0 42 95 86 255
2.52002 0.423464 3.74471 0 0 0 90 64 61 255
2.15274 0.482461 3.71167 0 0 0 40 40 43 255
2.52285 0.496864 3.75374 0 0 0 104 75 62 255
-0.92627 0.57528 4.13105 0 0 0 17 53 94 255
2.44717 0.537753 3.71961 0 0 0 62 65 69 255
-0.942566 0.681286 4.12862 0 0 0 35 51 66 255
-0.894565 0.737113 4.12956 0 0 0 118 122 123 255
2.339 0.75927 3.68593 0 0 0 99 76 48 255
-0.873286 1.0408 4.07276 0 0 0 34 55 89 255
1.10068 1.42366 6.3861 0 0 0 142 144 140 255
-0.731365 1.26038 3.94158 0 0 0 121 131 139 255
-0.679273 1.26008 3.9352 0 0 0 53 76 103 255
-0.624091 1.27553 3.94322 0 0 0 129 131 135 255
-0.640315 1.34622 3.86513 0 0 0 97 130 147 255
2.50191 -0.0151648 4.01371 0 0 0 139 146 144 255
2.48735 0.0438624 4.03034 0 0 0 88 88 92 255
2.07828 0.143558 3.91614 0 0 0 50 52 55 255
-0.964902 0.134208 4.13476 0 0 0 32 47 67 255
2.32506 0.263343 3.70735 0 0 0 147 112 61 255
2.47487 0.287777 3.74113 0 0 0 81 81 85 255
-0.961781 0.291648 4.12737 0 0 0 39 63 82 255
1.00047 0.364631 4.67658 0 0 0 113 74 78 255
-0.305951 0.355503 4.26732 0 0 0 71 112 142 255
-0.564465 0.36764 4.0686 0 0 0 84 125 160 255
2.43552 0.384538 3.70616 0 0 0 131 133 136 255
2.50078 0.389844 3.73202 0 0 0 135 139 140 255
2.13439 0.427357 3.717 0 0 0 132 140 142 255
-0.968197 0.524537 4.15959 0 0 0 32 67 94 255
-0.362918 0.515929 4.21489 0 0 0 76 112 141 255
2.39957 0.456196 3.68168 0 0 0 105 81 65 255
2.52822 0.502524 3.75398 0 0 0 40 39 40 255
-0.807985 0.572182 4.08406 0 0 0 30 53 77 255
2.43576 0.554487 3.70792 0 0 0 142 144 146 255
2.41978 0.548313 3.69698 0 0 0 143 146 145 255
-0.949815 0.670311 4.13621 0 0 0 74 78 86 255
-0.420868 0.700097 4.16585 0 0 0 42 59 81 255
-0.495374 0.720481 4.11424 0 0 0 46 55 92 255
0.93482 0.785812 4.63549 0 0 0 153 160 158 255
-0.871322 0.917463 4.11994 0 0 0 31 52 90 255
2.34851 0.746644 3.68859 0 0 0 99 64 32 255
-0.867544 0.939793 4.11552 0 0 0 38 54 91 255
0.873088 1.06763 4.62601 0 0 0 33 95 134 255
1.10984 1.42367 6.36247 0 0 0 142 144 140 255
-0.59477 1.15569 4.11746 0 0 0 4 105 150 255
-0.777808 1.16203 4.00496 0 0 0 141 143 144 255
-0.630291 1.20345 4.08526 0 0 0 60 88 126 255
1.14079 1.39735 5.08832 0 0 0 77 108 91 255
-0.572138 1.26954 3.9921 0 0 0 50 73 95 255
-0.624301 1.27009 3.94343 0 0 0 127 126 132 255
2.28217 -0.205968 3.87052 0 0 0 43 43 43 255
2.39001 -0.205523 3.87503 0 0 0 44 44 44 255
2.13622 -0.193862 3.97427 0 0 0 81 54 55 255
2.48288 -0.0907274 3.92211 0 0 0 49 51 53 255
-1.00618 -0.149469 4.20105 0 0 0 159 161 162 255
2.48599 -0.049747 4.02715 0 0 0 41 47 46 255
2.19597 0.0273316 3.91891 0 0 0 112 112 112 255
0.379831 0.117469 4.78328 0 0 0 38 68 51 255
-0.670138 0.274204 4.04287 0 0 0 76 71 70 255
0.77679 0.355676 4.57482 0 0 0 150 142 143 255
-0.854602 0.379629 4.09169 0 0 0 137 140 135 255
-0.341098 0.379858 4.22475 0 0 0 116 85 104 255
0.883077 0.41262 4.60466 0 0 0 191 119 128 255
2.19233 0.424576 3.69829 0 0 0 138 140 142 255
2.28433 0.404093 3.67642 0 0 0 140 147 149 255
-0.898838 0.472017 4.14534 0 0 0 156 145 106 255
2.50224 0.434592 3.72692 0 0 0 133 140 142 255
2.41854 0.43751 3.68868 0 0 0 38 39 39 255
2.20627 0.513101 3.69195 0 0 0 94 66 58 255
2.41798 0.497085 3.68987 0 0 0 36 40 43 255
0.548041 0.626981 4.63608 0 0 0 149 153 152 255
2.28524 0.538261 3.68146 0 0 0 35 37 41 255
2.41472 0.548543 3.69438 0 0 0 143 146 145 255
2.48685 0.550691 3.73052 0 0 0 98 114 123 255
-0.462919 0.883932 4.12658 0 0 0 158 161 160 255
2.40779 0.777704 3.70142 0 0 0 90 85 75 255
-0.829642 0.980517 4.10799 0 0 0 152 154 155 255
-0.871802 1.05043 4.08283 0 0 0 26 57 96 255
-0.843153 1.13454 4.05125 0 0 0 32 79 116 255
1.06003 1.19698 4.76941 0 0 0 157 137 70 255
2.48148 1.06866 3.74931 0 0 0 91 91 92 255
-0.622395 1.27124 3.94424 0 0 0 127 126 132 255
-0.571539 1.27728 3.99567 0 0 0 28 74 114 255
-0.291311 1.42884 4.65903 0 0 0 52 86 118 255
0.856413 1.3837 4.6423 0 0 0 56 98 75 255
2.14957 0.0357231 3.9536 0 0 0 88 89 89 255
2.34646 0.112883 3.84519 0 0 0 252 250 252 255
-0.957033 0.103363 4.19308 0 0 0 147 149 148 255
-0.979297 0.162299 4.18379 0 0 0 32 60 98 255
-0.923111 0.293032 4.11137 0 0 0 7 51 91 255
2.40537 0.407553 3.68842 0 0 0 129 136 138 255
2.41575 0.502866 3.68979 0 0 0 36 40 43 255
2.17381 0.522801 3.70469 0 0 0 111 122 127 255
2.40219 0.533674 3.68747 0 0 0 143 145 149 255
0.771067 0.665553 4.58722 0 0 0 65 107 68 255
-0.526482 0.721893 4.09689 0 0 0 65 67 80 255
-0.722228 0.841829 4.074 0 0 0 35 56 97 255
-0.391901 0.859619 4.19116 0 0 0 143 152 154 255
-0.810197 0.953147 4.10195 0 0 0 154 157 156 255
-0.416573 0.995632 4.15783 0 0 0 125 148 165 255
2.33131 0.831796 3.68417 0 0 0 93 80 63 255
1.11716 1.41635 6.37263 0 0 0 138 137 132 255
-0.674508 1.12054 3.9961 0 0 0 28 91 134 255
1.05467 1.22414 4.76677 0 0 0 152 126 68 255
0.448212 1.32961 4.75158 0 0 0 66 99 77 255
-0.67299 1.29991 3.9214 0 0 0 28 78 123 255
0.817605 1.37281 4.61684 0 0 0 53 92 67 255
-0.695293 1.36135 3.86532 0 0 0 62 87 119 255
2.08861 0.427554 3.74409 0 0 0 125 125 123 255
-0.561122 0.634882 4.09665 0 0 0 154 156 160 255
-0.433457 0.813387 4.15184 0 0 0 157 159 161 255
2.22848 0.737563 3.6915 0 0 0 76 61 41 255
1.11118 1.37227 5.10695 0 0 0 69 105 81 255
2.47395 -0.223622 4.05493 0 0 0 86 88 88 255
-0.863251 -0.152714 4.23778 0 0 0 215 214 221 255
2.35573 0.136113 3.9481 0 0 0 252 252 252 255
2.23727 0.313485 3.70542 0 0 0 78 41 7 255
2.66039 0.439311 4.02324 0 0 0 59 64 67 255
2.44363 0.405804 3.71272 0 0 0 78 66 55 255
-0.91118 0.907086 4.15577 0 0 0 67 64 74 255
1.94299 0.837489 4.05579 0 0 0 132 131 127 255
1.62425 1.19638 5.4604 0 0 0 92 89 81 255
1.94442 0.873529 4.04077 0 0 0 157 162 160 255
1.05899 1.12883 4.7567 0 0 0 87 112 82 255
-0.813652 1.20027 4.12517 0 0 0 37 88 126 255
2.38888 0.952441 3.70125 0 0 0 95 67 41 255
0.371064 0.0944526 4.77813 0 0 0 78 94 87 255
2.10535 0.391206 3.74172 0 0 0 108 108 110 255
2.34542 0.554028 3.68193 0 0 0 144 146 147 255
1.93744 0.825162 4.0492 0 0 0 143 141 135 255
1.21994 1.49903 6.70383 0 0 0 89 85 81 255
1.93853 0.84431 4.02064 0 0 0 112 109 105 255
2.29313 0.749493 3.68976 0 0 0 114 85 48 255
-0.810052 1.19081 4.12311 0 0 0 32 86 129 255
2.35122 -0.143664 3.86503 0 0 0 181 116 121 255
2.54121 0.13764 4.07081 0 0 0 52 47 46 255
-0.524602 0.415114 4.0816 0 0 0 151 153 154 255
2.65509 0.350639 4.05724 0 0 0 47 52 53 255
2.6528 0.398604 3.98457 0 0 0 78 93 100 255
2.14779 0.383627 3.71138 0 0 0 33 38 39 255
2.51544 0.403812 3.74315 0 0 0 104 98 96 255
-0.7628 0.657465 4.05342 0 0 0 145 146 147 255
-0.565933 0.771826 4.08241 0 0 0 159 162 162 255
-0.359187 0.8136 4.21404 0 0 0 160 158 162 255
2.35434 0.761141 3.69193 0 0 0 112 84 54 255
1.93914 0.889312 4.06688 0 0 0 161 164 162 255
-0.713885 1.17716 4.07901 0 0 0 106 139 167 255
2.49687 -0.0680578 4.04936 0 0 0 52 52 52 255
1.06813 0.0879075 5.14529 0 0 0 61 93 78 255
2.35872 0.13413 3.96084 0 0 0 255 252 253 255
2.54197 0.143206 4.05311 0 0 0 43 48 52 255
-0.426937 0.271945 4.1285 0 0 0 26 50 86 255
1.07566 0.351254 4.73202 0 0 0 147 148 148 255
2.64993 0.334179 4.03665 0 0 0 48 51 53 255
0.423453 0.544229 4.70484 0 0 0 79 102 82 255
2.33529 0.412215 3.68007 0 0 0 37 36 43 255
1.08438 0.697706 4.76886 0 0 0 144 151 151 255
2.2158 0.505012 3.68963 0 0 0 44 38 36 255
-0.3928 0.680645 4.17656 0 0 0 29 60 107 255
-0.67102 0.71361 4.06714 0 0 0 34 64 111 255
2.39305 0.677338 3.70533 0 0 0 114 81 42 255
1.98407 0.928431 3.95292 0 0 0 78 74 67 255
-0.583752 1.14932 4.12771 0 0 0 1 105 148 255
-0.836696 1.18672 4.14543 0 0 0 33 85 127 255
1.15396 1.36426 5.02285 0 0 0 70 103 82 255
2.21926 0.00296365 3.91717 0 0 0 113 111 112 255
2.05482 0.170221 4.02359 0 0 0 47 51 54 255
1.06451 0.339722 4.72108 0 0 0 157 107 115 255
-0.543023 0.40962 4.07318 0 0 0 145 151 156 255
2.49908 0.40917 3.73044 0 0 0 135 141 142 255
-0.919319 0.534104 4.13143 0 0 0 16 62 102 255
2.33945 0.420249 3.67901 0 0 0 32 36 40 255
2.43014 0.469972 3.68198 0 0 0 31 35 39 255
-0.814998 0.621972 4.08125 0 0 0 152 152 153 255
2.07355 0.508479 3.75133 0 0 0 119 127 129 255
2.56878 0.521972 3.78971 0 0 0 126 127 130 255
-0.313851 0.672577 4.29688 0 0 0 123 129 133 255
-0.681496 0.728308 4.06873 0 0 0 35 65 109 255
0.801189 0.842801 4.60302 0 0 0 159 166 166 255
-0.431468 0.86097 4.15261 0 0 0 157 160 162 255
1.91989 0.770116 4.02865 0 0 0 171 174 171 255
2.25167 0.679219 3.68889 0 0 0 96 81 57 255
2.23089 0.758786 3.68939 0 0 0 83 66 49 255
2.35978 0.824402 3.68225 0 0 0 100 84 56 255
2.43663 -0.198861 3.94412 0 0 0 42 42 42 255
2.12126 -0.150527 3.96535 0 0 0 102 76 70 255
2.42622 -0.037422 3.8563 0 0 0 34 35 41 255
2.32516 0.0152812 3.95501 0 0 0 164 161 163 255
1.04021 0.160965 5.14172 0 0 0 50 96 67 255
-0.391948 0.120764 4.629 0 0 0 17 58 99 255
2.04613 0.227844 3.94397 0 0 0 43 44 43 255
-0.348379 0.441443 4.21505 0 0 0 136 123 132 255
2.30955 0.500013 3.67958 0 0 0 143 144 144 255
-0.317649 0.712433 4.27079 0 0 0 154 156 155 255
2.2291 -0.192792 3.87464 0 0 0 130 128 130 255
2.3343 -0.168254 3.89704 0 0 0 150 87 85 255
2.36713 -0.108584 3.92461 0 0 0 112 115 120 255
2.42442 -0.0744361 3.87416 0 0 0 77 85 96 255
-3.24728 0.09238 6.08779 0 0 0 69 81 81 255
-1.16218 0.0924677 4.29553 0 0 0 27 33 33 255
-3.51343 0.146289 6.19741 0 0 0 66 65 66 255
-1.08636 0.143902 4.26792 0 0 0 39 49 59 255
0.906749 0.283338 4.61388 0 0 0 51 72 59 255
2.39409 0.263198 3.72007 0 0 0 99 61 19 255
2.30833 0.290349 3.70443 0 0 0 84 50 27 255
2.64459 0.421743 4.00333 0 0 0 94 102 106 255
2.45311 0.381015 3.71542 0 0 0 99 101 110 255
2.45859 0.411599 3.71843 0 0 0 114 114 114 255
-2.9058 0.636714 5.41464 0 0 0 87 87 91 255
2.57965 0.544709 3.79539 0 0 0 130 130 129 255
2.51284 0.553952 3.74394 0 0 0 134 134 134 255
-0.483213 0.653222 4.09102 0 0 0 79 78 85 255
-2.99877 1.02033 5.36149 0 0 0 110 137 131 255
-3.00166 1.04716 5.33344 0 0 0 32 29 31 255
-3.00066 1.06962 5.34 0 0 0 32 29 32 255
-2.9904 1.08267 5.33857 0 0 0 35 40 41 255
-2.98651 1.10932 5.30494 0 0 0 104 105 107 255
-2.97834 1.11364 5.36676 0 0 0 129 136 135 255
2.30068 0.717181 3.6927 0 0 0 65 55 47 255
-3.03431 1.19188 5.4008 0 0 0 72 108 96 255
-2.93706 1.33879 5.90724 0 0 0 61 65 68 255
-2.90356 1.26178 5.44368 0 0 0 63 100 82 255
-2.88854 1.40771 5.78653 0 0 0 74 87 91 255
-2.79729 1.3779 5.61583 0 0 0 33 41 38 255
-2.91558 1.45476 5.70768 0 0 0 78 73 74 255
-3.01207 1.49004 5.69794 0 0 0 75 85 86 255
-0.887337 1.03455 4.11253 0 0 0 83 86 94 255
-2.73945 1.39456 5.29953 0 0 0 121 140 133 255
-2.76295 1.38856 5.16414 0 0 0 81 105 98 255
-0.264367 1.18389 4.52672 0 0 0 45 92 126 255
-2.72948 1.42703 5.14171 0 0 0 111 118 118 255
-0.879703 1.18696 4.14514 0 0 0 125 144 153 255
-0.73415 1.20791 4.08704 0 0 0 118 105 116 255
0.977469 1.36394 4.70464 0 0 0 93 117 110 255
2.13507 1.05194 3.73924 0 0 0 77 78 79 255
2.16372 1.04334 3.72122 0 0 0 108 106 105 255
2.21353 1.03902 3.69296 0 0 0 120 119 120 255
2.29074 1.04185 3.67786 0 0 0 80 75 77 255
2.40804 1.03116 3.6809 0 0 0 122 119 121 255
2.41723 1.03689 3.68272 0 0 0 98 91 93 255
2.23205 1.05302 3.68787 0 0 0 78 76 75 255
2.30512 1.04336 3.67628 0 0 0 130 136 139 255
2.31767 1.0442 3.67889 0 0 0 91 96 98 255
2.41136 1.05395 3.68262 0 0 0 133 140 141 255
2.23024 1.069 3.68842 0 0 0 116 119 118 255
2.29126 1.0761 3.68062 0 0 0 94 89 91 255
2.31783 1.07827 3.68135 0 0 0 107 109 111 255
2.20992 1.12545 3.69479 0 0 0 107 111 110 255
2.33132 1.12198 3.67882 0 0 0 101 100 101 255
2.38988 1.15872 3.67428 0 0 0 105 105 106 255
2.36166 1.16754 3.67219 0 0 0 113 114 117 255
2.2757 1.20607 3.68537 0 0 0 113 111 112 255
2.35207 1.20478 3.66644 0 0 0 108 107 112 255
2.38361 1.20091 3.67043 0 0 0 113 110 111 255
2.28919 1.24654 3.6818 0 0 0 121 117 120 255
2.42163 1.2383 3.66985 0 0 0 122 119 120 255
2.22522 -0.19315 3.87513 0 0 0 130 128 130 255
2.22605 -0.0667023 3.89231 0 0 0 61 65 69 255
-0.30405 0.0847415 4.60355 0 0 0 113 121 121 255
-3.50518 0.142883 6.19567 0 0 0 66 65 66 255
-1.08753 0.14372 4.26872 0 0 0 39 49 59 255
-3.57701 0.237242 6.31708 0 0 0 76 74 74 255
-0.590258 0.28957 4.05239 0 0 0 44 53 76 255
2.64403 0.38693 3.97688 0 0 0 77 83 86 255
0.979848 0.423914 4.65893 0 0 0 150 150 150 255
-0.323833 0.514229 4.24212 0 0 0 91 113 135 255
2.36419 0.5331 3.68591 0 0 0 65 35 24 255
-3.00081 1.05867 5.33026 0 0 0 23 33 32 255
-2.97448 1.10937 5.36224 0 0 0 129 136 135 255
2.36832 0.720345 3.69916 0 0 0 107 86 60 255
2.36482 0.763519 3.6975 0 0 0 120 87 56 255
-2.89769 1.41158 5.77604 0 0 0 97 101 102 255
0.912075 1.08395 4.6432 0 0 0 109 134 94 255
-2.90932 1.45745 5.57248 0 0 0 78 85 86 255
-0.91168 1.17032 4.15499 0 0 0 84 109 121 255
-0.840603 1.3225 4.15637 0 0 0 60 88 115 255
2.39948 1.03911 3.68019 0 0 0 121 122 122 255
-0.710311 1.30662 4.08797 0 0 0 126 129 135 255
2.28742 1.06306 3.67889 0 0 0 118 119 121 255
2.31069 1.05515 3.67756 0 0 0 117 121 124 255
2.36063 1.07138 3.67792 0 0 0 99 102 113 255
2.40573 1.07886 3.68328 0 0 0 87 89 91 255
2.23364 -0.0633598 3.88784 0 0 0 80 84 90 255
-1.02716 -0.148142 4.20705 0 0 0 155 156 160 255
-1.18501 0.0771058 4.30333 0 0 0 25 34 33 255
-2.20674 0.145649 5.20616 0 0 0 96 96 96 255
-1.02855 0.100994 4.22218 0 0 0 145 147 148 255
0.977602 0.26027 4.64689 0 0 0 32 68 54 255
-3.57855 0.240912 6.32231 0 0 0 76 74 74 255
-1.08893 0.151647 4.27597 0 0 0 26 42 71 255
2.21371 0.287343 3.71164 0 0 0 152 130 97 255
2.6442 0.383592 3.99132 0 0 0 75 82 85 255
-0.303752 0.378259 4.26795 0 0 0 78 107 133 255
2.64246 0.40756 3.98408 0 0 0 64 74 80 255
-0.299855 0.42729 4.29293 0 0 0 102 124 132 255
2.65778 0.453268 4.02203 0 0 0 60 58 56 255
2.36731 0.422784 3.67815 0 0 0 86 105 114 255
2.55474 0.447055 3.76032 0 0 0 53 38 34 255
-0.520448 0.447966 4.08266 0 0 0 87 125 168 255
-2.87576 0.823774 5.39066 0 0 0 141 145 145 255
-3.03652 1.18623 6.03023 0 0 0 37 34 35 255
-2.99291 1.25334 6.01784 0 0 0 84 78 81 255
-0.514886 0.810611 4.0841 0 0 0 54 66 80 255
2.26839 0.722518 3.69187 0 0 0 110 85 59 255
-2.94949 1.33655 5.9984 0 0 0 38 43 43 255
-2.90468 1.26914 5.43587 0 0 0 81 106 95 255
-2.75944 1.36399 5.58631 0 0 0 44 47 48 255
-0.281214 1.07972 4.56369 0 0 0 23 76 113 255
-2.91441 1.36912 5.5121 0 0 0 15 31 26 255
-0.908017 1.06008 4.14792 0 0 0 45 70 96 255
-2.71595 1.41001 5.25944 0 0 0 126 133 131 255
-0.253963 1.17672 4.50495 0 0 0 45 92 126 255
-0.271554 1.38941 4.64743 0 0 0 55 86 116 255
-0.712399 1.31072 4.08593 0 0 0 126 130 136 255
2.57268 1.04389 3.71987 0 0 0 67 58 70 255
2.48832 1.05126 3.70866 0 0 0 80 81 82 255
2.36073 1.07558 3.6777 0 0 0 108 108 111 255
2.47021 -0.203827 4.04529 0 0 0 54 53 54 255
2.34429 -0.0734504 3.88923 0 0 0 69 73 77 255
2.12826 -0.0643913 3.95756 0 0 0 44 44 44 255
2.37753 0.0174386 3.95032 0 0 0 156 157 158 255
-1.20244 0.072772 4.29673 0 0 0 27 35 33 255
-0.420892 0.287762 4.13632 0 0 0 11 55 108 255
2.38584 0.393112 3.68301 0 0 0 53 59 70 255
2.4846 0.427654 3.7282 0 0 0 109 125 137 255
2.55612 0.446064 3.76064 0 0 0 53 38 34 255
1.08846 0.620829 4.76333 0 0 0 121 135 131 255
2.44918 0.497977 3.72319 0 0 0 32 33 37 255
2.51319 0.544117 3.744 0 0 0 128 127 130 255
1.02887 0.697433 4.72212 0 0 0 49 95 75 255
2.09437 0.556387 3.74484 0 0 0 139 142 142 255
0.837111 0.84421 4.61559 0 0 0 158 161 159 255
-2.89979 1.33208 5.96776 0 0 0 43 45 46 255
2.21614 0.766157 3.69153 0 0 0 59 51 45 255
-2.84077 1.42658 5.89661 0 0 0 57 58 64 255
0.499548 1.13866 4.70538 0 0 0 68 102 70 255
-0.858754 1.04378 4.10962 0 0 0 48 69 97 255
-0.644197 1.10749 4.10902 0 0 0 147 159 178 255
-0.843458 1.36157 4.16318 0 0 0 38 83 120 255
-0.702633 1.29421 4.07701 0 0 0 122 116 129 255
-0.632451 1.30377 4.08899 0 0 0 27 77 118 255
-0.559647 1.31135 4.11299 0 0 0 168 158 109 255
-1.02877 -0.128469 4.23136 0 0 0 155 159 162 255
2.41269 0.103249 3.98312 0 0 0 178 176 176 255
0.401594 0.127541 4.78679 0 0 0 39 73 59 255
-0.985605 0.228298 4.19836 0 0 0 10 47 91 255
-0.37611 0.380325 4.18093 0 0 0 120 140 154 255
2.34404 0.400709 3.67881 0 0 0 33 34 38 255
2.38371 0.443668 3.67772 0 0 0 139 143 146 255
1.09051 0.644222 4.77452 0 0 0 142 151 147 255
0.786596 0.662342 4.59978 0 0 0 65 108 73 255
1.09804 0.693918 4.78217 0 0 0 141 146 144 255
-0.314586 0.692514 4.27968 0 0 0 146 153 157 255
2.29286 0.562364 3.68076 0 0 0 30 34 39 255
-0.324721 0.800346 4.25583 0 0 0 84 89 124 255
2.37186 0.742375 3.70168 0 0 0 116 89 53 255
-2.89668 1.38447 5.95144 0 0 0 42 44 46 255
2.39175 0.800545 3.68872 0 0 0 67 67 65 255
1.9859 0.917247 3.95362 0 0 0 56 57 50 255
1.05147 0.106349 5.08414 0 0 0 49 91 70 255
-0.401426 0.177413 4.64601 0 0 0 17 58 99 255
2.0437 0.215585 3.96358 0 0 0 44 46 50 255
1.95482 0.373011 3.92698 0 0 0 156 154 150 255
2.21937 0.433669 3.67971 0 0 0 37 40 41 255
2.29824 0.464089 3.67929 0 0 0 134 145 148 255
1.05606 0.66699 4.73129 0 0 0 127 137 134 255
-0.495587 0.586032 4.0973 0 0 0 154 158 157 255
-0.69236 0.657262 4.05447 0 0 0 32 57 93 255
2.22712 0.705721 3.6909 0 0 0 95 83 57 255
0.418425 1.10858 4.83428 0 0 0 77 104 76 255
2.3675 -0.197419 3.91313 0 0 0 130 130 132 255
2.348 -0.194014 3.91095 0 0 0 80 82 93 255
2.2318 -0.142419 3.84623 0 0 0 122 60 49 255
2.24078 -0.107388 3.9024 0 0 0 72 71 76 255
2.34221 -0.0518856 3.86083 0 0 0 82 82 84 255
0.87067 0.257702 4.59471 0 0 0 57 74 69 255
0.793441 0.26969 4.57384 0 0 0 118 118 118 255
-1.12757 0.106381 4.28962 0 0 0 139 139 139 255
0.986585 0.327065 4.66758 0 0 0 91 89 88 255
2.63245 0.380969 3.95039 0 0 0 70 79 85 255
2.63593 0.422538 3.96849 0 0 0 89 97 100 255
0.486873 0.515789 4.66369 0 0 0 131 143 140 255
2.45892 0.523507 3.72642 0 0 0 105 98 95 255
2.43809 0.533234 3.71237 0 0 0 42 42 44 255
2.36961 0.562808 3.68688 0 0 0 96 85 77 255
0.514285 0.719597 4.69032 0 0 0 105 135 123 255
2.64066 0.729631 3.96184 0 0 0 77 83 91 255
2.6477 0.752966 3.93833 0 0 0 114 127 130 255
-0.279755 0.793736 4.34331 0 0 0 145 151 151 255
-2.95964 0.995271 5.26338 0 0 0 66 76 73 255
0.529004 0.957244 4.70268 0 0 0 126 148 136 255
1.0827 0.995649 4.77035 0 0 0 101 125 98 255
1.03373 0.997679 4.71416 0 0 0 129 142 131 255
-0.310552 0.997203 4.5979 0 0 0 64 98 126 255
1.01677 1.03711 4.69809 0 0 0 79 90 79 255
-2.99307 1.17146 5.3173 0 0 0 60 87 73 255
