ply
format ascii 1.0
comment VCGLIB generated
element vertex 1034
property float x
property float y
property float z
property float nx
property float ny
property float nz
property uchar red
property uchar green
property uchar blue
property uchar alpha
element face 0
property list uchar int vertex_indices
end_header
-0.734729 1.20792 4.08887 0 0 0 118 105 116 255
0.97749 1.36382 4.70405 0 0 0 93 117 110 255
2.13421 1.05144 3.73676 0 0 0 77 78 79 255
2.16283 1.04285 3.7187 0 0 0 108 106 105 255
2.21264 1.03846 3.69018 0 0 0 120 119 120 255
2.28978 1.04127 3.675 0 0 0 80 75 77 255
2.40699 1.0306 3.67792 0 0 0 122 119 121 255
2.41618 1.03632 3.67975 0 0 0 98 91 93 255
2.23115 1.05244 3.68507 0 0 0 78 76 75 255
2.30415 1.04279 3.6734 0 0 0 130 136 139 255
2.31669 1.04363 3.676 0 0 0 91 96 98 255
2.41031 1.05337 3.67965 0 0 0 133 140 141 255
2.22934 1.06841 3.68562 0 0 0 116 119 118 255
2.2903 1.0755 3.67776 0 0 0 94 89 91 255
2.31685 1.07767 3.67847 0 0 0 107 109 111 255
2.20904 1.12482 3.69202 0 0 0 107 111 110 255
2.33033 1.12134 3.67593 0 0 0 101 100 101 255
2.38883 1.15805 3.67134 0 0 0 105 105 106 255
2.36064 1.16687 3.66927 0 0 0 113 114 117 255
2.27476 1.20537 3.68254 0 0 0 113 111 112 255
2.35105 1.20408 3.66354 0 0 0 108 107 112 255
2.38257 1.20021 3.6675 0 0 0 113 110 111 255
2.28822 1.24581 3.67896 0 0 0 121 117 120 255
2.42056 1.23758 3.66688 0 0 0 122 119 120 255
2.2245 -0.192717 3.87225 0 0 0 130 128 130 255
2.22533 -0.0663699 3.88946 0 0 0 61 65 69 255
-0.304226 0.0849323 4.60488 0 0 0 113 121 121 255
-3.51191 0.143147 6.20713 0 0 0 66 65 66 255
-1.08857 0.143911 4.27148 0 0 0 39 49 59 255
-3.58396 0.237618 6.32897 0 0 0 76 74 74 255
-0.590711 0.289396 4.05438 0 0 0 44 53 76 255
2.64301 0.386932 3.9738 0 0 0 77 83 86 255
0.980302 0.422876 4.65717 0 0 0 150 150 150 255
-0.324214 0.514359 4.24345 0 0 0 91 113 135 255
2.36318 0.532945 3.683 0 0 0 65 35 24 255
-3.00535 1.0596 5.33832 0 0 0 23 33 32 255
-2.97895 1.11033 5.37028 0 0 0 129 136 135 255
2.3673 0.720047 3.6963 0 0 0 107 86 60 255
2.3638 0.763187 3.69465 0 0 0 120 87 56 255
-2.90214 1.41284 5.7847 0 0 0 97 101 102 255
0.913026 1.08427 4.64498 0 0 0 109 134 94 255
-2.91357 1.45865 5.58062 0 0 0 78 85 86 255
-0.912502 1.17043 4.15729 0 0 0 84 109 121 255
-0.841276 1.32254 4.15845 0 0 0 60 88 115 255
2.39844 1.03854 3.67723 0 0 0 121 122 122 255
-0.710958 1.30664 4.08986 0 0 0 126 129 135 255
2.28647 1.06247 3.67604 0 0 0 118 119 121 255
2.30972 1.05457 3.67469 0 0 0 117 121 124 255
2.35962 1.07078 3.675 0 0 0 99 102 113 255
2.40468 1.07827 3.68031 0 0 0 87 89 91 255
2.23291 -0.0630295 3.88498 0 0 0 80 84 90 255
-1.0279 -0.147973 4.20941 0 0 0 155 156 160 255
-1.18605 0.0773097 4.3062 0 0 0 25 34 33 255
-2.20968 0.145855 5.21242 0 0 0 96 96 96 255
-1.02941 0.101194 4.22467 0 0 0 145 147 148 255
0.979143 0.260556 4.64488 0 0 0 32 68 54 255
-3.58551 0.241293 6.33421 0 0 0 76 74 74 255
-1.08986 0.151844 4.27861 0 0 0 26 42 71 255
2.21288 0.28738 3.70878 0 0 0 152 130 97 255
2.64321 0.383591 3.98817 0 0 0 75 82 85 255
-0.304127 0.378381 4.26928 0 0 0 78 107 133 255
2.64146 0.40754 3.98092 0 0 0 64 74 80 255
-0.300264 0.429505 4.29336 0 0 0 102 124 132 255
2.65678 0.453241 4.01898 0 0 0 60 58 56 255
2.3663 0.422716 3.6752 0 0 0 86 105 114 255
2.55362 0.447002 3.75733 0 0 0 53 38 34 255
-0.52033 0.447616 4.08531 0 0 0 87 125 168 255
-2.87992 0.824499 5.39844 0 0 0 141 145 145 255
-3.04143 1.18741 6.03975 0 0 0 37 34 35 255
-2.99769 1.25457 6.02721 0 0 0 84 78 81 255
-0.515321 0.81065 4.08556 0 0 0 54 66 80 255
2.26746 0.722207 3.68907 0 0 0 110 85 59 255
-2.95442 1.33792 6.00779 0 0 0 38 43 43 255
-2.90894 1.27019 5.44382 0 0 0 81 106 95 255
-2.76326 1.36506 5.59405 0 0 0 44 47 48 255
-0.265654 1.07532 4.53942 0 0 0 23 76 113 255
-2.91868 1.37025 5.52017 0 0 0 15 31 26 255
-0.908815 1.06022 4.15016 0 0 0 45 70 96 255
-2.71976 1.41105 5.26671 0 0 0 126 133 131 255
-0.254216 1.17672 4.50622 0 0 0 45 92 126 255
-0.271844 1.38943 4.64889 0 0 0 55 86 116 255
-0.713035 1.31073 4.0878 0 0 0 126 130 136 255
2.57151 1.04337 3.71694 0 0 0 67 58 70 255
2.48722 1.05069 3.70562 0 0 0 80 81 82 255
2.35972 1.07498 3.67478 0 0 0 108 108 111 255
2.46944 -0.203389 4.04209 0 0 0 54 53 54 255
2.3435 -0.0731153 3.88614 0 0 0 69 73 77 255
2.12765 -0.0640674 3.95483 0 0 0 44 44 44 255
2.37673 0.0176958 3.94733 0 0 0 156 157 158 255
-1.20364 0.072962 4.29976 0 0 0 27 35 33 255
-0.420604 0.288785 4.13677 0 0 0 11 55 108 255
2.38482 0.393071 3.68005 0 0 0 53 59 70 255
2.48352 0.427602 3.72522 0 0 0 109 125 137 255
2.555 0.446012 3.75765 0 0 0 53 38 34 255
1.08851 0.620841 4.76261 0 0 0 121 135 131 255
2.44813 0.497869 3.72022 0 0 0 32 33 37 255
2.51208 0.543982 3.74104 0 0 0 128 127 130 255
1.02893 0.697411 4.72145 0 0 0 49 95 75 255
2.09363 0.556208 3.74215 0 0 0 139 142 142 255
0.838541 0.843941 4.61726 0 0 0 158 161 159 255
-2.90427 1.33331 5.97675 0 0 0 43 45 46 255
2.21525 0.765807 3.68877 0 0 0 59 51 45 255
-2.84507 1.42785 5.9053 0 0 0 57 58 64 255
0.499261 1.13956 4.70507 0 0 0 68 102 70 255
-0.859532 1.04391 4.11178 0 0 0 48 69 97 255
-0.644711 1.10754 4.11069 0 0 0 147 159 178 255
-0.844212 1.36164 4.16536 0 0 0 38 83 120 255
-0.70327 1.29422 4.07887 0 0 0 122 116 129 255
-0.632931 1.30372 4.09062 0 0 0 27 77 118 255
-0.560154 1.31132 4.11458 0 0 0 168 158 109 255
-1.02968 -0.128258 4.23391 0 0 0 155 159 162 255
2.41188 0.103443 3.98013 0 0 0 178 176 176 255
0.400878 0.128336 4.78596 0 0 0 39 73 59 255
-0.986507 0.228483 4.20084 0 0 0 10 47 91 255
-0.377433 0.38219 4.18078 0 0 0 120 140 154 255
2.34306 0.400658 3.67588 0 0 0 33 34 38 255
2.38269 0.443585 3.67477 0 0 0 139 143 146 255
1.0905 0.644259 4.774 0 0 0 142 151 147 255
0.786496 0.66177 4.59853 0 0 0 65 108 73 255
1.09803 0.693943 4.78165 0 0 0 141 146 144 255
-0.315441 0.694478 4.27915 0 0 0 146 153 157 255
2.29191 0.562178 3.67789 0 0 0 30 34 39 255
-0.325101 0.800557 4.25717 0 0 0 84 89 124 255
2.37084 0.742062 3.69883 0 0 0 116 89 53 255
-2.90113 1.38575 5.96038 0 0 0 42 44 46 255
2.39069 0.800206 3.6859 0 0 0 67 67 65 255
1.98525 0.91692 3.95143 0 0 0 56 57 50 255
1.05179 0.106534 5.08346 0 0 0 49 91 70 255
-0.401643 0.177589 4.64753 0 0 0 17 58 99 255
2.04314 0.215684 3.96094 0 0 0 44 46 50 255
1.95429 0.372993 3.92445 0 0 0 156 154 150 255
2.2185 0.433582 3.67687 0 0 0 37 40 41 255
2.29729 0.463983 3.6764 0 0 0 134 145 148 255
1.05605 0.667009 4.73076 0 0 0 127 137 134 255
-0.495963 0.586118 4.09867 0 0 0 154 158 157 255
-0.692259 0.657431 4.0563 0 0 0 32 57 93 255
2.22622 0.705419 3.68811 0 0 0 95 83 57 255
0.41862 1.10847 4.83443 0 0 0 77 104 76 255
2.36668 -0.196972 3.91018 0 0 0 130 130 132 255
2.34719 -0.193571 3.908 0 0 0 80 82 93 255
2.23105 -0.142021 3.84334 0 0 0 122 60 49 255
2.2401 -0.10703 3.89937 0 0 0 72 71 76 255
2.34137 -0.0515539 3.85789 0 0 0 82 82 84 255
0.871959 0.257135 4.59408 0 0 0 57 74 69 255
0.795322 0.267943 4.57315 0 0 0 118 118 118 255
-1.12836 0.106591 4.2922 0 0 0 139 139 139 255
0.986202 0.329723 4.66676 0 0 0 91 89 88 255
2.63141 0.38099 3.94731 0 0 0 70 79 85 255
2.63491 0.422522 3.96544 0 0 0 89 97 100 255
0.486008 0.517179 4.66253 0 0 0 131 143 140 255
2.45784 0.52338 3.72348 0 0 0 105 98 95 255
2.43703 0.533094 3.70944 0 0 0 42 42 44 255
2.36859 0.562631 3.68397 0 0 0 96 85 77 255
0.514485 0.719565 4.69017 0 0 0 105 135 123 255
2.63958 0.729447 3.95897 0 0 0 77 83 91 255
2.6466 0.752764 3.93546 0 0 0 114 127 130 255
-0.280089 0.793896 4.34459 0 0 0 145 151 151 255
-2.9636 0.996051 5.27088 0 0 0 66 76 73 255
0.52919 0.957131 4.70253 0 0 0 126 148 136 255
1.08169 0.995749 4.76808 0 0 0 101 125 98 255
1.03378 0.99763 4.71338 0 0 0 129 142 131 255
-0.310844 0.997289 4.59936 0 0 0 64 98 126 255
1.01678 1.03705 4.69746 0 0 0 79 90 79 255
-2.99716 1.17237 5.32499 0 0 0 60 87 73 255
0.974363 1.11163 4.6789 0 0 0 34 75 109 255
-0.259175 1.07605 4.51017 0 0 0 37 92 131 255
-0.893663 1.03287 4.14556 0 0 0 63 74 91 255
-2.90312 1.39405 5.50477 0 0 0 15 36 29 255
2.56226 1.03052 3.76408 0 0 0 75 77 79 255
2.55693 1.03116 3.76089 0 0 0 85 87 88 255
2.49735 1.03287 3.71647 0 0 0 91 91 91 255
2.57181 1.07174 3.78742 0 0 0 89 90 91 255
2.51626 1.0688 3.75019 0 0 0 96 91 94 255
-2.79588 1.57213 4.96556 0 0 0 90 93 96 255
2.48049 1.08181 3.73089 0 0 0 81 81 82 255
2.3389 1.07387 3.68125 0 0 0 93 93 93 255
2.45339 1.08354 3.71688 0 0 0 102 104 103 255
2.16936 1.16099 3.70458 0 0 0 120 119 117 255
2.33544 1.15886 3.67326 0 0 0 102 102 102 255
2.48547 1.20274 3.71863 0 0 0 102 106 107 255
2.41409 1.19907 3.68314 0 0 0 105 103 103 255
2.37325 -0.213229 3.94602 0 0 0 47 46 50 255
2.22524 -0.106192 3.89616 0 0 0 80 85 86 255
2.38075 0.24768 3.71194 0 0 0 125 109 87 255
2.63313 0.4157 3.94955 0 0 0 88 97 99 255
-0.316893 0.527289 4.25285 0 0 0 86 119 143 255
-2.98514 0.648199 5.27223 0 0 0 66 68 72 255
0.737064 0.821131 4.59837 0 0 0 154 162 159 255
0.513709 0.912395 4.70422 0 0 0 119 150 138 255
-2.95415 1.00797 5.27717 0 0 0 86 103 99 255
-0.258892 1.07309 4.50886 0 0 0 37 92 131 255
0.550694 1.14378 4.66868 0 0 0 124 139 134 255
0.462675 1.2869 4.74403 0 0 0 88 103 93 255
0.730608 1.27254 4.5996 0 0 0 131 139 131 255
-0.32104 1.20446 4.25721 0 0 0 62 94 120 255
2.48222 1.02689 3.70535 0 0 0 128 128 130 255
2.51626 1.0688 3.75018 0 0 0 96 91 94 255
-2.81641 1.58332 4.97169 0 0 0 79 79 81 255
2.39143 -0.213071 3.90764 0 0 0 45 44 47 255
2.31829 -0.212344 3.91711 0 0 0 44 43 46 255
2.35122 -0.205423 3.91427 0 0 0 163 165 169 255
2.18513 -0.215089 3.9278 0 0 0 44 45 46 255
2.49435 -0.190856 4.04785 0 0 0 89 58 60 255
2.43979 -0.0753508 3.87806 0 0 0 75 82 88 255
2.52355 0.399837 3.75082 0 0 0 48 34 29 255
-0.419116 0.315494 4.14128 0 0 0 9 58 110 255
2.4081 0.441852 3.68094 0 0 0 62 38 26 255
2.13529 0.505208 3.72038 0 0 0 132 145 149 255
2.44372 0.55214 3.71825 0 0 0 136 142 146 255
-0.970676 0.494393 4.19732 0 0 0 141 131 98 255
-2.93131 0.682759 5.41706 0 0 0 144 144 144 255
-0.384303 0.742766 4.19204 0 0 0 41 56 86 255
-0.384497 0.771586 4.19309 0 0 0 71 88 114 255
-2.94291 1.06564 5.33339 0 0 0 129 141 139 255
-0.311579 1.00271 4.59534 0 0 0 64 100 126 255
2.62467 0.908246 3.90784 0 0 0 40 41 45 255
-2.72571 1.39247 5.11715 0 0 0 103 114 115 255
2.53058 1.06821 3.75862 0 0 0 95 100 101 255
-0.876024 1.4613 4.16696 0 0 0 70 99 124 255
2.39361 -0.208897 3.90929 0 0 0 41 41 43 255
2.29085 -0.215258 3.88817 0 0 0 46 46 46 255
2.12263 -0.174307 3.96461 0 0 0 107 57 55 255
1.05334 0.0463696 5.12335 0 0 0 132 132 134 255
-1.02638 0.0829278 4.22258 0 0 0 147 149 150 255
2.63119 0.352782 4.11609 0 0 0 41 46 51 255
2.10402 0.381124 3.71293 0 0 0 70 71 76 255
2.33996 0.481899 3.67419 0 0 0 111 107 102 255
2.52449 0.525814 3.75077 0 0 0 62 46 41 255
-1.02491 0.455929 4.23908 0 0 0 140 125 90 255
-2.9329 0.852875 5.35738 0 0 0 141 143 143 255
-0.28701 0.82961 4.33673 0 0 0 47 62 89 255
0.543141 0.91601 4.69442 0 0 0 148 155 155 255
-1.31708 1.00539 4.42661 0 0 0 26 30 31 255
-1.26458 1.03878 4.38705 0 0 0 38 41 41 255
-0.896169 1.03728 4.15839 0 0 0 94 97 103 255
2.46457 -0.0550267 4.05909 0 0 0 52 51 48 255
2.36423 0.0137817 3.92373 0 0 0 188 186 187 255
2.13717 0.0155763 3.9625 0 0 0 109 109 109 255
2.40116 0.110285 3.96343 0 0 0 182 180 180 255
2.35435 0.117964 3.95217 0 0 0 252 252 252 255
2.10189 0.14158 3.89197 0 0 0 78 77 78 255
1.08591 0.364268 4.74142 0 0 0 143 147 147 255
2.54861 0.401676 3.75714 0 0 0 121 133 138 255
2.31814 0.40694 3.6748 0 0 0 48 42 42 255
-0.372719 0.405748 4.18425 0 0 0 148 152 154 255
1.10077 0.629577 4.77866 0 0 0 137 148 145 255
-0.805025 0.562739 4.09629 0 0 0 18 64 109 255
-0.296412 0.67378 4.33232 0 0 0 149 152 151 255
-0.691428 0.710117 4.06249 0 0 0 30 55 104 255
2.41613 0.763778 3.69617 0 0 0 92 83 69 255
1.07235 1.04823 4.76819 0 0 0 129 138 122 255
-0.818785 0.941544 4.11258 0 0 0 150 152 154 255
-0.843826 1.02449 4.12989 0 0 0 28 54 90 255
-0.916034 1.09688 4.17944 0 0 0 35 81 118 255
-0.81645 1.15916 4.1361 0 0 0 30 87 130 255
-0.348126 1.22862 4.24686 0 0 0 132 128 127 255
0.429509 1.3518 4.79571 0 0 0 74 99 82 255
-0.320695 1.4066 4.67702 0 0 0 38 88 121 255
2.16669 -0.0481168 3.94978 0 0 0 35 41 40 255
-0.345264 -0.186403 4.48982 0 0 0 164 169 174 255
1.03151 0.136185 5.18271 0 0 0 56 92 71 255
2.06478 0.171551 3.88871 0 0 0 78 72 71 255
-0.351358 0.13668 4.49181 0 0 0 8 53 99 255
-0.831134 0.214532 4.10655 0 0 0 7 51 104 255
2.38451 0.422706 3.675 0 0 0 137 143 146 255
-0.343008 0.414665 4.21619 0 0 0 149 147 149 255
2.36334 0.513232 3.67582 0 0 0 64 71 83 255
2.15807 0.538924 3.70659 0 0 0 91 78 69 255
-0.769791 0.559033 4.07941 0 0 0 17 65 114 255
2.02105 0.658811 3.91744 0 0 0 39 45 50 255
-0.687197 0.672868 4.05957 0 0 0 26 55 104 255
-0.917571 0.710986 4.16162 0 0 0 125 122 127 255
-0.69374 0.914383 4.0986 0 0 0 158 161 161 255
-1.6836 1.09396 4.71512 0 0 0 24 28 31 255
2.03592 0.920747 3.89617 0 0 0 45 52 51 255
-0.862997 1.09643 4.18927 0 0 0 26 87 130 255
2.2332 -0.210363 3.91165 0 0 0 111 110 113 255
2.24268 -0.189799 3.86797 0 0 0 43 47 49 255
2.31379 -0.167502 3.88932 0 0 0 144 80 80 255
2.45694 -0.067249 3.9772 0 0 0 70 76 81 255
2.0972 -0.0811706 3.95577 0 0 0 134 136 134 255
2.19795 0.125831 3.89829 0 0 0 187 191 194 255
2.19374 0.140402 3.89553 0 0 0 193 197 200 255
0.919001 0.319678 4.62002 0 0 0 137 139 128 255
2.5493 0.261913 3.82514 0 0 0 70 57 63 255
2.48827 0.272389 3.73749 0 0 0 69 34 45 255
2.50694 0.288305 3.74652 0 0 0 55 60 68 255
-0.310161 0.335257 4.27157 0 0 0 15 70 104 255
1.08743 0.447923 4.76804 0 0 0 83 95 75 255
2.51688 0.306062 3.76013 0 0 0 46 45 52 255
-0.557507 0.604377 4.05592 0 0 0 46 54 88 255
-0.779897 0.843244 4.05309 0 0 0 105 109 110 255
2.69224 0.792844 4.03551 0 0 0 107 99 96 255
0.923438 1.18236 4.65685 0 0 0 125 116 79 255
2.64705 0.873341 3.92105 0 0 0 113 125 128 255
1.12156 1.32693 5.0926 0 0 0 93 119 89 255
2.64809 1.03518 3.95298 0 0 0 92 92 95 255
-0.479708 1.40882 4.10873 0 0 0 78 113 144 255
2.37675 -0.144639 3.86372 0 0 0 180 91 99 255
-1.31823 -0.0722771 4.3856 0 0 0 20 21 24 255
2.19903 0.132722 3.89949 0 0 0 225 229 232 255
-0.33993 0.338049 4.22439 0 0 0 100 132 160 255
0.825222 0.404143 4.59005 0 0 0 119 43 47 255
2.49266 0.309573 3.74065 0 0 0 123 124 131 255
-1.2068 0.421307 4.36931 0 0 0 113 96 82 255
2.64895 0.443988 4.01549 0 0 0 45 44 46 255
2.63589 0.892092 3.90635 0 0 0 36 41 46 255
2.13228 -0.226416 3.98868 0 0 0 141 143 143 255
1.08971 0.0714063 5.11111 0 0 0 106 108 107 255
2.19681 0.133854 3.89882 0 0 0 225 229 232 255
0.860079 0.390636 4.5998 0 0 0 121 31 39 255
2.39086 0.287797 3.71285 0 0 0 55 54 55 255
2.65081 0.45928 4.03302 0 0 0 50 48 50 255
2.52036 0.415438 3.74808 0 0 0 52 42 38 255
-0.914462 0.607297 4.14295 0 0 0 138 134 136 255
2.69107 0.792981 4.03116 0 0 0 107 99 96 255
-0.905567 1.36873 4.20039 0 0 0 58 95 128 255
-0.68367 1.31528 4.07946 0 0 0 111 122 136 255
2.36827 -0.142014 3.86276 0 0 0 211 114 122 255
2.44577 -0.0754011 3.89358 0 0 0 82 81 86 255
2.49374 -0.0569619 4.02659 0 0 0 61 61 61 255
2.04906 0.164491 3.96555 0 0 0 52 56 59 255
-0.331249 0.385191 4.24258 0 0 0 140 116 124 255
2.41663 0.397317 3.68711 0 0 0 134 138 141 255
2.64862 0.454388 4.02671 0 0 0 46 47 49 255
1.00586 0.647765 4.71838 0 0 0 140 154 154 255
2.5551 0.460059 3.76007 0 0 0 86 77 76 255
1.10771 0.952128 5.07989 0 0 0 127 131 83 255
2.27417 0.648596 3.68139 0 0 0 82 72 56 255
-0.857857 1.18405 4.14137 0 0 0 50 95 131 255
-0.77187 1.17502 4.11057 0 0 0 38 91 133 255
2.6295 0.893104 3.90038 0 0 0 35 41 46 255
0.79896 1.26597 4.61543 0 0 0 77 110 82 255
2.46244 -0.219203 4.01632 0 0 0 53 58 66 255
1.10297 0.377507 4.76184 0 0 0 143 152 124 255
2.23052 0.269313 3.71077 0 0 0 126 88 47 255
2.64766 0.333825 4.03946 0 0 0 46 48 49 255
2.51008 0.447848 3.73294 0 0 0 136 138 143 255
-0.608555 0.603969 4.08005 0 0 0 145 149 150 255
2.21679 0.495591 3.68609 0 0 0 47 40 40 255
0.958069 0.774954 4.65167 0 0 0 151 158 155 255
-0.605322 0.84018 4.07542 0 0 0 161 162 161 255
2.2327 0.68612 3.68627 0 0 0 83 73 58 255
0.444719 1.13058 4.76411 0 0 0 81 109 87 255
-0.512157 1.13434 4.11545 0 0 0 1 96 146 255
1.13693 1.37289 5.0991 0 0 0 92 111 85 255
0.379227 1.38671 4.85658 0 0 0 92 111 103 255
-0.580019 1.34124 4.12137 0 0 0 61 72 95 255
0.412039 1.40654 4.82349 0 0 0 78 100 89 255
-0.850428 1.4013 4.17642 0 0 0 42 87 126 255
-0.381638 1.35444 4.24498 0 0 0 25 73 116 255
-0.330242 1.42851 4.28498 0 0 0 24 75 122 255
2.45361 -0.17276 3.98181 0 0 0 112 47 44 255
-0.30828 -0.187916 4.49912 0 0 0 159 162 165 255
2.45981 -0.0440096 3.99114 0 0 0 30 34 37 255
2.13857 -0.039536 3.95515 0 0 0 39 41 43 255
2.34868 0.107826 3.94714 0 0 0 231 230 235 255
-0.353581 0.156753 4.60079 0 0 0 22 56 94 255
2.53924 0.167314 4.01804 0 0 0 40 46 49 255
2.05188 0.176818 3.96442 0 0 0 49 55 60 255
2.00024 0.363382 3.92403 0 0 0 39 46 44 255
2.424 0.461792 3.67881 0 0 0 34 36 40 255
2.51459 0.466817 3.72943 0 0 0 138 140 144 255
-0.30683 0.794307 4.29663 0 0 0 77 89 107 255
1.99615 0.660212 3.95752 0 0 0 41 48 50 255
-0.673613 0.913484 4.1033 0 0 0 152 157 161 255
0.920947 1.09614 4.65274 0 0 0 102 121 85 255
1.98372 0.934346 3.95968 0 0 0 59 61 63 255
-0.363554 1.22765 4.23954 0 0 0 147 134 130 255
2.58854 0.90663 3.88545 0 0 0 33 34 40 255
-0.287228 1.3678 4.60504 0 0 0 51 91 120 255
0.419088 1.40635 4.81832 0 0 0 79 101 87 255
1.1033 1.31924 4.68791 0 0 0 57 102 75 255
-0.601955 1.32101 4.1178 0 0 0 133 133 140 255
-0.360168 1.35234 4.27688 0 0 0 17 74 121 255
2.10893 -0.161675 3.9469 0 0 0 140 138 133 255
2.1042 -0.0568576 3.95875 0 0 0 80 73 69 255
2.35078 0.13733 3.87286 0 0 0 253 253 255 255
-0.325782 0.32619 4.23735 0 0 0 13 78 126 255
-0.895194 0.360518 4.09224 0 0 0 42 71 98 255
-0.976771 0.506531 4.17076 0 0 0 51 68 90 255
-0.510582 0.608589 4.12652 0 0 0 130 132 131 255
-0.563505 0.663291 4.06028 0 0 0 66 77 95 255
1.96914 0.541799 3.89719 0 0 0 95 98 97 255
1.31152 1.42523 6.73173 0 0 0 144 141 133 255
0.547302 0.907339 4.64951 0 0 0 89 135 118 255
1.46659 1.47807 6.68565 0 0 0 95 90 80 255
-0.915742 0.910612 4.15809 0 0 0 75 83 106 255
0.860066 1.04066 4.62469 0 0 0 84 113 132 255
0.550222 0.35571 4.61587 0 0 0 124 127 119 255
-0.896899 0.352907 4.09092 0 0 0 35 67 95 255
-0.316417 0.506691 4.25864 0 0 0 10 74 125 255
-0.369086 0.552772 4.21613 0 0 0 91 122 157 255
2.13547 -0.130041 3.94208 0 0 0 52 41 41 255
2.10748 -0.0560241 3.95612 0 0 0 61 61 59 255
-0.973746 0.147383 4.15036 0 0 0 28 49 64 255
2.54529 0.129371 4.00742 0 0 0 97 96 97 255
-0.363467 0.289446 4.20745 0 0 0 25 77 110 255
-0.325058 0.349425 4.24057 0 0 0 125 136 154 255
-0.311494 0.516282 4.26942 0 0 0 8 69 111 255
2.35983 0.431652 3.66853 0 0 0 81 86 96 255
1.93554 0.598698 3.99713 0 0 0 171 174 173 255
1.45524 1.48973 6.68482 0 0 0 91 88 81 255
-0.930399 0.945969 4.18025 0 0 0 60 78 95 255
2.35407 0.724184 3.7068 0 0 0 110 85 59 255
2.28554 0.768753 3.70427 0 0 0 103 79 55 255
2.28393 -0.201156 3.87748 0 0 0 34 34 34 255
2.54583 0.158243 4.02442 0 0 0 45 47 49 255
-0.861124 0.352868 4.08084 0 0 0 14 62 105 255
1.01412 0.379834 4.68279 0 0 0 137 67 79 255
1.02974 0.659311 4.73086 0 0 0 81 94 91 255
2.55742 0.395503 3.75914 0 0 0 118 131 136 255
1.13577 1.40179 6.31793 0 0 0 115 112 107 255
-0.627987 1.10287 4.11261 0 0 0 79 127 150 255
2.35502 0.739398 3.70307 0 0 0 115 83 49 255
2.37283 0.010185 3.86378 0 0 0 141 142 143 255
2.34965 0.114964 3.86734 0 0 0 253 254 255 255
2.23488 0.297898 3.70993 0 0 0 96 69 47 255
1.08725 0.670478 4.77413 0 0 0 126 136 131 255
2.40117 0.353302 3.64609 0 0 0 31 37 42 255
0.585934 0.922014 4.63627 0 0 0 154 160 158 255
-0.932564 0.94092 4.1756 0 0 0 95 109 122 255
-0.499345 1.0667 4.12244 0 0 0 99 127 152 255
2.39843 0.687603 3.71265 0 0 0 114 90 64 255
-0.409414 1.06738 4.19317 0 0 0 0 103 147 255
2.23429 0.713278 3.68694 0 0 0 89 67 47 255
-0.307919 1.16207 4.26376 0 0 0 83 86 94 255
2.44406 -0.198896 3.9787 0 0 0 38 40 40 255
2.31646 -0.152691 3.8495 0 0 0 137 84 81 255
2.43675 -0.0475542 3.87506 0 0 0 40 37 39 255
2.3204 0.0200566 3.87115 0 0 0 157 155 155 255
2.34692 0.272563 3.70262 0 0 0 120 94 63 255
1.104 1.35597 6.33239 0 0 0 147 146 143 255
1.14295 0.0769991 4.98632 0 0 0 91 97 91 255
0.763591 0.229744 4.57152 0 0 0 80 112 102 255
0.406297 0.339962 4.72615 0 0 0 86 65 58 255
-0.575943 0.314525 4.05808 0 0 0 86 94 111 255
0.530498 0.61779 4.64098 0 0 0 129 146 140 255
-0.955719 0.694091 4.15542 0 0 0 46 49 73 255
1.86743 1.38896 6.73667 0 0 0 114 108 104 255
-0.886775 0.717592 4.11222 0 0 0 106 111 112 255
1.92536 0.881129 4.09938 0 0 0 99 97 91 255
1.85534 1.47051 6.73689 0 0 0 96 94 93 255
-0.833289 0.756652 4.10077 0 0 0 124 127 126 255
-0.899534 0.775227 4.11444 0 0 0 114 123 126 255
-0.832071 0.802317 4.08398 0 0 0 108 112 113 255
-0.805486 0.840087 4.07565 0 0 0 83 88 99 255
-0.887952 0.957185 4.10561 0 0 0 45 74 108 255
-0.544639 0.981634 4.097 0 0 0 71 90 132 255
-0.884479 1.00462 4.11459 0 0 0 90 98 102 255
-0.656689 1.01132 4.06064 0 0 0 86 102 129 255
-0.925454 1.02025 4.12358 0 0 0 142 141 146 255
-0.632387 1.16407 4.05388 0 0 0 144 151 175 255
-0.829827 1.15899 4.02454 0 0 0 108 134 157 255
-0.61865 1.18837 4.04569 0 0 0 58 84 121 255
-0.761353 1.18069 4.01215 0 0 0 34 89 130 255
-0.724102 1.2002 4.03226 0 0 0 112 97 112 255
-0.810803 1.20418 4.0273 0 0 0 101 103 110 255
1.13568 0.0808853 4.99219 0 0 0 80 104 94 255
0.556576 0.22974 4.60892 0 0 0 40 80 59 255
1.96057 0.358487 3.99722 0 0 0 60 60 60 255
-0.89187 0.728442 4.11358 0 0 0 85 92 94 255
-0.898637 0.764095 4.11509 0 0 0 79 84 85 255
1.30519 1.28281 5.78395 0 0 0 111 107 99 255
0.799824 1.1484 4.6016 0 0 0 87 119 80 255
-0.92349 1.01809 4.12203 0 0 0 142 141 146 255
0.500101 1.26297 4.69157 0 0 0 71 100 72 255
-0.632494 1.15452 4.0564 0 0 0 138 152 182 255
-0.828758 1.16656 4.02257 0 0 0 127 141 153 255
-0.780735 1.18067 4.0532 0 0 0 29 85 131 255
-0.652128 1.2034 4.04238 0 0 0 152 159 164 255
-0.759674 1.28359 3.99426 0 0 0 73 87 113 255
1.12823 0.0945625 4.9968 0 0 0 71 101 84 255
-0.412585 0.428214 4.15158 0 0 0 92 105 126 255
1.97798 0.538542 3.92378 0 0 0 123 134 133 255
-0.333313 0.492013 4.25761 0 0 0 135 145 153 255
-0.553925 0.585306 4.06634 0 0 0 158 158 160 255
-0.97921 0.683645 4.17125 0 0 0 46 49 73 255
1.87514 1.39913 6.73917 0 0 0 112 113 113 255
0.482887 0.913777 4.69165 0 0 0 140 147 147 255
-0.88891 0.729338 4.11197 0 0 0 85 92 94 255
-0.317341 0.798446 4.27214 0 0 0 155 152 157 255
1.85842 1.46642 6.7354 0 0 0 84 82 80 255
-0.810811 0.834999 4.07957 0 0 0 83 88 99 255
-0.8445 1.00156 4.1085 0 0 0 149 152 152 255
-0.582358 1.14067 4.06049 0 0 0 10 109 146 255
-0.707969 1.16443 4.01563 0 0 0 65 110 149 255
-0.828465 1.17245 4.0216 0 0 0 138 142 145 255
-0.625763 1.19277 4.05351 0 0 0 58 84 121 255
-0.765177 1.2887 3.99381 0 0 0 70 80 97 255
1.1206 0.0928173 4.97899 0 0 0 61 101 85 255
-0.33056 0.132228 4.61376 0 0 0 38 70 103 255
1.9606 0.348458 4.01274 0 0 0 82 80 78 255
0.812384 0.559684 4.60766 0 0 0 156 159 158 255
-0.338273 0.49913 4.25708 0 0 0 104 118 128 255
-0.630673 0.596577 4.0632 0 0 0 157 158 159 255
-0.45608 0.632816 4.13705 0 0 0 158 161 160 255
-0.747104 0.655392 4.05639 0 0 0 149 150 150 255
1.87008 1.38279 6.73119 0 0 0 153 147 143 255
1.72379 1.46996 6.71665 0 0 0 103 101 97 255
1.31138 1.29013 5.84136 0 0 0 97 94 86 255
-0.385227 1.01509 4.22046 0 0 0 136 151 155 255
-0.847632 0.9769 4.08401 0 0 0 152 152 152 255
-0.555777 1.12989 4.06492 0 0 0 6 106 149 255
-0.757295 1.16699 4.01234 0 0 0 27 83 130 255
-0.856655 1.18347 4.06245 0 0 0 137 141 144 255
2.14035 0.0289484 4.01871 0 0 0 94 94 94 255
2.04879 0.127656 4.03953 0 0 0 150 149 147 255
1.05458 0.299184 4.72493 0 0 0 127 141 124 255
0.765039 0.696617 4.61775 0 0 0 69 112 75 255
-0.744615 0.635591 4.0552 0 0 0 157 157 157 255
-0.323432 0.786808 4.25879 0 0 0 124 126 128 255
-0.42159 0.857351 4.17264 0 0 0 160 162 163 255
-0.407295 1.01488 4.196 0 0 0 112 137 153 255
2.12811 -0.16649 4.01379 0 0 0 118 75 70 255
1.09243 0.151255 4.97226 0 0 0 58 95 67 255
1.89629 0.7654 4.09008 0 0 0 160 160 158 255
0.305415 0.0830822 4.98861 0 0 0 94 102 92 255
0.585033 0.232147 4.5953 0 0 0 76 111 97 255
-1.04241 0.15387 4.25711 0 0 0 53 73 96 255
0.888709 0.366181 4.60828 0 0 0 154 147 147 255
-0.733326 0.357938 4.04715 0 0 0 36 90 131 255
0.385312 0.59053 4.73698 0 0 0 98 114 114 255
-0.623214 0.492729 4.05486 0 0 0 99 126 133 255
-0.999801 0.641666 4.18951 0 0 0 88 88 104 255
-0.978583 0.647792 4.18193 0 0 0 91 89 91 255
-0.957534 0.668968 4.16461 0 0 0 139 141 145 255
1.91709 1.36634 6.64714 0 0 0 119 113 108 255
2.08618 1.42312 6.61282 0 0 0 132 131 127 255
1.94665 1.44041 6.65147 0 0 0 114 110 109 255
1.67405 1.44608 6.65757 0 0 0 115 111 106 255
1.16482 1.12157 4.9466 0 0 0 140 148 145 255
-2.83484 1.17897 5.47885 0 0 0 110 101 98 255
-1.00607 1.0383 4.22928 0 0 0 127 129 131 255
-2.63885 1.20128 5.04486 0 0 0 94 107 112 255
-0.920083 1.20949 4.16766 0 0 0 65 108 146 255
-0.369254 1.41196 4.23259 0 0 0 141 144 158 255
0.306449 0.0825741 4.9993 0 0 0 94 102 92 255
-3.19095 0.157939 6.52044 0 0 0 42 38 35 255
-1.00671 0.611873 4.18783 0 0 0 135 134 134 255
-1.00271 0.724363 4.19321 0 0 0 134 139 142 255
-1.00502 0.764222 4.20262 0 0 0 139 139 139 255
1.93269 1.44396 6.65791 0 0 0 117 113 112 255
0.950576 1.0069 4.64562 0 0 0 48 110 137 255
-1.01914 1.04425 4.2477 0 0 0 90 102 115 255
-2.58765 1.18468 4.9624 0 0 0 118 118 119 255
0.498356 0.628384 4.65251 0 0 0 42 87 69 255
-0.995443 0.578896 4.18898 0 0 0 123 134 140 255
1.91303 1.37062 6.66358 0 0 0 123 119 113 255
2.13155 1.37467 6.37185 0 0 0 123 122 116 255
1.16857 1.15212 4.94221 0 0 0 149 155 149 255
0.803569 1.13106 4.5845 0 0 0 89 121 78 255
-0.959441 0.928055 4.17392 0 0 0 71 78 94 255
-2.83226 1.17159 5.48809 0 0 0 113 110 106 255
0.441729 1.26852 4.75379 0 0 0 117 125 120 255
-0.694678 1.176 4.09026 0 0 0 97 128 150 255
-0.330578 0.653625 4.24522 0 0 0 140 153 172 255
0.475969 0.898544 4.69698 0 0 0 135 145 145 255
2.10586 1.40492 6.60194 0 0 0 116 111 98 255
2.13381 1.40432 6.5626 0 0 0 125 122 117 255
-1.01865 0.820945 4.19356 0 0 0 19 62 95 255
-0.670707 0.812325 4.0689 0 0 0 161 163 162 255
0.915993 -0.246716 4.90362 0 0 0 226 225 230 255
0.342153 0.118004 4.99366 0 0 0 59 91 74 255
-0.886481 0.633265 4.11601 0 0 0 150 153 152 255
-0.947525 0.709855 4.15379 0 0 0 33 53 96 255
1.20417 1.00183 4.96523 0 0 0 170 175 173 255
2.11151 1.40952 6.59674 0 0 0 121 118 110 255
-0.297275 0.86593 4.35203 0 0 0 21 59 103 255
-1.01183 0.82692 4.19088 0 0 0 23 54 90 255
-1.02237 -0.157349 4.26411 0 0 0 160 164 167 255
1.04317 0.160749 4.77517 0 0 0 61 100 69 255
0.351953 0.124508 4.93839 0 0 0 56 92 71 255
-0.330656 0.186434 4.41664 0 0 0 11 64 110 255
-1.06906 0.234152 4.33613 0 0 0 9 51 90 255
-0.330453 0.241301 4.29929 0 0 0 10 69 117 255
-0.310663 0.588793 4.36345 0 0 0 20 76 112 255
-0.841376 0.685689 4.09813 0 0 0 154 156 155 255
0.666212 0.230413 4.56972 0 0 0 103 139 132 255
-2.84674 0.109259 5.28729 0 0 0 79 86 83 255
-1.01882 0.195548 4.26184 0 0 0 63 85 105 255
-1.01782 0.197749 4.25855 0 0 0 63 85 105 255
0.385073 0.315125 4.72421 0 0 0 80 110 80 255
0.481087 0.344338 4.65567 0 0 0 140 136 131 255
0.50397 0.362602 4.64147 0 0 0 95 47 45 255
0.498344 0.508121 4.65119 0 0 0 117 141 135 255
-0.704307 0.386867 4.04904 0 0 0 98 119 109 255
-3.12756 0.356617 4.50119 0 0 0 87 93 108 255
-3.06491 0.357309 4.49057 0 0 0 66 76 90 255
-0.999888 0.485868 4.17735 0 0 0 93 100 123 255
-3.06136 0.506226 4.48653 0 0 0 90 96 111 255
-2.94937 0.516735 4.52487 0 0 0 37 38 45 255
-2.92933 0.530209 4.57038 0 0 0 27 17 22 255
-3.03951 0.515107 4.50873 0 0 0 75 85 106 255
-3.11423 0.517709 4.48789 0 0 0 92 95 119 255
-2.93499 0.533679 4.54742 0 0 0 18 16 24 255
-1.02038 0.596755 4.21556 0 0 0 108 111 119 255
-2.92836 0.550285 4.57571 0 0 0 60 58 61 255
-2.94025 0.550188 4.52994 0 0 0 82 78 88 255
0.915588 0.788735 4.62359 0 0 0 127 159 145 255
-3.02002 0.566544 4.51334 0 0 0 78 85 94 255
-0.494756 0.655342 4.10882 0 0 0 104 106 120 255
-3.04763 0.560266 4.36414 0 0 0 91 99 113 255
-3.07735 0.578771 4.50686 0 0 0 72 82 92 255
-0.980526 0.728553 4.18001 0 0 0 126 135 139 255
-2.7136 0.8291 5.08262 0 0 0 31 73 50 255
0.354831 1.04203 4.90681 0 0 0 108 123 118 255
-0.993331 0.856138 4.18207 0 0 0 129 134 156 255
-2.7856 0.953353 5.06112 0 0 0 107 125 122 255
-2.80356 0.984027 5.06333 0 0 0 33 36 37 255
-2.98113 1.14634 5.77537 0 0 0 40 41 38 255
-0.857754 0.916448 4.11063 0 0 0 41 64 103 255
-2.81653 1.01869 5.074 0 0 0 91 94 94 255
-2.80723 1.01865 5.08978 0 0 0 34 41 46 255
-2.79832 1.05136 5.13155 0 0 0 138 139 138 255
-2.83282 1.1264 5.18216 0 0 0 78 107 96 255
-2.85022 1.12622 5.12172 0 0 0 66 95 83 255
-2.78294 1.23204 5.2646 0 0 0 94 115 105 255
-2.82239 1.32379 5.38193 0 0 0 34 72 50 255
0.318435 1.38654 4.9707 0 0 0 72 83 72 255
-2.74857 1.37004 5.24431 0 0 0 112 123 121 255
-2.72798 1.38706 5.26914 0 0 0 101 112 113 255
-0.914371 1.27119 4.14647 0 0 0 112 139 169 255
-0.294692 0.0928518 4.43058 0 0 0 142 144 146 255
-0.992505 0.333698 4.16316 0 0 0 82 95 111 255
-0.932815 0.327964 4.11163 0 0 0 90 116 141 255
-2.82582 0.399877 4.52065 0 0 0 16 40 65 255
-0.999384 0.48498 4.17775 0 0 0 93 100 123 255
-3.04698 0.516892 4.50213 0 0 0 104 113 132 255
-2.72252 0.617309 5.04199 0 0 0 145 147 149 255
-0.964669 0.586646 4.17258 0 0 0 19 50 93 255
-2.93533 0.55943 4.53824 0 0 0 80 94 108 255
-3.04136 0.566742 4.40531 0 0 0 73 84 100 255
-1.0113 0.701957 4.19258 0 0 0 128 133 151 255
0.470987 0.95283 4.70821 0 0 0 129 141 137 255
1.16593 1.0162 4.92157 0 0 0 166 177 175 255
-0.360114 0.835575 4.23617 0 0 0 151 156 159 255
-0.978728 0.819499 4.18958 0 0 0 82 87 109 255
0.349473 1.03476 4.91716 0 0 0 118 130 126 255
-2.81233 0.956916 5.02566 0 0 0 87 90 90 255
-2.80691 1.00221 5.07074 0 0 0 43 50 54 255
-0.390169 1.03333 4.21016 0 0 0 31 102 135 255
-2.86769 1.13243 5.1858 0 0 0 66 96 83 255
-2.76788 1.19211 5.31684 0 0 0 18 27 26 255
0.40196 1.22337 4.76588 0 0 0 112 128 123 255
-2.8142 1.33803 5.49296 0 0 0 82 78 77 255
-2.73411 1.38616 5.23517 0 0 0 111 124 127 255
-0.834938 1.23685 4.10409 0 0 0 86 92 113 255
-2.49111 1.38262 4.87889 0 0 0 104 107 108 255
-0.76167 1.28015 4.10801 0 0 0 158 159 159 255
-0.301192 0.117868 4.36495 0 0 0 34 71 109 255
-2.74936 0.014381 5.11381 0 0 0 92 92 92 255
-0.716287 0.278832 4.04577 0 0 0 116 95 55 255
-0.934144 0.323099 4.113 0 0 0 58 88 119 255
-0.874659 0.344335 4.08344 0 0 0 16 60 104 255
-0.987082 0.351616 4.16438 0 0 0 106 114 133 255
-2.82884 0.42546 4.49276 0 0 0 0 86 155 255
-0.98716 0.480112 4.17147 0 0 0 126 82 74 255
-2.82517 0.442331 4.49783 0 0 0 0 85 156 255
0.49433 0.89141 4.70722 0 0 0 140 147 147 255
-2.66675 0.749188 4.91019 0 0 0 148 148 148 255
0.482047 0.933664 4.708 0 0 0 135 146 147 255
1.17404 1.00976 4.92486 0 0 0 171 176 174 255
-2.71792 0.837936 5.09692 0 0 0 31 73 50 255
-2.80722 0.955883 5.02761 0 0 0 103 106 105 255
-2.79842 1.03237 5.12202 0 0 0 134 130 130 255
0.432094 1.12816 4.74082 0 0 0 82 114 91 255
0.564347 1.13411 4.6546 0 0 0 112 137 115 255
-1.00972 1.00938 4.22673 0 0 0 143 145 146 255
-2.77796 1.19936 5.34757 0 0 0 20 23 22 255
0.403623 1.21295 4.76936 0 0 0 113 125 119 255
-2.80529 1.34242 5.51986 0 0 0 77 80 80 255
1.10347 1.37553 4.79781 0 0 0 80 112 95 255
0.328019 1.38931 4.97488 0 0 0 69 82 71 255
-0.727524 1.16302 4.09316 0 0 0 28 93 137 255
-2.73322 1.38769 5.22881 0 0 0 111 124 127 255
-2.4764 1.38598 4.84165 0 0 0 120 123 123 255
-2.83801 1.43728 5.0636 0 0 0 92 96 101 255
-2.86909 1.43529 4.88486 0 0 0 78 84 85 255
-0.265062 1.43861 4.4644 0 0 0 57 93 125 255
0.333447 0.0902414 5.00158 0 0 0 63 91 75 255
-2.75627 0.00938982 5.1231 0 0 0 92 92 92 255
-3.17011 0.149448 6.42039 0 0 0 25 30 29 255
-0.9609 0.337764 4.14687 0 0 0 104 113 127 255
-0.972661 0.474028 4.16995 0 0 0 129 86 66 255
0.501591 0.668387 4.65539 0 0 0 45 93 69 255
-2.7168 0.629124 5.03772 0 0 0 147 149 150 255
-2.66411 0.736675 4.90401 0 0 0 149 149 149 255
-2.80297 0.979232 5.07074 0 0 0 55 48 47 255
-0.652145 0.920764 4.08135 0 0 0 162 164 165 255
-0.785001 0.939921 4.08325 0 0 0 158 161 161 255
-0.909576 1.00818 4.16264 0 0 0 149 152 151 255
0.417839 1.24688 4.76643 0 0 0 129 134 132 255
-0.629195 1.06274 4.10034 0 0 0 38 102 143 255
-2.74266 1.38546 5.1948 0 0 0 133 137 140 255
-2.48484 1.3818 4.84499 0 0 0 103 105 104 255
-0.322599 0.135402 4.39361 0 0 0 24 65 106 255
-3.17539 0.148578 6.40321 0 0 0 24 29 28 255
-2.8047 0.200945 5.30234 0 0 0 100 100 100 255
-0.921923 0.472793 4.12812 0 0 0 160 134 99 255
-0.93433 0.6247 4.1389 0 0 0 147 149 149 255
-2.66222 0.745314 4.92955 0 0 0 147 150 150 255
-2.7731 1.21964 5.36612 0 0 0 17 24 24 255
-0.345093 0.144554 4.3544 0 0 0 19 63 110 255
-0.885745 0.409801 4.09619 0 0 0 152 135 90 255
-0.737596 0.782692 4.064 0 0 0 155 158 157 255
-1.0601 0.849191 4.28102 0 0 0 66 89 111 255
-0.327523 0.892035 4.30253 0 0 0 31 67 109 255
0.807115 -0.222859 4.7733 0 0 0 188 190 197 255
-1.09898 0.116561 4.33387 0 0 0 71 80 84 255
-0.999035 0.154185 4.16496 0 0 0 54 84 119 255
-3.04204 0.153003 6.19869 0 0 0 32 33 34 255
-1.79185 -0.510941 -8.2327 0 0 0 112 129 124 255
0.387679 0.385322 4.7113 0 0 0 117 108 111 255
0.681289 0.544951 4.58947 0 0 0 114 149 138 255
0.708512 0.54789 4.58557 0 0 0 138 161 157 255
0.401338 0.603715 4.73229 0 0 0 129 140 138 255
-2.65466 0.576724 4.87773 0 0 0 122 125 124 255
-1.00227 0.552253 4.17294 0 0 0 120 127 135 255
-3.16923 0.523365 4.5161 0 0 0 92 100 109 255
-2.95556 0.544544 4.52491 0 0 0 82 69 77 255
-2.6625 0.765939 4.8815 0 0 0 136 133 132 255
0.506644 0.910645 4.70153 0 0 0 145 150 148 255
-0.888686 0.887524 4.11184 0 0 0 103 106 113 255
-2.82752 1.0375 5.06827 0 0 0 90 90 94 255
-2.75962 1.17689 5.26617 0 0 0 9 35 22 255
0.458914 1.23726 4.735 0 0 0 88 88 99 255
0.719943 1.24234 4.54688 0 0 0 116 96 105 255
-0.431569 1.11059 4.1579 0 0 0 18 104 144 255
-1.09226 0.117509 4.33702 0 0 0 77 83 100 255
0.524508 0.3899 4.63077 0 0 0 149 133 134 255
-0.294016 0.378588 4.29644 0 0 0 30 80 114 255
0.679623 0.542756 4.58916 0 0 0 114 149 138 255
-1.003 0.557761 4.17301 0 0 0 132 134 136 255
-0.996848 0.8658 4.16847 0 0 0 117 130 157 255
-0.838578 0.264749 4.06743 0 0 0 72 79 72 255
-0.296366 0.378636 4.29186 0 0 0 34 86 121 255
1.04425 0.660239 4.71419 0 0 0 77 88 87 255
-0.51481 0.659866 4.1068 0 0 0 97 103 117 255
0.360481 1.00378 4.85255 0 0 0 126 130 128 255
-2.81991 1.04104 5.06616 0 0 0 90 90 94 255
-0.96126 0.907419 4.1472 0 0 0 46 55 82 255
-0.876592 0.923531 4.11057 0 0 0 39 57 99 255
0.35629 0.100111 4.98686 0 0 0 52 86 69 255
-2.75204 0.174356 5.12653 0 0 0 98 97 98 255
-2.9423 0.486938 4.51539 0 0 0 1 19 45 255
-2.80189 1.36748 5.70285 0 0 0 65 64 64 255
-1.07553 0.154771 4.37232 0 0 0 18 53 92 255
0.869346 0.572999 4.62152 0 0 0 157 160 159 255
-0.946016 0.476437 4.13962 0 0 0 132 116 104 255
0.447608 0.632464 4.69813 0 0 0 138 145 147 255
-0.294937 0.622398 4.38012 0 0 0 32 79 117 255
-0.528036 0.657803 4.10737 0 0 0 133 136 140 255
-2.6556 0.761584 4.91534 0 0 0 136 146 146 255
-0.617668 0.920454 4.07377 0 0 0 160 163 163 255
-0.604322 1.09311 4.11862 0 0 0 130 139 145 255
-0.359325 0.181608 4.28622 0 0 0 13 64 113 255
-0.917346 0.40374 4.10876 0 0 0 153 145 134 255
-0.382978 0.623825 4.16952 0 0 0 27 65 108 255
-0.413479 0.592619 4.14665 0 0 0 29 63 109 255
0.560119 0.884863 4.64561 0 0 0 86 128 113 255
1.10403 0.0755285 4.81367 0 0 0 100 105 101 255
0.385524 0.118339 4.73772 0 0 0 26 53 42 255
0.388089 0.161148 4.72483 0 0 0 51 80 63 255
0.391288 0.148609 4.72236 0 0 0 26 55 34 255
0.571553 0.265378 4.59561 0 0 0 135 144 144 255
0.605877 0.267639 4.58666 0 0 0 118 127 128 255
-0.870197 0.280599 4.07966 0 0 0 63 82 93 255
0.550133 0.412324 4.61906 0 0 0 129 95 94 255
-0.906962 0.365881 4.09943 0 0 0 68 86 109 255
-0.933659 0.489988 4.12841 0 0 0 112 123 141 255
-0.911436 0.492095 4.12336 0 0 0 58 87 116 255
-0.820321 0.565655 4.08173 0 0 0 111 132 154 255
-0.940032 0.679512 4.15442 0 0 0 63 67 94 255
-0.885328 0.691948 4.10212 0 0 0 156 160 160 255
-0.819863 0.761668 4.0888 0 0 0 107 112 125 255
-0.998468 0.792152 4.194 0 0 0 134 139 154 255
0.361345 1.02366 4.86226 0 0 0 122 131 130 255
-0.867737 0.891353 4.10887 0 0 0 65 68 94 255
-0.48264 0.90512 4.10407 0 0 0 161 163 167 255
0.928633 1.14369 4.64458 0 0 0 43 80 120 255
0.415731 1.17231 4.74978 0 0 0 102 104 108 255
-1.03007 1.00848 4.24216 0 0 0 67 85 117 255
0.430141 1.18574 4.7446 0 0 0 76 83 99 255
1.07764 0.0790696 4.81684 0 0 0 70 100 83 255
0.515373 0.227949 4.6274 0 0 0 119 152 149 255
-0.996305 0.191784 4.16502 0 0 0 76 101 123 255
-0.404466 0.337893 4.16301 0 0 0 25 96 144 255
-1.03049 0.742087 4.20256 0 0 0 52 71 107 255
0.928623 1.13903 4.64565 0 0 0 45 78 108 255
-0.580629 -0.163807 4.20054 0 0 0 217 220 228 255
0.476476 0.254029 4.64578 0 0 0 129 144 140 255
-1.0116 0.750362 4.19527 0 0 0 149 151 152 255
-0.812625 0.761319 4.08548 0 0 0 114 119 129 255
-0.988026 0.838631 4.17313 0 0 0 76 84 106 255
-0.997565 0.877093 4.16117 0 0 0 125 132 143 255
-0.494299 0.903489 4.10464 0 0 0 167 169 170 255
-0.955268 0.913646 4.14253 0 0 0 50 58 80 255
-0.749147 0.961185 4.08097 0 0 0 168 170 170 255
-0.984496 0.377268 4.16214 0 0 0 115 91 94 255
-0.996699 0.460549 4.17678 0 0 0 110 131 157 255
-0.643789 0.6746 4.07771 0 0 0 111 125 151 255
-1.01471 0.750384 4.19546 0 0 0 149 151 152 255
-0.327941 0.852671 4.25521 0 0 0 40 68 104 255
-0.678971 0.795693 4.06512 0 0 0 167 171 174 255
-1.00087 0.894168 4.08846 0 0 0 150 154 154 255
0.946921 1.12495 4.65032 0 0 0 32 78 121 255
-0.965781 0.903902 4.03708 0 0 0 50 57 84 255
-0.334423 0.150759 4.3154 0 0 0 19 74 121 255
-1.07932 0.144188 4.3017 0 0 0 29 64 102 255
-0.307774 0.31296 4.31297 0 0 0 34 84 127 255
-0.99595 0.425246 4.16949 0 0 0 115 130 153 255
0.554561 0.647483 4.62822 0 0 0 157 164 163 255
-0.768838 0.766623 4.07406 0 0 0 165 169 176 255
0.36385 0.973215 4.85305 0 0 0 130 137 135 255
-0.931654 0.400494 4.11857 0 0 0 152 121 86 255
4.33072 -2.80176 8.12383 0 0 0 97 96 97 255
4.22694 -2.58129 7.98562 0 0 0 69 66 67 255
-0.304798 0.0974393 4.3255 0 0 0 125 131 139 255
0.80785 0.249446 4.57314 0 0 0 92 93 90 255
-0.856618 0.316029 4.07486 0 0 0 150 141 98 255
4.02863 0.66262 7.83042 0 0 0 84 65 56 255
0.584701 0.434134 4.61519 0 0 0 122 62 62 255
0.42677 0.427307 4.70293 0 0 0 125 62 69 255
3.82638 0.795736 7.53568 0 0 0 70 71 70 255
-0.731782 0.449738 4.05046 0 0 0 119 137 116 255
0.905656 0.587658 4.6184 0 0 0 73 104 91 255
-0.706101 0.4949 4.05137 0 0 0 128 143 155 255
-0.95511 0.591918 4.15471 0 0 0 57 79 105 255
-0.307916 0.768423 4.25922 0 0 0 113 116 122 255
1.96645 1.37209 6.35429 0 0 0 137 135 134 255
-0.95499 0.883263 4.15567 0 0 0 67 68 89 255
0.978672 1.17811 4.69844 0 0 0 121 104 55 255
-0.704372 0.936893 4.06917 0 0 0 127 133 140 255
-0.659065 1.01243 4.07274 0 0 0 117 125 145 255
1.00349 1.35428 4.7385 0 0 0 131 155 147 255
0.894204 1.33961 4.63465 0 0 0 113 152 134 255
0.325718 1.36396 4.97464 0 0 0 128 133 131 255
-0.326255 1.18013 4.27592 0 0 0 115 119 122 255
0.915847 1.37812 4.66824 0 0 0 117 157 152 255
0.452557 1.35856 4.66905 0 0 0 59 94 75 255
-0.640591 1.17213 4.08869 0 0 0 162 164 168 255
-0.868569 1.16774 4.11698 0 0 0 101 133 152 255
-0.629749 1.19319 4.08516 0 0 0 82 90 110 255
-0.695581 1.2048 4.07938 0 0 0 129 104 126 255
-0.746801 1.209 4.07712 0 0 0 118 101 123 255
-0.901256 1.21564 4.12112 0 0 0 108 108 121 255
-0.850139 1.21371 4.10345 0 0 0 110 116 127 255
-0.824499 1.21617 4.09556 0 0 0 104 110 127 255
4.23185 -2.60218 8.00583 0 0 0 121 111 115 255
0.736878 0.399038 4.58115 0 0 0 137 53 54 255
4.05616 0.692625 7.86674 0 0 0 88 70 69 255
3.83254 0.786602 7.54683 0 0 0 70 71 70 255
-0.951932 0.589311 4.15272 0 0 0 24 57 107 255
2.32115 1.4299 6.73126 0 0 0 140 137 130 255
0.642868 1.25728 4.63508 0 0 0 110 124 106 255
0.989351 1.35385 4.71802 0 0 0 131 155 147 255
0.327458 1.35814 4.98309 0 0 0 128 133 131 255
0.898524 1.36644 4.63312 0 0 0 150 167 165 255
-0.338421 1.17867 4.24329 0 0 0 96 110 121 255
-1.08046 1.15828 4.42991 0 0 0 141 154 158 255
-0.640031 1.16181 4.09093 0 0 0 156 161 168 255
-0.722539 1.17186 4.08597 0 0 0 84 142 185 255
-0.635881 1.19806 4.08473 0 0 0 51 93 130 255
-0.665303 1.20809 4.08316 0 0 0 168 171 176 255
-0.694527 1.20779 4.07807 0 0 0 129 104 126 255
-0.924694 1.20139 4.12526 0 0 0 71 124 162 255
-0.840624 1.22466 4.09942 0 0 0 97 105 127 255
4.32157 -2.77811 8.11498 0 0 0 80 77 78 255
4.22536 -2.60052 7.98393 0 0 0 118 108 111 255
-0.975544 0.321565 4.16709 0 0 0 44 89 127 255
-0.920607 0.341547 4.10319 0 0 0 109 117 139 255
3.90229 0.802241 7.65971 0 0 0 136 132 131 255
-0.316405 0.501255 4.26882 0 0 0 66 104 130 255
0.904254 0.601654 4.6247 0 0 0 77 98 80 255
1.044 0.675709 4.72698 0 0 0 89 96 96 255
-0.501742 0.623629 4.11635 0 0 0 146 157 176 255
-0.967399 0.640396 4.16725 0 0 0 70 75 89 255
-0.405707 0.696775 4.17934 0 0 0 47 65 101 255
-0.536865 0.7336 4.09369 0 0 0 73 86 112 255
-0.952382 0.885825 4.15908 0 0 0 67 68 89 255
0.723408 1.13852 4.61273 0 0 0 149 158 157 255
0.403975 1.21683 4.76371 0 0 0 130 139 139 255
-1.0078 1.02833 4.22015 0 0 0 154 155 154 255
0.575539 1.27542 4.66177 0 0 0 139 145 138 255
-0.349121 1.14688 4.25891 0 0 0 148 159 166 255
0.331996 1.34009 4.99942 0 0 0 123 128 127 255
0.924015 1.36 4.67048 0 0 0 148 161 159 255
0.308326 1.37984 4.96588 0 0 0 73 91 80 255
1.0434 1.40118 4.76026 0 0 0 90 122 108 255
-0.595403 1.14592 4.09121 0 0 0 10 121 163 255
-0.635321 1.15136 4.09376 0 0 0 137 148 164 255
-0.672591 1.16714 4.08842 0 0 0 25 97 145 255
-0.381207 0.465913 4.17607 0 0 0 145 151 174 255
0.419729 0.681965 4.72426 0 0 0 41 90 74 255
-0.62321 0.674682 4.06747 0 0 0 169 171 173 255
-0.408902 0.85088 4.18248 0 0 0 166 173 171 255
0.934298 1.05654 4.66375 0 0 0 39 102 138 255
2.36421 1.44773 6.89112 0 0 0 136 134 128 255
-1.0097 0.843637 4.17741 0 0 0 13 55 102 255
0.719252 1.143 4.61368 0 0 0 150 158 157 255
0.433794 1.15061 4.73535 0 0 0 126 135 134 255
0.404902 1.22492 4.76396 0 0 0 129 138 137 255
-0.48499 1.06251 4.12517 0 0 0 146 156 168 255
0.561753 1.25722 4.64053 0 0 0 146 147 147 255
0.715761 1.27465 4.61987 0 0 0 149 150 148 255
1.06268 1.39227 4.78197 0 0 0 90 124 108 255
0.301861 1.3782 4.96906 0 0 0 84 99 92 255
4.24607 -2.64382 8.00038 0 0 0 70 67 67 255
-0.325114 0.255566 4.31597 0 0 0 18 78 126 255
-0.966658 0.3537 4.1474 0 0 0 109 110 116 255
0.99431 0.535399 4.65955 0 0 0 80 115 81 255
-0.317786 0.51145 4.2709 0 0 0 75 112 136 255
-0.975239 0.489598 4.16374 0 0 0 91 103 115 255
0.574027 0.660633 4.63438 0 0 0 156 162 162 255
0.379356 0.643726 4.73527 0 0 0 131 141 142 255
-0.993263 0.596513 4.16988 0 0 0 150 153 152 255
0.853311 0.799453 4.62979 0 0 0 169 173 172 255
0.946639 1.07799 4.66594 0 0 0 71 104 104 255
-0.712358 0.88082 4.06871 0 0 0 37 70 115 255
0.896801 1.11254 4.64519 0 0 0 52 100 127 255
-0.645979 0.905041 4.07227 0 0 0 172 175 174 255
-0.999729 0.997503 4.22597 0 0 0 155 157 156 255
1.02762 1.33552 4.75184 0 0 0 85 118 92 255
0.953324 0.122674 4.66199 0 0 0 57 106 75 255
-0.360891 0.253719 4.22755 0 0 0 35 92 133 255
-0.959895 0.409305 4.14949 0 0 0 158 131 115 255
-0.829347 0.633474 4.0865 0 0 0 164 168 166 255
0.730366 0.248164 4.56584 0 0 0 123 136 136 255
0.653156 0.266815 4.57244 0 0 0 82 104 101 255
0.468837 0.319497 4.66388 0 0 0 86 117 79 255
0.389021 0.334548 4.73062 0 0 0 81 95 77 255
0.464997 0.340096 4.66945 0 0 0 105 101 93 255
0.563936 0.349914 4.61079 0 0 0 108 86 82 255
0.390919 0.369836 4.74701 0 0 0 88 94 85 255
0.454054 0.380596 4.67546 0 0 0 152 152 154 255
0.569407 0.402421 4.60852 0 0 0 176 108 119 255
0.856458 0.43222 4.61073 0 0 0 151 62 74 255
0.385779 0.418425 4.72949 0 0 0 112 124 110 255
0.391225 0.44134 4.74822 0 0 0 144 94 97 255
-0.709444 0.427512 4.04997 0 0 0 108 128 114 255
-0.957325 0.489427 4.15278 0 0 0 82 92 102 255
-0.346621 0.691506 4.21087 0 0 0 111 115 128 255
-0.969933 0.886872 4.18401 0 0 0 147 157 163 255
2.14643 1.36314 6.33119 0 0 0 159 157 152 255
0.924175 1.14142 4.65157 0 0 0 77 93 100 255
-1.00488 1.04073 4.2112 0 0 0 144 146 150 255
-0.881655 1.21928 4.11681 0 0 0 101 108 117 255
-0.820418 1.24806 4.10053 0 0 0 98 108 131 255
-0.698166 1.28517 4.08948 0 0 0 115 96 117 255
-0.923034 1.27059 4.12952 0 0 0 109 129 172 255
-0.849732 1.27556 4.11383 0 0 0 99 100 111 255
-0.777015 1.28385 4.09587 0 0 0 142 152 176 255
-0.381908 1.37335 4.19931 0 0 0 93 131 161 255
-0.456748 1.38753 4.16533 0 0 0 98 138 179 255
-0.367708 1.41027 4.22772 0 0 0 153 159 166 255
-0.455057 1.41539 4.1586 0 0 0 168 170 172 255
-0.90383 1.34446 4.10948 0 0 0 77 124 152 255
-0.853135 1.36019 4.11996 0 0 0 93 145 173 255
-1.07485 1.39364 4.37584 0 0 0 151 153 152 255
-0.857143 1.37265 4.10335 0 0 0 59 91 109 255
-0.955935 0.489737 4.1498 0 0 0 64 82 107 255
-0.315532 0.842354 4.26565 0 0 0 50 80 114 255
0.864657 1.06551 4.62725 0 0 0 94 112 129 255
0.919306 1.12189 4.65073 0 0 0 53 92 109 255
0.863276 1.13837 4.64487 0 0 0 154 167 142 255
0.792963 1.14459 4.62045 0 0 0 98 130 90 255
-0.393792 1.03582 4.20783 0 0 0 17 117 156 255
-0.916141 1.01698 4.13773 0 0 0 157 162 161 255
-0.382929 1.37946 4.19846 0 0 0 127 160 181 255
-0.867383 1.31119 4.11214 0 0 0 107 117 140 255
-0.456138 1.40817 4.15933 0 0 0 167 169 171 255
-0.854052 1.35398 4.09649 0 0 0 98 144 163 255
-0.615742 -0.160123 4.10324 0 0 0 232 232 234 255
-0.87682 0.172666 4.07835 0 0 0 61 87 110 255
-0.707717 0.261058 4.04637 0 0 0 62 72 86 255
-0.721335 0.305268 4.0455 0 0 0 124 112 105 255
-0.344857 0.303174 4.22759 0 0 0 34 91 133 255
-0.988306 0.494122 4.1706 0 0 0 123 117 127 255
-0.374075 0.804269 4.20865 0 0 0 74 77 82 255
0.956634 1.09725 4.67109 0 0 0 56 90 121 255
-0.310601 1.11721 4.29623 0 0 0 31 89 129 255
-0.411949 1.09203 4.17706 0 0 0 1 111 157 255
-0.317823 1.18274 4.26257 0 0 0 36 85 118 255
-0.786672 1.18484 4.09809 0 0 0 15 91 138 255
-0.761239 1.2705 4.08631 0 0 0 164 168 169 255
-0.629003 1.28892 4.0782 0 0 0 34 85 130 255
-0.570044 1.31214 4.1039 0 0 0 148 149 139 255
-0.794731 1.29852 4.0921 0 0 0 35 79 116 255
-0.869677 1.30427 4.11367 0 0 0 134 137 142 255
-0.848724 1.30321 4.10902 0 0 0 129 135 138 255
-0.723658 1.30851 4.0865 0 0 0 137 139 143 255
-0.456511 1.38866 4.13044 0 0 0 148 152 154 255
-1.07579 1.38318 4.40537 0 0 0 147 153 155 255
-0.907462 1.36412 4.12326 0 0 0 105 135 156 255
-0.899546 1.3739 4.11586 0 0 0 69 107 139 255
-0.366161 0.140446 4.18432 0 0 0 32 80 121 255
-0.979616 0.451842 4.17008 0 0 0 165 96 85 255
-0.7539 0.721256 4.06194 0 0 0 167 169 168 255
3.84853 1.29584 7.38027 0 0 0 135 139 141 255
-1.01475 0.733907 4.19321 0 0 0 150 153 152 255
-0.958434 0.81826 4.18161 0 0 0 156 159 158 255
1.6673 1.18881 5.78511 0 0 0 176 183 181 255
0.933521 1.15473 4.65506 0 0 0 166 153 95 255
-0.411814 1.09206 4.17736 0 0 0 1 111 157 255
1.02865 1.354 4.73145 0 0 0 106 118 112 255
-0.552074 1.14089 4.11001 0 0 0 2 117 162 255
0.793729 1.36533 4.58162 0 0 0 56 90 74 255
-0.883314 1.18117 4.11365 0 0 0 111 146 168 255
-0.785234 1.18255 4.09865 0 0 0 15 91 138 255
-0.725511 1.19851 4.07865 0 0 0 126 123 131 255
-0.906107 1.1874 4.1193 0 0 0 121 142 158 255
-0.912879 1.26365 4.13169 0 0 0 153 159 167 255
-0.63451 1.29743 4.09033 0 0 0 27 85 133 255
-0.536168 1.32071 4.10922 0 0 0 178 169 132 255
-0.72122 1.30859 4.08666 0 0 0 137 139 143 255
-0.909486 1.36249 4.13164 0 0 0 105 135 156 255
-0.567458 0.455161 4.06958 0 0 0 155 159 165 255
3.85679 0.723092 7.55185 0 0 0 72 68 65 255
-0.619398 0.609313 4.06437 0 0 0 168 171 173 255
-0.550216 0.650845 4.07455 0 0 0 161 162 164 255
-0.389107 0.696899 4.18523 0 0 0 40 72 113 255
0.605464 0.902336 4.63758 0 0 0 158 164 165 255
3.97026 1.24593 7.5668 0 0 0 121 119 120 255
-1.02654 0.858722 4.1942 0 0 0 9 62 110 255
0.927909 1.10192 4.65726 0 0 0 110 126 100 255
-0.464375 1.00798 4.1259 0 0 0 133 148 161 255
-0.341531 1.07727 4.24689 0 0 0 128 135 144 255
0.427329 1.22693 4.75061 0 0 0 138 145 146 255
-0.54198 1.14236 4.11277 0 0 0 0 113 160 255
-0.287004 1.23761 4.36246 0 0 0 52 80 103 255
-0.880237 1.18984 4.11054 0 0 0 147 152 154 255
-0.71805 1.29388 4.08545 0 0 0 128 118 135 255
-0.628786 1.30585 4.08899 0 0 0 25 86 135 255
