ply
format ascii 1.0
comment VCGLIB generated
element vertex 1037
property float x
property float y
property float z
property float nx
property float ny
property float nz
property uchar red
property uchar green
property uchar blue
property uchar alpha
element face 0
property list uchar int vertex_indices
end_header
2.10324 0.434177 3.73315 0 0 0 58 42 39 255
2.45768 0.42995 3.71096 0 0 0 34 38 37 255
-0.608966 0.454601 4.0581 0 0 0 147 154 154 255
2.14135 0.466099 3.71168 0 0 0 91 65 52 255
-0.547582 0.489511 4.07285 0 0 0 104 120 136 255
-0.423811 0.504284 4.15212 0 0 0 78 121 156 255
1.94266 0.497599 4.00269 0 0 0 122 120 119 255
2.10444 0.500025 3.73737 0 0 0 55 39 39 255
1.08296 0.581266 4.76625 0 0 0 126 142 138 255
2.10161 0.527431 3.73747 0 0 0 50 42 47 255
2.2127 0.527636 3.68588 0 0 0 55 39 41 255
2.2813 0.519411 3.67938 0 0 0 46 36 38 255
2.42299 0.526101 3.70313 0 0 0 57 40 43 255
2.56698 0.542839 3.78684 0 0 0 104 112 118 255
1.94966 0.574761 4.03203 0 0 0 108 100 94 255
2.49127 0.547236 3.7282 0 0 0 123 130 131 255
2.36384 0.560361 3.67772 0 0 0 108 94 86 255
2.40466 0.549951 3.67788 0 0 0 140 142 143 255
2.42476 0.551251 3.69503 0 0 0 143 143 143 255
-1.0135 0.58901 4.24706 0 0 0 134 137 140 255
-0.922288 0.588252 4.13129 0 0 0 32 55 90 255
2.14748 0.555098 3.70688 0 0 0 107 90 75 255
-0.734859 0.611122 4.05451 0 0 0 155 156 156 255
-0.499086 0.603769 4.08884 0 0 0 88 94 113 255
-0.728045 0.645593 4.05744 0 0 0 154 156 158 255
-0.436192 0.685267 4.1444 0 0 0 151 158 159 255
-0.988451 0.707387 4.16651 0 0 0 133 131 130 255
-0.732756 0.71373 4.06328 0 0 0 156 159 161 255
-0.638596 0.707098 4.06516 0 0 0 137 143 162 255
-0.407128 0.727614 4.17992 0 0 0 155 160 168 255
-0.868005 0.723671 4.07952 0 0 0 109 111 116 255
-0.556362 0.759666 4.08923 0 0 0 158 162 163 255
2.25727 0.722749 3.68768 0 0 0 96 76 55 255
-0.892195 0.770549 4.11955 0 0 0 97 108 118 255
-0.690413 0.758041 4.06958 0 0 0 52 69 110 255
-0.459725 0.775026 4.1357 0 0 0 92 94 101 255
-0.332545 0.786054 4.24421 0 0 0 40 53 83 255
-0.318585 0.813404 4.26919 0 0 0 128 133 152 255
-0.625017 0.809168 4.07433 0 0 0 53 63 89 255
-0.453454 0.833508 4.13284 0 0 0 58 66 93 255
-0.413111 0.886134 4.17092 0 0 0 156 157 159 255
-0.445012 0.894687 4.13729 0 0 0 113 117 126 255
-0.955262 0.913001 4.17034 0 0 0 69 69 80 255
-0.505185 0.91031 4.1072 0 0 0 156 159 158 255
-0.563539 0.929772 4.08914 0 0 0 160 162 163 255
-0.736084 0.932169 4.0677 0 0 0 157 161 163 255
-0.882135 0.943227 4.11561 0 0 0 33 52 93 255
-0.674771 0.961349 4.08236 0 0 0 158 160 161 255
-0.711052 0.964276 4.07309 0 0 0 59 71 96 255
-0.74369 0.973835 4.06959 0 0 0 157 157 157 255
-0.477914 0.993649 4.12825 0 0 0 130 149 169 255
-0.848748 1.00943 4.10941 0 0 0 151 154 153 255
-0.934572 1.02898 4.17524 0 0 0 149 147 151 255
-0.49997 1.03581 4.11964 0 0 0 40 99 138 255
0.955069 1.11619 4.66892 0 0 0 29 77 115 255
0.50974 1.15153 4.69875 0 0 0 69 104 73 255
2.34933 1.06767 3.7149 0 0 0 87 86 87 255
0.80066 1.24695 4.6173 0 0 0 101 120 98 255
-0.624931 1.1616 4.04656 0 0 0 136 140 153 255
-0.867516 1.17011 4.12552 0 0 0 88 116 142 255
-0.725793 1.17484 4.11242 0 0 0 85 131 170 255
-0.784921 1.19105 4.09061 0 0 0 21 85 131 255
-0.828519 1.23751 4.10132 0 0 0 80 84 109 255
-0.904309 1.27197 4.13632 0 0 0 124 142 163 255
-0.62978 1.29095 4.07184 0 0 0 37 76 110 255
-0.857059 1.32244 4.12318 0 0 0 101 111 122 255
-0.719284 1.32031 4.09181 0 0 0 95 108 135 255
-0.844274 1.36517 4.11734 0 0 0 65 104 137 255
2.39948 1.41094 3.78612 0 0 0 98 94 97 255
2.30224 -0.21153 3.91585 0 0 0 45 43 44 255
2.37427 -0.207952 3.87369 0 0 0 45 45 45 255
2.46022 -0.199178 3.92078 0 0 0 47 52 53 255
0.943918 -0.242707 4.72245 0 0 0 211 211 212 255
2.09875 -0.0563636 3.97531 0 0 0 93 84 83 255
2.4751 -0.0450112 3.91706 0 0 0 35 39 39 255
2.345 0.0104183 3.92692 0 0 0 200 205 207 255
2.47265 0.0365005 3.92927 0 0 0 84 85 92 255
2.35185 0.0899206 3.93108 0 0 0 248 250 254 255
2.35676 0.115465 3.92307 0 0 0 255 252 253 255
2.06702 0.135711 4.03856 0 0 0 63 63 62 255
2.53538 0.140296 3.94762 0 0 0 50 50 54 255
2.31169 0.259194 3.70452 0 0 0 161 144 114 255
-0.470132 0.264594 4.10465 0 0 0 148 121 89 255
2.21645 0.266578 3.71627 0 0 0 95 75 60 255
2.36278 0.26186 3.70652 0 0 0 125 88 55 255
-0.824137 0.281387 4.05728 0 0 0 139 126 66 255
-0.794029 0.275943 4.04947 0 0 0 75 73 68 255
-0.762434 0.273207 4.04928 0 0 0 114 95 99 255
-0.62393 0.273284 4.05055 0 0 0 133 111 101 255
-0.699268 0.28361 4.0444 0 0 0 113 107 101 255
2.21452 0.29762 3.70543 0 0 0 130 106 77 255
2.37641 0.298196 3.70296 0 0 0 138 101 62 255
-0.966397 0.334428 4.17312 0 0 0 95 110 126 255
0.582972 0.375092 4.60171 0 0 0 118 39 43 255
-0.609974 0.398575 4.05717 0 0 0 149 155 160 255
-0.529761 0.399142 4.08248 0 0 0 152 158 165 255
-0.390358 0.39509 4.16885 0 0 0 148 155 155 255
0.60443 0.400268 4.59214 0 0 0 156 147 148 255
1.98498 0.386111 3.94257 0 0 0 112 121 123 255
2.07252 0.397467 3.75085 0 0 0 127 133 134 255
2.12901 0.406027 3.71772 0 0 0 131 137 139 255
2.15393 0.39449 3.70564 0 0 0 40 39 44 255
2.18392 0.395332 3.69571 0 0 0 135 136 140 255
2.28882 0.394318 3.67432 0 0 0 138 147 149 255
2.42028 0.383459 3.69889 0 0 0 125 129 132 255
2.13026 0.413165 3.71763 0 0 0 123 136 140 255
2.42659 0.417154 3.69466 0 0 0 61 43 33 255
-0.598036 0.456069 4.06046 0 0 0 144 156 158 255
-0.983642 0.483463 4.22878 0 0 0 127 120 122 255
2.14758 0.467827 3.7093 0 0 0 61 40 29 255
-0.348 0.539094 4.2202 0 0 0 32 80 117 255
2.10762 0.514552 3.73159 0 0 0 47 38 40 255
2.21688 0.520511 3.68567 0 0 0 52 36 38 255
2.42548 0.508281 3.69467 0 0 0 39 38 42 255
1.98184 0.550861 3.89305 0 0 0 130 133 131 255
2.28605 0.525106 3.67965 0 0 0 37 39 43 255
-0.923672 0.588682 4.12984 0 0 0 22 55 94 255
-0.851341 0.570426 4.09328 0 0 0 152 152 152 255
-0.632992 0.573182 4.06343 0 0 0 153 155 167 255
-0.452673 0.569558 4.13727 0 0 0 156 158 162 255
2.12009 0.550591 3.72486 0 0 0 137 139 139 255
2.1486 0.551886 3.70631 0 0 0 107 90 75 255
2.19224 0.556435 3.69206 0 0 0 137 141 142 255
2.23487 0.558912 3.68317 0 0 0 142 141 144 255
2.33278 0.550626 3.67505 0 0 0 141 146 147 255
2.38053 0.552946 3.6746 0 0 0 45 41 45 255
2.42823 0.553219 3.69965 0 0 0 143 143 143 255
-0.801896 0.586021 4.08206 0 0 0 29 51 90 255
-0.73521 0.60814 4.05445 0 0 0 156 156 156 255
-0.575143 0.621985 4.11253 0 0 0 104 112 143 255
1.04124 0.646287 4.7222 0 0 0 40 80 74 255
-0.735867 0.620559 4.05515 0 0 0 156 159 158 255
-0.357372 0.654453 4.2101 0 0 0 146 151 161 255
-0.577727 0.667563 4.1049 0 0 0 61 68 87 255
-0.513009 0.661295 4.0832 0 0 0 59 65 84 255
-0.433056 0.670112 4.14407 0 0 0 153 157 159 255
-0.95346 0.686959 4.16268 0 0 0 28 44 82 255
-0.881124 0.675505 4.11787 0 0 0 56 60 71 255
-0.774208 0.674708 4.06022 0 0 0 34 53 94 255
-0.360517 0.67881 4.20903 0 0 0 146 152 161 255
-0.959661 0.700338 4.16381 0 0 0 24 46 91 255
-0.863307 0.704059 4.07652 0 0 0 111 118 126 255
-0.737212 0.707886 4.06299 0 0 0 153 157 160 255
-0.414332 0.73157 4.17627 0 0 0 154 159 171 255
-0.888641 0.759554 4.10614 0 0 0 107 117 124 255
2.27701 0.735007 3.68853 0 0 0 110 80 42 255
-0.676432 0.773131 4.0733 0 0 0 156 158 163 255
-1.00206 0.815222 4.22218 0 0 0 39 52 75 255
-0.384198 0.799706 4.19656 0 0 0 103 118 135 255
-0.289321 0.806798 4.31926 0 0 0 149 153 154 255
-0.619598 0.811731 4.07473 0 0 0 49 59 86 255
-0.334626 0.816003 4.2408 0 0 0 33 58 96 255
-0.807526 0.826929 4.07321 0 0 0 74 80 99 255
-0.615323 0.877071 4.07535 0 0 0 58 75 97 255
-0.410525 0.90232 4.17493 0 0 0 61 73 100 255
-0.741284 0.882168 4.06489 0 0 0 60 75 95 255
-0.494492 0.892626 4.11036 0 0 0 160 162 163 255
-0.87549 0.910714 4.11286 0 0 0 31 51 92 255
-0.56513 0.930203 4.08856 0 0 0 160 162 163 255
-0.862516 0.925052 4.08867 0 0 0 26 52 95 255
-0.664051 0.95026 4.08559 0 0 0 159 162 161 255
-0.614495 0.947346 4.07401 0 0 0 77 85 106 255
-0.801294 0.982877 4.09703 0 0 0 41 55 91 255
1.1861 1.12185 5.05959 0 0 0 168 174 170 255
-0.47156 0.994843 4.12994 0 0 0 137 155 172 255
-0.359795 1.01775 4.22928 0 0 0 122 144 164 255
-0.924794 1.01747 4.16493 0 0 0 148 150 151 255
1.18908 1.22398 5.07214 0 0 0 158 162 161 255
-0.619283 1.07578 4.09255 0 0 0 113 153 184 255
-0.386362 1.14124 4.21184 0 0 0 145 152 158 255
2.12678 1.0639 3.75449 0 0 0 95 95 94 255
2.28612 1.07155 3.7142 0 0 0 86 79 81 255
-0.672058 1.15398 4.0731 0 0 0 23 88 136 255
-0.630408 1.15217 4.0749 0 0 0 142 157 181 255
-0.58259 1.14185 4.06625 0 0 0 9 108 147 255
-0.877298 1.20599 4.15817 0 0 0 142 144 146 255
-0.784738 1.18171 4.10587 0 0 0 19 84 129 255
-0.631238 1.19845 4.08056 0 0 0 46 80 123 255
-0.329003 1.23292 4.25592 0 0 0 162 140 95 255
-0.912405 1.22174 4.14513 0 0 0 82 104 140 255
-0.895241 1.26939 4.12416 0 0 0 124 142 163 255
-0.854414 1.3029 4.10065 0 0 0 124 131 141 255
-0.793855 1.31209 4.09588 0 0 0 29 74 114 255
-0.700296 1.29477 4.07964 0 0 0 111 112 122 255
-0.372034 1.38837 4.21715 0 0 0 152 154 156 255
-0.891723 1.39357 4.16293 0 0 0 84 129 157 255
2.4102 1.41273 3.7808 0 0 0 93 90 94 255
2.39289 1.62949 3.9852 0 0 0 205 206 212 255
2.24022 -0.2035 3.83059 0 0 0 42 41 42 255
2.4646 -0.19367 3.94786 0 0 0 63 43 41 255
2.12399 -0.051086 3.97175 0 0 0 47 49 51 255
2.47874 0.0498818 3.9335 0 0 0 83 86 92 255
-1.06739 0.134127 4.30933 0 0 0 22 47 84 255
-0.651336 0.274064 4.04481 0 0 0 129 110 99 255
2.2894 0.269251 3.69763 0 0 0 118 95 70 255
-0.362261 0.355992 4.20018 0 0 0 124 141 155 255
1.96183 0.338276 4.02798 0 0 0 59 58 59 255
-0.928233 0.353911 4.09882 0 0 0 96 99 113 255
-0.880673 0.331979 4.09375 0 0 0 8 56 107 255
0.769095 0.387842 4.57429 0 0 0 159 159 159 255
2.39675 0.397408 3.68638 0 0 0 122 130 137 255
-0.436018 0.421479 4.1361 0 0 0 149 150 154 255
2.07351 0.398037 3.75184 0 0 0 124 136 136 255
2.18404 0.413261 3.6965 0 0 0 132 143 146 255
2.28769 0.391146 3.67439 0 0 0 143 143 143 255
2.34301 0.437594 3.6714 0 0 0 40 41 47 255
-0.944541 0.469844 4.17479 0 0 0 145 109 78 255
2.26759 0.489869 3.6773 0 0 0 136 136 137 255
-0.457458 0.587378 4.13334 0 0 0 158 160 160 255
1.9772 0.597245 4.03605 0 0 0 45 46 47 255
-0.633403 0.572192 4.06324 0 0 0 153 155 167 255
-0.731297 0.626783 4.05577 0 0 0 156 159 159 255
-0.359258 0.649444 4.21166 0 0 0 113 126 151 255
-0.966731 0.693769 4.16469 0 0 0 22 44 84 255
-0.631367 0.688508 4.0667 0 0 0 154 158 160 255
-0.417689 0.683295 4.16712 0 0 0 32 60 105 255
-0.868107 0.722027 4.07511 0 0 0 122 125 129 255
0.789323 0.75838 4.60741 0 0 0 70 110 74 255
-0.742115 0.727945 4.0611 0 0 0 159 160 160 255
-0.409706 0.878612 4.17319 0 0 0 158 161 161 255
-0.876692 0.907295 4.11095 0 0 0 29 52 93 255
-0.763184 0.939588 4.07166 0 0 0 158 161 160 255
-0.985939 1.068 4.22199 0 0 0 23 53 95 255
-0.399825 1.10293 4.20199 0 0 0 3 94 141 255
-0.351707 1.14289 4.24199 0 0 0 146 150 155 255
-0.570934 1.14152 4.05729 0 0 0 4 108 151 255
-0.869705 1.19167 4.13538 0 0 0 141 143 145 255
-0.784769 1.18757 4.10605 0 0 0 20 85 131 255
-0.713132 1.17487 4.07461 0 0 0 126 144 160 255
-0.655049 1.17607 4.0828 0 0 0 33 87 135 255
-0.338935 1.25129 4.24801 0 0 0 164 148 92 255
0.364268 1.40213 4.9262 0 0 0 67 94 81 255
-0.891277 1.27767 4.15523 0 0 0 138 143 146 255
-0.769834 1.27475 4.10672 0 0 0 157 157 158 255
-0.35045 1.27813 4.24103 0 0 0 168 154 103 255
-0.788328 1.30451 4.10108 0 0 0 36 74 113 255
-0.69418 1.29456 4.01728 0 0 0 132 130 139 255
-0.619838 1.29657 4.04053 0 0 0 28 75 118 255
-0.543966 1.30751 4.06814 0 0 0 166 160 125 255
-0.294996 1.46103 4.65304 0 0 0 45 86 123 255
2.13238 -0.0817256 3.97111 0 0 0 65 66 72 255
-0.341422 0.111241 4.60417 0 0 0 26 61 102 255
2.05388 0.164776 4.02864 0 0 0 55 58 57 255
-0.357402 0.368836 4.20544 0 0 0 138 149 156 255
-0.87844 0.407536 4.06056 0 0 0 143 135 116 255
-0.600841 0.391175 4.05985 0 0 0 135 143 155 255
-0.525777 0.398091 4.08377 0 0 0 153 159 162 255
1.97369 0.415385 3.9373 0 0 0 111 113 111 255
-0.921774 0.449545 4.14334 0 0 0 147 142 134 255
-0.721042 0.457874 4.04308 0 0 0 117 125 105 255
-0.351722 0.464269 4.21702 0 0 0 151 153 161 255
1.08697 0.525128 4.79455 0 0 0 93 113 86 255
1.98211 0.509001 3.93246 0 0 0 121 128 125 255
-0.978244 0.531531 4.19925 0 0 0 12 59 104 255
0.830933 0.595501 4.60585 0 0 0 156 160 161 255
2.07855 0.551059 3.75087 0 0 0 135 139 140 255
2.20255 0.552084 3.68789 0 0 0 143 142 139 255
-0.618604 0.586624 4.06878 0 0 0 157 159 161 255
-0.461464 0.594792 4.13248 0 0 0 157 160 162 255
1.96798 0.605693 4.03672 0 0 0 50 52 52 255
-0.907953 0.631225 4.12854 0 0 0 150 152 151 255
-0.830272 0.597987 4.09251 0 0 0 146 152 155 255
-0.504089 0.644534 4.0653 0 0 0 156 158 158 255
-0.313097 0.688924 4.30429 0 0 0 146 153 154 255
-0.972283 0.702107 4.17317 0 0 0 23 46 87 255
0.947087 0.750686 4.64877 0 0 0 116 146 130 255
1.08658 0.770659 4.77456 0 0 0 48 91 74 255
-0.663615 0.729889 4.06803 0 0 0 27 55 103 255
-1.00769 0.823943 4.22464 0 0 0 23 61 94 255
-0.728647 0.862179 4.06825 0 0 0 37 61 107 255
-0.447648 0.827915 4.13634 0 0 0 107 104 108 255
-0.605263 0.907686 4.07655 0 0 0 158 161 165 255
-0.843968 0.97278 4.10397 0 0 0 152 154 156 255
-0.466434 0.993231 4.13142 0 0 0 137 155 172 255
-0.360691 1.02523 4.22787 0 0 0 127 129 131 255
-0.476705 1.06179 4.12808 0 0 0 148 152 158 255
-0.343868 1.2074 4.25199 0 0 0 140 124 104 255
1.11241 1.40714 5.09784 0 0 0 68 108 88 255
-0.519281 1.31563 4.08658 0 0 0 174 163 107 255
-0.948401 1.41496 4.19433 0 0 0 44 79 117 255
-0.506621 1.43581 4.12006 0 0 0 45 86 124 255
1.9957 1.57746 4.10351 0 0 0 110 112 108 255
2.12636 -0.201232 3.97507 0 0 0 84 67 60 255
2.1196 -0.126018 3.97893 0 0 0 72 57 57 255
1.05263 0.111297 4.83109 0 0 0 45 91 64 255
2.04685 0.178695 4.03542 0 0 0 54 54 54 255
2.07824 0.171028 4.01275 0 0 0 40 47 49 255
1.97849 0.270065 4.01948 0 0 0 109 101 98 255
-0.856577 0.424579 4.10123 0 0 0 147 132 77 255
1.95943 0.471225 3.9745 0 0 0 128 132 131 255
-0.402895 0.622061 4.15996 0 0 0 25 57 105 255
-0.838836 0.647435 4.09693 0 0 0 154 153 154 255
-0.690506 0.636854 4.05496 0 0 0 23 56 107 255
1.0544 0.8105 4.74578 0 0 0 50 95 71 255
-0.727575 0.815585 4.06155 0 0 0 73 84 96 255
-0.302203 0.874569 4.28187 0 0 0 18 64 112 255
1.99596 0.904506 4.07969 0 0 0 46 51 52 255
-0.380263 1.21861 4.21869 0 0 0 153 126 99 255
0.383153 1.38539 4.89857 0 0 0 64 93 79 255
-0.8284 1.21307 4.10651 0 0 0 131 129 136 255
-0.45233 1.3093 4.15806 0 0 0 173 160 74 255
-0.335438 1.44315 4.63277 0 0 0 30 78 119 255
-0.873002 1.43288 4.11136 0 0 0 50 80 110 255
2.20025 -0.19351 3.88565 0 0 0 129 93 98 255
2.49942 -0.188617 3.96615 0 0 0 82 87 87 255
2.30672 -0.171906 3.92803 0 0 0 138 103 105 255
2.5062 -0.0973736 3.99224 0 0 0 115 122 124 255
2.50732 -0.0739057 3.96513 0 0 0 81 85 86 255
2.49777 -0.0134848 3.96684 0 0 0 120 127 129 255
2.21338 0.0166686 3.91362 0 0 0 162 162 162 255
2.54743 0.11999 3.98568 0 0 0 113 115 117 255
-0.29563 0.0980372 4.60185 0 0 0 81 87 99 255
2.34017 0.254 3.70485 0 0 0 155 135 115 255
0.648258 0.247677 4.5782 0 0 0 30 53 50 255
0.920064 0.257223 4.6118 0 0 0 96 101 99 255
0.464068 0.273736 4.66062 0 0 0 121 130 129 255
0.960113 0.268252 4.63119 0 0 0 83 112 100 255
2.3468 0.303294 3.70188 0 0 0 76 50 28 255
-0.734746 0.289477 4.04744 0 0 0 30 47 93 255
2.32038 0.30691 3.7004 0 0 0 153 123 92 255
0.671763 0.315657 4.57431 0 0 0 123 149 104 255
-0.386468 0.320542 4.17796 0 0 0 62 112 157 255
-0.334733 0.408422 4.23127 0 0 0 114 88 103 255
2.51573 0.425569 3.72808 0 0 0 99 98 98 255
-0.420396 0.448015 4.14072 0 0 0 150 151 157 255
2.28054 0.452053 3.67416 0 0 0 86 81 78 255
-0.510977 0.478433 4.08618 0 0 0 40 83 116 255
2.116 0.525218 3.72774 0 0 0 38 42 46 255
2.22583 0.537826 3.68315 0 0 0 35 40 52 255
2.065 0.55681 3.75953 0 0 0 75 86 87 255
0.576501 0.6802 4.62625 0 0 0 145 153 151 255
1.10833 0.737263 4.79311 0 0 0 136 148 146 255
1.08784 0.755458 4.77145 0 0 0 134 142 139 255
1.05421 0.768118 4.73977 0 0 0 144 153 153 255
-0.785245 0.756131 4.02011 0 0 0 86 89 99 255
2.33364 0.716227 3.68555 0 0 0 73 61 49 255
-0.817283 0.87552 3.99019 0 0 0 57 71 86 255
-0.81352 0.877834 3.98778 0 0 0 61 67 88 255
1.88437 1.43487 6.96992 0 0 0 147 145 139 255
1.32199 1.3929 6.58548 0 0 0 133 131 125 255
1.23886 1.37451 6.4397 0 0 0 142 141 133 255
0.906065 1.17872 4.6454 0 0 0 95 89 43 255
2.40229 1.04833 3.71827 0 0 0 99 97 98 255
2.42382 1.04536 3.69281 0 0 0 107 115 115 255
2.16754 1.06835 3.74084 0 0 0 125 133 133 255
2.07723 1.08659 3.78337 0 0 0 90 93 94 255
2.21087 1.0883 3.7146 0 0 0 73 75 74 255
2.3109 1.08637 3.71016 0 0 0 87 89 90 255
2.34119 1.08754 3.70832 0 0 0 87 93 93 255
2.20988 1.16604 3.67718 0 0 0 99 102 104 255
2.2288 1.24074 3.67071 0 0 0 109 118 116 255
2.39323 1.23719 3.66027 0 0 0 100 98 98 255
-0.414492 1.39773 4.18007 0 0 0 113 120 126 255
-0.670253 1.36886 3.83146 0 0 0 70 107 143 255
2.15096 1.36899 3.7029 0 0 0 117 120 119 255
2.18807 1.38014 3.67438 0 0 0 119 121 125 255
2.21785 1.39489 3.66166 0 0 0 100 102 104 255
2.50037 -0.00137649 3.96531 0 0 0 138 145 145 255
2.37876 0.313785 3.70031 0 0 0 106 86 56 255
0.610708 0.376143 4.59138 0 0 0 90 60 64 255
-0.721535 0.391445 4.04349 0 0 0 119 120 112 255
-0.509282 0.486384 4.08671 0 0 0 19 83 128 255
2.51346 0.493522 3.71402 0 0 0 68 49 45 255
2.6433 0.902508 3.89728 0 0 0 90 99 99 255
-0.654347 0.937558 4.00361 0 0 0 159 159 164 255
2.39494 1.03501 3.67786 0 0 0 81 82 82 255
-0.687613 1.36282 3.82967 0 0 0 80 126 160 255
-0.509342 1.4181 4.13378 0 0 0 64 114 148 255
2.1143 -0.200899 3.97687 0 0 0 109 98 94 255
2.10805 -0.0120619 3.98716 0 0 0 149 149 147 255
0.678979 0.241398 4.57109 0 0 0 96 99 99 255
2.38153 0.260918 3.7104 0 0 0 155 118 75 255
-0.70898 0.294872 4.0448 0 0 0 143 131 87 255
2.39113 0.319141 3.69807 0 0 0 64 43 28 255
0.886051 0.392869 4.60591 0 0 0 153 144 145 255
1.02851 0.415682 4.69275 0 0 0 131 63 70 255
-0.720735 0.399347 4.04296 0 0 0 145 145 130 255
0.44785 0.421707 4.67409 0 0 0 140 139 139 255
2.34609 0.463834 3.67422 0 0 0 47 44 47 255
-0.468964 0.484396 4.10985 0 0 0 114 121 130 255
2.37178 0.544816 3.67493 0 0 0 41 40 45 255
-0.848898 0.738256 4.03079 0 0 0 93 101 111 255
2.36657 0.730198 3.69754 0 0 0 91 69 44 255
-0.684185 0.785151 4.07378 0 0 0 159 158 161 255
2.36359 0.749927 3.69418 0 0 0 97 71 33 255
-0.571554 0.911541 4.08643 0 0 0 161 161 163 255
0.858869 1.13825 4.62567 0 0 0 152 156 133 255
-0.382173 1.10746 4.21714 0 0 0 9 82 129 255
0.889493 1.1759 4.63479 0 0 0 125 121 72 255
-0.449165 1.39916 4.1321 0 0 0 155 159 162 255
2.45703 1.3673 3.64903 0 0 0 88 84 87 255
2.12953 -0.14316 3.97304 0 0 0 68 46 46 255
2.47688 -0.0665077 3.96434 0 0 0 60 67 75 255
2.21054 0.015192 3.91321 0 0 0 156 158 160 255
2.4738 0.03941 4.00219 0 0 0 89 89 89 255
2.12899 0.0421629 3.96542 0 0 0 93 96 95 255
-0.357516 0.317921 4.20229 0 0 0 50 96 131 255
2.28848 0.431939 3.67569 0 0 0 141 142 141 255
2.42451 0.453282 3.68166 0 0 0 35 37 41 255
2.20824 0.484354 3.67291 0 0 0 61 36 28 255
0.796256 0.556178 4.591 0 0 0 154 159 157 255
0.442187 0.60338 4.69555 0 0 0 86 114 109 255
2.39145 0.537875 3.6697 0 0 0 142 145 146 255
1.95859 0.592657 4.00097 0 0 0 59 59 62 255
2.24233 0.54571 3.68102 0 0 0 132 142 144 255
2.2856 0.555627 3.67952 0 0 0 35 36 40 255
-0.451826 0.649331 4.13452 0 0 0 158 159 161 255
-0.406243 0.667589 4.1695 0 0 0 25 59 107 255
-0.631778 0.657609 4.06691 0 0 0 158 158 162 255
-0.740998 0.674172 4.05947 0 0 0 36 50 91 255
-0.289302 0.765842 4.3266 0 0 0 128 132 139 255
-0.481805 0.895051 4.1216 0 0 0 159 161 160 255
-0.794317 0.971544 3.96706 0 0 0 151 150 152 255
-0.405261 1.08103 4.19606 0 0 0 1 98 145 255
-0.589953 1.09823 4.00569 0 0 0 131 148 162 255
-0.524659 1.12181 4.00057 0 0 0 0 106 149 255
-0.332497 1.16517 4.25955 0 0 0 133 134 139 255
2.40646 -0.221031 3.85526 0 0 0 144 144 144 255
2.21535 0.0212191 3.91513 0 0 0 162 162 162 255
1.09349 0.105687 4.93759 0 0 0 50 93 69 255
1.03254 0.312937 4.7006 0 0 0 143 145 133 255
-0.871843 0.397086 4.11324 0 0 0 151 135 77 255
-0.731759 0.383072 4.04303 0 0 0 129 131 116 255
2.23111 0.490898 3.6814 0 0 0 35 37 41 255
0.780821 0.593251 4.58989 0 0 0 157 162 160 255
1.98498 0.529359 3.93839 0 0 0 127 133 136 255
2.38941 0.541023 3.66861 0 0 0 122 130 132 255
-0.610641 0.634435 4.07188 0 0 0 159 160 161 255
-0.404506 0.639111 4.16212 0 0 0 25 59 105 255
0.773379 0.684204 4.59982 0 0 0 67 110 68 255
-0.308284 0.750553 4.30748 0 0 0 153 156 155 255
0.786989 0.819526 4.60169 0 0 0 158 163 161 255
-0.421657 0.833336 4.16938 0 0 0 158 160 162 255
-0.624851 0.896712 4.07469 0 0 0 100 113 139 255
-0.449938 0.994249 4.13758 0 0 0 134 150 165 255
-0.366319 1.13753 4.22992 0 0 0 128 140 152 255
-0.535107 1.14439 4.10751 0 0 0 1 98 146 255
-0.346918 1.24676 4.23069 0 0 0 155 139 84 255
-0.302712 1.47222 4.65294 0 0 0 87 119 151 255
-0.449317 1.41818 4.07176 0 0 0 36 80 123 255
2.14421 -0.0568596 3.95909 0 0 0 33 41 36 255
1.07415 0.112969 4.90212 0 0 0 48 91 67 255
-0.358166 0.40154 4.19889 0 0 0 97 69 102 255
1.94713 0.475297 3.98819 0 0 0 90 90 87 255
2.13286 0.539073 3.71679 0 0 0 134 142 146 255
-0.395398 0.640748 4.16524 0 0 0 24 59 106 255
-0.698687 0.694018 4.05895 0 0 0 25 58 111 255
0.803654 0.776996 4.60802 0 0 0 77 116 99 255
1.07369 1.39451 5.08884 0 0 0 66 105 77 255
2.21854 -0.209646 3.88706 0 0 0 119 120 121 255
2.1042 -0.186133 3.96994 0 0 0 110 105 104 255
2.10651 -0.131163 3.97151 0 0 0 136 136 133 255
2.10392 -0.108456 3.96388 0 0 0 143 141 139 255
2.12193 -0.0764717 3.95954 0 0 0 72 73 74 255
2.36094 -0.0533376 3.8642 0 0 0 79 83 86 255
0.372854 0.149235 4.81328 0 0 0 28 59 44 255
2.35988 0.249899 3.70978 0 0 0 88 83 82 255
2.28665 0.25396 3.70125 0 0 0 57 56 59 255
2.2047 0.270553 3.71914 0 0 0 62 49 47 255
2.325 0.277337 3.70325 0 0 0 69 58 57 255
2.32791 0.277669 3.70295 0 0 0 69 58 57 255
-0.45602 0.278558 4.10824 0 0 0 73 55 38 255
-0.44428 0.304951 4.11996 0 0 0 97 82 94 255
-0.761196 0.299569 4.04789 0 0 0 131 109 116 255
-0.457273 0.328871 4.1096 0 0 0 63 100 144 255
-0.465867 0.372346 4.11041 0 0 0 137 137 146 255
-0.493697 0.467592 4.09588 0 0 0 128 145 164 255
-0.701302 0.464712 4.04448 0 0 0 120 127 124 255
1.03697 0.512226 4.72826 0 0 0 122 136 112 255
-0.36979 0.508435 4.19804 0 0 0 73 114 148 255
-0.350319 0.523644 4.22454 0 0 0 32 82 125 255
1.09894 0.709774 4.78084 0 0 0 111 118 117 255
0.459498 0.943299 4.72827 0 0 0 101 113 109 255
1.16396 1.25072 5.43756 0 0 0 140 139 133 255
2.41073 1.07281 3.7411 0 0 0 125 129 128 255
-1.04272 1.2354 4.40635 0 0 0 54 99 133 255
-0.960512 1.25685 4.37695 0 0 0 27 84 124 255
-0.841865 1.25185 4.25943 0 0 0 115 96 111 255
-0.995771 1.28366 4.36716 0 0 0 106 105 114 255
2.16242 1.18076 3.77353 0 0 0 99 100 102 255
2.3881 1.1833 3.75445 0 0 0 106 105 109 255
2.37843 1.22633 3.76421 0 0 0 103 103 103 255
2.28289 1.26506 3.74908 0 0 0 103 107 110 255
-1.14208 1.49353 4.58845 0 0 0 59 110 152 255
-0.367771 1.40983 4.21809 0 0 0 160 157 163 255
-1.21007 1.58669 4.69033 0 0 0 98 112 134 255
2.23311 1.40126 3.76001 0 0 0 113 113 115 255
-0.443836 0.279051 4.11689 0 0 0 140 103 88 255
-0.464991 0.371378 4.11378 0 0 0 119 135 153 255
0.668 0.401699 4.57846 0 0 0 124 46 49 255
-0.40776 0.485746 4.15737 0 0 0 98 119 145 255
1.10734 0.594118 4.80957 0 0 0 139 146 146 255
-0.47163 0.662863 4.06583 0 0 0 100 107 129 255
-0.72457 0.884278 4.06877 0 0 0 32 62 104 255
-0.791747 1.21064 4.22084 0 0 0 134 145 147 255
-0.965535 1.25734 4.37469 0 0 0 33 90 128 255
2.38693 1.41805 3.78594 0 0 0 95 95 99 255
2.45459 -0.218557 3.95759 0 0 0 74 74 76 255
2.35551 0.285893 3.70472 0 0 0 149 124 96 255
2.38776 0.30115 3.70348 0 0 0 133 97 66 255
2.42123 0.420646 3.69515 0 0 0 61 34 20 255
-0.648857 0.410206 4.04914 0 0 0 23 91 75 255
-0.293139 0.41603 4.3152 0 0 0 67 117 147 255
2.14934 0.509817 3.7135 0 0 0 136 140 137 255
-0.355177 0.496918 4.22082 0 0 0 125 137 153 255
0.780194 0.553029 4.585 0 0 0 155 159 160 255
-0.498606 0.749112 4.10651 0 0 0 158 159 160 255
-0.374095 0.7824 4.20087 0 0 0 62 75 103 255
-0.814936 1.22725 4.23454 0 0 0 139 138 140 255
-0.802858 1.21444 4.22966 0 0 0 137 144 146 255
2.39932 1.41603 3.79778 0 0 0 98 92 97 255
2.14535 -0.20479 3.9558 0 0 0 47 44 45 255
2.26727 -0.206622 3.85704 0 0 0 42 40 39 255
2.13902 -0.213162 3.96822 0 0 0 56 55 55 255
2.13678 -0.112282 3.95861 0 0 0 39 41 40 255
2.28642 0.28432 3.69616 0 0 0 158 127 80 255
2.40843 0.389983 3.68915 0 0 0 119 136 144 255
2.33015 0.42841 3.67522 0 0 0 56 43 41 255
2.37095 0.442404 3.67524 0 0 0 134 144 147 255
-0.639744 0.419739 4.05044 0 0 0 37 102 91 255
-0.574087 0.440871 4.06719 0 0 0 114 141 165 255
2.41125 0.481699 3.68001 0 0 0 36 40 43 255
1.96839 0.511658 3.90522 0 0 0 109 111 110 255
0.831515 0.568162 4.60392 0 0 0 157 162 160 255
1.08618 0.599991 4.76642 0 0 0 144 149 147 255
-0.533414 0.762346 4.09515 0 0 0 97 117 135 255
0.951348 1.09181 4.6655 0 0 0 29 80 119 255
0.535268 1.23524 4.67419 0 0 0 149 152 151 255
-0.382415 1.42428 4.29982 0 0 0 28 78 122 255
2.39687 1.42228 3.79767 0 0 0 95 95 104 255
2.43965 -0.220374 3.94916 0 0 0 60 61 61 255
-0.304098 0.133403 4.52926 0 0 0 25 66 103 255
0.38138 0.0993313 4.79029 0 0 0 61 83 76 255
2.25516 0.290534 3.70776 0 0 0 140 105 63 255
1.02646 0.282945 4.69939 0 0 0 113 129 108 255
2.11705 0.413508 3.72604 0 0 0 45 49 59 255
-0.418951 0.413966 4.14718 0 0 0 129 141 148 255
-0.327391 0.415679 4.24116 0 0 0 149 130 136 255
-0.342291 0.476502 4.23147 0 0 0 147 151 157 255
2.21776 0.554879 3.6863 0 0 0 139 142 142 255
-0.29969 0.74301 4.32491 0 0 0 152 152 152 255
-0.438137 0.877243 4.14363 0 0 0 157 160 159 255
-0.347293 1.17121 4.25281 0 0 0 144 142 144 255
-0.30964 1.44822 4.61948 0 0 0 32 76 114 255
2.41085 -0.191111 3.85965 0 0 0 88 44 45 255
2.4167 -0.119451 3.86801 0 0 0 34 33 35 255
2.39751 -0.0390203 3.83844 0 0 0 35 37 41 255
2.30771 0.00246598 3.88562 0 0 0 128 130 129 255
2.33615 0.0887612 3.92878 0 0 0 186 188 190 255
1.0879 0.146656 4.84418 0 0 0 49 94 67 255
-0.346246 0.168181 4.52616 0 0 0 6 57 103 255
2.08034 0.445844 3.73774 0 0 0 134 137 137 255
1.94573 0.476084 3.88391 0 0 0 133 136 135 255
0.737678 0.685529 4.58604 0 0 0 62 108 73 255
-0.322732 0.707117 4.24678 0 0 0 153 155 157 255
0.805648 0.827639 4.60899 0 0 0 160 162 162 255
2.24511 0.737645 3.68889 0 0 0 54 44 38 255
2.27548 -0.161147 3.83638 0 0 0 140 105 100 255
2.49738 -0.0155142 3.98106 0 0 0 108 115 113 255
2.22747 0.0195297 3.90914 0 0 0 169 166 167 255
2.55192 0.130522 4.03097 0 0 0 89 93 94 255
-0.979392 0.13164 4.14388 0 0 0 47 61 76 255
-3.0684 0.162226 6.42437 0 0 0 49 45 43 255
0.552668 0.243652 4.60362 0 0 0 35 59 57 255
0.935404 0.255223 4.61915 0 0 0 54 87 82 255
2.47182 0.279919 3.7375 0 0 0 89 70 78 255
0.93875 0.335805 4.62752 0 0 0 143 146 143 255
2.36445 0.303979 3.70124 0 0 0 157 124 73 255
-0.909394 0.326827 4.09054 0 0 0 91 102 119 255
-0.462521 0.344159 4.11222 0 0 0 6 68 120 255
1.02985 0.378153 4.6925 0 0 0 107 47 57 255
-0.57115 0.383055 4.06542 0 0 0 45 80 108 255
2.55678 0.375305 3.76507 0 0 0 64 72 75 255
2.48918 0.385463 3.7236 0 0 0 119 128 132 255
2.50978 0.384547 3.73656 0 0 0 128 128 131 255
2.51428 0.428331 3.73465 0 0 0 118 118 118 255
2.54568 0.435773 3.75502 0 0 0 75 63 58 255
-0.977916 0.51233 4.18142 0 0 0 40 65 93 255
1.06405 0.583809 4.73678 0 0 0 111 147 136 255
2.51925 0.486289 3.73395 0 0 0 107 100 94 255
1.1029 0.605367 4.79184 0 0 0 113 113 113 255
1.07534 0.614679 4.74735 0 0 0 126 133 130 255
1.10113 0.655345 4.79125 0 0 0 110 117 115 255
2.45621 0.536414 3.71955 0 0 0 87 97 105 255
1.07464 0.668152 4.75278 0 0 0 116 123 123 255
-0.944631 0.676022 4.13421 0 0 0 49 62 78 255
-0.890971 0.68131 4.12739 0 0 0 74 80 86 255
1.10601 0.75532 4.79763 0 0 0 139 146 145 255
-0.893813 0.72473 4.13108 0 0 0 124 128 129 255
0.867715 0.855514 4.62592 0 0 0 152 159 157 255
2.38329 0.765827 3.69962 0 0 0 107 81 51 255
-0.866576 0.944448 4.10849 0 0 0 42 53 93 255
-0.452418 0.95019 4.13493 0 0 0 77 97 137 255
-0.893427 1.01915 4.14691 0 0 0 56 62 84 255
-0.854224 1.00863 4.12359 0 0 0 147 149 152 255
-0.866148 1.00841 4.07773 0 0 0 138 139 146 255
-0.303607 1.09565 4.63 0 0 0 65 108 139 255
1.24576 1.40591 6.63771 0 0 0 152 148 142 255
1.08875 1.42633 6.36697 0 0 0 141 142 140 255
1.04009 1.17088 4.7462 0 0 0 137 119 47 255
-0.301468 1.20248 4.63174 0 0 0 57 98 126 255
-0.630209 1.20215 4.08976 0 0 0 64 85 114 255
-0.732757 1.20597 3.96605 0 0 0 88 102 117 255
2.47927 1.03981 3.70816 0 0 0 92 91 91 255
2.52699 1.04331 3.74756 0 0 0 79 80 79 255
2.22562 1.06013 3.73082 0 0 0 76 82 80 255
2.30044 1.0541 3.71023 0 0 0 131 136 139 255
2.28836 1.06845 3.75495 0 0 0 92 94 94 255
2.4373 1.04575 3.70438 0 0 0 101 98 99 255
-0.682301 1.25619 3.93437 0 0 0 72 91 109 255
-0.735409 1.26741 3.94481 0 0 0 114 123 134 255
2.39799 1.08451 3.72453 0 0 0 75 73 74 255
2.43955 1.08604 3.71691 0 0 0 76 76 76 255
2.44868 1.08987 3.7362 0 0 0 86 90 91 255
-0.625294 1.34706 3.86632 0 0 0 66 103 130 255
2.50193 -0.0153251 3.97502 0 0 0 139 146 144 255
-0.373618 0.33276 4.19064 0 0 0 72 111 144 255
1.05069 0.352564 4.70858 0 0 0 87 87 87 255
0.746526 0.36101 4.57321 0 0 0 89 49 51 255
0.904553 0.37236 4.6129 0 0 0 150 130 132 255
2.55258 0.384739 3.75952 0 0 0 121 133 134 255
2.43916 0.387576 3.70615 0 0 0 139 139 139 255
-0.51989 0.429897 4.08523 0 0 0 146 154 157 255
-0.637994 0.452818 4.04978 0 0 0 42 95 86 255
2.51908 0.423431 3.74206 0 0 0 90 64 61 255
2.15199 0.482378 3.7092 0 0 0 40 40 43 255
2.52193 0.496788 3.75104 0 0 0 104 75 62 255
-0.925973 0.577005 4.13108 0 0 0 17 53 94 255
2.44625 0.537653 3.717 0 0 0 62 65 69 255
-0.943175 0.681428 4.13043 0 0 0 35 51 66 255
-0.895126 0.737247 4.13128 0 0 0 118 122 123 255
2.33813 0.759043 3.6834 0 0 0 99 76 48 255
-0.873912 1.04094 4.07453 0 0 0 34 55 89 255
1.10111 1.4241 6.38876 0 0 0 142 144 140 255
-0.73199 1.26051 3.94317 0 0 0 121 131 139 255
-0.679858 1.26019 3.9367 0 0 0 53 76 103 255
-0.624644 1.27563 3.94464 0 0 0 129 131 135 255
-0.640914 1.34632 3.86656 0 0 0 97 130 147 255
2.50118 -0.0149839 4.01124 0 0 0 139 146 144 255
2.48662 0.044 4.02786 0 0 0 88 88 92 255
2.07771 0.143648 3.91373 0 0 0 50 52 55 255
-0.974352 0.137716 4.15152 0 0 0 32 47 67 255
2.32421 0.263387 3.70473 0 0 0 147 112 61 255
2.47396 0.287813 3.73846 0 0 0 81 81 85 255
-0.956731 0.292124 4.12196 0 0 0 39 63 82 255
1.0009 0.366509 4.67525 0 0 0 113 74 78 255
-0.304331 0.35705 4.26157 0 0 0 71 112 142 255
-0.565511 0.367573 4.06899 0 0 0 84 125 160 255
2.4346 0.384519 3.70351 0 0 0 131 133 136 255
2.49985 0.389827 3.72937 0 0 0 135 139 140 255
2.13366 0.427304 3.71453 0 0 0 132 140 142 255
-0.968726 0.524683 4.16132 0 0 0 32 67 94 255
-0.363151 0.516029 4.21579 0 0 0 76 112 141 255
2.39866 0.456136 3.67905 0 0 0 105 81 65 255
2.52729 0.50246 3.75135 0 0 0 40 39 40 255
-0.809004 0.572485 4.08409 0 0 0 30 53 77 255
2.43485 0.554377 3.70531 0 0 0 142 144 146 255
2.41886 0.548205 3.69438 0 0 0 143 146 145 255
-0.950427 0.670454 4.13803 0 0 0 74 78 86 255
-0.420152 0.700867 4.16652 0 0 0 42 59 81 255
-0.495642 0.72057 4.11525 0 0 0 46 55 92 255
0.934846 0.785752 4.63505 0 0 0 153 160 158 255
-0.871925 0.917602 4.12171 0 0 0 31 52 90 255
2.34763 0.746425 3.68606 0 0 0 99 64 32 255
-0.868149 0.939931 4.11728 0 0 0 38 54 91 255
0.873072 1.06761 4.62576 0 0 0 33 95 134 255
1.1103 1.42406 6.365 0 0 0 142 144 140 255
-0.595171 1.15575 4.11878 0 0 0 4 105 150 255
-0.778422 1.16216 4.00661 0 0 0 141 143 144 255
-0.630823 1.20356 4.08677 0 0 0 60 88 126 255
1.1409 1.39731 5.08841 0 0 0 77 108 91 255
-0.57265 1.26963 3.99347 0 0 0 50 73 95 255
-0.624851 1.27019 3.94484 0 0 0 127 126 132 255
2.28145 -0.205686 3.86794 0 0 0 43 43 43 255
2.38924 -0.205224 3.87255 0 0 0 44 44 44 255
2.13565 -0.193601 3.97192 0 0 0 81 54 55 255
2.48211 -0.0904998 3.91969 0 0 0 49 51 53 255
-1.00659 -0.149315 4.20263 0 0 0 159 161 162 255
2.48526 -0.0495528 4.0246 0 0 0 41 47 46 255
2.19533 0.0274885 3.91647 0 0 0 112 112 112 255
0.380008 0.117536 4.7833 0 0 0 38 68 51 255
-0.67026 0.274082 4.04419 0 0 0 76 71 70 255
0.777316 0.356964 4.57315 0 0 0 150 142 143 255
-0.856391 0.380075 4.09389 0 0 0 137 140 135 255
-0.34017 0.381389 4.23 0 0 0 116 85 104 255
0.884209 0.408905 4.60582 0 0 0 191 119 128 255
2.19155 0.424526 3.69578 0 0 0 138 140 142 255
2.28349 0.404057 3.67384 0 0 0 140 147 149 255
-0.899551 0.472189 4.1472 0 0 0 156 145 106 255
2.5013 0.434552 3.72426 0 0 0 133 140 142 255
2.41762 0.437461 3.68605 0 0 0 38 39 39 255
2.20548 0.513002 3.68944 0 0 0 94 66 58 255
2.41706 0.497004 3.68725 0 0 0 36 40 43 255
0.548029 0.627019 4.63617 0 0 0 149 153 152 255
2.2844 0.53815 3.67892 0 0 0 35 37 41 255
2.4138 0.548434 3.69177 0 0 0 143 146 145 255
2.48592 0.550588 3.7279 0 0 0 98 114 123 255
-0.462122 0.882896 4.12836 0 0 0 158 161 160 255
2.40688 0.777474 3.69887 0 0 0 90 85 75 255
-0.830158 0.980637 4.10961 0 0 0 152 154 155 255
-0.872434 1.05058 4.08461 0 0 0 26 57 96 255
-0.843803 1.13469 4.05302 0 0 0 32 79 116 255
1.06003 1.19694 4.76916 0 0 0 157 137 70 255
2.48055 1.06815 3.74642 0 0 0 91 91 92 255
-0.622944 1.27133 3.94565 0 0 0 127 126 132 255
-0.572053 1.27737 3.99705 0 0 0 28 74 114 255
-0.291556 1.42894 4.66045 0 0 0 52 86 118 255
0.856402 1.38367 4.64212 0 0 0 56 98 75 255
2.14898 0.0358639 3.95114 0 0 0 88 89 89 255
2.3457 0.113018 3.84284 0 0 0 252 250 252 255
-0.957499 0.103508 4.19472 0 0 0 147 149 148 255
-0.979749 0.162419 4.18541 0 0 0 32 60 98 255
-0.923608 0.293166 4.11297 0 0 0 7 51 91 255
2.40447 0.40752 3.68578 0 0 0 129 136 138 255
2.41483 0.502782 3.68717 0 0 0 36 40 43 255
2.17304 0.522696 3.70221 0 0 0 111 122 127 255
2.40128 0.533572 3.68486 0 0 0 143 145 149 255
0.771727 0.664836 4.5859 0 0 0 65 107 68 255
-0.527863 0.721912 4.09785 0 0 0 65 67 80 255
-0.722637 0.841922 4.07537 0 0 0 35 56 97 255
-0.391727 0.860349 4.19233 0 0 0 143 152 154 255
-0.810674 0.953265 4.10351 0 0 0 154 157 156 255
-0.416191 0.995194 4.15908 0 0 0 125 148 165 255
2.33044 0.831534 3.68164 0 0 0 93 80 63 255
1.11762 1.41674 6.37518 0 0 0 138 137 132 255
-0.67502 1.12063 3.99753 0 0 0 28 91 134 255
1.05466 1.22405 4.76655 0 0 0 152 126 68 255
0.448164 1.32959 4.75216 0 0 0 66 99 77 255
-0.673593 1.30003 3.92291 0 0 0 28 78 123 255
0.817591 1.37269 4.61675 0 0 0 53 92 67 255
-0.695941 1.36147 3.86686 0 0 0 62 87 119 255
2.08793 0.427501 3.74167 0 0 0 125 125 123 255
-0.561357 0.63496 4.09766 0 0 0 154 156 160 255
-0.433426 0.813117 4.1526 0 0 0 157 159 161 255
2.22767 0.737342 3.68904 0 0 0 76 61 41 255
1.11133 1.3722 5.10694 0 0 0 69 105 81 255
2.47329 -0.223371 4.05214 0 0 0 86 88 88 255
-0.863608 -0.152539 4.23922 0 0 0 215 214 221 255
2.35501 0.136214 3.94563 0 0 0 252 252 252 255
2.23647 0.313502 3.70288 0 0 0 78 41 7 255
2.6596 0.439276 4.02058 0 0 0 59 64 67 255
2.44271 0.405782 3.71011 0 0 0 78 66 55 255
-0.911711 0.907232 4.15752 0 0 0 67 64 74 255
1.94253 0.837304 4.05391 0 0 0 132 131 127 255
1.62442 1.19659 5.46132 0 0 0 92 89 81 255
1.94395 0.873325 4.03887 0 0 0 157 162 160 255
1.05868 1.12608 4.75481 0 0 0 87 112 82 255
-0.814119 1.20035 4.12678 0 0 0 37 88 126 255
2.38797 0.952148 3.69882 0 0 0 95 67 41 255
0.375108 0.0955197 4.77273 0 0 0 78 94 87 255
2.10465 0.391178 3.7393 0 0 0 108 108 110 255
2.34454 0.553923 3.67939 0 0 0 144 146 147 255
1.93697 0.824977 4.0473 0 0 0 143 141 135 255
1.22029 1.49992 6.70859 0 0 0 89 85 81 255
1.93805 0.844105 4.01872 0 0 0 112 109 105 255
2.29227 0.749285 3.68731 0 0 0 114 85 48 255
-0.810527 1.19089 4.12472 0 0 0 32 86 129 255
2.35047 -0.143415 3.86239 0 0 0 181 116 121 255
2.54051 0.137719 4.06815 0 0 0 52 47 46 255
-0.524444 0.415085 4.08373 0 0 0 151 153 154 255
2.65434 0.35063 4.05462 0 0 0 47 52 53 255
2.65199 0.398582 3.9819 0 0 0 78 93 100 255
2.14704 0.383603 3.70892 0 0 0 33 38 39 255
2.5145 0.403797 3.74052 0 0 0 104 98 96 255
-0.762255 0.65721 4.05478 0 0 0 145 146 147 255
-0.565956 0.771936 4.08481 0 0 0 159 162 162 255
-0.359401 0.813554 4.21506 0 0 0 160 158 162 255
2.35345 0.760933 3.68944 0 0 0 112 84 54 255
1.93868 0.889114 4.06505 0 0 0 161 164 162 255
-0.714298 1.17723 4.08043 0 0 0 106 139 167 255
2.49619 -0.0678795 4.04661 0 0 0 52 52 52 255
1.06848 0.0879169 5.14468 0 0 0 61 93 78 255
2.35804 0.134218 3.95824 0 0 0 255 252 253 255
2.54124 0.143301 4.05065 0 0 0 43 48 52 255
-0.426807 0.272958 4.12816 0 0 0 26 50 86 255
1.07498 0.353545 4.72994 0 0 0 147 148 148 255
2.64916 0.334189 4.03409 0 0 0 48 51 53 255
0.423623 0.544208 4.70479 0 0 0 79 102 82 255
2.33441 0.412183 3.67749 0 0 0 37 36 43 255
1.08434 0.69772 4.7686 0 0 0 144 151 151 255
2.21499 0.504925 3.68715 0 0 0 44 38 36 255
-0.392988 0.680869 4.17891 0 0 0 29 60 107 255
-0.671386 0.714095 4.0668 0 0 0 34 64 111 255
2.39215 0.677176 3.70281 0 0 0 114 81 42 255
1.98353 0.928184 3.95088 0 0 0 78 74 67 255
-0.584084 1.14935 4.12896 0 0 0 1 105 148 255
-0.837199 1.18682 4.14712 0 0 0 33 85 127 255
1.15404 1.36422 5.02287 0 0 0 70 103 82 255
2.21861 0.003131 3.91467 0 0 0 113 111 112 255
2.0543 0.170273 4.02134 0 0 0 47 51 54 255
1.06416 0.34129 4.71861 0 0 0 157 107 115 255
-0.54287 0.40965 4.07554 0 0 0 145 151 156 255
2.49814 0.40915 3.72781 0 0 0 135 141 142 255
-0.919838 0.536106 4.13272 0 0 0 16 62 102 255
2.33857 0.420213 3.67643 0 0 0 32 36 40 255
2.42921 0.469915 3.67937 0 0 0 31 35 39 255
-0.814695 0.623019 4.08191 0 0 0 152 152 153 255
2.07294 0.508317 3.74864 0 0 0 119 127 129 255
2.56784 0.521906 3.78713 0 0 0 126 127 130 255
-0.314101 0.673334 4.3015 0 0 0 123 129 133 255
-0.682074 0.728832 4.0684 0 0 0 35 65 109 255
0.802472 0.841636 4.60221 0 0 0 159 166 166 255
-0.431346 0.860704 4.15416 0 0 0 157 160 162 255
1.91943 0.769928 4.02671 0 0 0 171 174 171 255
2.25084 0.679045 3.68643 0 0 0 96 81 57 255
2.23007 0.758569 3.68697 0 0 0 83 66 49 255
2.35888 0.824176 3.67979 0 0 0 100 84 56 255
2.4359 -0.198613 3.94136 0 0 0 42 42 42 255
2.1207 -0.15029 3.96289 0 0 0 102 76 70 255
2.42541 -0.0372251 3.85365 0 0 0 34 35 41 255
2.32449 0.0154253 3.95239 0 0 0 164 161 163 255
1.0404 0.160992 5.1417 0 0 0 50 96 67 255
-0.39198 0.120858 4.62999 0 0 0 17 58 99 255
2.04558 0.227906 3.94176 0 0 0 43 44 43 255
-0.34848 0.441822 4.21794 0 0 0 136 123 132 255
2.30869 0.499933 3.67704 0 0 0 143 144 144 255
-0.317388 0.713567 4.2713 0 0 0 154 156 155 255
2.22842 -0.192522 3.87208 0 0 0 130 128 130 255
2.33361 -0.168019 3.8943 0 0 0 150 87 85 255
2.36643 -0.108384 3.92189 0 0 0 112 115 120 255
2.42362 -0.0742243 3.87152 0 0 0 77 85 96 255
-3.2508 0.0924282 6.09582 0 0 0 69 81 81 255
-1.16272 0.0926392 4.29751 0 0 0 27 33 33 255
-3.51756 0.146379 6.20622 0 0 0 66 65 66 255
-1.08702 0.144069 4.26994 0 0 0 39 49 59 255
0.904905 0.284331 4.61201 0 0 0 51 72 59 255
2.3932 0.26325 3.71746 0 0 0 99 61 19 255
2.30748 0.290384 3.70186 0 0 0 84 50 27 255
2.64381 0.421696 4.00056 0 0 0 94 102 106 255
2.45218 0.38101 3.71281 0 0 0 99 101 110 255
2.45766 0.411579 3.71583 0 0 0 114 114 114 255
-2.90806 0.63706 5.42055 0 0 0 87 87 91 255
2.5787 0.54464 3.79283 0 0 0 130 130 129 255
2.51189 0.553869 3.74137 0 0 0 134 134 134 255
-0.492443 0.655136 4.10408 0 0 0 79 78 85 255
-3.00125 1.02088 5.36762 0 0 0 110 137 131 255
-3.00416 1.04772 5.33957 0 0 0 32 29 31 255
-3.00316 1.07019 5.34613 0 0 0 32 29 32 255
-2.99288 1.08324 5.34469 0 0 0 35 40 41 255
-2.989 1.10991 5.31103 0 0 0 104 105 107 255
-2.98079 1.11422 5.37288 0 0 0 129 136 135 255
2.29982 0.716997 3.69025 0 0 0 65 55 47 255
-3.03685 1.19252 5.40708 0 0 0 72 108 96 255
-2.93969 1.33956 5.91425 0 0 0 61 65 68 255
-2.90587 1.26241 5.44976 0 0 0 63 100 82 255
-2.89109 1.40849 5.79329 0 0 0 74 87 91 255
-2.79935 1.37854 5.62185 0 0 0 33 41 38 255
-2.91782 1.45548 5.71405 0 0 0 78 73 74 255
-3.0145 1.49081 5.70452 0 0 0 75 85 86 255
-0.8668 1.02889 4.09103 0 0 0 83 86 94 255
-2.74155 1.3952 5.3052 0 0 0 121 140 133 255
-2.76515 1.38921 5.16975 0 0 0 81 105 98 255
-0.259169 1.18279 4.5214 0 0 0 45 92 126 255
-2.73164 1.42769 5.14725 0 0 0 111 118 118 255
-0.880133 1.18703 4.1468 0 0 0 125 144 153 255
-0.734498 1.20794 4.08843 0 0 0 118 105 116 255
0.977448 1.36394 4.70442 0 0 0 93 117 110 255
2.1343 1.05165 3.7371 0 0 0 77 78 79 255
2.16293 1.04305 3.71904 0 0 0 108 106 105 255
2.21273 1.03869 3.69059 0 0 0 120 119 120 255
2.28989 1.04151 3.67542 0 0 0 80 75 77 255
2.40713 1.03083 3.67836 0 0 0 122 119 121 255
2.41632 1.03655 3.68018 0 0 0 98 91 93 255
2.23124 1.05268 3.68548 0 0 0 78 76 75 255
2.30426 1.04303 3.67383 0 0 0 130 136 139 255
2.31681 1.04386 3.67643 0 0 0 91 96 98 255
2.41045 1.05361 3.68008 0 0 0 133 140 141 255
2.22943 1.06865 3.68604 0 0 0 116 119 118 255
2.29041 1.07574 3.67819 0 0 0 94 89 91 255
2.31697 1.07791 3.6789 0 0 0 107 109 111 255
2.20913 1.12508 3.69244 0 0 0 107 111 110 255
2.33045 1.1216 3.67636 0 0 0 101 100 101 255
2.38897 1.15832 3.67178 0 0 0 105 105 106 255
2.36077 1.16715 3.66972 0 0 0 113 114 117 255
2.27487 1.20565 3.68298 0 0 0 113 111 112 255
2.35118 1.20437 3.66398 0 0 0 108 107 112 255
2.38271 1.2005 3.66795 0 0 0 113 110 111 255
2.28834 1.24611 3.67941 0 0 0 121 117 120 255
2.42071 1.23788 3.66733 0 0 0 122 119 120 255
2.22453 -0.19288 3.87257 0 0 0 130 128 130 255
2.22538 -0.0664985 3.88979 0 0 0 61 65 69 255
-0.304066 0.0848479 4.60438 0 0 0 113 121 121 255
-3.50929 0.14297 6.20445 0 0 0 66 65 66 255
-1.08819 0.143887 4.27075 0 0 0 39 49 59 255
-3.58124 0.237396 6.3262 0 0 0 76 74 74 255
-0.590415 0.28933 4.05377 0 0 0 44 53 76 255
2.64322 0.386905 3.97416 0 0 0 77 83 86 255
0.979843 0.421787 4.65557 0 0 0 150 150 150 255
-0.324062 0.514332 4.243 0 0 0 91 113 135 255
2.36329 0.533012 3.68337 0 0 0 65 35 24 255
-3.00331 1.05923 5.33639 0 0 0 23 33 32 255
-2.97693 1.10995 5.36835 0 0 0 129 136 135 255
2.36742 0.720165 3.69667 0 0 0 107 86 60 255
2.36393 0.763318 3.69503 0 0 0 120 87 56 255
-2.90025 1.41237 5.78282 0 0 0 97 101 102 255
0.913616 1.08557 4.64891 0 0 0 109 134 94 255
-2.9116 1.45817 5.57872 0 0 0 78 85 86 255
-0.912181 1.17042 4.15675 0 0 0 84 109 121 255
-0.840993 1.32255 4.15798 0 0 0 60 88 115 255
2.39858 1.03878 3.67766 0 0 0 121 122 122 255
-0.710729 1.30666 4.08943 0 0 0 126 129 135 255
2.28658 1.06271 3.67646 0 0 0 118 119 121 255
2.30984 1.05481 3.67511 0 0 0 117 121 124 255
2.35975 1.07103 3.67543 0 0 0 99 102 113 255
2.40482 1.07851 3.68075 0 0 0 87 89 91 255
2.23296 -0.063157 3.88531 0 0 0 80 84 90 255
-1.02759 -0.147965 4.20868 0 0 0 155 156 160 255
-1.18557 0.0772795 4.30535 0 0 0 25 34 33 255
-2.20846 0.14576 5.21094 0 0 0 96 96 96 255
-1.02902 0.101168 4.22392 0 0 0 145 147 148 255
0.978977 0.260801 4.64452 0 0 0 32 68 54 255
-3.58279 0.241069 6.33144 0 0 0 76 74 74 255
-1.08947 0.15182 4.27786 0 0 0 26 42 71 255
2.21293 0.287375 3.70912 0 0 0 152 130 97 255
2.64341 0.383562 3.98854 0 0 0 75 82 85 255
-0.303974 0.378348 4.26881 0 0 0 78 107 133 255
2.64167 0.407519 3.9813 0 0 0 64 74 80 255
-0.300104 0.429462 4.29288 0 0 0 102 124 132 255
2.657 0.453224 4.01936 0 0 0 60 58 56 255
2.3664 0.422752 3.67557 0 0 0 86 105 114 255
2.55378 0.447027 3.75772 0 0 0 53 38 34 255
-0.520075 0.447562 4.08474 0 0 0 87 125 168 255
-2.878 0.8242 5.39653 0 0 0 141 145 145 255
-3.03936 1.18694 6.03763 0 0 0 37 34 35 255
-2.99566 1.25409 6.02513 0 0 0 84 78 81 255
-0.515172 0.810666 4.08515 0 0 0 54 66 80 255
2.26755 0.722328 3.68943 0 0 0 110 85 59 255
-2.95205 1.33733 6.00542 0 0 0 38 43 43 255
-2.90699 1.26977 5.44194 0 0 0 81 106 95 255
-2.76144 1.36461 5.59223 0 0 0 44 47 48 255
-0.259745 1.07151 4.53167 0 0 0 23 76 113 255
-2.91671 1.3698 5.51828 0 0 0 15 31 26 255
-0.908472 1.06019 4.1496 0 0 0 45 70 96 255
-2.71803 1.41065 5.26504 0 0 0 126 133 131 255
-0.254025 1.1767 4.50587 0 0 0 45 92 126 255
-0.271596 1.38938 4.64851 0 0 0 55 86 116 255
-0.712781 1.31075 4.08736 0 0 0 126 130 136 255
2.5717 1.04358 3.71734 0 0 0 67 58 70 255
2.48739 1.05092 3.70606 0 0 0 80 81 82 255
2.35985 1.07522 3.67521 0 0 0 108 108 111 255
2.46956 -0.20359 4.04246 0 0 0 54 53 54 255
2.34358 -0.0732546 3.8865 0 0 0 69 73 77 255
2.12768 -0.0641969 3.95514 0 0 0 44 44 44 255
2.37684 0.017576 3.94764 0 0 0 156 157 158 255
-1.2032 0.07294 4.29896 0 0 0 27 35 33 255
-0.420348 0.288721 4.1362 0 0 0 11 55 108 255
2.38493 0.393097 3.68042 0 0 0 53 59 70 255
2.48366 0.427629 3.7256 0 0 0 109 125 137 255
2.55517 0.446036 3.75803 0 0 0 53 38 34 255
1.08846 0.620852 4.7629 0 0 0 121 135 131 255
2.44826 0.497919 3.72059 0 0 0 32 33 37 255
2.51224 0.544038 3.74143 0 0 0 128 127 130 255
1.02897 0.697366 4.72148 0 0 0 49 95 75 255
2.09367 0.556277 3.74248 0 0 0 139 142 142 255
0.838502 0.844008 4.61744 0 0 0 158 161 159 255
-2.90234 1.33283 5.97478 0 0 0 43 45 46 255
2.21533 0.765942 3.68913 0 0 0 59 51 45 255
-2.84321 1.42736 5.90341 0 0 0 57 58 64 255
0.499468 1.13912 4.70664 0 0 0 68 102 70 255
-0.859205 1.04389 4.11122 0 0 0 48 69 97 255
-0.644531 1.10755 4.1103 0 0 0 147 159 178 255
-0.843924 1.36164 4.16488 0 0 0 38 83 120 255
-0.703025 1.29424 4.07843 0 0 0 122 116 129 255
-0.632744 1.30376 4.09024 0 0 0 27 77 118 255
-0.559952 1.31134 4.11419 0 0 0 168 158 109 255
-1.02931 -0.128276 4.23312 0 0 0 155 159 162 255
2.41201 0.103343 3.98045 0 0 0 178 176 176 255
0.401181 0.128293 4.78526 0 0 0 39 73 59 255
-0.986188 0.228463 4.20018 0 0 0 10 47 91 255
-0.377213 0.382136 4.18025 0 0 0 120 140 154 255
2.34316 0.400688 3.67624 0 0 0 33 34 38 255
2.3828 0.443627 3.67514 0 0 0 139 143 146 255
1.09046 0.644246 4.77425 0 0 0 142 151 147 255
0.786485 0.661805 4.59865 0 0 0 65 108 73 255
1.09799 0.693945 4.78192 0 0 0 141 146 144 255
-0.315268 0.693961 4.27907 0 0 0 146 153 157 255
2.292 0.562256 3.67826 0 0 0 30 34 39 255
-0.324975 0.800545 4.25681 0 0 0 84 89 124 255
2.37097 0.742186 3.69921 0 0 0 116 89 53 255
-2.89921 1.38525 5.95842 0 0 0 42 44 46 255
2.39083 0.800349 3.68626 0 0 0 67 67 65 255
1.98533 0.917035 3.9517 0 0 0 56 57 50 255
1.05185 0.106352 5.08337 0 0 0 49 91 70 255
-0.401444 0.177506 4.647 0 0 0 17 58 99 255
2.04318 0.215633 3.96124 0 0 0 44 46 50 255
1.9543 0.372991 3.92475 0 0 0 156 154 150 255
2.21856 0.433625 3.67721 0 0 0 37 40 41 255
2.29738 0.464032 3.67676 0 0 0 134 145 148 255
1.05605 0.666982 4.7309 0 0 0 127 137 134 255
-0.49583 0.58612 4.09824 0 0 0 154 158 157 255
-0.692024 0.657397 4.05572 0 0 0 32 57 93 255
2.2263 0.705537 3.68848 0 0 0 95 83 57 255
0.418694 1.10845 4.83433 0 0 0 77 104 76 255
2.36676 -0.197149 3.91052 0 0 0 130 130 132 255
2.34727 -0.193745 3.90834 0 0 0 80 82 93 255
2.23109 -0.142168 3.84366 0 0 0 122 60 49 255
2.24014 -0.107177 3.89973 0 0 0 72 71 76 255
2.34145 -0.0516815 3.85824 0 0 0 82 82 84 255
0.872075 0.256735 4.59429 0 0 0 57 74 69 255
0.795536 0.267327 4.57355 0 0 0 118 118 118 255
-1.12788 0.106554 4.29137 0 0 0 139 139 139 255
0.986391 0.330788 4.66772 0 0 0 91 89 88 255
2.63161 0.380961 3.94767 0 0 0 70 79 85 255
2.63511 0.422505 3.9658 0 0 0 89 97 100 255
0.486002 0.517181 4.66254 0 0 0 131 143 140 255
2.45798 0.523434 3.72386 0 0 0 105 98 95 255
2.43716 0.533154 3.70982 0 0 0 42 42 44 255
2.3687 0.562705 3.68434 0 0 0 96 85 77 255
0.514532 0.719518 4.69005 0 0 0 105 135 123 255
2.63981 0.729503 3.95931 0 0 0 77 83 91 255
2.64684 0.75283 3.9358 0 0 0 114 127 130 255
-0.279997 0.793887 4.34429 0 0 0 145 151 151 255
-2.96157 0.995715 5.26896 0 0 0 66 76 73 255
0.529232 0.957119 4.70247 0 0 0 126 148 136 255
1.08168 0.996074 4.76951 0 0 0 101 125 98 255
1.03373 0.997699 4.71372 0 0 0 129 142 131 255
-0.310675 0.997257 4.59901 0 0 0 64 98 126 255
1.01673 1.03712 4.69778 0 0 0 79 90 79 255
-2.99511 1.17198 5.32306 0 0 0 60 87 73 255
0.974365 1.11163 4.67833 0 0 0 34 75 109 255
-0.258973 1.07602 4.50979 0 0 0 37 92 131 255
-0.893331 1.03285 4.145 0 0 0 63 74 91 255
-2.90114 1.39359 5.50287 0 0 0 15 36 29 255
2.56244 1.03075 3.76458 0 0 0 75 77 79 255
2.55711 1.03139 3.76139 0 0 0 85 87 88 255
2.49751 1.03312 3.71697 0 0 0 91 91 91 255
2.57199 1.07198 3.78793 0 0 0 89 90 91 255
2.51642 1.06905 3.75069 0 0 0 96 91 94 255
-2.79404 1.57172 4.96391 0 0 0 90 93 96 255
2.48064 1.08206 3.73139 0 0 0 81 81 82 255
2.33901 1.07413 3.68173 0 0 0 93 93 93 255
2.45354 1.0838 3.71738 0 0 0 102 104 103 255
2.16943 1.16127 3.70505 0 0 0 120 119 117 255
2.33555 1.15916 3.67375 0 0 0 102 102 102 255
2.48563 1.20304 3.71915 0 0 0 102 106 107 255
2.41423 1.19938 3.68365 0 0 0 105 103 103 255
2.37332 -0.213422 3.9464 0 0 0 47 46 50 255
