ply
format ascii 1.0
comment VCGLIB generated
element vertex 1030
property float x
property float y
property float z
property float nx
property float ny
property float nz
property uchar red
property uchar green
property uchar blue
property uchar alpha
element face 0
property list uchar int vertex_indices
end_header
-0.486121 0.305879 4.09839 0 0 0 98 76 83 255
2.20729 0.302871 3.70387 0 0 0 108 89 64 255
2.25889 0.307462 3.69694 0 0 0 153 118 70 255
2.28007 0.308353 3.68966 0 0 0 135 96 61 255
2.30495 0.304436 3.69743 0 0 0 165 133 81 255
-0.845782 0.309728 4.06463 0 0 0 86 93 132 255
-0.780977 0.315515 4.05016 0 0 0 87 84 115 255
-0.729411 0.31529 4.04824 0 0 0 83 94 128 255
-0.653956 0.315364 4.04213 0 0 0 128 111 86 255
-0.622971 0.312797 4.05026 0 0 0 145 116 97 255
-0.541937 0.312112 4.07178 0 0 0 113 106 101 255
-1.0186 0.329048 4.24589 0 0 0 81 104 136 255
0.613804 0.330859 4.58773 0 0 0 138 142 131 255
0.761302 0.321768 4.57488 0 0 0 141 155 125 255
1.99148 0.337613 3.96813 0 0 0 70 75 76 255
0.583431 0.355396 4.60133 0 0 0 178 129 137 255
0.601283 0.35323 4.59499 0 0 0 121 77 78 255
-0.491319 0.353787 4.09702 0 0 0 54 109 155 255
-0.389377 0.352519 4.17491 0 0 0 14 87 133 255
0.818715 0.359889 4.58407 0 0 0 164 123 128 255
1.03037 0.363689 4.69294 0 0 0 172 130 136 255
1.10009 0.3609 4.76342 0 0 0 91 101 86 255
-0.902493 0.357279 4.10265 0 0 0 35 72 108 255
-0.754585 0.3555 4.04543 0 0 0 22 78 129 255
-0.634849 0.358767 4.04872 0 0 0 122 132 142 255
-0.606326 0.358459 4.05466 0 0 0 9 73 123 255
-0.586192 0.360736 4.06384 0 0 0 96 119 159 255
1.94706 0.361156 3.97241 0 0 0 86 81 79 255
-0.880059 0.362724 4.09238 0 0 0 76 99 128 255
-0.518549 0.363921 4.08865 0 0 0 7 73 123 255
-0.337019 0.368548 4.23061 0 0 0 101 88 100 255
1.05145 0.377807 4.70635 0 0 0 151 125 132 255
-0.490229 0.381031 4.10208 0 0 0 55 87 113 255
0.874176 0.38251 4.60334 0 0 0 157 138 142 255
1.95781 0.375277 3.96553 0 0 0 117 119 118 255
-0.556736 0.383791 4.07155 0 0 0 26 81 117 255
-0.532479 0.386768 4.0827 0 0 0 140 150 161 255
-0.410529 0.385447 4.15307 0 0 0 73 89 111 255
1.98693 0.376846 3.94489 0 0 0 112 117 117 255
-0.637073 0.382022 4.05018 0 0 0 68 97 95 255
-0.480021 0.387028 4.10695 0 0 0 25 65 100 255
-0.437428 0.395383 4.13034 0 0 0 36 61 105 255
-0.365836 0.390773 4.19415 0 0 0 78 80 99 255
2.44982 0.382328 3.70542 0 0 0 103 102 105 255
2.49523 0.386893 3.72216 0 0 0 123 130 133 255
2.56921 0.37909 3.79301 0 0 0 79 84 88 255
-0.502033 0.392545 4.09415 0 0 0 33 72 114 255
0.533318 0.400941 4.61483 0 0 0 121 111 114 255
2.06644 0.385957 3.75892 0 0 0 103 107 108 255
2.17301 0.391639 3.69814 0 0 0 132 134 137 255
2.19133 0.388568 3.69304 0 0 0 81 81 81 255
2.27523 0.38557 3.67575 0 0 0 81 83 84 255
2.28964 0.382114 3.67315 0 0 0 88 87 89 255
2.30136 0.389101 3.67068 0 0 0 137 136 137 255
-0.476261 0.405057 4.10742 0 0 0 121 134 152 255
-0.466604 0.407361 4.11198 0 0 0 139 150 165 255
1.055 0.411682 4.71498 0 0 0 126 90 88 255
1.97311 0.389749 3.95242 0 0 0 73 68 66 255
2.45649 0.39824 3.71288 0 0 0 138 141 140 255
-0.594199 0.409757 4.06059 0 0 0 25 93 124 255
-0.572734 0.409785 4.06537 0 0 0 147 155 163 255
-0.396771 0.412241 4.1639 0 0 0 141 145 164 255
-0.546668 0.423201 4.07359 0 0 0 42 84 121 255
-0.509708 0.415036 4.09042 0 0 0 153 158 160 255
-0.475816 0.420871 4.10848 0 0 0 152 153 157 255
-0.438244 0.420457 4.13338 0 0 0 149 150 154 255
2.10159 0.412356 3.7361 0 0 0 60 39 39 255
2.43545 0.409956 3.7032 0 0 0 61 44 39 255
-0.535114 0.424727 4.07833 0 0 0 81 103 123 255
-0.454978 0.42644 4.12204 0 0 0 63 79 103 255
-0.35624 0.432484 4.20584 0 0 0 103 96 115 255
2.52213 0.411615 3.72603 0 0 0 76 66 67 255
-0.593159 0.429897 4.06171 0 0 0 19 93 125 255
-0.38503 0.438252 4.17077 0 0 0 79 87 98 255
-0.535804 0.438656 4.07975 0 0 0 11 83 127 255
-0.499998 0.439079 4.09315 0 0 0 30 76 115 255
-0.555487 0.445013 4.07067 0 0 0 116 163 192 255
-0.465705 0.443591 4.11308 0 0 0 39 62 90 255
-0.441648 0.447696 4.13261 0 0 0 17 60 109 255
-0.397387 0.446768 4.16315 0 0 0 57 71 108 255
-0.336649 0.451842 4.23342 0 0 0 120 89 112 255
-0.709837 0.451095 4.04391 0 0 0 142 149 136 255
-0.669014 0.450762 4.04751 0 0 0 140 149 148 255
-0.543046 0.46097 4.07696 0 0 0 25 89 126 255
-0.474463 0.459231 4.10731 0 0 0 22 70 125 255
2.10335 0.450596 3.73191 0 0 0 58 39 39 255
-0.667864 0.467582 4.04848 0 0 0 80 95 94 255
-0.626185 0.468073 4.05266 0 0 0 58 94 92 255
-0.577685 0.467366 4.06492 0 0 0 81 103 120 255
-0.423891 0.476664 4.14803 0 0 0 45 84 117 255
2.14067 0.465524 3.71183 0 0 0 91 65 52 255
-1.03571 0.493269 4.293 0 0 0 110 92 99 255
-0.64884 0.480564 4.04955 0 0 0 84 120 108 255
-0.38719 0.489491 4.1765 0 0 0 73 98 117 255
-0.323417 0.487178 4.26404 0 0 0 31 84 119 255
-0.99573 0.497641 4.25184 0 0 0 108 94 96 255
2.28143 0.471815 3.67263 0 0 0 80 62 54 255
-0.729043 0.493772 4.04694 0 0 0 87 106 123 255
1.96773 0.496731 3.96035 0 0 0 95 96 91 255
2.10345 0.485693 3.7364 0 0 0 67 46 41 255
-0.429098 0.503185 4.14706 0 0 0 60 108 147 255
2.51458 0.480413 3.72411 0 0 0 109 105 106 255
2.12021 0.49495 3.72545 0 0 0 37 43 44 255
2.27041 0.508085 3.67935 0 0 0 87 75 65 255
2.27433 0.50663 3.67849 0 0 0 74 55 41 255
2.29573 0.505518 3.6774 0 0 0 60 51 47 255
1.10665 0.575488 4.81759 0 0 0 106 143 126 255
1.95961 0.548327 3.99045 0 0 0 119 116 115 255
2.42545 0.529447 3.68822 0 0 0 64 53 57 255
-0.438918 0.561277 4.14026 0 0 0 145 149 167 255
2.20764 0.539984 3.68653 0 0 0 81 66 56 255
2.21592 0.531935 3.68485 0 0 0 50 37 39 255
-1.02718 0.572709 4.27215 0 0 0 107 113 138 255
-0.871229 0.561756 4.09856 0 0 0 104 117 151 255
-0.833339 0.565063 4.09568 0 0 0 141 145 147 255
2.45496 0.551063 3.70998 0 0 0 101 103 109 255
2.56005 0.544381 3.76875 0 0 0 131 138 138 255
-0.638422 0.569131 4.06315 0 0 0 138 140 171 255
1.95328 0.570968 4.03212 0 0 0 77 67 61 255
2.49911 0.550663 3.7329 0 0 0 129 138 140 255
2.17128 0.559342 3.69878 0 0 0 114 129 133 255
-0.900881 0.586071 4.11365 0 0 0 24 52 91 255
2.24121 0.557833 3.68171 0 0 0 139 136 137 255
2.32118 0.559821 3.67448 0 0 0 93 103 105 255
2.35694 0.559474 3.68409 0 0 0 140 141 143 255
-0.955757 0.592544 4.16835 0 0 0 33 58 91 255
1.0466 0.626153 4.71558 0 0 0 71 73 73 255
-0.493386 0.603756 4.08637 0 0 0 84 89 109 255
-0.575114 0.613473 4.08997 0 0 0 53 59 75 255
-0.985466 0.652991 4.19675 0 0 0 127 129 132 255
-0.3647 0.639144 4.20601 0 0 0 36 66 115 255
-0.484163 0.651176 4.06929 0 0 0 91 90 94 255
-0.57518 0.665842 4.08577 0 0 0 61 68 87 255
-0.872492 0.680865 4.10794 0 0 0 56 60 71 255
-0.333783 0.677749 4.22767 0 0 0 116 116 118 255
-0.952152 0.692061 4.16096 0 0 0 37 42 54 255
0.55097 0.713647 4.63363 0 0 0 85 123 102 255
-1.0118 0.685417 4.20506 0 0 0 88 95 105 255
-0.434224 0.689139 4.14704 0 0 0 151 158 159 255
1.07216 0.73061 4.75834 0 0 0 127 137 136 255
-0.740819 0.695011 4.06241 0 0 0 123 125 141 255
-0.402622 0.72125 4.18118 0 0 0 132 140 162 255
0.838119 0.747366 4.61538 0 0 0 65 109 78 255
-0.880794 0.718424 4.10959 0 0 0 122 125 129 255
-0.641852 0.717577 4.06535 0 0 0 136 142 163 255
-0.332927 0.733134 4.23099 0 0 0 113 116 127 255
-0.552238 0.748171 4.09069 0 0 0 141 150 171 255
-0.514256 0.744426 4.10156 0 0 0 152 152 158 255
2.25617 0.714974 3.68687 0 0 0 79 76 68 255
2.38172 0.719592 3.70359 0 0 0 86 76 66 255
-0.789195 0.762371 4.06474 0 0 0 78 82 95 255
-0.688087 0.764725 4.07145 0 0 0 131 136 162 255
-0.448425 0.77211 4.14094 0 0 0 70 74 90 255
-1.00616 0.782955 4.21987 0 0 0 130 137 137 255
-0.334535 0.788388 4.24495 0 0 0 60 71 94 255
-0.301841 0.819678 4.29532 0 0 0 97 106 117 255
-0.319378 0.818177 4.26677 0 0 0 127 132 153 255
2.24978 0.762082 3.68723 0 0 0 89 76 57 255
-0.827272 0.807693 4.08408 0 0 0 117 120 126 255
-0.609255 0.804299 4.07631 0 0 0 79 86 105 255
2.30397 0.765445 3.6874 0 0 0 98 74 53 255
-0.625095 0.809169 4.07468 0 0 0 53 63 89 255
-0.382908 0.822603 4.19726 0 0 0 56 73 95 255
-0.443018 0.82934 4.1411 0 0 0 90 89 97 255
-0.809999 0.835309 4.08204 0 0 0 74 80 99 255
-0.35982 0.84672 4.21613 0 0 0 155 157 160 255
0.549199 0.902795 4.64933 0 0 0 71 111 93 255
-0.377408 0.865967 4.20087 0 0 0 82 92 100 255
-0.39578 0.879197 4.18722 0 0 0 156 158 157 255
-0.607201 0.867063 4.07675 0 0 0 103 105 107 255
-0.625592 0.878093 4.07538 0 0 0 67 83 105 255
-0.958651 0.897329 4.17649 0 0 0 79 88 101 255
-0.360679 0.905536 4.20487 0 0 0 73 96 127 255
-0.714487 0.901468 4.07182 0 0 0 35 64 104 255
-0.509823 0.911717 4.1056 0 0 0 157 157 163 255
1.07817 1.00248 4.7536 0 0 0 121 139 124 255
-0.547003 0.925183 4.09312 0 0 0 155 159 160 255
-0.423436 0.927397 4.15008 0 0 0 73 92 125 255
-0.721719 0.931062 4.07089 0 0 0 159 160 161 255
-0.602459 0.938368 4.07548 0 0 0 125 125 125 255
-0.582772 0.937147 4.07526 0 0 0 148 150 152 255
-0.885749 0.958787 4.12691 0 0 0 35 51 92 255
-0.707029 0.950271 4.07296 0 0 0 81 91 108 255
-0.686542 0.964381 4.07849 0 0 0 153 149 159 255
-0.573869 0.975111 4.08741 0 0 0 75 92 137 255
-0.742935 0.97631 4.07012 0 0 0 157 157 157 255
-0.606068 0.985365 4.07788 0 0 0 68 89 127 255
-0.357902 1.01414 4.22979 0 0 0 118 140 158 255
1.17933 1.13999 5.06066 0 0 0 172 176 170 255
-0.86351 1.0023 4.07111 0 0 0 40 50 84 255
-0.696642 1.00681 4.08258 0 0 0 66 84 118 255
1.92962 1.37613 6.59318 0 0 0 144 141 136 255
-0.369866 1.03233 4.22248 0 0 0 52 101 130 255
-0.913902 1.02191 4.10627 0 0 0 135 131 139 255
-0.905497 1.02402 4.13865 0 0 0 145 149 150 255
1.20433 1.17626 5.07621 0 0 0 120 118 116 255
-0.992373 1.03957 4.2015 0 0 0 116 120 122 255
-0.495807 1.04174 4.12086 0 0 0 41 99 138 255
-0.497407 1.0836 4.12314 0 0 0 60 110 140 255
-0.367083 1.11293 4.22747 0 0 0 28 73 120 255
-0.334685 1.12152 4.25215 0 0 0 29 75 113 255
2.07142 1.04932 3.79298 0 0 0 107 110 109 255
2.12028 1.05151 3.76146 0 0 0 117 117 118 255
2.17044 1.05092 3.74038 0 0 0 90 86 85 255
2.10849 1.05747 3.77103 0 0 0 99 103 103 255
2.13885 1.05601 3.76361 0 0 0 97 94 95 255
2.21321 1.05226 3.72853 0 0 0 90 92 91 255
-0.392835 1.13929 4.20698 0 0 0 135 146 156 255
-0.317677 1.1493 4.28448 0 0 0 109 132 145 255
2.25375 1.05101 3.70983 0 0 0 80 81 80 255
2.31442 1.05592 3.70876 0 0 0 103 98 100 255
2.34384 1.05368 3.7104 0 0 0 96 94 96 255
2.21405 1.06903 3.72703 0 0 0 121 124 123 255
2.21244 1.06991 3.72966 0 0 0 121 124 123 255
2.22161 1.08362 3.72562 0 0 0 86 84 84 255
-0.326466 1.17932 4.26537 0 0 0 51 76 100 255
2.16606 1.0887 3.7354 0 0 0 84 89 89 255
2.25184 1.08221 3.70244 0 0 0 83 78 76 255
2.28508 1.07757 3.71425 0 0 0 89 81 83 255
2.36057 1.0863 3.71476 0 0 0 78 78 79 255
2.48076 1.08396 3.73715 0 0 0 73 74 76 255
-0.615301 1.15536 4.08943 0 0 0 24 111 147 255
2.22158 1.08394 3.72689 0 0 0 98 105 102 255
2.40198 1.09128 3.72544 0 0 0 87 92 90 255
-0.863444 1.17532 4.12317 0 0 0 88 116 142 255
-0.631812 1.16764 4.06105 0 0 0 148 149 158 255
2.13504 1.13475 3.76578 0 0 0 102 103 105 255
-0.624508 1.19251 4.06907 0 0 0 66 85 118 255
-0.734616 1.20927 4.09412 0 0 0 115 99 115 255
-0.836226 1.22368 4.12336 0 0 0 107 103 113 255
-0.689226 1.2115 4.07652 0 0 0 113 103 118 255
2.07848 1.17246 3.79845 0 0 0 103 105 104 255
2.25562 1.17729 3.71613 0 0 0 106 107 111 255
2.07233 1.20806 3.80435 0 0 0 115 113 112 255
-0.894766 1.36499 4.13515 0 0 0 69 106 141 255
-0.371117 1.38335 4.21801 0 0 0 140 152 167 255
-0.845753 1.36378 4.11858 0 0 0 65 104 137 255
-0.389066 1.39422 4.20243 0 0 0 93 102 120 255
-0.459922 1.38796 4.14548 0 0 0 93 128 163 255
-0.815698 1.39123 4.10708 0 0 0 22 83 123 255
-0.456554 1.41715 4.15285 0 0 0 157 159 160 255
-0.894317 1.41753 4.13865 0 0 0 89 108 133 255
2.46126 1.4045 3.79337 0 0 0 84 82 84 255
2.25145 1.41287 3.79984 0 0 0 112 112 112 255
2.1707 1.43021 3.83099 0 0 0 100 100 100 255
2.31051 1.41643 3.77491 0 0 0 106 106 106 255
2.38519 1.63083 3.98878 0 0 0 191 193 199 255
2.39535 1.62889 3.98083 0 0 0 207 207 208 255
2.33298 -0.211249 3.90969 0 0 0 153 157 163 255
2.36553 -0.211431 3.9026 0 0 0 46 45 44 255
2.23467 -0.165827 3.84857 0 0 0 140 73 68 255
0.949057 -0.243652 4.71031 0 0 0 211 211 212 255
2.34488 0.0145784 3.92427 0 0 0 200 205 207 255
-1.07946 0.132656 4.33373 0 0 0 22 47 84 255
2.04784 0.136921 4.02162 0 0 0 135 135 134 255
2.21442 0.256312 3.72126 0 0 0 121 103 80 255
2.31427 0.249694 3.70632 0 0 0 80 75 76 255
2.40464 0.252969 3.71516 0 0 0 93 77 67 255
-0.720743 0.261963 4.04727 0 0 0 113 104 82 255
-0.855272 0.270162 4.07383 0 0 0 132 125 125 255
-0.561127 0.27047 4.06492 0 0 0 110 103 101 255
-0.48005 0.271958 4.09973 0 0 0 124 109 113 255
2.38388 0.280216 3.70781 0 0 0 91 51 24 255
2.30346 0.305757 3.69681 0 0 0 165 133 81 255
-0.558116 0.311514 4.067 0 0 0 147 121 91 255
-0.911157 0.327294 4.08323 0 0 0 68 103 139 255
-0.894438 0.359216 4.09026 0 0 0 37 76 112 255
-0.639946 0.353865 4.04859 0 0 0 46 99 143 255
-0.430785 0.349318 4.14008 0 0 0 105 129 149 255
0.412845 0.368361 4.70829 0 0 0 111 87 83 255
0.798204 0.368712 4.57546 0 0 0 144 132 134 255
0.874966 0.375773 4.60349 0 0 0 136 117 121 255
-0.652736 0.388569 4.04865 0 0 0 29 88 75 255
-0.483068 0.389409 4.1042 0 0 0 30 73 108 255
-0.389949 0.397424 4.16989 0 0 0 152 156 156 255
1.98457 0.380318 3.94679 0 0 0 77 84 85 255
2.11999 0.389247 3.72127 0 0 0 89 89 90 255
2.49233 0.387855 3.72415 0 0 0 110 118 121 255
1.93333 0.407995 3.95942 0 0 0 125 120 116 255
-0.588597 0.430676 4.06361 0 0 0 19 93 125 255
2.10231 0.419369 3.73273 0 0 0 58 40 40 255
2.42186 0.409577 3.69761 0 0 0 83 63 45 255
-0.452695 0.440142 4.12376 0 0 0 16 60 108 255
1.97653 0.444261 3.92914 0 0 0 82 76 67 255
2.10319 0.434162 3.73291 0 0 0 58 42 39 255
2.45761 0.429943 3.71074 0 0 0 34 38 37 255
-0.60913 0.454631 4.05851 0 0 0 147 154 154 255
2.14129 0.466078 3.71144 0 0 0 91 65 52 255
-0.547739 0.489524 4.07328 0 0 0 104 120 136 255
-0.423965 0.504554 4.15267 0 0 0 78 121 156 255
1.94263 0.497603 4.00256 0 0 0 122 120 119 255
2.10438 0.500001 3.73713 0 0 0 55 39 39 255
1.08298 0.581262 4.76607 0 0 0 126 142 138 255
2.10156 0.527403 3.73723 0 0 0 50 42 47 255
2.21264 0.527603 3.68562 0 0 0 55 39 41 255
2.28122 0.519378 3.67911 0 0 0 46 36 38 255
2.42288 0.526066 3.70282 0 0 0 57 40 43 255
2.56684 0.542803 3.78649 0 0 0 104 112 118 255
1.94963 0.574763 4.03189 0 0 0 108 100 94 255
2.49118 0.54722 3.72797 0 0 0 123 130 131 255
2.36378 0.560347 3.67754 0 0 0 108 94 86 255
2.40459 0.549937 3.67769 0 0 0 140 142 143 255
2.42469 0.551236 3.69482 0 0 0 143 143 143 255
-1.01354 0.58901 4.24719 0 0 0 134 137 140 255
-0.922428 0.588268 4.13168 0 0 0 32 55 90 255
2.14742 0.555063 3.70663 0 0 0 107 90 75 255
-0.735018 0.611147 4.05491 0 0 0 155 156 156 255
-0.49923 0.603795 4.08922 0 0 0 88 94 113 255
-0.728201 0.645617 4.05784 0 0 0 154 156 158 255
-0.436327 0.685418 4.14478 0 0 0 151 158 159 255
-0.988451 0.707387 4.16651 0 0 0 133 131 130 255
-0.732907 0.713752 4.06367 0 0 0 156 159 161 255
-0.638746 0.707123 4.06555 0 0 0 137 143 162 255
-0.407256 0.728005 4.18016 0 0 0 155 160 168 255
-0.868089 0.723691 4.07974 0 0 0 109 111 116 255
-0.556499 0.759689 4.0896 0 0 0 158 162 163 255
2.25719 0.722684 3.68741 0 0 0 96 76 55 255
-0.892326 0.770573 4.12 0 0 0 97 108 118 255
-0.69056 0.758063 4.06997 0 0 0 52 69 110 255
-0.459846 0.775047 4.13605 0 0 0 92 94 101 255
-0.332543 0.785999 4.24334 0 0 0 40 53 83 255
-0.318665 0.813421 4.26945 0 0 0 128 133 152 255
-0.625157 0.80919 4.07471 0 0 0 53 63 89 255
-0.453571 0.833507 4.13315 0 0 0 58 66 93 255
-0.413216 0.886148 4.17125 0 0 0 156 157 159 255
-0.44509 0.894417 4.13654 0 0 0 113 117 126 255
-0.955262 0.913001 4.17034 0 0 0 69 69 80 255
-0.505287 0.910393 4.10682 0 0 0 156 159 158 255
-0.563668 0.92979 4.08951 0 0 0 160 162 163 255
-0.736222 0.932185 4.0681 0 0 0 157 161 163 255
-0.88226 0.943258 4.11611 0 0 0 33 52 93 255
-0.674898 0.961364 4.08269 0 0 0 158 160 161 255
-0.711184 0.964285 4.07341 0 0 0 59 71 96 255
-0.743826 0.973849 4.06998 0 0 0 157 157 157 255
-0.478027 0.993663 4.12859 0 0 0 130 149 169 255
-0.848861 1.00945 4.10974 0 0 0 151 154 153 255
-0.934665 1.02898 4.1755 0 0 0 149 147 151 255
-0.500111 1.03583 4.12003 0 0 0 40 99 138 255
0.955077 1.11615 4.66878 0 0 0 29 77 115 255
0.509811 1.15164 4.69905 0 0 0 69 104 73 255
2.34925 1.06759 3.71465 0 0 0 87 86 87 255
0.800665 1.24691 4.6172 0 0 0 101 120 98 255
-0.625001 1.16164 4.04677 0 0 0 136 140 153 255
-0.867516 1.17011 4.12552 0 0 0 88 116 142 255
-0.72588 1.17487 4.11263 0 0 0 85 131 170 255
-0.785038 1.19109 4.09092 0 0 0 21 85 131 255
-0.828519 1.23751 4.10132 0 0 0 80 84 109 255
-0.904309 1.27197 4.13632 0 0 0 124 142 163 255
-0.629905 1.29101 4.07218 0 0 0 37 76 110 255
-0.857059 1.32244 4.12318 0 0 0 101 111 122 255
-0.719395 1.32035 4.09211 0 0 0 95 108 135 255
-0.844374 1.36521 4.1176 0 0 0 65 104 137 255
2.39948 1.41094 3.78612 0 0 0 98 94 97 255
2.30217 -0.211431 3.91556 0 0 0 45 43 44 255
2.37418 -0.207859 3.87337 0 0 0 45 45 45 255
2.46013 -0.199134 3.92053 0 0 0 47 52 53 255
0.94393 -0.24265 4.72244 0 0 0 211 211 212 255
2.0987 -0.0563025 3.97509 0 0 0 93 84 83 255
2.47501 -0.044979 3.9168 0 0 0 35 39 39 255
2.34492 0.0104781 3.92662 0 0 0 200 205 207 255
2.47256 0.0365264 3.92901 0 0 0 84 85 92 255
2.35176 0.0899674 3.93076 0 0 0 248 250 254 255
2.35667 0.115493 3.92278 0 0 0 255 252 253 255
2.06697 0.13573 4.03838 0 0 0 63 63 62 255
2.53527 0.140315 3.94732 0 0 0 50 50 54 255
2.31161 0.259205 3.70424 0 0 0 161 144 114 255
-0.47029 0.264626 4.10504 0 0 0 148 121 89 255
2.21639 0.266588 3.71601 0 0 0 95 75 60 255
2.36269 0.261871 3.70623 0 0 0 125 88 55 255
-0.824316 0.281418 4.05771 0 0 0 139 126 66 255
-0.794209 0.275975 4.04991 0 0 0 75 73 68 255
-0.762614 0.273236 4.0497 0 0 0 114 95 99 255
-0.624108 0.273316 4.05097 0 0 0 133 111 101 255
-0.699448 0.283641 4.04482 0 0 0 113 107 101 255
2.21446 0.297625 3.70517 0 0 0 130 106 77 255
2.37632 0.298201 3.70266 0 0 0 138 101 62 255
-0.966438 0.334423 4.17322 0 0 0 95 110 126 255
0.582959 0.374763 4.60138 0 0 0 118 39 43 255
-0.610142 0.398605 4.05758 0 0 0 149 155 160 255
-0.529919 0.399173 4.08287 0 0 0 152 158 165 255
-0.39052 0.395381 4.16942 0 0 0 148 155 155 255
0.604451 0.40033 4.59235 0 0 0 156 147 148 255
1.98494 0.386113 3.94237 0 0 0 112 121 123 255
2.07253 0.397563 3.75001 0 0 0 127 133 134 255
2.12895 0.406016 3.71748 0 0 0 131 137 139 255
2.15388 0.39448 3.7054 0 0 0 40 39 44 255
2.18385 0.395321 3.69545 0 0 0 135 136 140 255
2.28874 0.394306 3.67405 0 0 0 138 147 149 255
2.42018 0.383449 3.69859 0 0 0 125 129 132 255
2.1302 0.413152 3.71739 0 0 0 123 136 140 255
2.42652 0.417149 3.69446 0 0 0 61 43 33 255
-0.598199 0.456099 4.06086 0 0 0 144 156 158 255
-0.983642 0.483463 4.22878 0 0 0 127 120 122 255
2.14752 0.467805 3.70906 0 0 0 61 40 29 255
-0.348096 0.539112 4.22051 0 0 0 32 80 117 255
2.10754 0.514533 3.7314 0 0 0 47 38 40 255
2.21681 0.52048 3.68541 0 0 0 52 36 38 255
2.4254 0.508269 3.69447 0 0 0 39 38 42 255
1.9818 0.550853 3.8929 0 0 0 130 133 131 255
2.28597 0.525073 3.67937 0 0 0 37 39 43 255
-0.923812 0.588709 4.13029 0 0 0 22 55 94 255
-0.851494 0.570447 4.09368 0 0 0 152 152 152 255
-0.633148 0.573209 4.06382 0 0 0 153 155 167 255
-0.452794 0.569749 4.13685 0 0 0 156 158 162 255
2.12003 0.550558 3.72462 0 0 0 137 139 139 255
2.14854 0.551852 3.70606 0 0 0 107 90 75 255
2.19218 0.556399 3.69181 0 0 0 137 141 142 255
2.23479 0.558874 3.68291 0 0 0 142 141 144 255
2.33269 0.550588 3.67477 0 0 0 141 146 147 255
2.38046 0.552932 3.67442 0 0 0 45 41 45 255
2.42815 0.553203 3.69945 0 0 0 143 143 143 255
-0.802051 0.586044 4.08246 0 0 0 29 51 90 255
-0.73537 0.608165 4.05485 0 0 0 156 156 156 255
-0.575254 0.621999 4.11285 0 0 0 104 112 143 255
1.04125 0.646289 4.72208 0 0 0 40 80 74 255
-0.736025 0.620583 4.05555 0 0 0 156 159 158 255
-0.357512 0.65449 4.21076 0 0 0 146 151 161 255
-0.577838 0.667577 4.10523 0 0 0 61 68 87 255
-0.513123 0.661313 4.08352 0 0 0 59 65 84 255
-0.43318 0.669983 4.14477 0 0 0 153 157 159 255
-0.95346 0.686959 4.16268 0 0 0 28 44 82 255
-0.881264 0.67553 4.11831 0 0 0 56 60 71 255
-0.774363 0.674731 4.06062 0 0 0 34 53 94 255
-0.360622 0.67883 4.20935 0 0 0 146 152 161 255
-0.959661 0.700338 4.16381 0 0 0 24 46 91 255
-0.863392 0.704077 4.07674 0 0 0 111 118 126 255
-0.737363 0.707908 4.06338 0 0 0 153 157 160 255
-0.414442 0.731591 4.17658 0 0 0 154 159 171 255
-0.888772 0.759581 4.10647 0 0 0 107 117 124 255
2.27692 0.73494 3.68826 0 0 0 110 80 42 255
-0.676576 0.773153 4.07369 0 0 0 156 158 163 255
-1.00206 0.815222 4.22218 0 0 0 39 52 75 255
-0.384308 0.799707 4.19714 0 0 0 103 118 135 255
-0.289634 0.807096 4.32031 0 0 0 149 153 154 255
-0.619738 0.811753 4.07511 0 0 0 49 59 86 255
-0.334714 0.816019 4.24107 0 0 0 33 58 96 255
-0.807635 0.826956 4.0735 0 0 0 74 80 99 255
-0.615459 0.877091 4.07573 0 0 0 58 75 97 255
-0.410628 0.902333 4.17525 0 0 0 61 73 100 255
-0.741427 0.882186 4.06528 0 0 0 60 75 95 255
-0.494579 0.892371 4.10991 0 0 0 160 162 163 255
-0.875616 0.910748 4.11336 0 0 0 31 51 92 255
-0.565259 0.930221 4.08892 0 0 0 160 162 163 255
-0.862626 0.925082 4.08895 0 0 0 26 52 95 255
-0.664178 0.950276 4.08591 0 0 0 159 162 161 255
-0.614623 0.947574 4.07418 0 0 0 77 85 106 255
-0.801415 0.982887 4.09734 0 0 0 41 55 91 255
1.18609 1.12181 5.05934 0 0 0 168 174 170 255
-0.471672 0.994855 4.13027 0 0 0 137 155 172 255
-0.359882 1.01795 4.22926 0 0 0 122 144 164 255
-0.924794 1.01747 4.16493 0 0 0 148 150 151 255
1.18907 1.22394 5.0719 0 0 0 158 162 161 255
-0.6194 1.0758 4.09285 0 0 0 113 153 184 255
-0.386445 1.14124 4.21213 0 0 0 145 152 158 255
2.12673 1.06383 3.75431 0 0 0 95 95 94 255
2.28604 1.07147 3.71397 0 0 0 86 79 81 255
-0.672179 1.154 4.07341 0 0 0 23 88 136 255
-0.630526 1.15219 4.07519 0 0 0 142 157 181 255
-0.582733 1.14187 4.0666 0 0 0 9 108 147 255
-0.877376 1.20601 4.15837 0 0 0 142 144 146 255
-0.784738 1.18171 4.10587 0 0 0 19 84 129 255
-0.631365 1.1985 4.08092 0 0 0 46 80 123 255
-0.329075 1.23293 4.25613 0 0 0 162 140 95 255
-0.912405 1.22174 4.14513 0 0 0 82 104 140 255
-0.895333 1.26941 4.1244 0 0 0 124 142 163 255
-0.854522 1.30294 4.10093 0 0 0 124 131 141 255
-0.793966 1.31213 4.09618 0 0 0 29 74 114 255
-0.700418 1.29482 4.07998 0 0 0 111 112 122 255
-0.372111 1.38838 4.21737 0 0 0 152 154 156 255
-0.891829 1.39362 4.1632 0 0 0 84 129 157 255
2.4102 1.41273 3.7808 0 0 0 93 90 94 255
2.39289 1.62949 3.9852 0 0 0 205 206 212 255
2.24016 -0.203425 3.83034 0 0 0 42 41 42 255
2.46449 -0.193603 3.94753 0 0 0 63 43 41 255
2.12394 -0.0510215 3.97152 0 0 0 47 49 51 255
2.47864 0.0499069 3.93324 0 0 0 83 86 92 255
-1.0674 0.134121 4.30936 0 0 0 22 47 84 255
-0.651516 0.274095 4.04523 0 0 0 129 110 99 255
2.28932 0.269261 3.69735 0 0 0 118 95 70 255
-0.362387 0.356019 4.20054 0 0 0 124 141 155 255
1.9618 0.338284 4.02784 0 0 0 59 58 59 255
-0.928313 0.35391 4.09901 0 0 0 96 99 113 255
-0.880833 0.331987 4.09415 0 0 0 8 56 107 255
0.769049 0.38791 4.57409 0 0 0 159 159 159 255
2.39665 0.397395 3.68608 0 0 0 122 130 137 255
-0.436157 0.421508 4.13647 0 0 0 149 150 154 255
2.07346 0.398029 3.75161 0 0 0 124 136 136 255
2.18398 0.413247 3.69625 0 0 0 132 143 146 255
2.28761 0.391134 3.67412 0 0 0 143 143 143 255
2.34292 0.437574 3.67111 0 0 0 40 41 47 255
-0.944541 0.469844 4.17479 0 0 0 145 109 78 255
2.26751 0.489842 3.67703 0 0 0 136 136 137 255
-0.457589 0.587403 4.1337 0 0 0 158 160 160 255
1.97716 0.597243 4.03589 0 0 0 45 46 47 255
-0.633559 0.57222 4.06363 0 0 0 153 155 167 255
-0.731455 0.626807 4.05617 0 0 0 156 159 159 255
-0.359363 0.649465 4.21198 0 0 0 113 126 151 255
-0.966845 0.693796 4.16504 0 0 0 22 44 84 255
-0.631517 0.688536 4.06708 0 0 0 154 158 160 255
-0.41778 0.683117 4.16679 0 0 0 32 60 105 255
-0.868192 0.722046 4.07534 0 0 0 122 125 129 255
0.789335 0.758364 4.60734 0 0 0 70 110 74 255
-0.742266 0.727966 4.0615 0 0 0 159 160 160 255
-0.409841 0.879004 4.174 0 0 0 158 161 161 255
-0.876821 0.907325 4.11145 0 0 0 29 52 93 255
-0.763316 0.93961 4.07201 0 0 0 158 161 160 255
-0.985939 1.068 4.22199 0 0 0 23 53 95 255
-0.399917 1.10295 4.20226 0 0 0 3 94 141 255
-0.351786 1.1429 4.24223 0 0 0 146 150 155 255
-0.571001 1.14155 4.0575 0 0 0 4 108 151 255
-0.869797 1.19169 4.13561 0 0 0 141 143 145 255
-0.784769 1.18757 4.10605 0 0 0 20 85 131 255
-0.713257 1.17491 4.07495 0 0 0 126 144 160 255
-0.655135 1.17611 4.08305 0 0 0 33 87 135 255
-0.339009 1.2513 4.24823 0 0 0 164 148 92 255
0.364279 1.4021 4.9261 0 0 0 67 94 81 255
-0.891359 1.27769 4.15545 0 0 0 138 143 146 255
-0.769834 1.27475 4.10672 0 0 0 157 157 158 255
-0.350522 1.27814 4.24124 0 0 0 168 154 103 255
-0.788438 1.30455 4.10137 0 0 0 36 74 113 255
-0.694321 1.29463 4.01767 0 0 0 132 130 139 255
-0.619906 1.29661 4.04074 0 0 0 28 75 118 255
-0.544029 1.30755 4.06834 0 0 0 166 160 125 255
-0.294996 1.46103 4.65304 0 0 0 45 86 123 255
2.13233 -0.0816565 3.97087 0 0 0 65 66 72 255
-0.341481 0.111268 4.60443 0 0 0 26 61 102 255
2.05384 0.164796 4.02845 0 0 0 55 58 57 255
-0.357525 0.368863 4.20579 0 0 0 138 149 156 255
-0.878557 0.407543 4.06084 0 0 0 143 135 116 255
-0.601008 0.391206 4.06026 0 0 0 135 143 155 255
-0.525935 0.398122 4.08416 0 0 0 153 159 162 255
1.97365 0.415384 3.9371 0 0 0 111 113 111 255
-0.921774 0.449545 4.14334 0 0 0 147 142 134 255
-0.721212 0.457902 4.04349 0 0 0 117 125 105 255
-0.351841 0.464345 4.21724 0 0 0 151 153 161 255
1.08698 0.525139 4.79441 0 0 0 93 113 86 255
1.98208 0.508996 3.93236 0 0 0 121 128 125 255
-0.97836 0.531567 4.1996 0 0 0 12 59 104 255
0.830943 0.595492 4.60581 0 0 0 156 160 161 255
2.0785 0.551028 3.75063 0 0 0 135 139 140 255
2.20248 0.552048 3.68763 0 0 0 143 142 139 255
-0.618757 0.586651 4.06917 0 0 0 157 159 161 255
-0.461595 0.594817 4.13284 0 0 0 157 160 162 255
1.96794 0.605692 4.03656 0 0 0 50 52 52 255
-0.907953 0.631225 4.12854 0 0 0 150 152 151 255
-0.830421 0.598004 4.0929 0 0 0 146 152 155 255
-0.50419 0.644546 4.06561 0 0 0 156 158 158 255
-0.313176 0.688942 4.30456 0 0 0 146 153 154 255
-0.972394 0.702135 4.17353 0 0 0 23 46 87 255
0.947098 0.750675 4.64866 0 0 0 116 146 130 255
1.0866 0.770644 4.77438 0 0 0 48 91 74 255
-0.663762 0.729913 4.0684 0 0 0 27 55 103 255
-1.00769 0.823943 4.22464 0 0 0 23 61 94 255
-0.728789 0.862197 4.06864 0 0 0 37 61 107 255
-0.447766 0.827934 4.13669 0 0 0 107 104 108 255
-0.605397 0.907705 4.07693 0 0 0 158 161 165 255
-0.844047 0.972802 4.10416 0 0 0 152 154 156 255
-0.466546 0.993242 4.13175 0 0 0 137 155 172 255
-0.360774 1.02524 4.22816 0 0 0 127 129 131 255
-0.476842 1.06182 4.12848 0 0 0 148 152 158 255
-0.343943 1.20741 4.25221 0 0 0 140 124 104 255
1.1124 1.40707 5.0976 0 0 0 68 108 88 255
-0.519341 1.31567 4.08678 0 0 0 174 163 107 255
-0.948401 1.41496 4.19433 0 0 0 44 79 117 255
-0.506701 1.43584 4.12029 0 0 0 45 86 124 255
1.99564 1.57739 4.10327 0 0 0 110 112 108 255
2.12631 -0.201142 3.97485 0 0 0 84 67 60 255
2.11956 -0.125943 3.97869 0 0 0 72 57 57 255
1.05264 0.111304 4.83089 0 0 0 45 91 64 255
2.04681 0.178712 4.03526 0 0 0 54 54 54 255
2.07819 0.171047 4.01256 0 0 0 40 47 49 255
1.97846 0.270073 4.01932 0 0 0 109 101 98 255
-0.856718 0.424594 4.1016 0 0 0 147 132 77 255
1.95943 0.471225 3.9745 0 0 0 128 132 131 255
-0.402999 0.622078 4.16028 0 0 0 25 57 105 255
-0.838982 0.647455 4.09733 0 0 0 154 153 154 255
-0.690663 0.636879 4.05536 0 0 0 23 56 107 255
1.05441 0.810482 4.74561 0 0 0 50 95 71 255
-0.727711 0.815604 4.06189 0 0 0 73 84 96 255
-0.302278 0.874584 4.28211 0 0 0 18 64 112 255
1.99593 0.904479 4.07953 0 0 0 46 51 52 255
-0.380345 1.21862 4.21893 0 0 0 153 126 99 255
0.383161 1.38537 4.89848 0 0 0 64 93 79 255
-0.8284 1.21307 4.10651 0 0 0 131 129 136 255
-0.452416 1.30931 4.1583 0 0 0 173 160 74 255
-0.335438 1.44315 4.63277 0 0 0 30 78 119 255
-0.873002 1.43288 4.11136 0 0 0 50 80 110 255
2.2002 -0.193416 3.88538 0 0 0 129 93 98 255
2.49931 -0.188517 3.96577 0 0 0 82 87 87 255
2.30663 -0.171833 3.92767 0 0 0 138 103 105 255
2.50609 -0.0972871 3.99186 0 0 0 115 122 124 255
2.5072 -0.073828 3.96473 0 0 0 81 85 86 255
2.49761 -0.0134292 3.9663 0 0 0 120 127 129 255
2.21332 0.0167284 3.91334 0 0 0 162 162 162 255
2.54724 0.120028 3.98507 0 0 0 113 115 117 255
-0.295654 0.0980693 4.60205 0 0 0 81 87 99 255
2.34008 0.254012 3.70454 0 0 0 155 135 115 255
0.648496 0.247786 4.57965 0 0 0 30 53 50 255
0.920199 0.257554 4.61253 0 0 0 96 101 99 255
0.464004 0.274165 4.66069 0 0 0 121 130 129 255
0.960237 0.26811 4.63147 0 0 0 83 112 100 255
2.34671 0.303296 3.70157 0 0 0 76 50 28 255
-0.734928 0.289509 4.04786 0 0 0 30 47 93 255
2.3203 0.306912 3.7001 0 0 0 153 123 92 255
0.671706 0.31577 4.57414 0 0 0 123 149 104 255
-0.386649 0.320932 4.17941 0 0 0 62 112 157 255
-0.33483 0.408388 4.23101 0 0 0 114 88 103 255
2.51558 0.425555 3.72758 0 0 0 99 98 98 255
-0.420573 0.448312 4.1416 0 0 0 150 151 157 255
2.28046 0.452028 3.67387 0 0 0 86 81 78 255
-0.51113 0.478463 4.08657 0 0 0 40 83 116 255
2.11595 0.525184 3.72748 0 0 0 38 42 46 255
2.22576 0.537786 3.68286 0 0 0 35 40 52 255
2.06494 0.556787 3.75932 0 0 0 75 86 87 255
0.576565 0.680799 4.62679 0 0 0 145 153 151 255
1.10834 0.737246 4.79289 0 0 0 136 148 146 255
1.08789 0.755205 4.77093 0 0 0 134 142 139 255
1.05417 0.768246 4.73898 0 0 0 144 153 153 255
-0.785451 0.756175 4.02058 0 0 0 86 89 99 255
2.33355 0.716154 3.68524 0 0 0 73 61 49 255
-0.817491 0.875575 3.99065 0 0 0 57 71 86 255
-0.813728 0.87789 3.98825 0 0 0 61 67 88 255
1.88413 1.43449 6.9673 0 0 0 147 145 139 255
1.32193 1.39283 6.58489 0 0 0 133 131 125 255
1.23885 1.37425 6.438 0 0 0 142 141 133 255
0.906073 1.17868 4.64527 0 0 0 95 89 43 255
2.40219 1.04824 3.71798 0 0 0 99 97 98 255
2.42369 1.04526 3.69237 0 0 0 107 115 115 255
2.16747 1.06826 3.7406 0 0 0 125 133 133 255
2.07717 1.0865 3.78315 0 0 0 90 93 94 255
2.21079 1.08817 3.7143 0 0 0 73 75 74 255
2.31081 1.08627 3.70987 0 0 0 87 89 90 255
2.3411 1.08744 3.70803 0 0 0 87 93 93 255
2.20982 1.16596 3.67689 0 0 0 99 102 104 255
2.22873 1.24065 3.67041 0 0 0 109 118 116 255
2.39312 1.23707 3.65986 0 0 0 100 98 98 255
-0.414583 1.39774 4.18031 0 0 0 113 120 126 255
-0.670435 1.36895 3.8319 0 0 0 70 107 143 255
2.1509 1.3689 3.70264 0 0 0 117 120 119 255
2.18801 1.38004 3.67411 0 0 0 119 121 125 255
2.21778 1.39478 3.66137 0 0 0 100 102 104 255
2.50021 -0.00132254 3.96477 0 0 0 138 145 145 255
2.37867 0.313785 3.7 0 0 0 106 86 56 255
0.610639 0.375695 4.59068 0 0 0 90 60 64 255
-0.721711 0.391475 4.04391 0 0 0 119 120 112 255
-0.509436 0.48641 4.0871 0 0 0 19 83 128 255
2.51331 0.493499 3.71354 0 0 0 68 49 45 255
2.64308 0.9024 3.89659 0 0 0 90 99 99 255
-0.654537 0.937619 4.00408 0 0 0 159 159 164 255
2.39482 1.03491 3.67744 0 0 0 81 82 82 255
-0.687796 1.3629 3.83011 0 0 0 80 126 160 255
-0.509452 1.41816 4.13408 0 0 0 64 114 148 255
2.11425 -0.200806 3.97666 0 0 0 109 98 94 255
2.108 -0.0119991 3.98691 0 0 0 149 149 147 255
0.679026 0.241403 4.5714 0 0 0 96 99 99 255
2.38144 0.260929 3.71009 0 0 0 155 118 75 255
-0.709162 0.294903 4.04522 0 0 0 143 131 87 255
2.39104 0.319141 3.69775 0 0 0 64 43 28 255
0.886065 0.393062 4.606 0 0 0 153 144 145 255
1.02851 0.415972 4.69272 0 0 0 131 63 70 255
-0.720911 0.399377 4.04337 0 0 0 145 145 130 255
0.447859 0.421722 4.67413 0 0 0 140 139 139 255
2.346 0.463806 3.67391 0 0 0 47 44 47 255
-0.46911 0.484414 4.11026 0 0 0 114 121 130 255
2.37168 0.544769 3.67461 0 0 0 41 40 45 255
-0.849111 0.738299 4.03126 0 0 0 93 101 111 255
2.36647 0.730119 3.69723 0 0 0 91 69 44 255
-0.68433 0.785167 4.07415 0 0 0 159 158 161 255
2.36349 0.749848 3.69386 0 0 0 97 71 33 255
-0.571685 0.911558 4.0868 0 0 0 161 161 163 255
0.858859 1.13814 4.6249 0 0 0 152 156 133 255
-0.382264 1.10747 4.2174 0 0 0 9 82 129 255
0.8895 1.17586 4.63466 0 0 0 125 121 72 255
-0.449279 1.39922 4.13243 0 0 0 155 159 162 255
2.45689 1.36715 3.64858 0 0 0 88 84 87 255
2.12948 -0.143076 3.97282 0 0 0 68 46 46 255
2.47673 -0.0664458 3.96382 0 0 0 60 67 75 255
2.21048 0.015252 3.91293 0 0 0 156 158 160 255
2.47369 0.0394746 4.00182 0 0 0 89 89 89 255
2.12894 0.0422251 3.96514 0 0 0 93 96 95 255
-0.357637 0.317943 4.20266 0 0 0 50 96 131 255
2.28841 0.431917 3.6754 0 0 0 141 142 141 255
2.42439 0.453267 3.68126 0 0 0 35 37 41 255
2.20818 0.484341 3.67267 0 0 0 61 36 28 255
0.796264 0.556173 4.59098 0 0 0 154 159 157 255
0.442204 0.603364 4.69555 0 0 0 86 114 109 255
2.39134 0.53785 3.66932 0 0 0 142 145 146 255
1.95855 0.592639 4.00073 0 0 0 59 59 62 255
2.24226 0.545669 3.68073 0 0 0 132 142 144 255
2.28552 0.555583 3.67922 0 0 0 35 36 40 255
-0.451957 0.649356 4.13488 0 0 0 158 159 161 255
-0.406361 0.667611 4.16984 0 0 0 25 59 107 255
-0.63193 0.657633 4.0673 0 0 0 158 158 162 255
-0.741153 0.674194 4.05986 0 0 0 36 50 91 255
-0.289374 0.765857 4.32684 0 0 0 128 132 139 255
-0.481925 0.895068 4.12195 0 0 0 159 161 160 255
-0.794521 0.971608 3.96752 0 0 0 151 150 152 255
-0.405359 1.08104 4.19634 0 0 0 1 98 145 255
-0.590129 1.0983 4.00613 0 0 0 131 148 162 255
-0.524828 1.12189 4.00101 0 0 0 0 106 149 255
-0.332573 1.16518 4.25977 0 0 0 133 134 139 255
2.40636 -0.220936 3.85492 0 0 0 144 144 144 255
2.21529 0.0212784 3.91485 0 0 0 162 162 162 255
1.09352 0.105703 4.9373 0 0 0 50 93 69 255
1.03255 0.312943 4.7005 0 0 0 143 145 133 255
-0.87204 0.397098 4.11368 0 0 0 151 135 77 255
-0.731936 0.383102 4.04344 0 0 0 129 131 116 255
2.23104 0.490867 3.68112 0 0 0 35 37 41 255
0.780829 0.593244 4.58987 0 0 0 157 162 160 255
1.98494 0.529371 3.93828 0 0 0 127 133 136 255
2.3893 0.540997 3.66823 0 0 0 122 130 132 255
-0.610793 0.634462 4.07227 0 0 0 159 160 161 255
-0.404628 0.639133 4.16246 0 0 0 25 59 105 255
0.77339 0.684191 4.59977 0 0 0 67 110 68 255
-0.308361 0.750569 4.30774 0 0 0 153 156 155 255
0.787003 0.819503 4.60161 0 0 0 158 163 161 255
-0.421765 0.833355 4.16969 0 0 0 158 160 162 255
-0.624988 0.89673 4.07507 0 0 0 100 113 139 255
-0.450048 0.994257 4.13789 0 0 0 134 150 165 255
-0.366404 1.13754 4.23016 0 0 0 128 140 152 255
-0.535223 1.14441 4.1078 0 0 0 1 98 146 255
-0.347003 1.24677 4.23092 0 0 0 155 139 84 255
-0.302768 1.47223 4.65308 0 0 0 87 119 151 255
-0.449453 1.41826 4.07214 0 0 0 36 80 123 255
2.14416 -0.0567905 3.95885 0 0 0 33 41 36 255
1.07418 0.112971 4.90189 0 0 0 48 91 67 255
-0.35829 0.401567 4.19925 0 0 0 97 69 102 255
1.94709 0.475289 3.98794 0 0 0 90 90 87 255
2.1328 0.539036 3.71652 0 0 0 134 142 146 255
-0.395518 0.64077 4.16558 0 0 0 24 59 106 255
-0.69884 0.694043 4.05934 0 0 0 25 58 111 255
0.803817 0.777128 4.60865 0 0 0 77 116 99 255
1.07368 1.39445 5.08864 0 0 0 66 105 77 255
2.21849 -0.209541 3.88679 0 0 0 119 120 121 255
2.10416 -0.186032 3.96969 0 0 0 110 105 104 255
2.10658 -0.131027 3.97084 0 0 0 136 136 133 255
2.10388 -0.108368 3.96362 0 0 0 143 141 139 255
2.12188 -0.0763893 3.95928 0 0 0 72 73 74 255
2.36086 -0.0532567 3.8639 0 0 0 79 83 86 255
0.372762 0.149247 4.81356 0 0 0 28 59 44 255
2.35979 0.249913 3.70947 0 0 0 88 83 82 255
2.28658 0.253972 3.70096 0 0 0 57 56 59 255
2.20464 0.270563 3.71886 0 0 0 62 49 47 255
2.32492 0.277345 3.70295 0 0 0 69 58 57 255
2.32783 0.277677 3.70265 0 0 0 69 58 57 255
-0.456179 0.278593 4.10863 0 0 0 73 55 38 255
-0.444438 0.305027 4.11998 0 0 0 97 82 94 255
-0.761377 0.2996 4.04831 0 0 0 131 109 116 255
-0.45747 0.32917 4.11082 0 0 0 63 100 144 255
-0.46606 0.372616 4.11191 0 0 0 137 137 146 255
-0.493848 0.467612 4.0963 0 0 0 128 145 164 255
-0.701473 0.464742 4.04489 0 0 0 120 127 124 255
1.03699 0.512231 4.72812 0 0 0 122 136 112 255
-0.369907 0.50846 4.19838 0 0 0 73 114 148 255
-0.350148 0.522808 4.22436 0 0 0 32 82 125 255
1.09895 0.709767 4.78067 0 0 0 111 118 117 255
0.459547 0.943248 4.72806 0 0 0 101 113 109 255
1.16393 1.25068 5.43728 0 0 0 140 139 133 255
2.41063 1.07271 3.74084 0 0 0 125 129 128 255
-1.04287 1.23545 4.40667 0 0 0 54 99 133 255
-0.960661 1.2569 4.37727 0 0 0 27 84 124 255
-0.842 1.2519 4.25974 0 0 0 115 96 111 255
-0.995923 1.2837 4.36748 0 0 0 106 105 114 255
2.16236 1.18066 3.77331 0 0 0 99 100 102 255
2.38801 1.18318 3.75417 0 0 0 106 105 109 255
2.37833 1.22621 3.76393 0 0 0 103 103 103 255
2.28281 1.26494 3.74883 0 0 0 103 107 110 255
-1.14223 1.49359 4.58873 0 0 0 59 110 152 255
-0.36785 1.40982 4.21831 0 0 0 160 157 163 255
-1.21022 1.58675 4.6906 0 0 0 98 112 134 255
2.23304 1.40113 3.75977 0 0 0 113 113 115 255
-0.443992 0.279085 4.11727 0 0 0 140 103 88 255
-0.465143 0.371403 4.1142 0 0 0 119 135 153 255
0.667973 0.401872 4.57847 0 0 0 124 46 49 255
-0.407892 0.485774 4.15772 0 0 0 98 119 145 255
1.10737 0.594116 4.80936 0 0 0 139 146 146 255
-0.471725 0.662871 4.06613 0 0 0 100 107 129 255
-0.72471 0.884292 4.06916 0 0 0 32 62 104 255
-0.791879 1.21068 4.22115 0 0 0 134 145 147 255
-0.965685 1.25739 4.37501 0 0 0 33 90 128 255
2.38683 1.4179 3.78564 0 0 0 95 95 99 255
2.45449 -0.218455 3.95727 0 0 0 74 74 76 255
2.35543 0.285899 3.70441 0 0 0 149 124 96 255
2.38767 0.301154 3.70317 0 0 0 133 97 66 255
2.42113 0.420624 3.69483 0 0 0 61 34 20 255
-0.649029 0.410238 4.04954 0 0 0 23 91 75 255
-0.293231 0.416056 4.31551 0 0 0 67 117 147 255
2.14928 0.509782 3.71322 0 0 0 136 140 137 255
-0.355289 0.496941 4.22116 0 0 0 125 137 153 255
0.780199 0.553031 4.58497 0 0 0 155 159 160 255
-0.498739 0.749132 4.10687 0 0 0 158 159 160 255
-0.374198 0.782418 4.20117 0 0 0 62 75 103 255
-0.81507 1.2273 4.23485 0 0 0 139 138 140 255
-0.80299 1.21448 4.22998 0 0 0 137 144 146 255
2.39921 1.41586 3.79749 0 0 0 98 92 97 255
2.14531 -0.204684 3.95553 0 0 0 47 44 45 255
2.2672 -0.206517 3.85678 0 0 0 42 40 39 255
2.13897 -0.213059 3.96802 0 0 0 56 55 55 255
2.13674 -0.112193 3.95835 0 0 0 39 41 40 255
2.28634 0.284326 3.69587 0 0 0 158 127 80 255
2.40833 0.389969 3.68883 0 0 0 119 136 144 255
2.33007 0.428387 3.67492 0 0 0 56 43 41 255
2.37086 0.442379 3.67492 0 0 0 134 144 147 255
-0.639915 0.419771 4.05085 0 0 0 37 102 91 255
-0.574251 0.440903 4.06759 0 0 0 114 141 165 255
2.41114 0.481667 3.67969 0 0 0 36 40 43 255
1.96835 0.511644 3.90501 0 0 0 109 111 110 255
0.831526 0.568155 4.60388 0 0 0 157 162 160 255
1.08621 0.599986 4.76623 0 0 0 144 149 147 255
-0.533549 0.762369 4.09552 0 0 0 97 117 135 255
0.951358 1.09176 4.66536 0 0 0 29 80 119 255
0.535288 1.2352 4.6741 0 0 0 149 152 151 255
-0.382481 1.42431 4.30003 0 0 0 28 78 122 255
2.39676 1.42211 3.79738 0 0 0 95 95 104 255
2.43955 -0.220272 3.94884 0 0 0 60 61 61 255
-0.304177 0.133423 4.52955 0 0 0 25 66 103 255
0.381366 0.0993967 4.79041 0 0 0 61 83 76 255
2.25509 0.290539 3.70747 0 0 0 140 105 63 255
1.02647 0.282956 4.6993 0 0 0 113 129 108 255
2.117 0.413491 3.72577 0 0 0 45 49 59 255
-0.419091 0.413997 4.14755 0 0 0 129 141 148 255
-0.327502 0.415703 4.24151 0 0 0 149 130 136 255
-0.342427 0.476698 4.23169 0 0 0 147 151 157 255
2.21769 0.554833 3.68601 0 0 0 139 142 142 255
-0.299762 0.743023 4.32515 0 0 0 152 152 152 255
-0.438251 0.877258 4.14397 0 0 0 157 160 159 255
-0.34737 1.17121 4.25304 0 0 0 144 142 144 255
-0.309706 1.44823 4.61964 0 0 0 32 76 114 255
2.41077 -0.191002 3.85935 0 0 0 88 44 45 255
2.4166 -0.119359 3.8677 0 0 0 34 33 35 255
2.39742 -0.0389424 3.83813 0 0 0 35 37 41 255
2.30763 0.00252579 3.88533 0 0 0 128 130 129 255
2.33606 0.0888067 3.92846 0 0 0 186 188 190 255
1.0879 0.146704 4.8441 0 0 0 49 94 67 255
-0.346334 0.168196 4.52645 0 0 0 6 57 103 255
2.08029 0.445833 3.73753 0 0 0 134 137 137 255
1.9457 0.476071 3.8837 0 0 0 133 136 135 255
0.737687 0.685517 4.58601 0 0 0 62 108 73 255
-0.322825 0.707136 4.24706 0 0 0 153 155 157 255
0.805529 0.827442 4.60826 0 0 0 160 162 162 255
2.24503 0.737565 3.6886 0 0 0 54 44 38 255
2.27542 -0.161046 3.83609 0 0 0 140 105 100 255
2.49726 -0.0154353 3.98074 0 0 0 108 115 113 255
2.22741 0.0195973 3.90886 0 0 0 169 166 167 255
2.5518 0.130583 4.03065 0 0 0 89 93 94 255
-0.979627 0.131642 4.14439 0 0 0 47 61 76 255
-3.06944 0.162283 6.42567 0 0 0 49 45 43 255
0.552754 0.243743 4.60422 0 0 0 35 59 57 255
0.935552 0.255512 4.61982 0 0 0 54 87 82 255
2.47171 0.27993 3.73717 0 0 0 89 70 78 255
0.938915 0.335438 4.62779 0 0 0 143 146 143 255
2.36437 0.303981 3.70093 0 0 0 157 124 73 255
-0.909591 0.326841 4.09098 0 0 0 91 102 119 255
-0.462676 0.344194 4.1126 0 0 0 6 68 120 255
1.02984 0.377973 4.69213 0 0 0 107 47 57 255
-0.571387 0.38347 4.06752 0 0 0 45 80 108 255
2.55665 0.375299 3.76473 0 0 0 64 72 75 255
2.48906 0.385452 3.72327 0 0 0 119 128 132 255
2.50966 0.384536 3.73623 0 0 0 128 128 131 255
2.51416 0.428311 3.73432 0 0 0 118 118 118 255
2.54555 0.435754 3.75469 0 0 0 75 63 58 255
-0.978132 0.512352 4.18187 0 0 0 40 65 93 255
1.06402 0.583795 4.73638 0 0 0 111 147 136 255
2.51913 0.486257 3.73361 0 0 0 107 100 94 255
1.10287 0.605635 4.79169 0 0 0 113 113 113 255
1.07536 0.614153 4.7458 0 0 0 126 133 130 255
1.10098 0.65581 4.79112 0 0 0 110 117 115 255
2.4561 0.536371 3.71922 0 0 0 87 97 105 255
1.07491 0.66767 4.75215 0 0 0 116 123 123 255
-0.944832 0.676044 4.13463 0 0 0 49 62 78 255
-0.891105 0.681323 4.12778 0 0 0 74 80 86 255
1.10603 0.755305 4.79743 0 0 0 139 146 145 255
-0.894006 0.72475 4.13149 0 0 0 124 128 129 255
0.867618 0.85549 4.62537 0 0 0 152 159 157 255
2.38319 0.765736 3.6993 0 0 0 107 81 51 255
-0.866757 0.944467 4.10887 0 0 0 42 53 93 255
-0.452532 0.950195 4.13524 0 0 0 77 97 137 255
-0.893616 1.01918 4.1473 0 0 0 56 62 84 255
-0.854408 1.00865 4.12397 0 0 0 147 149 152 255
-0.866346 1.00844 4.07814 0 0 0 138 139 146 255
-0.303722 1.09568 4.63026 0 0 0 65 108 139 255
1.24558 1.406 6.63775 0 0 0 152 148 142 255
1.08858 1.42644 6.36711 0 0 0 141 142 140 255
1.03999 1.17141 4.74757 0 0 0 137 119 47 255
-0.301499 1.20247 4.63185 0 0 0 57 98 126 255
-0.630341 1.20215 4.09006 0 0 0 64 85 114 255
-0.732926 1.20601 3.96642 0 0 0 88 102 117 255
2.47914 1.03967 3.70784 0 0 0 92 91 91 255
2.52684 1.04317 3.74723 0 0 0 79 80 79 255
2.22554 1.06 3.73052 0 0 0 76 82 80 255
2.30035 1.05397 3.70992 0 0 0 131 136 139 255
2.28826 1.06833 3.75465 0 0 0 92 94 94 255
2.43718 1.0456 3.70403 0 0 0 101 98 99 255
-0.682458 1.25622 3.93472 0 0 0 72 91 109 255
-0.735578 1.26744 3.94517 0 0 0 114 123 134 255
2.39788 1.08437 3.7242 0 0 0 75 73 74 255
2.43943 1.08589 3.71656 0 0 0 76 76 76 255
2.44856 1.08973 3.73586 0 0 0 86 90 91 255
-0.625439 1.34709 3.86666 0 0 0 66 103 130 255
2.50181 -0.0152464 3.97471 0 0 0 139 146 144 255
-0.37375 0.332791 4.191 0 0 0 72 111 144 255
1.05071 0.352572 4.70846 0 0 0 87 87 87 255
0.746562 0.360548 4.57306 0 0 0 89 49 51 255
0.904702 0.372085 4.61319 0 0 0 150 130 132 255
2.55245 0.384731 3.75919 0 0 0 121 133 134 255
2.43905 0.387562 3.70583 0 0 0 139 139 139 255
-0.520048 0.42993 4.08562 0 0 0 146 154 157 255
-0.638164 0.452851 4.05018 0 0 0 42 95 86 255
2.51895 0.423414 3.74173 0 0 0 90 64 61 255
2.15194 0.482344 3.70892 0 0 0 40 40 43 255
2.5218 0.496755 3.75071 0 0 0 104 75 62 255
-0.926112 0.577021 4.13147 0 0 0 17 53 94 255
2.44614 0.53761 3.71667 0 0 0 62 65 69 255
-0.943376 0.68145 4.13085 0 0 0 35 51 66 255
-0.895319 0.737267 4.13169 0 0 0 118 122 123 255
2.33803 0.758952 3.68309 0 0 0 99 76 48 255
-0.874112 1.04098 4.07493 0 0 0 34 55 89 255
1.10093 1.42421 6.38893 0 0 0 142 144 140 255
-0.732158 1.26055 3.94354 0 0 0 121 131 139 255
-0.680015 1.26022 3.93705 0 0 0 53 76 103 255
-0.624788 1.27566 3.94498 0 0 0 129 131 135 255
-0.641062 1.34635 3.8669 0 0 0 97 130 147 255
2.50106 -0.0148991 4.01091 0 0 0 139 146 144 255
2.4865 0.0440747 4.02756 0 0 0 88 88 92 255
2.07767 0.14369 3.91347 0 0 0 50 52 55 255
-0.974564 0.137726 4.15197 0 0 0 32 47 67 255
2.32414 0.263396 3.70442 0 0 0 147 112 61 255
2.47385 0.287822 3.73814 0 0 0 81 81 85 255
-0.957029 0.292118 4.1225 0 0 0 39 63 82 255
1.00085 0.366296 4.67475 0 0 0 113 74 78 255
-0.304698 0.356645 4.26298 0 0 0 71 112 142 255
-0.565679 0.367608 4.06939 0 0 0 84 125 160 255
2.4345 0.384506 3.70319 0 0 0 131 133 136 255
2.49973 0.389815 3.72903 0 0 0 135 139 140 255
2.13361 0.42728 3.71424 0 0 0 132 140 142 255
-0.968947 0.524705 4.16178 0 0 0 32 67 94 255
-0.363264 0.516054 4.21612 0 0 0 76 112 141 255
2.39856 0.456105 3.67873 0 0 0 105 81 65 255
2.52716 0.502425 3.75101 0 0 0 40 39 40 255
-0.809158 0.572509 4.08449 0 0 0 30 53 77 255
2.43474 0.554329 3.70499 0 0 0 142 144 146 255
2.41876 0.548157 3.69405 0 0 0 143 146 145 255
-0.950631 0.670475 4.13845 0 0 0 74 78 86 255
-0.420269 0.700887 4.16686 0 0 0 42 59 81 255
-0.495756 0.720583 4.11557 0 0 0 46 55 92 255
0.934844 0.785747 4.63498 0 0 0 153 160 158 255
-0.872105 0.917622 4.12209 0 0 0 31 52 90 255
2.34754 0.746337 3.68574 0 0 0 99 64 32 255
-0.868328 0.939952 4.11766 0 0 0 38 54 91 255
0.873082 1.06757 4.62565 0 0 0 33 95 134 255
1.11016 1.42415 6.36509 0 0 0 142 144 140 255
-0.595299 1.15575 4.11908 0 0 0 4 105 150 255
-0.778601 1.16219 4.00699 0 0 0 141 143 144 255
-0.630952 1.20357 4.08708 0 0 0 60 88 126 255
1.14083 1.39729 5.08835 0 0 0 77 108 91 255
-0.572781 1.26965 3.99378 0 0 0 50 73 95 255
-0.624995 1.27022 3.94518 0 0 0 127 126 132 255
2.28139 -0.205576 3.86766 0 0 0 43 43 43 255
2.38916 -0.205112 3.87223 0 0 0 44 44 44 255
2.1356 -0.193502 3.9717 0 0 0 81 54 55 255
2.48201 -0.0904143 3.91939 0 0 0 49 51 53 255
-1.00681 -0.149308 4.20314 0 0 0 159 161 162 255
2.48515 -0.0494597 4.02429 0 0 0 41 47 46 255
2.19527 0.0275505 3.91621 0 0 0 112 112 112 255
0.37998 0.117596 4.78345 0 0 0 38 68 51 255
-0.670443 0.274118 4.04461 0 0 0 76 71 70 255
0.777265 0.356706 4.57273 0 0 0 150 142 143 255
-0.856552 0.380099 4.09429 0 0 0 137 140 135 255
-0.340291 0.381444 4.22887 0 0 0 116 85 104 255
0.884169 0.409262 4.60582 0 0 0 191 119 128 255
2.19149 0.424501 3.69548 0 0 0 138 140 142 255
2.28341 0.404036 3.67354 0 0 0 140 147 149 255
-0.899693 0.4722 4.14758 0 0 0 156 145 106 255
2.50118 0.43453 3.72393 0 0 0 133 140 142 255
2.41752 0.437436 3.68572 0 0 0 38 39 39 255
2.20542 0.51296 3.68914 0 0 0 94 66 58 255
2.41696 0.496966 3.68693 0 0 0 36 40 43 255
0.548037 0.627026 4.63618 0 0 0 149 153 152 255
2.28432 0.538103 3.67861 0 0 0 35 37 41 255
2.4137 0.548386 3.69145 0 0 0 143 146 145 255
2.4858 0.550543 3.72757 0 0 0 98 114 123 255
-0.462239 0.882909 4.1287 0 0 0 158 161 160 255
2.40677 0.777381 3.69855 0 0 0 90 85 75 255
-0.830334 0.980652 4.10998 0 0 0 152 154 155 255
-0.872633 1.05061 4.08501 0 0 0 26 57 96 255
-0.843995 1.13473 4.05341 0 0 0 32 79 116 255
1.06005 1.19687 4.76892 0 0 0 157 137 70 255
2.48042 1.06802 3.74606 0 0 0 91 91 92 255
-0.623088 1.27136 3.94599 0 0 0 127 126 132 255
-0.572184 1.27739 3.99736 0 0 0 28 74 114 255
-0.291673 1.42896 4.66068 0 0 0 52 86 118 255
0.856409 1.3836 4.64198 0 0 0 56 98 75 255
2.14893 0.0359295 3.95087 0 0 0 88 89 89 255
2.34561 0.113062 3.84252 0 0 0 252 250 252 255
-0.957716 0.103526 4.1952 0 0 0 147 149 148 255
-0.979965 0.162431 4.18588 0 0 0 32 60 98 255
-0.92381 0.29318 4.11343 0 0 0 7 51 91 255
2.40437 0.4075 3.68546 0 0 0 129 136 138 255
2.41473 0.502743 3.68685 0 0 0 36 40 43 255
2.17299 0.522653 3.70192 0 0 0 111 122 127 255
2.40118 0.533526 3.68454 0 0 0 143 145 149 255
0.771736 0.664824 4.58586 0 0 0 65 107 68 255
-0.528 0.721935 4.09821 0 0 0 65 67 80 255
-0.72279 0.841934 4.07573 0 0 0 35 56 97 255
-0.391828 0.86036 4.19265 0 0 0 143 152 154 255
-0.810842 0.95328 4.10387 0 0 0 154 157 156 255
-0.416294 0.9952 4.15936 0 0 0 125 148 165 255
2.33034 0.831428 3.68132 0 0 0 93 80 63 255
1.11747 1.41683 6.37527 0 0 0 138 137 132 255
-0.675173 1.12066 3.99788 0 0 0 28 91 134 255
1.05466 1.22399 4.76635 0 0 0 152 126 68 255
0.448148 1.32956 4.75216 0 0 0 66 99 77 255
-0.673749 1.30006 3.92326 0 0 0 28 78 123 255
0.817582 1.37263 4.61668 0 0 0 53 92 67 255
-0.696101 1.3615 3.86722 0 0 0 62 87 119 255
2.08788 0.427479 3.74139 0 0 0 125 125 123 255
-0.561466 0.634969 4.09798 0 0 0 154 156 160 255
-0.433539 0.813136 4.15293 0 0 0 157 159 161 255
2.2276 0.737257 3.68873 0 0 0 76 61 41 255
1.11125 1.37219 5.1069 0 0 0 69 105 81 255
2.47319 -0.223237 4.05181 0 0 0 86 88 88 255
-0.863792 -0.152514 4.23969 0 0 0 215 214 221 255
2.35492 0.136265 3.94533 0 0 0 252 252 252 255
2.23641 0.313499 3.70258 0 0 0 78 41 7 255
2.65944 0.43928 4.02025 0 0 0 59 64 67 255
2.44261 0.405764 3.70978 0 0 0 78 66 55 255
-0.911918 0.907257 4.15793 0 0 0 67 64 74 255
1.94248 0.837232 4.05365 0 0 0 132 131 127 255
1.62431 1.19663 5.46126 0 0 0 92 89 81 255
1.9439 0.873246 4.03861 0 0 0 157 162 160 255
