ply
format ascii 1.0
comment VCGLIB generated
element vertex 1030
property float x
property float y
property float z
property float nx
property float ny
property float nz
property uchar red
property uchar green
property uchar blue
property uchar alpha
element face 0
property list uchar int vertex_indices
end_header
2.31852 -0.212432 3.91789 0 0 0 44 43 46 255
2.35146 -0.205512 3.91506 0 0 0 163 165 169 255
2.18532 -0.21517 3.92862 0 0 0 44 45 46 255
2.49455 -0.190948 4.04873 0 0 0 89 58 60 255
2.44005 -0.0754263 3.87888 0 0 0 75 82 88 255
2.52387 0.39982 3.7517 0 0 0 48 34 29 255
-0.41896 0.315198 4.14126 0 0 0 9 58 110 255
2.40842 0.441854 3.68183 0 0 0 62 38 26 255
2.13556 0.50523 3.72122 0 0 0 132 145 149 255
2.44404 0.55215 3.71914 0 0 0 136 142 146 255
-0.970679 0.494417 4.19695 0 0 0 141 131 98 255
-2.9315 0.682746 5.41581 0 0 0 144 144 144 255
-0.38477 0.742508 4.19056 0 0 0 41 56 86 255
-0.384937 0.771551 4.19283 0 0 0 71 88 114 255
-2.9431 1.06564 5.3322 0 0 0 129 141 139 255
-0.311691 1.00275 4.59527 0 0 0 64 100 126 255
2.62492 0.908308 3.90898 0 0 0 40 41 45 255
-2.72587 1.39249 5.1161 0 0 0 103 114 115 255
2.53087 1.06831 3.75973 0 0 0 95 100 101 255
-0.876048 1.46142 4.16673 0 0 0 70 99 124 255
2.39382 -0.208975 3.9102 0 0 0 41 41 43 255
2.29107 -0.21534 3.88903 0 0 0 46 46 46 255
2.12281 -0.174383 3.96541 0 0 0 107 57 55 255
1.05307 0.046275 5.1238 0 0 0 132 132 134 255
-1.02637 0.0829464 4.22212 0 0 0 147 149 150 255
2.63137 0.352751 4.11717 0 0 0 41 46 51 255
2.10428 0.381137 3.71379 0 0 0 70 71 76 255
2.34028 0.481911 3.67508 0 0 0 111 107 102 255
2.52482 0.525812 3.75166 0 0 0 62 46 41 255
-1.02492 0.455966 4.23867 0 0 0 140 125 90 255
-2.93308 0.852869 5.35616 0 0 0 141 143 143 255
-0.287044 0.829588 4.33666 0 0 0 47 62 89 255
0.542964 0.916038 4.69477 0 0 0 148 155 155 255
-1.31715 1.00544 4.42614 0 0 0 26 30 31 255
-1.26465 1.03884 4.38661 0 0 0 38 41 41 255
-0.896233 1.03736 4.15816 0 0 0 94 97 103 255
2.46474 -0.0550988 4.06005 0 0 0 52 51 48 255
2.36444 0.013729 3.92465 0 0 0 188 186 187 255
2.13736 0.0155204 3.9633 0 0 0 109 109 109 255
2.40136 0.11024 3.96439 0 0 0 182 180 180 255
2.35455 0.117922 3.95311 0 0 0 252 252 252 255
2.10209 0.141552 3.89281 0 0 0 78 77 78 255
1.08598 0.364235 4.7414 0 0 0 143 147 147 255
2.54894 0.401658 3.75802 0 0 0 121 133 138 255
2.31845 0.406943 3.67568 0 0 0 48 42 42 255
-0.372335 0.405137 4.18438 0 0 0 148 152 154 255
1.10077 0.629554 4.77886 0 0 0 137 148 145 255
-0.804929 0.562735 4.09591 0 0 0 18 64 109 255
-0.296424 0.673712 4.3322 0 0 0 149 152 151 255
-0.691648 0.709798 4.06252 0 0 0 30 55 104 255
2.41646 0.763818 3.6971 0 0 0 92 83 69 255
1.07232 1.04822 4.76851 0 0 0 129 138 122 255
-0.818847 0.941622 4.11239 0 0 0 150 152 154 255
-0.843892 1.02457 4.12969 0 0 0 28 54 90 255
-0.916021 1.09695 4.17913 0 0 0 35 81 118 255
-0.816455 1.15925 4.13586 0 0 0 30 87 130 255
-0.348189 1.22863 4.24685 0 0 0 132 128 127 255
0.429448 1.35181 4.79581 0 0 0 74 99 82 255
-0.320895 1.40668 4.67706 0 0 0 38 88 121 255
2.16687 -0.0481729 3.95062 0 0 0 35 41 40 255
-0.345356 -0.186434 4.48963 0 0 0 164 169 174 255
1.03121 0.136095 5.18317 0 0 0 56 92 71 255
2.06497 0.171527 3.88954 0 0 0 78 72 71 255
-0.351461 0.136669 4.49166 0 0 0 8 53 99 255
-0.831009 0.214537 4.10612 0 0 0 7 51 104 255
2.38482 0.422711 3.67593 0 0 0 137 143 146 255
-0.344066 0.414124 4.21616 0 0 0 149 147 149 255
2.36366 0.513247 3.67671 0 0 0 64 71 83 255
2.15834 0.538952 3.70745 0 0 0 91 78 69 255
-0.769189 0.558466 4.08023 0 0 0 17 65 114 255
2.02123 0.658847 3.91832 0 0 0 39 45 50 255
-0.687367 0.673489 4.05918 0 0 0 26 55 104 255
-0.917602 0.71103 4.16133 0 0 0 125 122 127 255
-0.69381 0.914462 4.09847 0 0 0 158 161 161 255
-1.68374 1.09401 4.71451 0 0 0 24 28 31 255
2.03611 0.920824 3.89709 0 0 0 45 52 51 255
-0.863016 1.09652 4.189 0 0 0 26 87 130 255
2.23341 -0.210452 3.91246 0 0 0 111 110 113 255
2.24292 -0.18989 3.86874 0 0 0 43 47 49 255
2.31403 -0.167593 3.8901 0 0 0 144 80 80 255
2.45718 -0.0673361 3.97799 0 0 0 70 76 81 255
2.0974 -0.0812466 3.95652 0 0 0 134 136 134 255
2.19818 0.120634 3.90313 0 0 0 187 191 194 255
2.19446 0.134889 3.89895 0 0 0 193 197 200 255
0.920989 0.319597 4.62354 0 0 0 137 139 128 255
2.5496 0.261869 3.826 0 0 0 70 57 63 255
2.48859 0.272355 3.73836 0 0 0 69 34 45 255
2.50726 0.288272 3.7474 0 0 0 55 60 68 255
-0.310072 0.335222 4.27128 0 0 0 15 70 104 255
1.08744 0.447862 4.76817 0 0 0 83 95 75 255
2.5172 0.30603 3.76101 0 0 0 46 45 52 255
-0.557988 0.605182 4.05682 0 0 0 46 54 88 255
-0.77984 0.843276 4.05282 0 0 0 105 109 110 255
2.69252 0.792804 4.0364 0 0 0 107 99 96 255
0.923361 1.18242 4.65729 0 0 0 125 116 79 255
2.64735 0.873341 3.92197 0 0 0 113 125 128 255
1.12148 1.32688 5.09285 0 0 0 93 119 89 255
2.6484 1.03516 3.95388 0 0 0 92 92 95 255
-0.47975 1.40896 4.1087 0 0 0 78 113 144 255
2.37701 -0.144728 3.86452 0 0 0 180 91 99 255
-1.31796 -0.0723168 4.3848 0 0 0 20 21 24 255
2.19925 0.132673 3.90031 0 0 0 225 229 232 255
-0.339824 0.338017 4.22408 0 0 0 100 132 160 255
0.826435 0.405021 4.59224 0 0 0 119 43 47 255
2.49298 0.309544 3.74153 0 0 0 123 124 131 255
-1.20665 0.421296 4.36868 0 0 0 113 96 82 255
2.6492 0.443938 4.01639 0 0 0 45 44 46 255
2.63619 0.892095 3.90727 0 0 0 36 41 46 255
2.13246 -0.226506 3.98944 0 0 0 141 143 143 255
1.08944 0.0718983 5.1111 0 0 0 106 108 107 255
2.19703 0.133806 3.89964 0 0 0 225 229 232 255
0.859339 0.391047 4.59797 0 0 0 121 31 39 255
2.39118 0.287772 3.71372 0 0 0 55 54 55 255
2.65106 0.459229 4.03392 0 0 0 50 48 50 255
2.52069 0.415422 3.74897 0 0 0 52 42 38 255
-0.91449 0.607331 4.14266 0 0 0 138 134 136 255
2.69135 0.792941 4.03206 0 0 0 107 99 96 255
-0.90559 1.36884 4.20014 0 0 0 58 95 128 255
-0.683695 1.31539 4.07933 0 0 0 111 122 136 255
2.36853 -0.142103 3.86356 0 0 0 211 114 122 255
2.44603 -0.0754855 3.89439 0 0 0 82 81 86 255
2.49397 -0.0570511 4.02737 0 0 0 61 61 61 255
2.04926 0.164448 3.96631 0 0 0 52 56 59 255
-0.331031 0.384184 4.24289 0 0 0 140 116 124 255
2.41695 0.397309 3.688 0 0 0 134 138 141 255
2.64888 0.454337 4.02761 0 0 0 46 47 49 255
1.00579 0.647762 4.71873 0 0 0 140 154 154 255
2.55542 0.460046 3.76096 0 0 0 86 77 76 255
1.10762 0.952091 5.0801 0 0 0 127 131 83 255
2.27448 0.648638 3.68228 0 0 0 82 72 56 255
-0.85785 1.18412 4.14112 0 0 0 50 95 131 255
-0.771872 1.1751 4.11037 0 0 0 38 91 133 255
2.62981 0.893108 3.9013 0 0 0 35 41 46 255
0.798864 1.26604 4.61587 0 0 0 77 110 82 255
2.46267 -0.219307 4.01709 0 0 0 53 58 66 255
1.10343 0.376883 4.76223 0 0 0 143 152 124 255
2.23081 0.269293 3.71161 0 0 0 126 88 47 255
2.6479 0.333765 4.04035 0 0 0 46 48 49 255
2.51041 0.447838 3.73383 0 0 0 136 138 143 255
-0.608512 0.603976 4.07981 0 0 0 145 149 150 255
2.21708 0.495612 3.68696 0 0 0 47 40 40 255
0.958916 0.774456 4.65276 0 0 0 151 158 155 255
-0.605202 0.840612 4.07646 0 0 0 161 162 161 255
2.233 0.686171 3.68716 0 0 0 83 73 58 255
0.444665 1.13059 4.76419 0 0 0 81 109 87 255
-0.512209 1.13433 4.11539 0 0 0 1 96 146 255
1.13684 1.37287 5.09934 0 0 0 92 111 85 255
0.379126 1.38676 4.8567 0 0 0 92 111 103 255
-0.580054 1.34136 4.12128 0 0 0 61 72 95 255
0.411952 1.40657 4.82364 0 0 0 78 100 89 255
-0.850453 1.40141 4.17621 0 0 0 42 87 126 255
-0.381755 1.35457 4.24503 0 0 0 25 73 116 255
-0.330298 1.42863 4.28498 0 0 0 24 75 122 255
2.45385 -0.172858 3.98259 0 0 0 112 47 44 255
-0.308101 -0.188011 4.49858 0 0 0 159 162 165 255
2.46005 -0.0440939 3.99192 0 0 0 30 34 37 255
2.13878 -0.0396082 3.9559 0 0 0 39 41 43 255
2.34892 0.107769 3.94793 0 0 0 231 230 235 255
-0.353508 0.156692 4.60039 0 0 0 22 56 94 255
2.53947 0.167251 4.01891 0 0 0 40 46 49 255
2.05207 0.176776 3.96518 0 0 0 49 55 60 255
2.00042 0.363383 3.92488 0 0 0 39 46 44 255
2.42432 0.461794 3.6797 0 0 0 34 36 40 255
2.51491 0.466808 3.73037 0 0 0 138 140 144 255
-0.306844 0.794283 4.29653 0 0 0 77 89 107 255
1.99635 0.660231 3.95831 0 0 0 41 48 50 255
-0.673685 0.913561 4.10318 0 0 0 152 157 161 255
0.920884 1.09618 4.65313 0 0 0 102 121 85 255
1.98378 0.934882 3.96035 0 0 0 59 61 63 255
-0.363614 1.22764 4.23952 0 0 0 147 134 130 255
2.58885 0.906625 3.88636 0 0 0 33 34 40 255
-0.287298 1.36786 4.60496 0 0 0 51 91 120 255
0.419003 1.40638 4.81846 0 0 0 79 101 87 255
1.10326 1.3193 4.6883 0 0 0 57 102 75 255
-0.601987 1.32112 4.1177 0 0 0 133 133 140 255
-0.360287 1.35247 4.27693 0 0 0 17 74 121 255
2.10913 -0.161772 3.94759 0 0 0 140 138 133 255
2.10536 -0.0549361 3.94893 0 0 0 80 73 69 255
2.35104 0.13727 3.87366 0 0 0 253 253 255 255
-0.326573 0.324669 4.24097 0 0 0 13 78 126 255
-0.895073 0.360151 4.09073 0 0 0 42 71 98 255
-0.976918 0.506555 4.1706 0 0 0 51 68 90 255
-0.509374 0.608062 4.12735 0 0 0 130 132 131 255
-0.563539 0.66384 4.0602 0 0 0 66 77 95 255
1.96933 0.541833 3.89806 0 0 0 95 98 97 255
1.31114 1.42505 6.73134 0 0 0 144 141 133 255
0.547426 0.907358 4.65105 0 0 0 89 135 118 255
1.46618 1.47786 6.68537 0 0 0 95 90 80 255
-0.915872 0.910694 4.15795 0 0 0 75 83 106 255
0.860262 1.04033 4.62689 0 0 0 84 113 132 255
0.550502 0.354981 4.61636 0 0 0 124 127 119 255
-0.896794 0.352773 4.09004 0 0 0 35 67 95 255
-0.31636 0.506652 4.25839 0 0 0 10 74 125 255
-0.368415 0.554686 4.21592 0 0 0 91 122 157 255
2.13568 -0.130134 3.94278 0 0 0 52 41 41 255
2.11087 -0.0553503 3.9467 0 0 0 61 61 59 255
-0.973889 0.14739 4.1502 0 0 0 28 49 64 255
2.54553 0.129293 4.00817 0 0 0 97 96 97 255
-0.363309 0.289388 4.20695 0 0 0 25 77 110 255
-0.324963 0.349385 4.24024 0 0 0 125 136 154 255
-0.311438 0.51624 4.26917 0 0 0 8 69 111 255
2.36015 0.431662 3.66945 0 0 0 81 86 96 255
1.93571 0.598744 3.99797 0 0 0 171 174 173 255
1.45483 1.48953 6.68454 0 0 0 91 88 81 255
-0.930526 0.946051 4.1801 0 0 0 60 78 95 255
2.35439 0.724263 3.70778 0 0 0 110 85 59 255
2.28585 0.76885 3.70526 0 0 0 103 79 55 255
2.28417 -0.201264 3.87818 0 0 0 34 34 34 255
2.54607 0.158169 4.02517 0 0 0 45 47 49 255
-0.860796 0.352587 4.08012 0 0 0 14 62 105 255
1.01417 0.379835 4.68272 0 0 0 137 67 79 255
1.02965 0.659333 4.7313 0 0 0 81 94 91 255
2.55775 0.395484 3.76003 0 0 0 118 131 136 255
1.13546 1.40168 6.31776 0 0 0 115 112 107 255
-0.62813 1.103 4.11262 0 0 0 79 127 150 255
2.35534 0.739482 3.70406 0 0 0 115 83 49 255
2.37309 0.0101028 3.86453 0 0 0 141 142 143 255
2.34991 0.114891 3.86813 0 0 0 253 254 255 255
2.23517 0.297882 3.7108 0 0 0 96 69 47 255
1.08725 0.670426 4.77423 0 0 0 126 136 131 255
2.4015 0.353291 3.647 0 0 0 31 37 42 255
0.586134 0.923057 4.63773 0 0 0 154 160 158 255
-0.93269 0.941002 4.17545 0 0 0 95 109 122 255
-0.499386 1.06668 4.12236 0 0 0 99 127 152 255
2.39876 0.687668 3.71362 0 0 0 114 90 64 255
-0.409468 1.06735 4.19313 0 0 0 0 103 147 255
2.2346 0.713364 3.68791 0 0 0 89 67 47 255
-0.307901 1.16205 4.26359 0 0 0 83 86 94 255
2.44428 -0.19901 3.97936 0 0 0 38 40 40 255
2.31671 -0.152794 3.85022 0 0 0 137 84 81 255
2.43701 -0.0476481 3.8758 0 0 0 40 37 39 255
2.32065 0.0199787 3.87191 0 0 0 157 155 155 255
2.34723 0.272536 3.70348 0 0 0 120 94 63 255
1.10369 1.35585 6.33219 0 0 0 147 146 143 255
1.14298 0.0769011 4.98579 0 0 0 91 97 91 255
0.764326 0.229601 4.57295 0 0 0 80 112 102 255
0.405041 0.337956 4.72165 0 0 0 86 65 58 255
-0.575499 0.314801 4.05898 0 0 0 86 94 111 255
0.530542 0.618623 4.64064 0 0 0 129 146 140 255
-0.955562 0.693922 4.15467 0 0 0 46 49 73 255
1.86718 1.38841 6.73709 0 0 0 114 108 104 255
-0.886543 0.715987 4.10987 0 0 0 106 111 112 255
1.92553 0.881339 4.10016 0 0 0 99 97 91 255
1.85501 1.46985 6.73611 0 0 0 96 94 93 255
-0.832611 0.756844 4.10352 0 0 0 124 127 126 255
-0.899366 0.775099 4.11383 0 0 0 114 123 126 255
-0.832128 0.802156 4.08589 0 0 0 108 112 113 255
-0.805855 0.839872 4.07295 0 0 0 83 88 99 255
-0.887875 0.957048 4.10518 0 0 0 45 74 108 255
-0.544071 0.98241 4.09447 0 0 0 71 90 132 255
-0.884592 1.00486 4.11482 0 0 0 90 98 102 255
-0.655691 1.01058 4.05585 0 0 0 86 102 129 255
-0.92532 1.02003 4.12305 0 0 0 142 141 146 255
-0.632402 1.16398 4.05373 0 0 0 144 151 175 255
-0.829597 1.15893 4.02387 0 0 0 108 134 157 255
-0.618615 1.1883 4.04539 0 0 0 58 84 121 255
-0.761179 1.18058 4.01158 0 0 0 34 89 130 255
-0.724043 1.20008 4.03191 0 0 0 112 97 112 255
-0.810733 1.204 4.02693 0 0 0 101 103 110 255
1.13571 0.0807903 4.99154 0 0 0 80 104 94 255
0.556057 0.228683 4.6079 0 0 0 40 80 59 255
1.96076 0.358605 3.99776 0 0 0 60 60 60 255
-0.891803 0.728307 4.1132 0 0 0 85 92 94 255
-0.898527 0.763933 4.11459 0 0 0 79 84 85 255
1.30509 1.28238 5.78283 0 0 0 111 107 99 255
0.799749 1.1485 4.60215 0 0 0 87 119 80 255
-0.923357 1.01787 4.1215 0 0 0 142 141 146 255
0.499964 1.26298 4.69212 0 0 0 71 100 72 255
-0.632511 1.15272 4.05418 0 0 0 138 152 182 255
-0.82853 1.16649 4.0219 0 0 0 127 141 153 255
-0.780757 1.18055 4.05305 0 0 0 29 85 131 255
-0.652086 1.20331 4.04206 0 0 0 152 159 164 255
-0.759475 1.28354 3.99366 0 0 0 73 87 113 255
1.12813 0.0954669 4.99264 0 0 0 71 101 84 255
-0.4119 0.428233 4.15381 0 0 0 92 105 126 255
1.97817 0.538557 3.92442 0 0 0 123 134 133 255
-0.33422 0.491449 4.25558 0 0 0 135 145 153 255
-0.554261 0.585325 4.0643 0 0 0 158 158 160 255
-0.978952 0.683467 4.17114 0 0 0 46 49 73 255
1.8748 1.39847 6.7383 0 0 0 112 113 113 255
0.482701 0.915476 4.69146 0 0 0 140 147 147 255
-0.888846 0.729206 4.11159 0 0 0 85 92 94 255
-0.317448 0.798421 4.27684 0 0 0 155 152 157 255
1.85808 1.46576 6.73461 0 0 0 84 82 80 255
-0.811095 0.83498 4.07787 0 0 0 83 88 99 255
-0.844614 1.0012 4.10644 0 0 0 149 152 152 255
-0.582366 1.14061 4.06029 0 0 0 10 109 146 255
-0.70782 1.16433 4.01512 0 0 0 65 110 149 255
-0.828237 1.17239 4.02093 0 0 0 138 142 145 255
-0.625772 1.1927 4.0533 0 0 0 58 84 121 255
-0.764974 1.28864 3.99321 0 0 0 70 80 97 255
1.12063 0.0927182 4.97847 0 0 0 61 101 85 255
-0.332718 0.129789 4.61963 0 0 0 38 70 103 255
1.96077 0.348568 4.01324 0 0 0 82 80 78 255
0.812716 0.559562 4.6088 0 0 0 156 159 158 255
-0.338219 0.499051 4.25681 0 0 0 104 118 128 255
-0.630357 0.596978 4.06439 0 0 0 157 158 159 255
-0.456609 0.632704 4.13411 0 0 0 158 161 160 255
-0.747407 0.655367 4.05438 0 0 0 149 150 150 255
1.86974 1.38213 6.73033 0 0 0 153 147 143 255
1.72347 1.46928 6.71585 0 0 0 103 101 97 255
1.31127 1.28968 5.84015 0 0 0 97 94 86 255
-0.386915 1.01336 4.21362 0 0 0 136 151 155 255
-0.847563 0.976776 4.0836 0 0 0 152 152 152 255
-0.555788 1.12983 4.06473 0 0 0 6 106 149 255
-0.757123 1.16688 4.01177 0 0 0 27 83 130 255
-0.8566 1.18329 4.0621 0 0 0 137 141 144 255
2.14053 0.0290166 4.01899 0 0 0 94 94 94 255
2.04896 0.12773 4.03985 0 0 0 150 149 147 255
1.05561 0.298264 4.72678 0 0 0 127 141 124 255
0.765023 0.696625 4.61788 0 0 0 69 112 75 255
-0.74492 0.635443 4.05146 0 0 0 157 157 157 255
-0.323482 0.786775 4.25886 0 0 0 124 126 128 255
-0.422168 0.857033 4.16773 0 0 0 160 162 163 255
-0.40817 1.01429 4.19434 0 0 0 112 137 153 255
2.12827 -0.166435 4.01394 0 0 0 118 75 70 255
1.09246 0.151156 4.97164 0 0 0 58 95 67 255
1.89645 0.765483 4.0909 0 0 0 160 160 158 255
0.304768 0.0809998 4.98918 0 0 0 94 102 92 255
0.584227 0.231452 4.59258 0 0 0 76 111 97 255
-1.04223 0.153048 4.25939 0 0 0 53 73 96 255
0.890406 0.365693 4.61209 0 0 0 154 147 147 255
-0.733228 0.357953 4.0459 0 0 0 36 90 131 255
0.385277 0.589887 4.73801 0 0 0 98 114 114 255
-0.623468 0.492818 4.05055 0 0 0 99 126 133 255
-0.99937 0.641729 4.1926 0 0 0 88 88 104 255
-0.978293 0.647512 4.18506 0 0 0 91 89 91 255
-0.957014 0.669311 4.16662 0 0 0 139 141 145 255
1.91818 1.36659 6.65253 0 0 0 119 113 108 255
2.0876 1.42375 6.6192 0 0 0 132 131 127 255
1.94791 1.44098 6.65769 0 0 0 114 110 109 255
1.67503 1.44655 6.66347 0 0 0 115 111 106 255
1.16495 1.12173 4.948 0 0 0 140 148 145 255
-2.83646 1.17858 5.48228 0 0 0 110 101 98 255
-1.00621 1.03825 4.2299 0 0 0 127 129 131 255
-2.64023 1.20108 5.0478 0 0 0 94 107 112 255
-0.920214 1.20946 4.16818 0 0 0 65 108 146 255
-0.369397 1.41202 4.23322 0 0 0 141 144 158 255
0.306447 0.0820752 4.99835 0 0 0 94 102 92 255
-3.19397 0.156811 6.5269 0 0 0 42 38 35 255
-1.00627 0.611997 4.19148 0 0 0 135 134 134 255
-1.00236 0.724431 4.19617 0 0 0 134 139 142 255
-1.00473 0.764235 4.2009 0 0 0 139 139 139 255
1.93394 1.44453 6.66413 0 0 0 117 113 112 255
0.950625 1.00705 4.6465 0 0 0 48 110 137 255
-1.01928 1.04417 4.24827 0 0 0 90 102 115 255
-2.58863 1.18446 4.96456 0 0 0 118 118 119 255
0.497316 0.62824 4.64995 0 0 0 42 87 69 255
-0.994931 0.578958 4.19441 0 0 0 123 134 140 255
1.91421 1.37108 6.66952 0 0 0 123 119 113 255
2.13293 1.3753 6.37768 0 0 0 123 122 116 255
1.1687 1.15229 4.94365 0 0 0 149 155 149 255
0.803581 1.13123 4.58542 0 0 0 89 121 78 255
-0.959445 0.927952 4.17398 0 0 0 71 78 94 255
-2.83437 1.17129 5.49253 0 0 0 113 110 106 255
0.441684 1.2686 4.75502 0 0 0 117 125 120 255
-0.69476 1.176 4.09058 0 0 0 97 128 150 255
-0.329684 0.653772 4.2509 0 0 0 140 153 172 255
0.477332 0.901432 4.70105 0 0 0 135 145 145 255
2.10727 1.40553 6.60821 0 0 0 116 111 98 255
2.13524 1.40494 6.56883 0 0 0 125 122 117 255
-1.01839 0.821063 4.19586 0 0 0 19 62 95 255
-0.669738 0.814138 4.07865 0 0 0 161 163 162 255
0.916058 -0.246794 4.90266 0 0 0 226 225 230 255
0.342146 0.117499 4.99266 0 0 0 59 91 74 255
-0.886076 0.633641 4.12039 0 0 0 150 153 152 255
-0.947301 0.709699 4.15477 0 0 0 33 53 96 255
1.20429 1.00193 4.9664 0 0 0 170 175 173 255
2.11294 1.41014 6.60304 0 0 0 121 118 110 255
-0.297306 0.865888 4.35229 0 0 0 21 59 103 255
-1.01143 0.827244 4.19439 0 0 0 23 54 90 255
-1.02213 -0.157501 4.26342 0 0 0 160 164 167 255
1.04319 0.160716 4.77465 0 0 0 61 100 69 255
0.351943 0.124132 4.93732 0 0 0 56 92 71 255
-0.330538 0.186293 4.41617 0 0 0 11 64 110 255
-1.06898 0.233917 4.33604 0 0 0 9 51 90 255
-0.330313 0.241204 4.29853 0 0 0 10 69 117 255
-0.310639 0.588644 4.3634 0 0 0 20 76 112 255
-0.840892 0.685874 4.10276 0 0 0 154 156 155 255
0.668451 0.229928 4.57469 0 0 0 103 139 132 255
-2.84908 0.10822 5.29223 0 0 0 79 86 83 255
-1.01874 0.195359 4.26184 0 0 0 63 85 105 255
-1.01774 0.197561 4.25855 0 0 0 63 85 105 255
0.383115 0.313618 4.72021 0 0 0 80 110 80 255
0.482232 0.343745 4.65818 0 0 0 140 136 131 255
0.503024 0.361728 4.63871 0 0 0 95 47 45 255
0.498258 0.506529 4.65118 0 0 0 117 141 135 255
-0.704633 0.386339 4.04521 0 0 0 98 119 109 255
-3.12989 0.356047 4.50507 0 0 0 87 93 108 255
-3.06709 0.356748 4.49425 0 0 0 66 76 90 255
-0.999595 0.485748 4.17842 0 0 0 93 100 123 255
-3.06359 0.505805 4.49034 0 0 0 90 96 111 255
-2.95136 0.516297 4.52844 0 0 0 37 38 45 255
-2.93131 0.52976 4.57397 0 0 0 27 17 22 255
-3.0417 0.514681 4.51252 0 0 0 75 85 106 255
-3.1166 0.517303 4.49188 0 0 0 92 95 119 255
-2.93697 0.533244 4.55099 0 0 0 18 16 24 255
-1.02037 0.596591 4.21568 0 0 0 108 111 119 255
-2.93034 0.54985 4.57931 0 0 0 60 58 61 255
-2.94223 0.549775 4.53351 0 0 0 82 78 88 255
0.918466 0.788795 4.63179 0 0 0 127 159 145 255
-3.02218 0.56616 4.51712 0 0 0 78 85 94 255
-0.49402 0.656145 4.1111 0 0 0 104 106 120 255
-3.05005 0.560063 4.36823 0 0 0 91 99 113 255
-3.07966 0.578409 4.51081 0 0 0 72 82 92 255
-0.98036 0.728546 4.17718 0 0 0 126 135 139 255
-2.71561 0.828738 5.08697 0 0 0 31 73 50 255
0.354823 1.04197 4.90803 0 0 0 108 123 118 255
-0.993462 0.855022 4.18227 0 0 0 129 134 156 255
-2.78776 0.953059 5.06566 0 0 0 107 125 122 255
-2.80574 0.983756 5.0679 0 0 0 33 36 37 255
-2.98417 1.14608 5.78202 0 0 0 40 41 38 255
-0.857205 0.91732 4.11837 0 0 0 41 64 103 255
-2.81875 1.01845 5.07861 0 0 0 91 94 94 255
-2.80944 1.0184 5.09441 0 0 0 34 41 46 255
-2.80054 1.05112 5.13625 0 0 0 138 139 138 255
-2.83516 1.12622 5.18708 0 0 0 78 107 96 255
-2.8526 1.12612 5.12667 0 0 0 66 95 83 255
-2.78542 1.23203 5.27002 0 0 0 94 115 105 255
-2.82496 1.3238 5.38756 0 0 0 34 72 50 255
0.318354 1.38655 4.97233 0 0 0 72 83 72 255
-2.75086 1.37006 5.24933 0 0 0 112 123 121 255
-2.73024 1.38708 5.27415 0 0 0 101 112 113 255
-0.914509 1.27114 4.14698 0 0 0 112 139 169 255
-0.294542 0.0926929 4.43021 0 0 0 142 144 146 255
-0.99228 0.333163 4.16581 0 0 0 82 95 111 255
-0.932766 0.327522 4.1062 0 0 0 90 116 141 255
-2.8275 0.399342 4.52376 0 0 0 16 40 65 255
-0.999076 0.484872 4.17901 0 0 0 93 100 123 255
-3.04918 0.516471 4.50593 0 0 0 104 113 132 255
-2.7246 0.616832 5.04644 0 0 0 145 147 149 255
-0.964287 0.586137 4.17836 0 0 0 19 50 93 255
-2.93731 0.55902 4.5418 0 0 0 80 94 108 255
-3.04377 0.566521 4.40943 0 0 0 73 84 100 255
-1.0109 0.702171 4.19665 0 0 0 128 133 151 255
0.469528 0.952838 4.70392 0 0 0 129 141 137 255
1.16604 1.01631 4.92273 0 0 0 166 177 175 255
-0.359321 0.836868 4.23839 0 0 0 151 156 159 255
-0.978104 0.820141 4.1919 0 0 0 82 87 109 255
0.349475 1.03468 4.91843 0 0 0 118 130 126 255
-2.81451 0.956642 5.03019 0 0 0 87 90 90 255
-2.80911 1.00195 5.07533 0 0 0 43 50 54 255
-0.390223 1.03332 4.2104 0 0 0 31 102 135 255
-2.8701 1.13226 5.19082 0 0 0 66 96 83 255
-2.77026 1.19196 5.3221 0 0 0 18 27 26 255
0.401912 1.22341 4.76704 0 0 0 112 128 123 255
-2.81682 1.33797 5.49881 0 0 0 82 78 77 255
-2.73636 1.38619 5.24013 0 0 0 111 124 127 255
-0.835046 1.23681 4.10447 0 0 0 86 92 113 255
-2.49259 1.38255 4.88225 0 0 0 104 107 108 255
-0.761784 1.28013 4.10841 0 0 0 158 159 159 255
-0.301037 0.117667 4.36403 0 0 0 34 71 109 255
-2.75144 0.0133678 5.11826 0 0 0 92 92 92 255
-0.715953 0.278522 4.04494 0 0 0 116 95 55 255
-0.934108 0.322713 4.10747 0 0 0 58 88 119 255
-0.874492 0.344234 4.08173 0 0 0 16 60 104 255
-0.986752 0.351248 4.16718 0 0 0 106 114 133 255
-2.83053 0.424962 4.49589 0 0 0 0 86 155 255
-0.986827 0.480012 4.17319 0 0 0 126 82 74 255
-2.82686 0.441842 4.50095 0 0 0 0 85 156 255
0.4949 0.893257 4.70754 0 0 0 140 147 147 255
-2.66849 0.748747 4.9139 0 0 0 148 148 148 255
0.481242 0.934156 4.70515 0 0 0 135 146 147 255
1.17416 1.00987 4.92602 0 0 0 171 176 174 255
-2.71995 0.837576 5.1013 0 0 0 31 73 50 255
-2.8094 0.955606 5.03213 0 0 0 103 106 105 255
-2.80063 1.03211 5.12669 0 0 0 134 130 130 255
0.432168 1.12754 4.74383 0 0 0 82 114 91 255
0.565468 1.13445 4.65932 0 0 0 112 137 115 255
-1.00888 1.0109 4.23385 0 0 0 143 145 146 255
-2.78048 1.1993 5.35313 0 0 0 20 23 22 255
0.403578 1.21298 4.77052 0 0 0 113 125 119 255
-2.80791 1.34237 5.52576 0 0 0 77 80 80 255
1.10353 1.37579 4.79928 0 0 0 80 112 95 255
0.32794 1.38933 4.97653 0 0 0 69 82 71 255
-0.727603 1.163 4.09344 0 0 0 28 93 137 255
-2.73546 1.38773 5.23376 0 0 0 111 124 127 255
-2.47785 1.38592 4.84493 0 0 0 120 123 123 255
-2.84039 1.43744 5.06853 0 0 0 92 96 101 255
-2.87136 1.43548 4.8894 0 0 0 78 84 85 255
-0.265232 1.43863 4.46534 0 0 0 57 93 125 255
0.333372 0.0897045 5.00044 0 0 0 63 91 75 255
-2.75837 0.00836589 5.12758 0 0 0 92 92 92 255
-3.17372 0.147819 6.42849 0 0 0 25 30 29 255
-0.960664 0.337077 4.1494 0 0 0 104 113 127 255
-0.972119 0.474117 4.17334 0 0 0 129 86 66 255
0.50121 0.668519 4.65431 0 0 0 45 93 69 255
-2.71887 0.628658 5.04215 0 0 0 147 149 150 255
-2.66584 0.736227 4.9077 0 0 0 149 149 149 255
-2.80516 0.978955 5.07533 0 0 0 55 48 47 255
-0.650613 0.922686 4.0901 0 0 0 162 164 165 255
-0.784637 0.940399 4.08483 0 0 0 158 161 161 255
-0.909656 1.00812 4.16302 0 0 0 149 152 151 255
0.41779 1.24693 4.76761 0 0 0 129 134 132 255
-0.629248 1.06273 4.10054 0 0 0 38 102 143 255
-2.7449 1.3855 5.19969 0 0 0 133 137 140 255
-2.48629 1.38173 4.84825 0 0 0 103 105 104 255
-0.322472 0.135208 4.39247 0 0 0 24 65 106 255
-3.17901 0.146956 6.41128 0 0 0 24 29 28 255
-2.80666 0.199843 5.3065 0 0 0 100 100 100 255
-0.921367 0.47301 4.13051 0 0 0 160 134 99 255
-0.933958 0.624566 4.14414 0 0 0 147 149 149 255
-2.66396 0.744861 4.93328 0 0 0 147 150 150 255
-2.77562 1.21959 5.37172 0 0 0 17 24 24 255
-0.344963 0.144369 4.35327 0 0 0 19 63 110 255
-0.885408 0.409531 4.09826 0 0 0 152 135 90 255
-0.737775 0.783272 4.06472 0 0 0 155 158 157 255
-1.0602 0.849047 4.28153 0 0 0 66 89 111 255
-0.327551 0.891992 4.30278 0 0 0 31 67 109 255
0.806842 -0.222914 4.77117 0 0 0 188 190 197 255
-1.09874 0.11612 4.33203 0 0 0 71 80 84 255
-0.999208 0.153372 4.16139 0 0 0 54 84 119 255
-3.04493 0.151222 6.2051 0 0 0 32 33 34 255
-1.78538 -0.502721 -8.20829 0 0 0 112 129 124 255
0.386943 0.384324 4.7101 0 0 0 117 108 111 255
0.681096 0.544091 4.58885 0 0 0 114 149 138 255
0.707893 0.547077 4.58404 0 0 0 138 161 157 255
0.399658 0.602752 4.72831 0 0 0 129 140 138 255
-2.65628 0.576111 4.88115 0 0 0 122 125 124 255
-1.00209 0.551872 4.17625 0 0 0 120 127 135 255
-3.17166 0.522895 4.52008 0 0 0 92 100 109 255
-2.9575 0.544077 4.52833 0 0 0 82 69 77 255
-2.66419 0.765475 4.88506 0 0 0 136 133 132 255
0.508809 0.912599 4.70651 0 0 0 145 150 148 255
-0.888954 0.886575 4.11059 0 0 0 103 106 113 255
-2.82974 1.03724 5.07285 0 0 0 90 90 94 255
-2.76197 1.17669 5.27137 0 0 0 9 35 22 255
0.459405 1.23837 4.73658 0 0 0 88 88 99 255
0.719952 1.24255 4.54793 0 0 0 116 96 105 255
-0.43015 1.11219 4.16586 0 0 0 18 104 144 255
-1.09202 0.117068 4.33515 0 0 0 77 83 100 255
0.524085 0.389835 4.62956 0 0 0 149 133 134 255
-0.293962 0.378461 4.29572 0 0 0 30 80 114 255
0.679729 0.54186 4.58906 0 0 0 114 149 138 255
-1.00286 0.557316 4.1761 0 0 0 132 134 136 255
-0.996493 0.86622 4.17455 0 0 0 117 130 157 255
-0.838548 0.26384 4.06394 0 0 0 72 79 72 255
-0.296311 0.378512 4.29115 0 0 0 34 86 121 255
1.04442 0.660333 4.71494 0 0 0 77 88 87 255
-0.514702 0.660048 4.10519 0 0 0 97 103 117 255
0.358599 1.00339 4.8468 0 0 0 126 130 128 255
-2.82211 1.04078 5.07071 0 0 0 90 90 94 255
-0.960793 0.908129 4.15517 0 0 0 46 55 82 255
-0.876562 0.922957 4.11252 0 0 0 39 57 99 255
0.356083 0.0995618 4.98538 0 0 0 52 86 69 255
-2.75375 0.173258 5.13007 0 0 0 98 97 98 255
-2.94419 0.486426 4.51872 0 0 0 1 19 45 255
-2.80459 1.36735 5.70908 0 0 0 65 64 64 255
-1.07538 0.15416 4.3709 0 0 0 18 53 92 255
0.868496 0.573482 4.61927 0 0 0 157 160 159 255
-0.944988 0.477316 4.14571 0 0 0 132 116 104 255
0.444048 0.629405 4.68865 0 0 0 138 145 147 255
-0.297729 0.621343 4.36515 0 0 0 32 79 117 255
-0.530335 0.656023 4.09456 0 0 0 133 136 140 255
-2.65729 0.761102 4.91894 0 0 0 136 146 146 255
-0.616594 0.922899 4.08305 0 0 0 160 163 163 255
-0.604386 1.0931 4.11887 0 0 0 130 139 145 255
-0.359193 0.181472 4.28563 0 0 0 13 64 113 255
-0.917574 0.402899 4.1059 0 0 0 153 145 134 255
-0.382915 0.623834 4.16955 0 0 0 27 65 108 255
-0.414051 0.592156 4.14447 0 0 0 29 63 109 255
0.560118 0.885358 4.64587 0 0 0 86 128 113 255
1.08876 0.0744953 4.78403 0 0 0 100 105 101 255
0.385682 0.118505 4.7371 0 0 0 26 53 42 255
0.386674 0.160968 4.72035 0 0 0 51 80 63 255
0.39082 0.148584 4.72029 0 0 0 26 55 34 255
0.573659 0.26643 4.59953 0 0 0 135 144 144 255
0.608932 0.268713 4.59394 0 0 0 118 127 128 255
-0.870265 0.280017 4.07459 0 0 0 63 82 93 255
0.554102 0.414352 4.6289 0 0 0 129 95 94 255
-0.90721 0.364266 4.09311 0 0 0 68 86 109 255
-0.932914 0.490571 4.13089 0 0 0 112 123 141 255
-0.911373 0.491802 4.12142 0 0 0 58 87 116 255
-0.820567 0.5636 4.07469 0 0 0 111 132 154 255
-0.939535 0.679113 4.15619 0 0 0 63 67 94 255
-0.885804 0.690701 4.09862 0 0 0 156 160 160 255
-0.820473 0.759458 4.08299 0 0 0 107 112 125 255
-0.997725 0.793123 4.19796 0 0 0 134 139 154 255
0.357896 1.02293 4.85149 0 0 0 122 131 130 255
-0.867895 0.890238 4.11033 0 0 0 65 68 94 255
-0.480437 0.907138 4.11359 0 0 0 161 163 167 255
0.928706 1.14395 4.64581 0 0 0 43 80 120 255
0.411169 1.16856 4.74043 0 0 0 102 104 108 255
-1.03022 1.00822 4.24308 0 0 0 67 85 117 255
0.426091 1.18245 4.73655 0 0 0 76 83 99 255
1.07719 0.0790049 4.81525 0 0 0 70 100 83 255
0.515494 0.227132 4.6267 0 0 0 119 152 149 255
-0.996576 0.191089 4.15837 0 0 0 76 101 123 255
-0.40722 0.335288 4.14933 0 0 0 25 96 144 255
-1.03058 0.741508 4.2033 0 0 0 52 71 107 255
0.928693 1.13929 4.64687 0 0 0 45 78 108 255
-0.580544 -0.163794 4.19714 0 0 0 217 220 228 255
0.478566 0.254562 4.65006 0 0 0 129 144 140 255
-1.01099 0.751013 4.19941 0 0 0 149 151 152 255
-0.812997 0.759764 4.08233 0 0 0 114 119 129 255
-0.987574 0.839131 4.17808 0 0 0 76 84 106 255
-0.997354 0.877243 4.16668 0 0 0 125 132 143 255
-0.490953 0.907404 4.12241 0 0 0 167 169 170 255
-0.954744 0.914351 4.15052 0 0 0 50 58 80 255
-0.749161 0.961201 4.08098 0 0 0 168 170 170 255
-0.98435 0.376845 4.16228 0 0 0 115 91 94 255
-0.996321 0.460555 4.17772 0 0 0 110 131 157 255
-0.641683 0.676932 4.08743 0 0 0 111 125 151 255
-1.01417 0.750922 4.1992 0 0 0 149 151 152 255
-0.327839 0.85272 4.25626 0 0 0 40 68 104 255
-0.680294 0.793625 4.05719 0 0 0 167 171 174 255
-1.00095 0.893859 4.08768 0 0 0 150 154 154 255
0.946992 1.1252 4.65151 0 0 0 32 78 121 255
-0.965856 0.903677 4.03643 0 0 0 50 57 84 255
-0.334344 0.1506 4.31411 0 0 0 19 74 121 255
-1.07913 0.143743 4.2974 0 0 0 29 64 102 255
-0.307691 0.312803 4.31227 0 0 0 34 84 127 255
-0.995828 0.424872 4.16916 0 0 0 115 130 153 255
0.555158 0.648778 4.62961 0 0 0 157 164 163 255
-0.768374 0.767247 4.07635 0 0 0 165 169 176 255
0.365003 0.974329 4.8563 0 0 0 130 137 135 255
-0.931793 0.399882 4.1154 0 0 0 152 121 86 255
4.34117 -2.81026 8.13482 0 0 0 97 96 97 255
4.2366 -2.58898 7.99583 0 0 0 69 66 67 255
-0.304535 0.0972559 4.32476 0 0 0 125 131 139 255
0.811343 0.250095 4.57991 0 0 0 92 93 90 255
-0.855791 0.316326 4.0783 0 0 0 150 141 98 255
4.03294 0.660263 7.8395 0 0 0 84 65 56 255
0.590835 0.43614 4.62857 0 0 0 122 62 62 255
0.428934 0.429373 4.70694 0 0 0 125 62 69 255
3.8237 0.79332 7.53438 0 0 0 70 71 70 255
-0.730081 0.451812 4.06185 0 0 0 119 137 116 255
0.906493 0.58937 4.62009 0 0 0 73 104 91 255
-0.704944 0.496844 4.05839 0 0 0 128 143 155 255
-0.956451 0.588974 4.14438 0 0 0 57 79 105 255
-0.307811 0.768423 4.26002 0 0 0 113 116 122 255
1.96697 1.37084 6.35871 0 0 0 137 135 134 255
-0.95422 0.884129 4.16366 0 0 0 67 68 89 255
0.974816 1.17599 4.69311 0 0 0 121 104 55 255
-0.703455 0.938638 4.07703 0 0 0 127 133 140 255
-0.659372 1.01273 4.07419 0 0 0 117 125 145 255
0.996151 1.3498 4.72669 0 0 0 131 155 147 255
0.893679 1.33964 4.63564 0 0 0 113 152 134 255
0.322391 1.36054 4.96829 0 0 0 128 133 131 255
-0.328595 1.17843 4.26782 0 0 0 115 119 122 255
0.918644 1.37953 4.67613 0 0 0 117 157 152 255
0.452148 1.35839 4.67027 0 0 0 59 94 75 255
-0.640692 1.17193 4.08944 0 0 0 162 164 168 255
-0.868233 1.16772 4.12083 0 0 0 101 133 152 255
-0.630546 1.19182 4.08316 0 0 0 82 90 110 255
-0.696893 1.20245 4.07519 0 0 0 129 104 126 255
-0.748746 1.20517 4.0688 0 0 0 118 101 123 255
-0.900344 1.21755 4.13048 0 0 0 108 108 121 255
-0.850472 1.21241 4.10397 0 0 0 110 116 127 255
-0.824875 1.21493 4.09528 0 0 0 104 110 127 255
4.24157 -2.60996 8.01613 0 0 0 121 111 115 255
0.740334 0.4001 4.58816 0 0 0 137 53 54 255
4.06054 0.690267 7.876 0 0 0 88 70 69 255
3.83063 0.78424 7.54669 0 0 0 70 71 70 255
-0.953379 0.586284 4.14181 0 0 0 24 57 107 255
2.32202 1.42845 6.73663 0 0 0 140 137 130 255
0.646644 1.26029 4.64417 0 0 0 110 124 106 255
0.983805 1.35032 4.70961 0 0 0 131 155 147 255
0.325994 1.35675 4.9809 0 0 0 128 133 131 255
0.897984 1.36647 4.63414 0 0 0 150 167 165 255
-0.338219 1.17896 4.24555 0 0 0 96 110 121 255
-1.08059 1.15794 4.43219 0 0 0 141 154 158 255
-0.639858 1.16208 4.09279 0 0 0 156 161 168 255
-0.723043 1.17082 4.08513 0 0 0 84 142 185 255
-0.636723 1.19662 4.08255 0 0 0 51 93 130 255
-0.666596 1.20587 4.07901 0 0 0 168 171 176 255
-0.695956 1.20523 4.07331 0 0 0 129 104 126 255
-0.923978 1.20294 4.13358 0 0 0 71 124 162 255
-0.840821 1.22372 4.10039 0 0 0 97 105 127 255
4.33195 -2.78654 8.12591 0 0 0 80 77 78 255
4.23504 -2.60824 7.99414 0 0 0 118 108 111 255
-0.975346 0.321261 4.16663 0 0 0 44 89 127 255
-0.920372 0.341369 4.10292 0 0 0 109 117 139 255
3.90597 0.80015 7.66805 0 0 0 136 132 131 255
-0.316286 0.501166 4.26879 0 0 0 66 104 130 255
0.907042 0.602838 4.63023 0 0 0 77 98 80 255
1.04361 0.675684 4.72679 0 0 0 89 96 96 255
-0.501617 0.623671 4.11661 0 0 0 146 157 176 255
-0.967982 0.638623 4.16165 0 0 0 70 75 89 255
-0.407436 0.696506 4.17166 0 0 0 47 65 101 255
-0.537672 0.733275 4.08999 0 0 0 73 86 112 255
-0.95203 0.885416 4.16456 0 0 0 67 68 89 255
0.723619 1.13759 4.61582 0 0 0 149 158 157 255
0.40138 1.2148 4.75904 0 0 0 130 139 139 255
-1.00655 1.03038 4.22706 0 0 0 154 155 154 255
0.577524 1.27791 4.66783 0 0 0 139 145 138 255
-0.350926 1.14487 4.25426 0 0 0 148 159 166 255
0.335428 1.34305 5.00982 0 0 0 123 128 127 255
0.926671 1.3611 4.67825 0 0 0 148 161 159 255
0.30398 1.37589 4.95668 0 0 0 73 91 80 255
1.0363 1.39733 4.7491 0 0 0 90 122 108 255
-0.594049 1.14789 4.09784 0 0 0 10 121 163 255
-0.6346 1.1525 4.09786 0 0 0 137 148 164 255
-0.672881 1.16663 4.08864 0 0 0 25 97 145 255
-0.379604 0.467079 4.18071 0 0 0 145 151 174 255
0.419728 0.681686 4.72461 0 0 0 41 90 74 255
-0.621088 0.676899 4.0794 0 0 0 169 171 173 255
-0.410358 0.850184 4.17606 0 0 0 166 173 171 255
0.929585 1.05352 4.65571 0 0 0 39 102 138 255
2.36522 1.44615 6.89694 0 0 0 136 134 128 255
-1.00944 0.843744 4.18028 0 0 0 13 55 102 255
0.719011 1.14189 4.61572 0 0 0 150 158 157 255
0.429673 1.14696 4.72782 0 0 0 126 135 134 255
0.402491 1.22304 4.7597 0 0 0 129 138 137 255
-0.48437 1.06483 4.13046 0 0 0 146 156 168 255
0.561563 1.25718 4.64193 0 0 0 146 147 147 255
0.70958 1.26943 4.6089 0 0 0 149 150 148 255
1.0537 1.38739 4.76699 0 0 0 90 124 108 255
0.297854 1.37459 4.96048 0 0 0 84 99 92 255
4.25589 -2.65168 8.01069 0 0 0 70 67 67 255
-0.324901 0.255391 4.31555 0 0 0 18 78 126 255
-0.966753 0.352923 4.14642 0 0 0 109 110 116 255
0.993568 0.534183 4.65968 0 0 0 80 115 81 255
-0.317672 0.511359 4.27088 0 0 0 75 112 136 255
-0.974943 0.489459 4.16459 0 0 0 91 103 115 255
0.579898 0.663253 4.64751 0 0 0 156 162 162 255
0.377287 0.641257 4.73204 0 0 0 131 141 142 255
-0.993382 0.595728 4.17003 0 0 0 150 153 152 255
0.850798 0.799101 4.62498 0 0 0 169 173 172 255
0.947553 1.0779 4.66962 0 0 0 71 104 104 255
-0.711211 0.88325 4.07846 0 0 0 37 70 115 255
0.90233 1.11512 4.65772 0 0 0 52 100 127 255
-0.645243 0.906631 4.07988 0 0 0 172 175 174 255
-0.99984 0.997282 4.22712 0 0 0 155 157 156 255
1.0282 1.33593 4.7546 0 0 0 85 118 92 255
0.956109 0.123511 4.66603 0 0 0 57 106 75 255
-0.360674 0.253645 4.22703 0 0 0 35 92 133 255
-0.960253 0.408225 4.14437 0 0 0 158 131 115 255
-0.8305 0.630614 4.07557 0 0 0 164 168 166 255
0.734996 0.249314 4.57531 0 0 0 123 136 136 255
0.658454 0.268588 4.5839 0 0 0 82 104 101 255
0.468816 0.319007 4.66247 0 0 0 86 117 79 255
0.385944 0.33277 4.72371 0 0 0 81 95 77 255
0.462753 0.338522 4.66237 0 0 0 105 101 93 255
0.563098 0.348716 4.60885 0 0 0 108 86 82 255
0.386225 0.366861 4.73272 0 0 0 88 94 85 255
0.452818 0.380431 4.67168 0 0 0 152 152 154 255
0.574902 0.404682 4.62124 0 0 0 176 108 119 255
0.865841 0.435192 4.62883 0 0 0 151 62 74 255
0.384177 0.417337 4.72601 0 0 0 112 124 110 255
0.38883 0.440923 4.73856 0 0 0 144 94 97 255
-0.708467 0.427993 4.05532 0 0 0 108 128 114 255
-0.957133 0.489239 4.15103 0 0 0 82 92 102 255
-0.349012 0.687334 4.20268 0 0 0 111 115 128 255
-0.969814 0.886812 4.1858 0 0 0 147 157 163 255
2.12689 1.35344 6.29884 0 0 0 159 157 152 255
0.926649 1.14212 4.65822 0 0 0 77 93 100 255
-1.0032 1.04369 4.22253 0 0 0 144 146 150 255
-0.88069 1.22108 4.12571 0 0 0 101 108 117 255
-0.819746 1.24888 4.10508 0 0 0 98 108 131 255
-0.697993 1.28572 4.09252 0 0 0 115 96 117 255
-0.921329 1.27425 4.14328 0 0 0 109 129 172 255
-0.847519 1.27955 4.12872 0 0 0 99 100 111 255
-0.775977 1.2855 4.10188 0 0 0 142 152 176 255
-0.384264 1.37074 4.19277 0 0 0 93 131 161 255
-0.456515 1.38815 4.16855 0 0 0 98 138 179 255
-0.368911 1.40898 4.22541 0 0 0 153 159 166 255
-0.454233 1.41645 4.16406 0 0 0 168 170 172 255
-0.901835 1.34892 4.12534 0 0 0 77 124 152 255
-0.853154 1.36058 4.1227 0 0 0 93 145 173 255
-1.07495 1.39339 4.37719 0 0 0 151 153 152 255
-0.854995 1.37721 4.11945 0 0 0 59 91 109 255
-0.955783 0.489516 4.14748 0 0 0 64 82 107 255
-0.315372 0.842402 4.26683 0 0 0 50 80 114 255
0.861474 1.06295 4.62311 0 0 0 94 112 129 255
0.921861 1.12251 4.65755 0 0 0 53 92 109 255
0.863259 1.1385 4.64628 0 0 0 154 167 142 255
0.791644 1.14312 4.61979 0 0 0 98 130 90 255
-0.398041 1.03169 4.19389 0 0 0 17 117 156 255
-0.915852 1.01678 4.13904 0 0 0 157 162 161 255
-0.385231 1.37692 4.1921 0 0 0 127 160 181 255
-0.865202 1.31565 4.12767 0 0 0 107 117 140 255
-0.455306 1.40939 4.16437 0 0 0 167 169 171 255
-0.852047 1.35817 4.11135 0 0 0 98 144 163 255
-0.61563 -0.160042 4.10077 0 0 0 232 232 234 255
-0.87524 0.173531 4.08429 0 0 0 61 87 110 255
-0.707767 0.260514 4.04441 0 0 0 62 72 86 255
-0.721276 0.304664 4.04265 0 0 0 124 112 105 255
-0.344755 0.303109 4.22691 0 0 0 34 91 133 255
-0.988072 0.493903 4.17098 0 0 0 123 117 127 255
-0.373591 0.8044 4.21133 0 0 0 74 77 82 255
0.957829 1.09733 4.67518 0 0 0 56 90 121 255
-0.310364 1.11745 4.29815 0 0 0 31 89 129 255
-0.410448 1.09327 4.18458 0 0 0 1 111 157 255
-0.317507 1.18311 4.26509 0 0 0 36 85 118 255
-0.786995 1.18354 4.09724 0 0 0 15 91 138 255
-0.761084 1.27102 4.08935 0 0 0 164 168 169 255
-0.628808 1.2895 4.08118 0 0 0 34 85 130 255
-0.568581 1.3146 4.10838 0 0 0 148 149 139 255
-0.794277 1.29894 4.09565 0 0 0 35 79 116 255
-0.867443 1.30884 4.1294 0 0 0 134 137 142 255
-0.846414 1.3078 4.12456 0 0 0 129 135 138 255
-0.723021 1.30938 4.08975 0 0 0 137 139 143 255
-0.456393 1.3892 4.13308 0 0 0 148 152 154 255
-1.07583 1.38337 4.4093 0 0 0 147 153 155 255
-0.907507 1.3645 4.12605 0 0 0 105 135 156 255
-0.899587 1.37431 4.11867 0 0 0 69 107 139 255
-0.365927 0.140372 4.18382 0 0 0 32 80 121 255
-0.979278 0.451797 4.1706 0 0 0 165 96 85 255
-0.754459 0.72071 4.06061 0 0 0 167 169 168 255
3.84121 1.29276 7.3738 0 0 0 135 139 141 255
-1.01439 0.733981 4.19598 0 0 0 150 153 152 255
-0.957621 0.819222 4.18486 0 0 0 156 159 158 255
1.66331 1.18821 5.78407 0 0 0 176 183 181 255
0.932819 1.1522 4.65621 0 0 0 166 153 95 255
-0.410336 1.09327 4.1848 0 0 0 1 111 157 255
1.02955 1.3546 4.73475 0 0 0 106 118 112 255
-0.5519 1.14126 4.11229 0 0 0 2 117 162 255
0.79352 1.36553 4.5832 0 0 0 56 90 74 255
-0.88261 1.1824 4.12086 0 0 0 111 146 168 255
-0.785545 1.18127 4.09784 0 0 0 15 91 138 255
-0.727213 1.19505 4.07211 0 0 0 126 123 131 255
-0.905487 1.18853 4.12625 0 0 0 121 142 158 255
-0.910899 1.2678 4.1466 0 0 0 153 159 167 255
-0.633759 1.29904 4.09365 0 0 0 27 85 133 255
-0.535881 1.32127 4.11013 0 0 0 178 169 132 255
-0.720504 1.30962 4.09042 0 0 0 137 139 143 255
-0.909534 1.36286 4.13443 0 0 0 105 135 156 255
-0.566493 0.456265 4.07272 0 0 0 155 159 165 255
3.84922 0.720395 7.54378 0 0 0 72 68 65 255
-0.619026 0.609473 4.06511 0 0 0 168 171 173 255
-0.548992 0.6516 4.07736 0 0 0 161 162 164 255
-0.390592 0.695987 4.17756 0 0 0 40 72 113 255
0.609318 0.905035 4.64623 0 0 0 158 164 165 255
3.96259 1.2426 7.55961 0 0 0 121 119 120 255
-1.02712 0.857397 4.18909 0 0 0 9 62 110 255
0.92951 1.10205 4.66213 0 0 0 110 126 100 255
-0.463326 1.00987 4.13257 0 0 0 133 148 161 255
-0.341356 1.07746 4.24882 0 0 0 128 135 144 255
0.42653 1.22529 4.75236 0 0 0 138 145 146 255
-0.542151 1.1422 4.11345 0 0 0 0 113 160 255
-0.286682 1.23793 4.36514 0 0 0 52 80 103 255
-0.879644 1.19086 4.11727 0 0 0 147 152 154 255
-0.717882 1.29443 4.08853 0 0 0 128 118 135 255
-0.628215 1.30712 4.09159 0 0 0 25 86 135 255
-0.971604 0.39543 4.1573 0 0 0 135 100 91 255
3.72803 0.712378 7.47373 0 0 0 165 165 163 255
-0.375979 0.549409 4.17534 0 0 0 36 88 132 255
-0.386362 0.606561 4.20121 0 0 0 38 71 113 255
-0.802294 0.621656 4.06455 0 0 0 164 167 167 255
0.614794 0.796305 4.66828 0 0 0 65 112 77 255
-0.738879 0.818526 3.99133 0 0 0 39 62 107 255
0.900902 1.08635 4.65417 0 0 0 41 97 130 255
-0.96866 0.97628 4.45956 0 0 0 153 156 155 255
-0.937489 0.991656 4.15894 0 0 0 153 157 158 255
-0.864134 0.980284 4.123 0 0 0 162 166 165 255
0.593082 1.37953 6.09668 0 0 0 176 184 181 255
0.836372 1.31744 4.62889 0 0 0 78 122 91 255
-0.923464 0.315809 4.09452 0 0 0 38 84 126 255
-0.335276 0.325506 4.217 0 0 0 64 105 144 255
0.409771 0.386094 4.71002 0 0 0 106 69 73 255
-0.967576 0.366176 4.14482 0 0 0 90 100 113 255
2.883 0.546724 6.22327 0 0 0 113 102 97 255
0.371872 0.577535 4.73315 0 0 0 84 115 105 255
-1.02119 0.607214 4.18474 0 0 0 122 136 162 255
-0.3688 0.657527 4.19638 0 0 0 113 138 175 255
-1.02173 0.686557 4.18244 0 0 0 97 108 129 255
-0.874224 0.799172 4.22999 0 0 0 86 96 114 255
0.906279 1.17634 4.6506 0 0 0 112 99 46 255
-1.07873 1.13703 4.3351 0 0 0 137 153 159 255
-1.10572 0.121255 4.34044 0 0 0 64 80 100 255
2.97457 0.574058 6.34992 0 0 0 83 73 67 255
-0.874735 0.571035 4.09083 0 0 0 153 158 156 255
-0.884927 0.725492 4.09079 0 0 0 101 108 120 255
-0.504089 1.03137 4.1305 0 0 0 48 112 152 255
-0.71098 1.16276 4.09669 0 0 0 34 104 149 255
-0.348326 0.327337 4.19537 0 0 0 82 112 139 255
2.7477 0.548691 6.04109 0 0 0 83 73 67 255
0.551637 0.612705 4.61718 0 0 0 155 163 160 255
2.05895 1.34247 6.25593 0 0 0 132 130 126 255
0.446587 1.26327 4.75268 0 0 0 129 137 131 255
0.875448 1.27542 4.65176 0 0 0 165 148 128 255
-1.08086 1.14378 4.33336 0 0 0 146 154 156 255
-0.601777 1.13894 4.1038 0 0 0 48 123 162 255
-0.912496 1.22671 4.1398 0 0 0 146 150 154 255
0.539989 0.65326 4.63513 0 0 0 145 159 156 255
-0.933469 0.567751 4.13311 0 0 0 16 69 114 255
0.578935 0.91535 4.6593 0 0 0 159 165 164 255
-0.317812 0.889289 4.32046 0 0 0 53 82 111 255
2.01554 1.33312 6.25822 0 0 0 132 131 125 255
-0.474169 1.08643 4.13825 0 0 0 105 137 159 255
-0.670736 0.703409 4.08018 0 0 0 41 76 122 255
0.48918 0.879324 4.72662 0 0 0 146 156 156 255
0.583072 0.87266 4.65716 0 0 0 118 162 143 255
-1.00441 0.81422 4.18573 0 0 0 25 56 100 255
0.371128 0.961627 4.87356 0 0 0 124 138 135 255
1.97991 1.21758 6.30316 0 0 0 179 185 181 255
-0.344098 0.893078 4.26278 0 0 0 56 80 116 255
-0.632128 0.917476 4.085 0 0 0 171 175 176 255
0.54165 1.35416 5.82377 0 0 0 173 177 175 255
-0.353581 1.08939 4.26545 0 0 0 17 108 150 255
0.542018 1.23026 4.69616 0 0 0 153 161 164 255
-0.448411 0.168639 3.95614 0 0 0 24 78 125 255
0.756231 0.574735 4.58699 0 0 0 147 174 169 255
-1.04281 0.840842 4.19983 0 0 0 5 65 114 255
-0.725642 0.81505 4.053 0 0 0 40 69 116 255
0.809152 -0.196017 4.75918 0 0 0 206 207 211 255
-0.282338 0.120981 4.38899 0 0 0 87 101 115 255
3.60025 0.623363 7.22557 0 0 0 110 100 96 255
-0.65941 0.285253 4.04516 0 0 0 151 136 101 255
0.493055 0.387876 4.65096 0 0 0 164 145 149 255
3.56701 0.76842 7.17988 0 0 0 97 95 94 255
0.426923 0.400029 4.69075 0 0 0 147 89 98 255
-1.00291 0.326802 4.17446 0 0 0 60 103 143 255
0.468816 0.429244 4.66672 0 0 0 123 97 101 255
-0.431767 0.366 4.14122 0 0 0 42 95 137 255
3.59193 1.26701 7.09135 0 0 0 136 133 131 255
-0.728902 0.596597 4.05512 0 0 0 90 108 134 255
-0.855482 1.39017 4.11338 0 0 0 77 102 116 255
-0.899533 1.41132 4.13451 0 0 0 111 137 155 255
-0.787061 1.40844 4.09933 0 0 0 77 113 151 255
-0.856175 1.41264 4.11547 0 0 0 114 136 150 255
-0.73426 1.41613 4.09166 0 0 0 65 118 164 255
-0.289973 0.112076 4.38829 0 0 0 140 147 149 255
0.376366 0.30877 4.75963 0 0 0 67 103 66 255
3.59621 0.637859 7.2336 0 0 0 140 133 130 255
3.56913 0.769682 7.18158 0 0 0 97 95 94 255
0.485973 0.400718 4.65793 0 0 0 157 141 144 255
-0.636428 0.31139 4.04349 0 0 0 67 55 38 255
-0.987536 0.739046 4.19227 0 0 0 151 156 155 255
-1.02702 0.99506 4.24814 0 0 0 145 149 154 255
-0.908334 1.40437 4.1402 0 0 0 121 142 165 255
3.59717 0.642534 7.22182 0 0 0 84 71 68 255
3.56855 0.738231 7.18135 0 0 0 100 96 94 255
3.60215 1.25386 7.08728 0 0 0 139 134 133 255
-1.00587 0.776969 4.20522 0 0 0 153 155 158 255
-1.02204 1.00226 4.24128 0 0 0 156 160 161 255
0.806314 1.25124 4.62766 0 0 0 92 122 89 255
-0.84169 1.36472 4.11239 0 0 0 108 145 165 255
-0.815268 1.40168 4.10332 0 0 0 106 141 165 255
-0.790715 1.40492 4.09566 0 0 0 77 113 151 255
-0.955726 0.745201 4.15606 0 0 0 31 55 98 255
-0.746575 0.86537 4.07436 0 0 0 113 119 129 255
-1.02382 1.00846 4.23769 0 0 0 156 159 160 255
0.289189 1.34439 4.98848 0 0 0 79 93 79 255
-0.510931 1.14204 4.13276 0 0 0 6 108 155 255
-0.581313 1.12638 4.06243 0 0 0 4 119 164 255
-0.49454 1.37463 4.15828 0 0 0 37 89 135 255
-0.90957 1.36701 4.13912 0 0 0 111 154 182 255
1.07403 0.125338 4.82659 0 0 0 68 112 91 255
0.848185 0.583271 4.60735 0 0 0 169 171 171 255
0.771223 0.852411 4.61677 0 0 0 171 176 174 255
0.863532 1.38551 4.67087 0 0 0 71 110 90 255
0.337353 0.064419 4.99419 0 0 0 142 145 144 255
-1.06828 0.204146 4.36631 0 0 0 21 63 99 255
-0.333494 0.188612 4.40594 0 0 0 20 76 123 255
-0.335627 0.925562 4.32405 0 0 0 67 87 119 255
-1.00606 0.948312 4.17235 0 0 0 157 160 159 255
-0.930189 0.969931 4.14076 0 0 0 161 164 164 255
2.00772 0.29173 4.01239 0 0 0 54 59 63 255
1.97574 0.377398 4.09595 0 0 0 80 82 84 255
1.97465 0.386767 4.05796 0 0 0 121 122 121 255
1.96252 0.408788 4.06214 0 0 0 82 75 68 255
1.9791 0.387914 3.98508 0 0 0 119 121 120 255
2.01649 0.39945 3.95261 0 0 0 115 122 123 255
2.01728 0.398195 3.94482 0 0 0 118 125 125 255
1.98555 0.423078 3.97688 0 0 0 83 72 64 255
2.00493 0.447912 3.95151 0 0 0 89 72 61 255
-0.607179 0.372607 4.04894 0 0 0 37 95 134 255
1.96798 0.510566 4.06829 0 0 0 60 51 52 255
1.97243 0.499129 3.96439 0 0 0 77 64 58 255
1.97324 0.543696 4.06959 0 0 0 130 128 129 255
1.9632 0.547383 3.97593 0 0 0 119 122 119 255
-0.298054 0.769421 4.30386 0 0 0 108 114 115 255
-0.293543 0.819605 4.30997 0 0 0 95 103 113 255
2.00042 1.08101 3.96086 0 0 0 100 101 101 255
2.04954 1.0274 3.75393 0 0 0 91 91 91 255
2.08652 1.04114 3.73229 0 0 0 80 81 83 255
2.05339 1.07429 3.75672 0 0 0 101 101 101 255
-0.876076 1.35128 4.12297 0 0 0 28 78 117 255
2.09957 0.146588 4.14823 0 0 0 61 58 61 255
2.04159 0.302525 3.86607 0 0 0 91 101 107 255
1.97067 0.39057 3.99514 0 0 0 99 110 115 255
1.95188 0.421473 4.0556 0 0 0 57 47 43 255
1.99164 0.412155 3.98074 0 0 0 63 43 34 255
2.01074 0.404526 3.95345 0 0 0 107 123 126 255
2.00085 0.450997 3.95274 0 0 0 76 60 50 255
1.97209 0.509784 3.9627 0 0 0 73 58 54 255
2.0141 0.587873 4.20904 0 0 0 82 73 70 255
1.9991 0.560394 4.12758 0 0 0 87 91 92 255
1.95794 0.543764 3.98664 0 0 0 113 127 127 255
2.10432 1.35205 6.32433 0 0 0 125 123 113 255
1.15917 0.962575 4.91063 0 0 0 144 157 150 255
0.864109 1.09524 4.63576 0 0 0 84 102 109 255
1.99348 1.06435 3.96674 0 0 0 86 85 84 255
1.07942 0.0856427 4.79704 0 0 0 137 142 143 255
-0.299751 0.122841 4.3883 0 0 0 127 132 133 255
-1.09181 0.143565 4.37214 0 0 0 51 70 92 255
0.746106 0.4175 4.57693 0 0 0 116 95 96 255
1.9726 0.385524 4.07934 0 0 0 117 126 124 255
1.9654 0.388934 4.07951 0 0 0 117 126 124 255
1.05746 0.546862 4.7321 0 0 0 83 112 86 255
2.01895 0.459756 3.95415 0 0 0 39 37 36 255
1.96368 0.480558 4.04744 0 0 0 42 47 45 255
2.02243 0.597542 4.20573 0 0 0 65 63 66 255
1.24488 0.905115 5.05434 0 0 0 154 159 154 255
2.08327 1.36281 6.32232 0 0 0 120 118 114 255
-0.566881 0.612467 4.07644 0 0 0 73 78 92 255
1.20169 0.964073 4.96269 0 0 0 107 110 104 255
-1.02009 0.714898 4.19655 0 0 0 136 136 141 255
-0.990427 0.71666 4.17947 0 0 0 109 123 134 255
0.88692 1.17636 4.64747 0 0 0 104 94 45 255
-0.891759 0.908312 4.11244 0 0 0 72 87 113 255
-0.861895 0.932449 4.11543 0 0 0 39 65 102 255
-0.362686 1.00334 4.24376 0 0 0 43 97 138 255
-0.743109 0.948121 4.08289 0 0 0 160 162 163 255
-1.06946 1.40883 4.31494 0 0 0 65 84 108 255
-0.310748 0.33035 4.32672 0 0 0 40 91 128 255
-0.976241 0.338316 4.15332 0 0 0 101 108 117 255
2.00187 0.40861 3.95643 0 0 0 80 93 97 255
1.96524 0.462518 4.05848 0 0 0 52 42 45 255
2.03605 0.628492 4.22469 0 0 0 63 64 63 255
2.07196 1.3601 6.57389 0 0 0 130 127 116 255
2.08786 1.35206 6.39516 0 0 0 120 121 114 255
-0.314318 0.851859 4.29586 0 0 0 41 66 103 255
-0.971714 0.96159 4.16282 0 0 0 78 86 95 255
-0.466072 1.02793 4.13783 0 0 0 112 134 147 255
0.354067 1.41224 4.9822 0 0 0 53 83 69 255
-0.558753 1.14607 4.11068 0 0 0 4 106 152 255
-0.452927 1.44854 4.18171 0 0 0 73 85 113 255
0.355428 0.113627 4.89949 0 0 0 45 85 62 255
-0.310679 0.160512 4.38539 0 0 0 24 71 108 255
-1.07326 0.163283 4.36994 0 0 0 22 53 90 255
-0.349189 0.310266 4.23729 0 0 0 29 85 125 255
-0.972166 0.431681 4.16708 0 0 0 132 90 71 255
1.13393 0.741665 4.79814 0 0 0 172 175 174 255
2.09896 1.37961 6.54927 0 0 0 125 124 117 255
-0.649417 0.938161 4.0867 0 0 0 162 165 164 255
-0.320073 1.09082 4.33441 0 0 0 55 83 105 255
-0.899176 0.990966 4.13025 0 0 0 144 149 147 255
