ply
format ascii 1.0
comment VCGLIB generated
element vertex 1028
property float x
property float y
property float z
property float nx
property float ny
property float nz
property uchar red
property uchar green
property uchar blue
property uchar alpha
element face 0
property list uchar int vertex_indices
end_header
0.705139 0.248003 4.57439 0 0 0 127 155 150 255
0.862168 0.246985 4.57999 0 0 0 129 156 156 255
0.462241 0.256967 4.63082 0 0 0 50 88 80 255
0.600664 0.251172 4.61467 0 0 0 107 112 112 255
0.512891 0.267311 4.63532 0 0 0 125 148 143 255
0.764163 0.262729 4.56976 0 0 0 109 147 136 255
0.788296 0.253464 4.57345 0 0 0 147 152 151 255
0.540324 0.270933 4.6157 0 0 0 148 158 157 255
0.609125 0.269456 4.60532 0 0 0 86 110 104 255
0.657327 0.270629 4.61386 0 0 0 128 145 143 255
0.71996 0.267296 4.57347 0 0 0 128 140 138 255
0.832995 0.266553 4.57581 0 0 0 106 139 131 255
0.901621 0.270092 4.59763 0 0 0 117 125 124 255
0.951441 0.291585 4.61797 0 0 0 124 141 118 255
0.387034 0.313178 4.75981 0 0 0 113 142 111 255
0.559654 0.320159 4.61538 0 0 0 103 126 85 255
0.419202 0.338059 4.69158 0 0 0 89 85 84 255
1.05314 0.334462 4.68893 0 0 0 119 86 90 255
0.861591 0.336963 4.58955 0 0 0 102 65 64 255
0.918764 0.336096 4.60416 0 0 0 119 93 84 255
1.00054 0.336354 4.65319 0 0 0 118 69 71 255
1.01415 0.335455 4.66548 0 0 0 118 68 71 255
0.465318 0.352663 4.65848 0 0 0 111 76 80 255
0.482455 0.351653 4.65104 0 0 0 154 144 142 255
0.759359 0.343643 4.57527 0 0 0 119 88 82 255
0.803776 0.34094 4.58322 0 0 0 106 106 104 255
0.811327 0.340377 4.58686 0 0 0 98 95 96 255
0.563302 0.355975 4.642 0 0 0 114 62 65 255
0.669997 0.347147 4.58002 0 0 0 99 76 75 255
0.688139 0.348742 4.57882 0 0 0 152 152 148 255
0.95016 0.350045 4.63035 0 0 0 122 76 82 255
0.991809 0.353494 4.64928 0 0 0 138 134 134 255
0.506069 0.365282 4.65969 0 0 0 112 49 59 255
0.722067 0.355384 4.58036 0 0 0 142 156 131 255
0.904399 0.352746 4.60071 0 0 0 96 67 70 255
0.547374 0.371384 4.64594 0 0 0 120 84 87 255
0.694667 0.362605 4.58004 0 0 0 128 90 89 255
0.934337 0.358215 4.61528 0 0 0 129 90 95 255
0.450353 0.382837 4.64647 0 0 0 149 152 151 255
0.489462 0.385471 4.65018 0 0 0 176 111 122 255
0.98869 0.386466 4.64549 0 0 0 119 94 91 255
0.617308 0.386626 4.59204 0 0 0 125 52 61 255
0.641925 0.38307 4.58922 0 0 0 162 162 163 255
0.650506 0.384333 4.58396 0 0 0 161 163 164 255
0.689805 0.380605 4.57978 0 0 0 181 129 138 255
0.725144 0.388356 4.57328 0 0 0 105 56 58 255
0.749781 0.382933 4.57547 0 0 0 178 131 142 255
0.799666 0.389587 4.58269 0 0 0 129 83 88 255
0.912871 0.386979 4.60575 0 0 0 92 80 82 255
0.950308 0.386922 4.62923 0 0 0 87 76 75 255
1.02404 0.394232 4.67383 0 0 0 155 137 140 255
0.460599 0.40006 4.66489 0 0 0 112 100 101 255
0.569258 0.393748 4.60645 0 0 0 170 124 132 255
0.411778 0.410226 4.70017 0 0 0 162 120 125 255
0.93442 0.403952 4.61709 0 0 0 168 139 138 255
0.959386 0.410077 4.63592 0 0 0 150 113 116 255
0.424369 0.42325 4.68236 0 0 0 126 68 66 255
0.468181 0.421592 4.66089 0 0 0 134 96 103 255
0.508121 0.41961 4.64153 0 0 0 128 48 58 255
0.657887 0.419588 4.58169 0 0 0 165 114 121 255
1.00523 0.421723 4.65491 0 0 0 140 58 57 255
1.01005 0.421041 4.65955 0 0 0 155 85 82 255
-0.316495 0.393271 4.2878 0 0 0 65 90 109 255
0.638326 0.425105 4.58747 0 0 0 108 57 61 255
0.699407 0.421439 4.5774 0 0 0 135 55 57 255
0.801668 0.426446 4.58031 0 0 0 134 114 113 255
0.923341 0.425847 4.60922 0 0 0 107 66 66 255
0.575575 0.42801 4.60494 0 0 0 109 80 76 255
0.763572 0.424461 4.57468 0 0 0 140 48 52 255
0.83493 0.430137 4.58372 0 0 0 139 56 63 255
0.866394 0.430566 4.59667 0 0 0 144 48 57 255
0.655682 0.433429 4.5848 0 0 0 152 60 63 255
0.687492 0.436219 4.58092 0 0 0 154 132 132 255
-0.309475 0.436781 4.29954 0 0 0 34 83 119 255
-0.309815 0.455409 4.30285 0 0 0 55 105 135 255
0.500051 0.516834 4.66574 0 0 0 123 160 146 255
0.922733 0.531109 4.61847 0 0 0 132 153 149 255
0.498669 0.551422 4.65928 0 0 0 61 78 75 255
0.876187 0.539844 4.60693 0 0 0 140 156 150 255
0.682273 0.552433 4.58294 0 0 0 148 169 163 255
0.500198 0.564966 4.65752 0 0 0 54 78 69 255
0.755798 0.556083 4.59173 0 0 0 131 153 146 255
1.02817 0.574999 4.69487 0 0 0 53 108 90 255
1.052 0.568719 4.70901 0 0 0 58 91 76 255
0.383828 0.591448 4.77113 0 0 0 91 115 111 255
0.451626 0.570879 4.68326 0 0 0 95 134 130 255
0.714355 0.560711 4.59034 0 0 0 161 167 166 255
0.956726 0.565216 4.63464 0 0 0 156 161 159 255
0.912901 0.574562 4.61529 0 0 0 143 167 163 255
0.554494 0.5908 4.64317 0 0 0 107 139 131 255
0.49799 0.592419 4.65992 0 0 0 151 156 154 255
0.533584 0.612499 4.64429 0 0 0 115 152 149 255
0.942961 0.607776 4.63781 0 0 0 151 158 158 255
0.7511 0.620349 4.58854 0 0 0 156 167 164 255
0.832527 0.627651 4.59881 0 0 0 104 120 104 255
-0.301594 0.635698 4.37271 0 0 0 113 134 153 255
-0.315707 0.675285 4.35152 0 0 0 115 122 125 255
1.05085 0.763739 4.68669 0 0 0 108 141 127 255
-0.314196 0.720827 4.34704 0 0 0 104 110 122 255
0.827331 0.769417 4.60511 0 0 0 70 115 86 255
0.916557 0.78977 4.62769 0 0 0 139 170 157 255
0.737687 0.8052 4.60499 0 0 0 82 133 112 255
-0.311397 0.772411 4.34066 0 0 0 72 79 96 255
0.925514 0.833526 4.62859 0 0 0 124 146 143 255
0.869632 0.835022 4.61256 0 0 0 161 168 166 255
0.826263 0.857337 4.59728 0 0 0 135 141 132 255
0.850298 0.855847 4.60719 0 0 0 154 164 158 255
0.7391 0.871 4.60217 0 0 0 134 164 160 255
0.9298 0.888828 4.62999 0 0 0 78 125 99 255
0.498969 0.908346 4.68452 0 0 0 145 152 149 255
1.02352 0.932435 4.68906 0 0 0 120 149 126 255
0.783982 0.93485 4.6158 0 0 0 101 143 128 255
0.465562 0.937136 4.68461 0 0 0 127 142 138 255
0.569906 0.941567 4.63724 0 0 0 137 147 144 255
1.88441 1.38887 6.68864 0 0 0 136 132 125 255
1.89214 1.3541 6.47461 0 0 0 139 136 128 255
2.08027 1.40671 6.47381 0 0 0 109 104 95 255
2.16591 1.37303 6.29175 0 0 0 145 142 137 255
1.88595 1.46485 6.71491 0 0 0 104 100 97 255
0.967376 1.04249 4.67059 0 0 0 70 122 140 255
0.859504 1.05417 4.63127 0 0 0 72 91 101 255
0.922949 1.07909 4.65546 0 0 0 117 136 96 255
0.465868 1.17946 4.73179 0 0 0 102 108 113 255
0.964644 1.17644 4.67451 0 0 0 109 97 42 255
0.699072 1.17442 4.63229 0 0 0 108 107 108 255
0.745282 1.1753 4.62049 0 0 0 123 111 128 255
0.858543 1.17997 4.64035 0 0 0 117 99 40 255
0.453566 1.23179 4.72129 0 0 0 84 87 95 255
0.995205 1.34293 4.69352 0 0 0 138 162 150 255
0.905069 1.34675 4.6696 0 0 0 80 129 106 255
0.998851 1.3663 4.69635 0 0 0 152 161 157 255
0.907007 1.38316 4.6688 0 0 0 144 174 163 255
0.314433 0.0626433 4.89807 0 0 0 145 147 146 255
1.12979 0.0736659 4.90592 0 0 0 87 105 95 255
0.476963 0.234501 4.62407 0 0 0 134 137 136 255
0.90272 0.239104 4.598 0 0 0 135 152 151 255
0.956141 0.233596 4.61599 0 0 0 118 141 138 255
0.518609 0.258378 4.62203 0 0 0 137 139 138 255
0.707105 0.243476 4.57288 0 0 0 83 112 104 255
0.77877 0.24142 4.56794 0 0 0 133 140 139 255
0.846033 0.337094 4.58962 0 0 0 98 79 77 255
0.912273 0.338443 4.60621 0 0 0 134 141 125 255
0.560181 0.363914 4.61795 0 0 0 120 53 56 255
0.668114 0.354897 4.57969 0 0 0 101 75 77 255
0.968299 0.360809 4.63353 0 0 0 155 151 151 255
-0.324388 0.364895 4.28596 0 0 0 95 112 131 255
0.63696 0.381937 4.59027 0 0 0 159 159 159 255
0.7521 0.382032 4.57357 0 0 0 178 131 142 255
0.456777 0.407642 4.66313 0 0 0 86 72 73 255
1.00292 0.411384 4.65494 0 0 0 137 70 66 255
-0.310011 0.400833 4.29567 0 0 0 19 85 129 255
0.683706 0.418339 4.58019 0 0 0 142 50 53 255
0.852731 0.415028 4.58543 0 0 0 141 89 96 255
0.845451 0.531467 4.59769 0 0 0 66 112 83 255
0.922631 0.536267 4.61863 0 0 0 132 153 149 255
0.682988 0.55708 4.58399 0 0 0 148 169 163 255
0.755811 0.556119 4.59181 0 0 0 131 153 146 255
1.02937 0.585161 4.69479 0 0 0 117 156 147 255
0.385005 0.604755 4.76689 0 0 0 128 146 144 255
0.555407 0.610816 4.64225 0 0 0 154 163 160 255
0.749846 0.614262 4.58724 0 0 0 153 167 167 255
0.815808 0.614134 4.59543 0 0 0 161 164 162 255
-0.307793 0.644948 4.3604 0 0 0 146 157 165 255
0.914742 0.786017 4.62785 0 0 0 111 156 132 255
-0.299164 0.791002 4.34823 0 0 0 150 159 160 255
0.85468 0.846399 4.60755 0 0 0 165 170 168 255
0.741021 0.867827 4.60299 0 0 0 134 164 160 255
1.01707 0.935609 4.68787 0 0 0 122 146 124 255
0.574282 0.941769 4.63766 0 0 0 155 164 161 255
1.71726 1.44921 6.66848 0 0 0 115 114 108 255
1.87378 1.39885 6.36062 0 0 0 88 85 83 255
2.14078 1.37002 6.2844 0 0 0 128 125 118 255
0.925374 1.12579 4.65655 0 0 0 48 82 100 255
0.462419 1.19797 4.72692 0 0 0 89 99 114 255
0.961418 1.18224 4.67292 0 0 0 98 93 54 255
0.98893 1.34745 4.69282 0 0 0 128 154 141 255
0.910934 1.36151 4.67332 0 0 0 142 173 160 255
-0.311941 0.100479 4.56176 0 0 0 35 74 110 255
0.386597 0.113649 4.80086 0 0 0 28 57 42 255
0.39057 0.140788 4.79422 0 0 0 48 86 64 255
0.47603 0.226148 4.62887 0 0 0 107 136 128 255
0.594174 0.234362 4.57286 0 0 0 141 154 149 255
0.719223 0.214948 4.57221 0 0 0 68 108 74 255
0.785209 0.223904 4.57233 0 0 0 84 112 107 255
0.530202 0.262982 4.61915 0 0 0 123 132 131 255
0.449523 0.338977 4.66927 0 0 0 132 139 131 255
1.00916 0.338809 4.6607 0 0 0 118 68 71 255
0.639363 0.371982 4.59055 0 0 0 160 162 157 255
-0.321178 0.365454 4.28857 0 0 0 75 122 156 255
0.868521 0.415829 4.59536 0 0 0 122 53 62 255
0.654519 0.420693 4.5844 0 0 0 165 114 121 255
0.842456 0.428189 4.5851 0 0 0 142 59 65 255
-0.301844 0.449489 4.31541 0 0 0 19 80 124 255
0.499364 0.528052 4.66388 0 0 0 143 157 153 255
1.11494 0.544842 4.82752 0 0 0 80 104 80 255
0.853553 0.551489 4.60184 0 0 0 162 168 166 255
0.936449 0.54759 4.62001 0 0 0 157 163 161 255
0.6903 0.557916 4.58779 0 0 0 157 169 169 255
0.760627 0.561936 4.59375 0 0 0 151 169 167 255
0.386211 0.595487 4.76524 0 0 0 126 145 145 255
0.94344 0.584467 4.63368 0 0 0 159 164 162 255
1.03145 0.593671 4.69459 0 0 0 125 164 155 255
0.770998 0.608644 4.59263 0 0 0 164 169 167 255
0.486967 0.627016 4.66586 0 0 0 53 86 78 255
0.823722 0.634335 4.59515 0 0 0 91 102 87 255
-0.3175 0.663016 4.34949 0 0 0 156 159 160 255
0.554431 0.690974 4.61738 0 0 0 154 164 162 255
0.822887 0.760352 4.6036 0 0 0 71 117 87 255
1.05076 0.763701 4.6865 0 0 0 108 141 127 255
0.946283 0.788518 4.64291 0 0 0 159 166 164 255
-0.297328 0.787075 4.35306 0 0 0 142 149 153 255
0.754405 0.822726 4.61063 0 0 0 167 172 170 255
0.93412 0.825917 4.63548 0 0 0 154 166 164 255
0.855258 0.839234 4.60732 0 0 0 163 171 168 255
0.743402 0.847002 4.60781 0 0 0 157 174 171 255
0.47345 0.90975 4.68108 0 0 0 140 154 153 255
0.573557 0.923182 4.63928 0 0 0 158 166 166 255
1.88101 1.37257 6.61667 0 0 0 155 151 143 255
1.89172 1.35582 6.48905 0 0 0 139 136 128 255
2.1425 1.36871 6.2847 0 0 0 128 125 118 255
1.72685 1.441 6.66921 0 0 0 124 123 117 255
1.87709 1.39718 6.34671 0 0 0 82 80 79 255
0.963645 1.09986 4.66975 0 0 0 28 83 125 255
0.440488 1.16675 4.752 0 0 0 131 138 137 255
0.44227 1.14963 4.75757 0 0 0 113 133 124 255
0.938635 1.11755 4.66109 0 0 0 43 81 106 255
0.566664 1.15374 4.68459 0 0 0 137 154 151 255
0.863196 1.18391 4.63667 0 0 0 102 96 67 255
0.443941 1.25747 4.72907 0 0 0 129 136 135 255
0.575269 1.27166 4.65739 0 0 0 143 146 145 255
0.639607 1.26046 4.63114 0 0 0 91 116 85 255
0.331916 1.40281 4.99179 0 0 0 75 92 82 255
0.915483 1.35995 4.67228 0 0 0 154 161 159 255
0.332623 0.0884204 4.88442 0 0 0 72 99 83 255
1.11239 0.0973165 4.90656 0 0 0 66 101 78 255
0.527708 0.384192 4.62825 0 0 0 164 152 156 255
0.781389 0.375085 4.5812 0 0 0 164 167 166 255
0.836433 0.391902 4.58199 0 0 0 108 74 74 255
1.06852 0.549262 4.73032 0 0 0 65 104 75 255
0.818796 0.572893 4.58563 0 0 0 162 169 169 255
0.925181 0.571486 4.61796 0 0 0 157 167 164 255
0.68401 0.580144 4.58594 0 0 0 154 170 167 255
0.79366 0.580435 4.60281 0 0 0 165 169 168 255
0.55624 0.672475 4.616 0 0 0 158 163 161 255
-0.328172 0.655141 4.33993 0 0 0 160 162 163 255
0.9337 0.804866 4.63374 0 0 0 160 167 167 255
0.824565 0.826206 4.60204 0 0 0 170 173 172 255
0.74713 0.843974 4.60862 0 0 0 157 174 172 255
0.575621 0.901368 4.6406 0 0 0 160 166 164 255
1.7504 1.45166 6.64819 0 0 0 103 102 100 255
0.43909 1.15266 4.7554 0 0 0 124 135 133 255
0.713218 1.14432 4.62879 0 0 0 140 155 150 255
0.405792 1.23259 4.79165 0 0 0 123 143 132 255
0.716762 1.26767 4.6106 0 0 0 145 150 148 255
0.340246 1.39145 4.99328 0 0 0 79 94 81 255
1.11293 0.0900738 4.905 0 0 0 64 101 80 255
-0.341483 0.141807 4.55028 0 0 0 17 69 115 255
0.520374 0.24593 4.62079 0 0 0 142 139 140 255
0.781594 0.251618 4.57391 0 0 0 150 155 154 255
0.90778 0.247334 4.60489 0 0 0 139 150 151 255
0.641516 0.364099 4.59035 0 0 0 156 160 153 255
1.07549 0.534853 4.74382 0 0 0 82 110 73 255
0.44541 0.619236 4.70358 0 0 0 141 153 156 255
0.557126 0.646292 4.63762 0 0 0 157 163 162 255
0.766008 0.83652 4.61298 0 0 0 168 173 172 255
0.477325 0.886691 4.67836 0 0 0 142 154 154 255
2.10862 1.38253 6.43098 0 0 0 133 130 122 255
0.939989 1.05724 4.66028 0 0 0 42 93 122 255
0.937289 1.10666 4.66114 0 0 0 47 83 104 255
0.881465 1.16256 4.63768 0 0 0 169 149 74 255
0.419008 1.23713 4.75837 0 0 0 135 141 141 255
0.357708 0.127295 4.87834 0 0 0 59 95 67 255
1.0267 0.114625 4.68006 0 0 0 57 102 74 255
-0.34415 0.127655 4.52834 0 0 0 19 70 118 255
-0.325996 0.586256 4.30603 0 0 0 27 81 121 255
0.455123 1.16466 4.74352 0 0 0 134 142 142 255
2.31469 -0.221435 3.89683 0 0 0 55 55 55 255
2.35224 -0.216975 3.87996 0 0 0 66 57 63 255
2.33153 -0.207857 3.88151 0 0 0 153 157 163 255
2.23775 -0.160109 3.7941 0 0 0 138 84 84 255
2.3765 -0.167569 3.83684 0 0 0 127 62 57 255
2.32644 -0.146021 3.84714 0 0 0 167 64 83 255
2.10327 -0.15037 4.00978 0 0 0 147 143 140 255
2.33549 -0.11251 3.90926 0 0 0 95 96 98 255
2.34786 -0.114275 3.88767 0 0 0 100 98 100 255
2.32422 -0.0798961 3.91982 0 0 0 55 55 62 255
2.14108 -0.0778424 3.98809 0 0 0 70 71 78 255
2.48352 -0.0447366 3.90862 0 0 0 39 44 42 255
2.33756 0.00551817 3.90569 0 0 0 200 205 207 255
2.34235 0.0681414 3.9109 0 0 0 250 252 254 255
2.35528 0.114677 3.90447 0 0 0 253 251 252 255
2.06612 0.125168 4.03832 0 0 0 123 121 117 255
2.54481 0.135466 3.95432 0 0 0 54 53 58 255
-1.02837 0.189447 4.26319 0 0 0 68 78 91 255
2.30561 0.253529 3.68854 0 0 0 122 112 94 255
-0.503619 0.253823 4.12588 0 0 0 20 46 86 255
-0.485474 0.252737 4.13087 0 0 0 99 103 125 255
2.22129 0.259727 3.69995 0 0 0 139 109 74 255
2.26517 0.25794 3.6975 0 0 0 114 99 81 255
2.40886 0.256429 3.70759 0 0 0 91 78 70 255
-0.656838 0.263581 4.06491 0 0 0 123 104 95 255
-0.631442 0.261672 4.0709 0 0 0 129 107 101 255
-0.521562 0.25939 4.11721 0 0 0 125 105 96 255
-0.453389 0.257388 4.14349 0 0 0 83 87 115 255
0.496968 0.252208 4.64167 0 0 0 100 111 110 255
-0.850049 0.263942 4.05944 0 0 0 100 102 114 255
-0.800135 0.266973 4.05503 0 0 0 97 97 97 255
-0.773061 0.259784 4.05531 0 0 0 89 75 84 255
-0.730651 0.265673 4.05582 0 0 0 106 100 99 255
-0.697942 0.266904 4.061 0 0 0 140 126 102 255
-0.572731 0.265839 4.09615 0 0 0 110 103 101 255
0.886262 0.260946 4.60477 0 0 0 62 76 74 255
2.3833 0.273237 3.69568 0 0 0 100 56 21 255
-0.834172 0.271717 4.06168 0 0 0 120 118 85 255
-0.557141 0.274433 4.10184 0 0 0 134 110 79 255
-0.859345 0.283437 4.0601 0 0 0 126 125 102 255
-0.7999 0.279981 4.05585 0 0 0 128 122 98 255
-0.61748 0.277987 4.07849 0 0 0 122 102 59 255
2.23052 0.285472 3.69191 0 0 0 106 68 33 255
2.27028 0.282311 3.69066 0 0 0 160 122 66 255
2.30818 0.283064 3.68126 0 0 0 87 49 40 255
2.38044 0.282582 3.69249 0 0 0 91 51 24 255
-0.780221 0.290524 4.0569 0 0 0 36 44 62 255
-0.501043 0.289244 4.12731 0 0 0 77 63 50 255
0.718814 0.285532 4.58022 0 0 0 76 95 91 255
-0.852428 0.294743 4.0613 0 0 0 78 76 46 255
-0.816334 0.296272 4.0568 0 0 0 38 39 53 255
-0.68781 0.29769 4.0596 0 0 0 38 39 43 255
-0.648709 0.296282 4.06707 0 0 0 89 71 48 255
-0.614521 0.295027 4.07664 0 0 0 59 57 62 255
-0.583761 0.298683 4.08587 0 0 0 23 46 93 255
-0.557962 0.287871 4.10256 0 0 0 65 47 33 255
-0.520905 0.296244 4.11854 0 0 0 140 115 87 255
2.40207 0.298388 3.69658 0 0 0 91 74 60 255
-0.494834 0.306311 4.12887 0 0 0 98 76 83 255
2.20549 0.302616 3.69736 0 0 0 108 89 64 255
2.25708 0.309247 3.68837 0 0 0 153 118 70 255
2.27937 0.310591 3.68388 0 0 0 135 96 61 255
2.29977 0.30796 3.6743 0 0 0 165 133 81 255
-0.851505 0.314833 4.06586 0 0 0 86 93 132 255
-0.783654 0.316464 4.05749 0 0 0 87 84 115 255
-0.729943 0.315184 4.0555 0 0 0 83 94 128 255
-0.661453 0.316251 4.06652 0 0 0 128 111 86 255
-0.630052 0.313598 4.0743 0 0 0 145 116 97 255
-0.552056 0.312902 4.10547 0 0 0 113 106 101 255
-1.00741 0.326746 4.22857 0 0 0 81 104 136 255
0.610063 0.327476 4.60149 0 0 0 138 142 131 255
0.758346 0.326265 4.58432 0 0 0 141 155 125 255
1.99575 0.333837 3.99092 0 0 0 70 75 76 255
0.581207 0.350453 4.61296 0 0 0 178 129 137 255
0.600741 0.348877 4.60074 0 0 0 121 77 78 255
-0.500796 0.354371 4.1261 0 0 0 54 109 155 255
-0.395282 0.34982 4.19642 0 0 0 14 87 133 255
0.82057 0.358714 4.58751 0 0 0 164 123 128 255
1.0292 0.359207 4.69311 0 0 0 172 130 136 255
1.10489 0.365071 4.76524 0 0 0 91 101 86 255
-0.898026 0.361947 4.08659 0 0 0 35 72 108 255
-0.761685 0.359086 4.06024 0 0 0 22 78 129 255
-0.643557 0.360402 4.07357 0 0 0 122 132 142 255
-0.617522 0.359422 4.08127 0 0 0 9 73 123 255
-0.592644 0.361183 4.08393 0 0 0 96 119 159 255
1.94989 0.357246 4.01014 0 0 0 86 81 79 255
-0.872895 0.365393 4.07789 0 0 0 76 99 128 255
-0.527897 0.364646 4.11852 0 0 0 7 73 123 255
-0.343857 0.369908 4.2539 0 0 0 101 88 100 255
1.05146 0.375987 4.70353 0 0 0 151 125 132 255
-0.499906 0.380787 4.12893 0 0 0 55 87 113 255
0.873778 0.384495 4.60385 0 0 0 157 138 142 255
1.96073 0.374155 3.98865 0 0 0 117 119 118 255
-0.565801 0.383945 4.09441 0 0 0 26 81 117 255
-0.542776 0.386578 4.11382 0 0 0 140 150 161 255
-0.419172 0.382132 4.18053 0 0 0 73 89 111 255
1.98608 0.378702 3.94559 0 0 0 112 117 117 255
-0.646345 0.384309 4.07537 0 0 0 68 97 95 255
-0.490228 0.386435 4.13471 0 0 0 25 65 100 255
-0.449799 0.392401 4.16238 0 0 0 36 61 105 255
-0.37482 0.388801 4.22327 0 0 0 78 80 99 255
2.44709 0.382114 3.69788 0 0 0 103 102 105 255
2.492 0.38665 3.71345 0 0 0 123 130 133 255
2.56501 0.378847 3.78208 0 0 0 79 84 88 255
-0.510906 0.393211 4.12051 0 0 0 33 72 114 255
0.530515 0.404513 4.58815 0 0 0 121 111 114 255
2.06465 0.384361 3.75005 0 0 0 103 107 108 255
2.17194 0.392412 3.69234 0 0 0 132 134 137 255
2.19043 0.389434 3.68576 0 0 0 81 81 81 255
2.27429 0.386819 3.67318 0 0 0 81 83 84 255
2.28838 0.383278 3.66755 0 0 0 88 87 89 255
2.30009 0.391263 3.66199 0 0 0 137 136 137 255
-0.485396 0.405339 4.13554 0 0 0 121 134 152 255
-0.477222 0.406599 4.13945 0 0 0 139 150 165 255
1.05591 0.41134 4.70706 0 0 0 126 90 88 255
1.97586 0.392175 3.96891 0 0 0 73 68 66 255
2.45195 0.395515 3.70066 0 0 0 138 141 140 255
-0.601835 0.41068 4.08363 0 0 0 25 93 124 255
-0.582483 0.410138 4.0903 0 0 0 147 155 163 255
-0.404268 0.412142 4.19071 0 0 0 141 145 164 255
-0.560511 0.423807 4.10645 0 0 0 42 84 121 255
-0.520339 0.41673 4.12042 0 0 0 153 158 160 255
-0.484344 0.422651 4.13556 0 0 0 152 153 157 255
-0.447523 0.419737 4.16587 0 0 0 149 150 154 255
2.1009 0.413012 3.73045 0 0 0 60 39 39 255
2.43286 0.409666 3.69599 0 0 0 61 44 39 255
-0.546493 0.42497 4.111 0 0 0 81 103 123 255
-0.465773 0.426651 4.15498 0 0 0 63 79 103 255
-0.367028 0.432209 4.2406 0 0 0 103 96 115 255
2.51863 0.411277 3.71675 0 0 0 76 66 67 255
-0.600919 0.431458 4.08546 0 0 0 19 93 125 255
-0.395492 0.439467 4.20095 0 0 0 79 87 98 255
-0.545162 0.438795 4.11011 0 0 0 11 83 127 255
-0.509465 0.44102 4.12264 0 0 0 30 76 115 255
-0.566352 0.445162 4.09927 0 0 0 116 163 192 255
-0.475753 0.44608 4.1411 0 0 0 39 62 90 255
-0.452537 0.448496 4.16538 0 0 0 17 60 109 255
-0.405499 0.447164 4.19323 0 0 0 57 71 108 255
-0.343688 0.453993 4.25867 0 0 0 120 89 112 255
-0.71882 0.452353 4.06458 0 0 0 142 149 136 255
-0.676887 0.45116 4.07181 0 0 0 140 149 148 255
-0.552383 0.461357 4.10907 0 0 0 25 89 126 255
-0.48457 0.461005 4.1398 0 0 0 22 70 125 255
2.10239 0.448679 3.72909 0 0 0 58 39 39 255
-0.675693 0.468443 4.07205 0 0 0 80 95 94 255
-0.636752 0.469645 4.08002 0 0 0 58 94 92 255
-0.584333 0.468112 4.09048 0 0 0 81 103 120 255
-0.430983 0.478732 4.17805 0 0 0 45 84 117 255
2.13974 0.467209 3.70443 0 0 0 91 65 52 255
-1.01701 0.489646 4.25384 0 0 0 110 92 99 255
-0.658184 0.482019 4.07551 0 0 0 84 120 108 255
-0.395345 0.491377 4.20786 0 0 0 73 98 117 255
-0.323295 0.486143 4.27444 0 0 0 31 84 119 255
-0.99573 0.497641 4.25184 0 0 0 108 94 96 255
2.28032 0.472355 3.66684 0 0 0 80 62 54 255
-0.733373 0.495264 4.06431 0 0 0 87 106 123 255
1.96886 0.498245 3.96988 0 0 0 95 96 91 255
2.1024 0.485792 3.73145 0 0 0 67 46 41 255
-0.433968 0.504687 4.17541 0 0 0 60 108 147 255
2.51092 0.479692 3.71399 0 0 0 109 105 106 255
2.11934 0.495714 3.72204 0 0 0 37 43 44 255
2.26918 0.510811 3.67294 0 0 0 87 75 65 255
2.27298 0.509527 3.67096 0 0 0 74 55 41 255
2.29408 0.507964 3.66848 0 0 0 60 51 47 255
1.10639 0.574451 4.82027 0 0 0 106 143 126 255
1.95708 0.549722 3.98041 0 0 0 119 116 115 255
2.43028 0.531859 3.69772 0 0 0 64 53 57 255
-0.448085 0.561856 4.16944 0 0 0 145 149 167 255
2.20601 0.537819 3.6818 0 0 0 81 66 56 255
2.21403 0.529225 3.68097 0 0 0 50 37 39 255
-1.01017 0.571503 4.23289 0 0 0 107 113 138 255
-0.861332 0.561696 4.0685 0 0 0 104 117 151 255
-0.823685 0.563961 4.07305 0 0 0 141 145 147 255
2.45226 0.543663 3.70369 0 0 0 101 103 109 255
2.56005 0.544381 3.76875 0 0 0 131 138 138 255
-0.645381 0.571243 4.07628 0 0 0 138 140 171 255
1.95032 0.571678 4.01713 0 0 0 77 67 61 255
2.49305 0.547148 3.71929 0 0 0 129 138 140 255
2.17084 0.558375 3.69846 0 0 0 114 129 133 255
-0.888565 0.583679 4.09155 0 0 0 24 52 91 255
2.23912 0.557901 3.6717 0 0 0 139 136 137 255
2.32071 0.557629 3.67448 0 0 0 93 103 105 255
2.3507 0.557471 3.66651 0 0 0 140 141 143 255
-0.955757 0.592544 4.16835 0 0 0 33 58 91 255
1.04638 0.627973 4.70633 0 0 0 71 73 73 255
-0.502676 0.606527 4.11968 0 0 0 84 89 109 255
-0.591804 0.616541 4.12525 0 0 0 53 59 75 255
-0.985466 0.652991 4.19675 0 0 0 127 129 132 255
-0.376002 0.646803 4.23579 0 0 0 36 66 115 255
-0.494237 0.654329 4.10132 0 0 0 91 90 94 255
-0.588527 0.667294 4.11708 0 0 0 61 68 87 255
-0.861033 0.678539 4.08497 0 0 0 56 60 71 255
-0.340719 0.682896 4.24728 0 0 0 116 116 118 255
-0.945002 0.680459 4.15634 0 0 0 37 42 54 255
0.548981 0.71389 4.64776 0 0 0 85 123 102 255
-0.993845 0.6909 4.1694 0 0 0 88 95 105 255
-0.443062 0.689478 4.17888 0 0 0 151 158 159 255
1.07265 0.731774 4.74561 0 0 0 127 137 136 255
-0.741168 0.695393 4.06314 0 0 0 123 125 141 255
-0.411009 0.719822 4.21057 0 0 0 132 140 162 255
0.836951 0.748925 4.6241 0 0 0 65 109 78 255
-0.867547 0.716186 4.08571 0 0 0 122 125 129 255
-0.646737 0.71873 4.07761 0 0 0 136 142 163 255
-0.34188 0.735798 4.25235 0 0 0 113 116 127 255
-0.559367 0.74911 4.1131 0 0 0 141 150 171 255
-0.521052 0.74659 4.11669 0 0 0 152 152 158 255
2.25567 0.715219 3.68299 0 0 0 79 76 68 255
2.3776 0.714974 3.69755 0 0 0 86 76 66 255
-0.786028 0.75675 4.05727 0 0 0 78 82 95 255
-0.688348 0.76598 4.06831 0 0 0 131 136 162 255
-0.452211 0.77383 4.15889 0 0 0 70 74 90 255
-0.997533 0.77871 4.20161 0 0 0 130 137 137 255
-0.340588 0.78989 4.26231 0 0 0 60 71 94 255
-0.308867 0.820237 4.32281 0 0 0 97 106 117 255
-0.324797 0.818988 4.28874 0 0 0 127 132 153 255
2.24838 0.760771 3.68195 0 0 0 89 76 57 255
-0.820236 0.806877 4.0647 0 0 0 117 120 126 255
-0.612055 0.80626 4.08518 0 0 0 79 86 105 255
2.30062 0.76273 3.67965 0 0 0 98 74 53 255
-0.627615 0.810671 4.08268 0 0 0 53 63 89 255
-0.392053 0.828272 4.23123 0 0 0 56 73 95 255
-0.452061 0.834458 4.1629 0 0 0 90 89 97 255
-0.796755 0.830884 4.05342 0 0 0 74 80 99 255
-0.369145 0.84933 4.24577 0 0 0 155 157 160 255
0.547968 0.90277 4.65633 0 0 0 71 111 93 255
-0.38749 0.868068 4.23557 0 0 0 82 92 100 255
-0.405229 0.881791 4.22259 0 0 0 156 158 157 255
-0.610521 0.87013 4.08394 0 0 0 103 105 107 255
-0.626686 0.878607 4.08028 0 0 0 67 83 105 255
-0.95753 0.898226 4.17547 0 0 0 79 88 101 255
-0.368004 0.907229 4.22741 0 0 0 73 96 127 255
-0.708888 0.899879 4.06002 0 0 0 35 64 104 255
-0.514835 0.914069 4.11925 0 0 0 157 157 163 255
1.07888 1.00023 4.74477 0 0 0 121 139 124 255
-0.553362 0.927192 4.11684 0 0 0 155 159 160 255
-0.436305 0.933443 4.17602 0 0 0 73 92 125 255
-0.71583 0.92983 4.05784 0 0 0 159 160 161 255
-0.611833 0.941586 4.09093 0 0 0 125 125 125 255
-0.591134 0.940913 4.09948 0 0 0 148 150 152 255
-0.887551 0.956635 4.14284 0 0 0 35 51 92 255
-0.701887 0.949272 4.05984 0 0 0 81 91 108 255
-0.681525 0.962488 4.06268 0 0 0 153 149 159 255
-0.575863 0.976682 4.09693 0 0 0 75 92 137 255
-0.737307 0.974349 4.05496 0 0 0 157 157 157 255
-0.610315 0.98783 4.08539 0 0 0 68 89 127 255
-0.366439 1.0131 4.25167 0 0 0 118 140 158 255
1.17872 1.13781 5.0478 0 0 0 172 176 170 255
-0.847775 0.998899 4.04128 0 0 0 40 50 84 255
-0.687569 1.00298 4.06348 0 0 0 66 84 118 255
1.92062 1.36659 6.5306 0 0 0 144 141 136 255
-0.380175 1.03297 4.25026 0 0 0 52 101 130 255
-0.907333 1.02134 4.09382 0 0 0 135 131 139 255
-0.913754 1.02909 4.16553 0 0 0 145 149 150 255
1.20363 1.17389 5.06278 0 0 0 120 118 116 255
-0.992373 1.03957 4.2015 0 0 0 116 120 122 255
-0.504074 1.04758 4.14461 0 0 0 41 99 138 255
-0.502138 1.08584 4.14485 0 0 0 60 110 140 255
-0.374484 1.1174 4.25365 0 0 0 28 73 120 255
-0.339345 1.12497 4.26782 0 0 0 29 75 113 255
2.06865 1.04568 3.78474 0 0 0 107 110 109 255
2.11983 1.04985 3.76163 0 0 0 117 117 118 255
2.16793 1.04727 3.73288 0 0 0 90 86 85 255
2.10699 1.05501 3.76316 0 0 0 99 103 103 255
2.13926 1.05426 3.76867 0 0 0 97 94 95 255
2.20869 1.04743 3.71375 0 0 0 90 92 91 255
-0.400958 1.14444 4.23823 0 0 0 135 146 156 255
-0.313298 1.14583 4.27365 0 0 0 109 132 145 255
2.25021 1.04742 3.70454 0 0 0 80 81 80 255
2.3113 1.05152 3.69798 0 0 0 103 98 100 255
2.33951 1.05122 3.69989 0 0 0 96 94 96 255
2.20837 1.06381 3.70672 0 0 0 121 124 123 255
2.20726 1.06502 3.71141 0 0 0 121 124 123 255
2.21652 1.07873 3.70823 0 0 0 86 84 84 255
-0.330811 1.18204 4.28067 0 0 0 51 76 100 255
2.16548 1.08904 3.74005 0 0 0 84 89 89 255
2.24851 1.0801 3.69977 0 0 0 83 78 76 255
2.27832 1.07214 3.69136 0 0 0 89 81 83 255
2.35157 1.07864 3.69049 0 0 0 78 78 79 255
2.47765 1.0815 3.72859 0 0 0 73 74 76 255
-0.605594 1.15085 4.06026 0 0 0 24 111 147 255
2.21646 1.079 3.70949 0 0 0 98 105 102 255
2.39163 1.08231 3.69594 0 0 0 87 92 90 255
-0.863444 1.17532 4.12317 0 0 0 88 116 142 255
-0.630278 1.16785 4.05739 0 0 0 148 149 158 255
2.1311 1.1298 3.75254 0 0 0 102 103 105 255
-0.618879 1.19072 4.05622 0 0 0 66 85 118 255
-0.736987 1.2096 4.09954 0 0 0 115 99 115 255
-0.828483 1.21998 4.10432 0 0 0 107 103 113 255
-0.678398 1.20602 4.04712 0 0 0 113 103 118 255
2.07812 1.17081 3.7977 0 0 0 103 105 104 255
2.25175 1.17328 3.70301 0 0 0 106 107 111 255
2.07162 1.20592 3.80229 0 0 0 115 113 112 255
-0.887613 1.36107 4.11562 0 0 0 69 106 141 255
-0.370301 1.38227 4.21545 0 0 0 140 152 167 255
-0.841971 1.36098 4.10877 0 0 0 65 104 137 255
-0.391162 1.39697 4.21692 0 0 0 93 102 120 255
-0.458627 1.38606 4.13534 0 0 0 93 128 163 255
-0.815698 1.39123 4.10708 0 0 0 22 83 123 255
-0.451843 1.41586 4.1356 0 0 0 157 159 160 255
-0.886659 1.41417 4.11774 0 0 0 89 108 133 255
2.46126 1.4045 3.79337 0 0 0 84 82 84 255
2.25145 1.41287 3.79984 0 0 0 112 112 112 255
2.1707 1.43021 3.83099 0 0 0 100 100 100 255
2.31051 1.41643 3.77491 0 0 0 106 106 106 255
2.38519 1.63083 3.98878 0 0 0 191 193 199 255
2.39535 1.62889 3.98083 0 0 0 207 207 208 255
2.32661 -0.20881 3.88174 0 0 0 153 157 163 255
2.36056 -0.207523 3.87479 0 0 0 46 45 44 255
2.22586 -0.160279 3.80348 0 0 0 140 73 68 255
0.949567 -0.243811 4.70945 0 0 0 211 211 212 255
2.33868 0.0117203 3.90435 0 0 0 200 205 207 255
-1.04235 0.133339 4.24859 0 0 0 22 47 84 255
2.05175 0.133862 4.04456 0 0 0 135 135 134 255
2.21015 0.258722 3.7035 0 0 0 121 103 80 255
2.30887 0.249979 3.68667 0 0 0 80 75 76 255
2.40254 0.254774 3.70458 0 0 0 93 77 67 255
-0.72503 0.260785 4.05676 0 0 0 113 104 82 255
-0.850944 0.270441 4.05924 0 0 0 132 125 125 255
-0.572854 0.269063 4.09605 0 0 0 110 103 101 255
-0.49026 0.270967 4.13086 0 0 0 124 109 113 255
2.38006 0.281812 3.69282 0 0 0 91 51 24 255
2.29822 0.308979 3.67384 0 0 0 165 133 81 255
-0.565283 0.31252 4.09589 0 0 0 147 121 91 255
-0.92873 0.330019 4.11832 0 0 0 68 103 139 255
-0.895796 0.354914 4.09441 0 0 0 37 76 112 255
-0.649337 0.356024 4.07387 0 0 0 46 99 143 255
-0.439053 0.348074 4.1679 0 0 0 105 129 149 255
0.404833 0.36435 4.7275 0 0 0 111 87 83 255
0.798458 0.364643 4.58651 0 0 0 144 132 134 255
0.874849 0.375523 4.60662 0 0 0 136 117 121 255
-0.661258 0.390952 4.07247 0 0 0 29 88 75 255
-0.493742 0.389043 4.13214 0 0 0 30 73 108 255
-0.397156 0.398112 4.19613 0 0 0 152 156 156 255
1.98484 0.382369 3.95415 0 0 0 77 84 85 255
2.11993 0.390087 3.7185 0 0 0 89 89 90 255
2.4891 0.38761 3.71545 0 0 0 110 118 121 255
1.93606 0.411569 3.97729 0 0 0 125 120 116 255
-0.596022 0.432089 4.08592 0 0 0 19 93 125 255
2.10124 0.419639 3.7301 0 0 0 58 40 40 255
2.41693 0.414623 3.67951 0 0 0 83 63 45 255
-0.462372 0.441806 4.15509 0 0 0 16 60 108 255
1.97727 0.443341 3.94244 0 0 0 82 76 67 255
2.10237 0.432813 3.72977 0 0 0 58 42 39 255
2.45479 0.429583 3.703 0 0 0 34 38 37 255
-0.61817 0.455684 4.08406 0 0 0 147 154 154 255
2.14052 0.467834 3.70462 0 0 0 91 65 52 255
-0.556375 0.490963 4.10415 0 0 0 104 120 136 255
-0.427408 0.505239 4.17762 0 0 0 78 121 156 255
1.94091 0.49897 3.99965 0 0 0 122 120 119 255
2.10312 0.499028 3.73215 0 0 0 55 39 39 255
1.08421 0.579205 4.75254 0 0 0 126 142 138 255
2.10033 0.525349 3.73349 0 0 0 50 42 47 255
2.21088 0.524525 3.68208 0 0 0 55 39 41 255
2.2794 0.522781 3.66869 0 0 0 46 36 38 255
2.41324 0.522602 3.68138 0 0 0 57 40 43 255
2.57187 0.5455 3.80353 0 0 0 104 112 118 255
1.94781 0.575093 4.02317 0 0 0 108 100 94 255
2.48797 0.546457 3.71927 0 0 0 123 130 131 255
2.36188 0.55972 3.67199 0 0 0 108 94 86 255
2.40235 0.549289 3.67133 0 0 0 140 142 143 255
2.4222 0.550553 3.68782 0 0 0 143 143 143 255
-1.00223 0.592198 4.2223 0 0 0 134 137 140 255
-0.903497 0.585743 4.10504 0 0 0 32 55 90 255
2.14695 0.554954 3.70358 0 0 0 107 90 75 255
-0.739361 0.611239 4.06542 0 0 0 155 156 156 255
-0.506492 0.606762 4.12038 0 0 0 88 94 113 255
-0.73002 0.646352 4.06417 0 0 0 154 156 158 255
-0.443985 0.685652 4.17319 0 0 0 151 158 159 255
-0.988451 0.707387 4.16651 0 0 0 133 131 130 255
-0.73309 0.713902 4.06294 0 0 0 156 159 161 255
-0.643745 0.707822 4.07806 0 0 0 137 143 162 255
-0.415262 0.726279 4.20942 0 0 0 155 160 168 255
-0.871428 0.724477 4.0885 0 0 0 109 111 116 255
-0.562171 0.760501 4.10924 0 0 0 158 162 163 255
2.25603 0.722337 3.68176 0 0 0 96 76 55 255
-0.880157 0.77227 4.09072 0 0 0 97 108 118 255
-0.69124 0.759051 4.06935 0 0 0 52 69 110 255
-0.466561 0.777222 4.15878 0 0 0 92 94 101 255
-0.340326 0.788733 4.26237 0 0 0 40 53 83 255
-0.323935 0.813552 4.28922 0 0 0 128 133 152 255
-0.627642 0.810679 4.0827 0 0 0 53 63 89 255
-0.463074 0.838772 4.16284 0 0 0 58 66 93 255
-0.422823 0.888255 4.207 0 0 0 156 157 159 255
-0.459083 0.89988 4.16708 0 0 0 113 117 126 255
-0.955262 0.913001 4.17034 0 0 0 69 69 80 255
-0.510653 0.913507 4.1218 0 0 0 156 159 158 255
-0.5685 0.931592 4.11004 0 0 0 160 162 163 255
-0.730422 0.931205 4.05574 0 0 0 157 161 163 255
-0.888782 0.946296 4.14412 0 0 0 33 52 93 255
-0.669092 0.957893 4.06377 0 0 0 158 160 161 255
-0.705954 0.963474 4.0598 0 0 0 59 71 96 255
-0.738492 0.972015 4.05525 0 0 0 157 157 157 255
-0.485908 0.999939 4.14745 0 0 0 130 149 169 255
-0.820785 0.997782 4.04414 0 0 0 151 154 153 255
-0.929738 1.02649 4.16893 0 0 0 149 147 151 255
-0.506898 1.03936 4.14297 0 0 0 40 99 138 255
0.95518 1.11492 4.67399 0 0 0 29 77 115 255
0.506535 1.14752 4.69931 0 0 0 69 104 73 255
2.34337 1.06214 3.69765 0 0 0 87 86 87 255
0.799652 1.24986 4.61993 0 0 0 101 120 98 255
-0.628198 1.1633 4.05647 0 0 0 136 140 153 255
-0.867516 1.17011 4.12552 0 0 0 88 116 142 255
-0.724086 1.17616 4.10304 0 0 0 85 131 170 255
-0.792585 1.1926 4.10976 0 0 0 21 85 131 255
-0.828519 1.23751 4.10132 0 0 0 80 84 109 255
-0.904309 1.27197 4.13632 0 0 0 124 142 163 255
-0.620269 1.28647 4.05114 0 0 0 37 76 110 255
-0.857059 1.32244 4.12318 0 0 0 101 111 122 255
-0.726667 1.32925 4.10682 0 0 0 95 108 135 255
-0.842447 1.36321 4.11226 0 0 0 65 104 137 255
2.39948 1.41094 3.78612 0 0 0 98 94 97 255
2.29396 -0.209593 3.89066 0 0 0 45 43 44 255
2.36898 -0.2036 3.8553 0 0 0 45 45 45 255
2.45652 -0.19735 3.91037 0 0 0 47 52 53 255
0.948963 -0.242231 4.71029 0 0 0 211 211 212 255
2.10184 -0.0574189 4.00197 0 0 0 93 84 83 255
2.47127 -0.0436954 3.90631 0 0 0 35 39 39 255
2.33931 0.00828334 3.90503 0 0 0 200 205 207 255
2.46875 0.037539 3.91825 0 0 0 84 85 92 255
2.3474 0.0868079 3.91339 0 0 0 248 250 254 255
2.35144 0.114889 3.90677 0 0 0 255 252 253 255
2.06932 0.134275 4.0387 0 0 0 63 63 62 255
2.53072 0.141032 3.93482 0 0 0 50 50 54 255
2.307 0.259631 3.68722 0 0 0 161 144 114 255
-0.480722 0.261756 4.13645 0 0 0 148 121 89 255
2.21292 0.267267 3.70179 0 0 0 95 75 60 255
2.35873 0.262355 3.69364 0 0 0 125 88 55 255
-0.829414 0.282587 4.0575 0 0 0 139 126 66 255
-0.802733 0.275453 4.05675 0 0 0 75 73 68 255
-0.766913 0.272727 4.05669 0 0 0 114 95 99 255
-0.630879 0.27137 4.07152 0 0 0 133 111 101 255
-0.706759 0.283588 4.0618 0 0 0 113 107 101 255
2.21258 0.297736 3.69769 0 0 0 130 106 77 255
2.37285 0.299912 3.68901 0 0 0 138 101 62 255
-0.976932 0.335141 4.19627 0 0 0 95 110 126 255
0.580955 0.373313 4.61046 0 0 0 118 39 43 255
-0.620668 0.40044 4.08248 0 0 0 149 155 160 255
-0.539914 0.399157 4.11367 0 0 0 152 158 165 255
-0.397813 0.39612 4.1953 0 0 0 148 155 155 255
0.603373 0.40588 4.6 0 0 0 156 147 148 255
1.98404 0.389157 3.94154 0 0 0 112 121 123 255
2.07183 0.396633 3.74728 0 0 0 127 133 134 255
2.1282 0.407435 3.71245 0 0 0 131 137 139 255
2.15326 0.395685 3.7005 0 0 0 40 39 44 255
2.18288 0.396682 3.68824 0 0 0 135 136 140 255
2.2875 0.396477 3.6679 0 0 0 138 147 149 255
2.41545 0.385451 3.68446 0 0 0 125 129 132 255
2.12928 0.414419 3.71183 0 0 0 123 136 140 255
2.42405 0.416844 3.68753 0 0 0 61 43 33 255
-0.606579 0.457431 4.08588 0 0 0 144 156 158 255
-0.983642 0.483463 4.22878 0 0 0 127 120 122 255
2.14712 0.470026 3.70355 0 0 0 61 40 29 255
-0.357263 0.540391 4.25228 0 0 0 32 80 117 255
2.10588 0.5126 3.72949 0 0 0 47 38 40 255
2.21505 0.517829 3.68151 0 0 0 52 36 38 255
2.4229 0.507706 3.68742 0 0 0 39 38 42 255
1.98605 0.544415 3.92419 0 0 0 130 133 131 255
2.28389 0.52788 3.66807 0 0 0 37 39 43 255
-0.921405 0.585315 4.13652 0 0 0 22 55 94 255
-0.843257 0.570733 4.07197 0 0 0 152 152 152 255
-0.641179 0.575921 4.07725 0 0 0 153 155 167 255
-0.461166 0.570075 4.16624 0 0 0 156 158 162 255
2.11852 0.551016 3.71832 0 0 0 137 139 139 255
2.14809 0.551505 3.70335 0 0 0 107 90 75 255
2.19103 0.555562 3.68783 0 0 0 137 141 142 255
2.23282 0.558748 3.67412 0 0 0 142 141 144 255
2.33176 0.547918 3.67253 0 0 0 141 146 147 255
2.37844 0.552306 3.66859 0 0 0 45 41 45 255
2.42562 0.552509 3.69232 0 0 0 143 143 143 255
-0.791473 0.585736 4.06683 0 0 0 29 51 90 255
-0.740118 0.608648 4.06626 0 0 0 156 156 156 255
-0.579374 0.6222 4.12058 0 0 0 104 112 143 255
1.0413 0.652311 4.71656 0 0 0 40 80 74 255
-0.74123 0.621202 4.06618 0 0 0 156 159 158 255
-0.365422 0.660608 4.23569 0 0 0 146 151 161 255
-0.585027 0.668747 4.12403 0 0 0 61 68 87 255
-0.522148 0.664696 4.12412 0 0 0 59 65 84 255
-0.441804 0.669084 4.17519 0 0 0 153 157 159 255
-0.95346 0.686959 4.16268 0 0 0 28 44 82 255
-0.863978 0.676784 4.08652 0 0 0 56 60 71 255
-0.772205 0.676736 4.06005 0 0 0 34 53 94 255
-0.367777 0.68442 4.23231 0 0 0 146 152 161 255
-0.959661 0.700338 4.16381 0 0 0 24 46 91 255
-0.866756 0.704837 4.08559 0 0 0 111 118 126 255
-0.737172 0.708192 4.06213 0 0 0 153 157 160 255
-0.42265 0.729599 4.20838 0 0 0 154 159 171 255
-0.878755 0.762084 4.08979 0 0 0 107 117 124 255
2.27451 0.733627 3.6816 0 0 0 110 80 42 255
-0.678206 0.77478 4.07151 0 0 0 156 158 163 255
-1.00206 0.815222 4.22218 0 0 0 39 52 75 255
-0.394235 0.806127 4.22897 0 0 0 103 118 135 255
-0.293253 0.80737 4.3414 0 0 0 149 153 154 255
-0.62178 0.812241 4.0829 0 0 0 49 59 86 255
-0.342338 0.817452 4.26458 0 0 0 33 58 96 255
-0.798889 0.826499 4.05373 0 0 0 74 80 99 255
-0.617862 0.877917 4.08187 0 0 0 58 75 97 255
-0.421193 0.905122 4.21332 0 0 0 61 73 100 255
-0.736201 0.884589 4.05733 0 0 0 60 75 95 255
-0.499739 0.896362 4.12038 0 0 0 160 162 163 255
-0.849167 0.906466 4.06474 0 0 0 31 51 92 255
-0.569586 0.931944 4.10865 0 0 0 160 162 163 255
-0.850991 0.923403 4.06648 0 0 0 26 52 95 255
-0.657508 0.945872 4.06615 0 0 0 159 162 161 255
-0.621583 0.949695 4.08643 0 0 0 77 85 106 255
-0.780285 0.978987 4.05438 0 0 0 41 55 91 255
1.18546 1.11966 5.04632 0 0 0 168 174 170 255
-0.47965 1.00119 4.14806 0 0 0 137 155 172 255
-0.368429 1.01768 4.25188 0 0 0 122 144 164 255
-0.924794 1.01747 4.16493 0 0 0 148 150 151 255
1.18842 1.2215 5.05892 0 0 0 158 162 161 255
-0.612695 1.07391 4.07089 0 0 0 113 153 184 255
-0.397562 1.1485 4.25255 0 0 0 145 152 158 255
2.1251 1.06141 3.74922 0 0 0 95 95 94 255
2.27917 1.0659 3.69089 0 0 0 86 79 81 255
-0.664485 1.15411 4.0544 0 0 0 23 88 136 255
-0.62515 1.14915 4.05775 0 0 0 142 157 181 255
-0.581047 1.14297 4.06676 0 0 0 9 108 147 255
-0.864828 1.20254 4.12377 0 0 0 142 144 146 255
-0.784738 1.18171 4.10587 0 0 0 19 84 129 255
-0.620503 1.1949 4.05617 0 0 0 46 80 123 255
-0.336446 1.23459 4.27876 0 0 0 162 140 95 255
-0.912405 1.22174 4.14513 0 0 0 82 104 140 255
-0.901436 1.27334 4.13458 0 0 0 124 142 163 255
-0.865765 1.30499 4.12969 0 0 0 124 131 141 255
-0.797237 1.31309 4.1027 0 0 0 29 74 114 255
-0.711784 1.3002 4.10933 0 0 0 111 112 122 255
-0.372011 1.38846 4.21771 0 0 0 152 154 156 255
-0.868758 1.38152 4.10753 0 0 0 84 129 157 255
2.4102 1.41273 3.7808 0 0 0 93 90 94 255
2.39289 1.62949 3.9852 0 0 0 205 206 212 255
2.229 -0.194043 3.78159 0 0 0 42 41 42 255
2.45043 -0.187827 3.90397 0 0 0 63 43 41 255
2.12744 -0.0542487 3.99334 0 0 0 47 49 51 255
2.47475 0.0508856 3.92226 0 0 0 83 86 92 255
-1.04179 0.135802 4.25252 0 0 0 22 47 84 255
-0.658238 0.273055 4.06366 0 0 0 129 110 99 255
2.28792 0.269042 3.69126 0 0 0 118 95 70 255
-0.37122 0.353954 4.22989 0 0 0 124 141 155 255
1.96228 0.336067 4.02141 0 0 0 59 58 59 255
-0.951108 0.352237 4.1547 0 0 0 96 99 113 255
-0.866816 0.333626 4.06627 0 0 0 8 56 107 255
0.767359 0.3896 4.58561 0 0 0 159 159 159 255
2.3935 0.399852 3.67536 0 0 0 122 130 137 255
-0.444222 0.420453 4.16591 0 0 0 149 150 154 255
2.07258 0.39767 3.74723 0 0 0 124 136 136 255
2.18306 0.415664 3.68823 0 0 0 132 143 146 255
2.28661 0.393127 3.6691 0 0 0 143 143 143 255
2.34048 0.433569 3.66604 0 0 0 40 41 47 255
-0.944541 0.469844 4.17479 0 0 0 145 109 78 255
2.26637 0.491216 3.67225 0 0 0 136 136 137 255
-0.466418 0.588107 4.16657 0 0 0 158 160 160 255
1.97565 0.593249 4.01785 0 0 0 45 46 47 255
-0.641346 0.574855 4.07646 0 0 0 153 155 167 255
-0.735689 0.627367 4.06567 0 0 0 156 159 159 255
-0.36821 0.656271 4.23656 0 0 0 113 126 151 255
-0.969052 0.685516 4.17698 0 0 0 22 44 84 255
-0.637263 0.687069 4.07983 0 0 0 154 158 160 255
-0.424502 0.680897 4.19256 0 0 0 32 60 105 255
-0.871554 0.722834 4.08415 0 0 0 122 125 129 255
0.790017 0.7589 4.61694 0 0 0 70 110 74 255
-0.741921 0.730332 4.06256 0 0 0 159 160 160 255
-0.41831 0.880768 4.20955 0 0 0 158 161 161 255
-0.856903 0.9053 4.06688 0 0 0 29 52 93 255
-0.757096 0.937769 4.05455 0 0 0 158 161 160 255
-0.985939 1.068 4.22199 0 0 0 23 53 95 255
-0.411973 1.11017 4.24344 0 0 0 3 94 141 255
-0.357361 1.14657 4.26202 0 0 0 146 150 155 255
-0.574112 1.14318 4.06729 0 0 0 4 108 151 255
-0.865917 1.19241 4.12135 0 0 0 141 143 145 255
-0.784769 1.18757 4.10605 0 0 0 20 85 131 255
-0.724715 1.18007 4.10187 0 0 0 126 144 160 255
-0.644546 1.1722 4.05536 0 0 0 33 87 135 255
-0.347436 1.25497 4.27588 0 0 0 164 148 92 255
0.360836 1.40333 4.94727 0 0 0 67 94 81 255
-0.881104 1.2743 4.12892 0 0 0 138 143 146 255
-0.769834 1.27475 4.10672 0 0 0 157 157 158 255
-0.361385 1.28538 4.27522 0 0 0 168 154 103 255
-0.789398 1.30462 4.10283 0 0 0 36 74 113 255
-0.691421 1.29452 4.0101 0 0 0 132 130 139 255
-0.623088 1.29852 4.05041 0 0 0 28 75 118 255
-0.54698 1.30941 4.07785 0 0 0 166 160 125 255
-0.294996 1.46103 4.65304 0 0 0 45 86 123 255
2.13638 -0.0840458 3.99222 0 0 0 65 66 72 255
-0.336364 0.105204 4.59011 0 0 0 26 61 102 255
2.0566 0.164072 4.04231 0 0 0 55 58 57 255
-0.367954 0.368816 4.2394 0 0 0 138 149 156 255
-0.893812 0.405991 4.09537 0 0 0 143 135 116 255
-0.609813 0.392889 4.08292 0 0 0 135 143 155 255
-0.536186 0.397893 4.1146 0 0 0 153 159 162 255
1.97558 0.419372 3.94857 0 0 0 111 113 111 255
-0.921774 0.449545 4.14334 0 0 0 147 142 134 255
-0.730725 0.459864 4.06359 0 0 0 117 125 105 255
-0.359666 0.463184 4.24501 0 0 0 151 153 161 255
1.0915 0.522465 4.7788 0 0 0 93 113 86 255
1.9815 0.508889 3.92984 0 0 0 121 128 125 255
-0.966057 0.535324 4.18269 0 0 0 12 59 104 255
0.829022 0.594932 4.62724 0 0 0 156 160 161 255
2.07728 0.549608 3.74726 0 0 0 135 139 140 255
2.20097 0.550969 3.68211 0 0 0 143 142 139 255
-0.626254 0.589104 4.08057 0 0 0 157 159 161 255
-0.469725 0.595272 4.16492 0 0 0 157 160 162 255
1.96904 0.601678 4.04136 0 0 0 50 52 52 255
-0.907953 0.631225 4.12854 0 0 0 150 152 151 255
-0.821728 0.598199 4.07639 0 0 0 146 152 155 255
-0.518879 0.648646 4.10925 0 0 0 156 158 158 255
-0.325601 0.689616 4.34613 0 0 0 146 153 154 255
-0.963567 0.695026 4.1688 0 0 0 23 46 87 255
0.947014 0.749833 4.64346 0 0 0 116 146 130 255
1.09083 0.772894 4.76698 0 0 0 48 91 74 255
-0.66554 0.730288 4.07145 0 0 0 27 55 103 255
-1.00769 0.823943 4.22464 0 0 0 23 61 94 255
-0.723799 0.8649 4.05867 0 0 0 37 61 107 255
-0.457822 0.834008 4.16346 0 0 0 107 104 108 255
-0.608986 0.907904 4.08494 0 0 0 158 161 165 255
-0.856699 0.979235 4.13026 0 0 0 152 154 156 255
-0.47443 0.999594 4.14787 0 0 0 137 155 172 255
-0.369836 1.02488 4.25227 0 0 0 127 129 131 255
-0.482337 1.06381 4.14694 0 0 0 148 152 158 255
-0.3519 1.21094 4.27701 0 0 0 140 124 104 255
1.11185 1.39648 5.04077 0 0 0 68 108 88 255
-0.522194 1.31751 4.09616 0 0 0 174 163 107 255
-0.948401 1.41496 4.19433 0 0 0 44 79 117 255
-0.50998 1.437 4.12835 0 0 0 45 86 124 255
1.99441 1.57481 4.0978 0 0 0 110 112 108 255
2.13165 -0.202317 4.003 0 0 0 84 67 60 255
2.12272 -0.128475 3.99848 0 0 0 72 57 57 255
1.05439 0.113899 4.79831 0 0 0 45 91 64 255
2.04933 0.176672 4.04035 0 0 0 54 54 54 255
2.08139 0.170465 4.02787 0 0 0 40 47 49 255
1.98032 0.266934 4.032 0 0 0 109 101 98 255
-0.847019 0.420577 4.07032 0 0 0 147 132 77 255
1.95943 0.471225 3.9745 0 0 0 128 132 131 255
-0.412478 0.623496 4.18669 0 0 0 25 57 105 255
-0.825467 0.645526 4.06856 0 0 0 154 153 154 255
-0.693851 0.637946 4.06945 0 0 0 23 56 107 255
1.05805 0.813971 4.72917 0 0 0 50 95 71 255
-0.728208 0.814205 4.06475 0 0 0 73 84 96 255
-0.304106 0.875197 4.29847 0 0 0 18 64 112 255
1.99475 0.903314 4.07435 0 0 0 46 51 52 255
-0.387752 1.22004 4.24628 0 0 0 153 126 99 255
0.380315 1.38608 4.91595 0 0 0 64 93 79 255
-0.8284 1.21307 4.10651 0 0 0 131 129 136 255
-0.455313 1.31199 4.16615 0 0 0 173 160 74 255
-0.335438 1.44315 4.63277 0 0 0 30 78 119 255
-0.873002 1.43288 4.11136 0 0 0 50 80 110 255
2.19723 -0.186828 3.87278 0 0 0 129 93 98 255
2.4919 -0.184173 3.93649 0 0 0 82 87 87 255
2.30056 -0.168635 3.90272 0 0 0 138 103 105 255
2.49463 -0.0921071 3.93894 0 0 0 115 122 124 255
2.50195 -0.0708411 3.94451 0 0 0 81 85 86 255
2.49092 -0.0111797 3.94362 0 0 0 120 127 129 255
2.20914 0.015021 3.89941 0 0 0 162 162 162 255
2.53937 0.121522 3.95904 0 0 0 113 115 117 255
-0.318313 0.0884988 4.64837 0 0 0 81 87 99 255
2.33666 0.254028 3.69266 0 0 0 155 135 115 255
0.6488 0.248263 4.5984 0 0 0 30 53 50 255
0.919012 0.26034 4.63142 0 0 0 96 101 99 255
0.465831 0.273827 4.65528 0 0 0 121 130 129 255
0.958985 0.269734 4.65857 0 0 0 83 112 100 255
2.34187 0.306495 3.67883 0 0 0 76 50 28 255
-0.737474 0.289113 4.05555 0 0 0 30 47 93 255
2.31451 0.310317 3.67189 0 0 0 153 123 92 255
0.666626 0.321136 4.60346 0 0 0 123 149 104 255
-0.403342 0.31987 4.23345 0 0 0 62 112 157 255
-0.350095 0.411639 4.27682 0 0 0 114 88 103 255
2.50981 0.424846 3.70895 0 0 0 99 98 98 255
-0.436841 0.449733 4.18778 0 0 0 150 151 157 255
2.27652 0.452302 3.65298 0 0 0 86 81 78 255
-0.529629 0.479651 4.135 0 0 0 40 83 116 255
2.11195 0.522713 3.70685 0 0 0 38 42 46 255
2.2212 0.53464 3.66276 0 0 0 35 40 52 255
2.06052 0.553806 3.7404 0 0 0 75 86 87 255
0.574491 0.690153 4.64126 0 0 0 145 153 151 255
1.10882 0.738261 4.80637 0 0 0 136 148 146 255
1.09136 0.753928 4.76476 0 0 0 134 142 139 255
1.05336 0.772426 4.73726 0 0 0 144 153 153 255
-0.794026 0.758075 4.04005 0 0 0 86 89 99 255
2.32734 0.712748 3.6567 0 0 0 73 61 49 255
-0.826272 0.877974 4.01018 0 0 0 57 71 86 255
-0.822533 0.880308 4.00785 0 0 0 61 67 88 255
1.87057 1.41176 6.81826 0 0 0 147 145 139 255
1.31595 1.37717 6.4872 0 0 0 133 131 125 255
1.23839 1.35906 6.34035 0 0 0 142 141 133 255
0.906937 1.17694 4.63842 0 0 0 95 89 43 255
2.38704 1.03486 3.66243 0 0 0 99 97 98 255
2.4194 1.04133 3.67717 0 0 0 107 115 115 255
2.1585 1.05763 3.69652 0 0 0 125 133 133 255
2.06975 1.07652 3.74384 0 0 0 90 93 94 255
2.20007 1.07717 3.67571 0 0 0 73 75 74 255
2.2966 1.07211 3.65275 0 0 0 87 89 90 255
2.3263 1.07306 3.65013 0 0 0 87 93 93 255
2.2083 1.16318 3.67002 0 0 0 99 102 104 255
2.22709 1.23752 3.66313 0 0 0 109 118 116 255
2.38955 1.2326 3.64688 0 0 0 100 98 98 255
-0.401855 1.39029 4.15014 0 0 0 113 120 126 255
-0.679561 1.37353 3.85353 0 0 0 70 107 143 255
2.14983 1.36589 3.69721 0 0 0 117 120 119 255
2.18678 1.37685 3.66829 0 0 0 119 121 125 255
2.21636 1.39136 3.65493 0 0 0 100 102 104 255
2.49348 0.000851851 3.942 0 0 0 138 145 145 255
2.37576 0.315916 3.68481 0 0 0 106 86 56 255
0.605123 0.373097 4.61844 0 0 0 90 60 64 255
-0.729584 0.393669 4.05857 0 0 0 119 120 112 255
-0.528674 0.487668 4.13708 0 0 0 19 83 128 255
2.50781 0.492397 3.69583 0 0 0 68 49 45 255
2.63362 0.897477 3.86748 0 0 0 90 99 99 255
-0.662978 0.940358 4.02455 0 0 0 159 159 164 255
2.39104 1.03129 3.66369 0 0 0 81 82 82 255
-0.696932 1.3674 3.85158 0 0 0 80 126 160 255
-0.490643 1.40867 4.0906 0 0 0 64 114 148 255
2.11978 -0.201983 4.01434 0 0 0 109 98 94 255
2.10965 -0.0153505 4.01077 0 0 0 149 149 147 255
0.666944 0.24371 4.64646 0 0 0 96 99 99 255
2.37849 0.261534 3.69842 0 0 0 155 118 75 255
-0.716762 0.295656 4.06234 0 0 0 143 131 87 255
2.3891 0.320935 3.68505 0 0 0 64 43 28 255
0.884754 0.39728 4.6193 0 0 0 153 144 145 255
1.02763 0.415967 4.69865 0 0 0 131 63 70 255
-0.730858 0.402149 4.0634 0 0 0 145 145 130 255
0.445376 0.429681 4.67798 0 0 0 140 139 139 255
2.34096 0.459183 3.65783 0 0 0 47 44 47 255
-0.48431 0.486282 4.15566 0 0 0 114 121 130 255
2.36913 0.537319 3.66195 0 0 0 41 40 45 255
-0.857696 0.740083 4.05017 0 0 0 93 101 111 255
2.35495 0.720972 3.66314 0 0 0 91 69 44 255
-0.671131 0.783682 4.04176 0 0 0 159 158 161 255
2.3538 0.744496 3.65929 0 0 0 97 71 33 255
-0.572185 0.910062 4.10014 0 0 0 161 161 163 255
0.858468 1.13773 4.62219 0 0 0 152 156 133 255
-0.390783 1.11161 4.24892 0 0 0 9 82 129 255
0.890023 1.17402 4.62432 0 0 0 125 121 72 255
-0.431889 1.38984 4.09267 0 0 0 155 159 162 255
2.45249 1.36147 3.63353 0 0 0 88 84 87 255
2.1342 -0.147311 4.00714 0 0 0 68 46 46 255
2.47044 -0.0639337 3.94226 0 0 0 60 67 75 255
2.20577 0.013951 3.89531 0 0 0 156 158 160 255
2.45873 0.0379367 3.9441 0 0 0 89 89 89 255
2.13273 0.0337164 4.0098 0 0 0 93 96 95 255
-0.37171 0.319213 4.24455 0 0 0 50 96 131 255
2.28455 0.435701 3.65224 0 0 0 141 142 141 255
2.42043 0.452542 3.66764 0 0 0 35 37 41 255
2.2069 0.483817 3.6672 0 0 0 61 36 28 255
0.79608 0.557304 4.58046 0 0 0 154 159 157 255
0.435417 0.605449 4.72476 0 0 0 86 114 109 255
2.38782 0.536763 3.6568 0 0 0 142 145 146 255
1.95789 0.588705 4.00373 0 0 0 59 59 62 255
2.23823 0.543806 3.65948 0 0 0 132 142 144 255
2.28053 0.556404 3.65539 0 0 0 35 36 40 255
-0.465294 0.645644 4.18036 0 0 0 158 159 161 255
-0.419442 0.667579 4.20949 0 0 0 25 59 107 255
-0.632766 0.664732 4.06822 0 0 0 158 158 162 255
-0.734445 0.673352 4.04723 0 0 0 36 50 91 255
