ply
format ascii 1.0
comment VCGLIB generated
element vertex 940
property float x
property float y
property float z
property float nx
property float ny
property float nz
property uchar red
property uchar green
property uchar blue
property uchar alpha
element face 0
property list uchar int vertex_indices
end_header
0.822387 -0.216696 4.77324 0 0 0 227 230 236 255
1.13722 0.0640102 4.87843 0 0 0 113 126 120 255
-0.281903 0.0802487 4.5333 0 0 0 136 140 141 255
0.387173 0.113071 4.77059 0 0 0 20 47 34 255
0.391452 0.150258 4.76446 0 0 0 17 53 30 255
0.909025 0.219288 4.5899 0 0 0 106 144 136 255
0.464031 0.225935 4.61783 0 0 0 102 135 131 255
0.486947 0.226146 4.64172 0 0 0 104 132 125 255
0.531509 0.226384 4.59783 0 0 0 114 131 131 255
0.585482 0.22912 4.58621 0 0 0 95 118 115 255
0.729898 0.229769 4.56068 0 0 0 109 137 133 255
0.635111 0.229113 4.56918 0 0 0 89 119 114 255
0.668905 0.230172 4.57481 0 0 0 109 144 142 255
0.780482 0.236639 4.56482 0 0 0 130 155 154 255
0.791256 0.230289 4.55784 0 0 0 120 145 140 255
0.824121 0.227949 4.5563 0 0 0 113 138 132 255
0.907324 0.229555 4.59364 0 0 0 102 123 120 255
0.458128 0.242294 4.62968 0 0 0 40 80 62 255
0.961103 0.236802 4.60625 0 0 0 118 141 138 255
0.704839 0.248081 4.57033 0 0 0 127 155 150 255
0.861394 0.246564 4.57192 0 0 0 129 156 156 255
0.462206 0.256141 4.62311 0 0 0 50 88 80 255
0.600372 0.25115 4.60861 0 0 0 107 112 112 255
0.512887 0.266712 4.63237 0 0 0 125 148 143 255
0.763638 0.262559 4.5632 0 0 0 109 147 136 255
0.787591 0.253219 4.56508 0 0 0 147 152 151 255
0.540303 0.270587 4.61378 0 0 0 148 158 157 255
0.608892 0.269451 4.60073 0 0 0 86 110 104 255
0.657002 0.270773 4.60889 0 0 0 128 145 143 255
0.719673 0.267075 4.56919 0 0 0 128 140 138 255
0.832274 0.266219 4.56797 0 0 0 106 139 131 255
0.900703 0.269772 4.58903 0 0 0 117 125 124 255
0.950386 0.29089 4.60854 0 0 0 124 141 118 255
0.386729 0.314492 4.73978 0 0 0 113 142 111 255
0.559536 0.320152 4.61256 0 0 0 103 126 85 255
0.419175 0.336981 4.6779 0 0 0 89 85 84 255
1.05172 0.333886 4.67839 0 0 0 119 86 90 255
0.860642 0.336371 4.57979 0 0 0 102 65 64 255
0.918173 0.335551 4.59846 0 0 0 119 93 84 255
0.99923 0.335667 4.64263 0 0 0 118 69 71 255
1.01296 0.334951 4.6562 0 0 0 118 68 71 255
0.465384 0.351204 4.65231 0 0 0 111 76 80 255
0.482542 0.350346 4.64722 0 0 0 154 144 142 255
0.758933 0.343254 4.56961 0 0 0 119 88 82 255
0.803385 0.340768 4.5788 0 0 0 106 106 104 255
0.810888 0.340233 4.58204 0 0 0 98 95 96 255
0.563429 0.355045 4.64182 0 0 0 114 62 65 255
0.669576 0.346772 4.57288 0 0 0 99 76 75 255
0.687704 0.348303 4.57174 0 0 0 152 152 148 255
0.949375 0.349511 4.62339 0 0 0 122 76 82 255
0.990676 0.352967 4.64011 0 0 0 138 134 134 255
0.506103 0.364538 4.65741 0 0 0 112 49 59 255
0.721793 0.355086 4.57628 0 0 0 142 156 131 255
0.903907 0.352233 4.59579 0 0 0 96 67 70 255
0.547424 0.370339 4.64347 0 0 0 120 84 87 255
0.694348 0.362246 4.5749 0 0 0 128 90 89 255
0.933547 0.357821 4.60828 0 0 0 129 90 95 255
0.450473 0.381394 4.6423 0 0 0 149 152 151 255
0.489378 0.385421 4.64707 0 0 0 176 111 122 255
0.987607 0.385898 4.6367 0 0 0 119 94 91 255
0.61706 0.386408 4.5871 0 0 0 125 52 61 255
0.641727 0.382899 4.58562 0 0 0 162 162 163 255
0.650257 0.384256 4.57987 0 0 0 161 163 164 255
0.689508 0.380248 4.57492 0 0 0 181 129 138 255
0.72487 0.388153 4.56946 0 0 0 105 56 58 255
0.749461 0.382669 4.57123 0 0 0 178 131 142 255
0.799332 0.389299 4.57873 0 0 0 129 83 88 255
0.912323 0.386652 4.6007 0 0 0 92 80 82 255
0.949538 0.386545 4.62264 0 0 0 87 76 75 255
1.02276 0.394036 4.66439 0 0 0 155 137 140 255
0.460501 0.399959 4.6602 0 0 0 112 100 101 255
0.569056 0.393537 4.60145 0 0 0 170 124 132 255
0.411661 0.409858 4.68802 0 0 0 162 120 125 255
0.933682 0.403812 4.61091 0 0 0 168 139 138 255
0.958685 0.409944 4.63027 0 0 0 150 113 116 255
0.424124 0.423608 4.67101 0 0 0 126 68 66 255
0.468006 0.421614 4.65432 0 0 0 134 96 103 255
0.507894 0.420151 4.63723 0 0 0 128 48 58 255
0.657551 0.419742 4.57696 0 0 0 165 114 121 255
1.00447 0.421471 4.64904 0 0 0 140 58 57 255
1.00869 0.420589 4.64919 0 0 0 155 85 82 255
-0.317028 0.393057 4.29166 0 0 0 65 90 109 255
0.637982 0.425338 4.58249 0 0 0 108 57 61 255
0.699131 0.421315 4.57348 0 0 0 135 55 57 255
0.801107 0.426453 4.57451 0 0 0 134 114 113 255
0.922831 0.425668 4.6048 0 0 0 107 66 66 255
0.575225 0.427986 4.59774 0 0 0 109 80 76 255
0.763176 0.424491 4.57026 0 0 0 140 48 52 255
0.834349 0.430356 4.57842 0 0 0 139 56 63 255
0.865895 0.43089 4.59256 0 0 0 144 48 57 255
0.655359 0.433514 4.58011 0 0 0 152 60 63 255
0.68715 0.435895 4.5756 0 0 0 154 132 132 255
-0.310382 0.436889 4.30578 0 0 0 34 83 119 255
-0.310716 0.455743 4.30886 0 0 0 55 105 135 255
0.50045 0.514701 4.66822 0 0 0 123 160 146 255
0.922122 0.530661 4.61301 0 0 0 132 153 149 255
0.498629 0.550725 4.6554 0 0 0 61 78 75 255
0.875359 0.539222 4.59894 0 0 0 140 156 150 255
0.682336 0.551768 4.5825 0 0 0 148 169 163 255
0.500069 0.564501 4.65226 0 0 0 54 78 69 255
0.756122 0.556049 4.59524 0 0 0 131 153 146 255
1.02736 0.573943 4.6882 0 0 0 53 108 90 255
1.0518 0.567947 4.70686 0 0 0 58 91 76 255
0.383754 0.591217 4.76322 0 0 0 91 115 111 255
0.451549 0.570514 4.67847 0 0 0 95 134 130 255
0.714606 0.560408 4.59284 0 0 0 161 167 166 255
0.956371 0.56458 4.63124 0 0 0 156 161 159 255
0.912154 0.574071 4.60867 0 0 0 143 167 163 255
0.554702 0.590403 4.64622 0 0 0 107 139 131 255
0.497741 0.592642 4.65418 0 0 0 151 156 154 255
0.533467 0.612781 4.64265 0 0 0 115 152 149 255
0.942292 0.60699 4.63179 0 0 0 151 158 158 255
0.75101 0.620893 4.58843 0 0 0 156 167 164 255
0.831444 0.626876 4.58784 0 0 0 104 120 104 255
-0.302172 0.63676 4.37591 0 0 0 113 134 153 255
-0.31568 0.675882 4.35068 0 0 0 115 122 125 255
1.05085 0.763739 4.68669 0 0 0 108 141 127 255
-0.314034 0.721438 4.34515 0 0 0 104 110 122 255
0.8266 0.768682 4.59764 0 0 0 70 115 86 255
0.9164 0.789166 4.62581 0 0 0 139 170 157 255
0.737896 0.805585 4.60779 0 0 0 82 133 112 255
-0.311803 0.773077 4.34303 0 0 0 72 79 96 255
0.925503 0.833252 4.6282 0 0 0 124 146 143 255
0.868706 0.834877 4.60488 0 0 0 161 168 166 255
0.825105 0.856387 4.58602 0 0 0 135 141 132 255
0.849518 0.855469 4.60023 0 0 0 154 164 158 255
0.739004 0.871881 4.60253 0 0 0 134 164 160 255
0.929751 0.889858 4.63074 0 0 0 78 125 99 255
0.498895 0.90917 4.68549 0 0 0 145 152 149 255
1.02366 0.931755 4.68934 0 0 0 120 149 126 255
0.784103 0.935975 4.61844 0 0 0 101 143 128 255
0.465081 0.939157 4.67433 0 0 0 127 142 138 255
0.569588 0.942942 4.63543 0 0 0 137 147 144 255
1.88806 1.3912 6.70508 0 0 0 136 132 125 255
1.88036 1.34261 6.41638 0 0 0 139 136 128 255
2.08027 1.40671 6.47381 0 0 0 109 104 95 255
2.16591 1.37303 6.29175 0 0 0 145 142 137 255
1.89211 1.47255 6.74713 0 0 0 104 100 97 255
0.966758 1.04291 4.66685 0 0 0 70 122 140 255
0.859699 1.05493 4.63368 0 0 0 72 91 101 255
0.922839 1.07917 4.65475 0 0 0 117 136 96 255
0.466088 1.18108 4.74113 0 0 0 102 108 113 255
0.964823 1.17749 4.67672 0 0 0 109 97 42 255
0.699659 1.17615 4.64088 0 0 0 108 107 108 255
0.745766 1.17683 4.62706 0 0 0 123 111 128 255
0.859259 1.18224 4.64837 0 0 0 117 99 40 255
0.453379 1.23325 4.72189 0 0 0 84 87 95 255
0.994961 1.34336 4.69241 0 0 0 138 162 150 255
0.906009 1.34976 4.67915 0 0 0 80 129 106 255
0.998624 1.36635 4.69501 0 0 0 152 161 157 255
0.908182 1.38644 4.68011 0 0 0 144 174 163 255
0.31436 0.0631242 4.89831 0 0 0 145 147 146 255
1.12514 0.0751387 4.87427 0 0 0 87 105 95 255
0.476831 0.233552 4.6121 0 0 0 134 137 136 255
0.901556 0.238921 4.58731 0 0 0 135 152 151 255
0.955008 0.233276 4.6063 0 0 0 118 141 138 255
0.518497 0.257766 4.61573 0 0 0 137 139 138 255
0.706858 0.24324 4.56893 0 0 0 83 112 104 255
0.778132 0.241242 4.56023 0 0 0 133 140 139 255
0.845195 0.336694 4.5809 0 0 0 98 79 77 255
0.911775 0.337918 4.60127 0 0 0 134 141 125 255
0.560196 0.362894 4.6149 0 0 0 120 53 56 255
0.667761 0.354533 4.57359 0 0 0 101 75 77 255
0.967148 0.360472 4.62413 0 0 0 155 151 151 255
-0.325059 0.364202 4.29114 0 0 0 95 112 131 255
0.636725 0.381612 4.58562 0 0 0 159 159 159 255
0.751732 0.381733 4.56872 0 0 0 178 131 142 255
0.456731 0.407545 4.66058 0 0 0 86 72 73 255
1.0018 0.411307 4.64664 0 0 0 137 70 66 255
-0.310907 0.40075 4.30198 0 0 0 19 85 129 255
0.68343 0.418338 4.57633 0 0 0 142 50 53 255
0.851844 0.414983 4.57706 0 0 0 141 89 96 255
0.844181 0.530509 4.58472 0 0 0 66 112 83 255
0.922054 0.535748 4.61337 0 0 0 132 153 149 255
0.683068 0.556431 4.58379 0 0 0 148 169 163 255
0.75614 0.556081 4.59537 0 0 0 131 153 146 255
1.02866 0.584048 4.68879 0 0 0 117 156 147 255
0.384952 0.604454 4.7601 0 0 0 128 146 144 255
0.55564 0.610674 4.64647 0 0 0 154 163 160 255
0.74968 0.614791 4.58627 0 0 0 153 167 167 255
0.815034 0.613807 4.58762 0 0 0 161 164 162 255
-0.308059 0.645693 4.36158 0 0 0 146 157 165 255
0.914593 0.785228 4.62582 0 0 0 111 156 132 255
-0.299743 0.792026 4.35161 0 0 0 150 159 160 255
0.853748 0.845924 4.59923 0 0 0 165 170 168 255
0.741012 0.868784 4.60435 0 0 0 134 164 160 255
1.01704 0.93504 4.6871 0 0 0 122 146 124 255
0.573974 0.943162 4.63608 0 0 0 155 164 161 255
1.72161 1.45619 6.69513 0 0 0 115 114 108 255
1.87378 1.39885 6.36062 0 0 0 88 85 83 255
2.14078 1.37002 6.2844 0 0 0 128 125 118 255
0.925409 1.1261 4.65713 0 0 0 48 82 100 255
0.462485 1.19914 4.73176 0 0 0 89 99 114 255
0.96152 1.18315 4.67449 0 0 0 98 93 54 255
0.988556 1.34755 4.6906 0 0 0 128 154 141 255
0.91195 1.36437 4.68314 0 0 0 142 173 160 255
-0.306639 0.103938 4.52613 0 0 0 35 74 110 255
0.386535 0.114157 4.7716 0 0 0 28 57 42 255
0.390459 0.141327 4.76728 0 0 0 48 86 64 255
0.475887 0.224987 4.61471 0 0 0 107 136 128 255
0.593589 0.234171 4.55991 0 0 0 141 154 149 255
0.718746 0.214546 4.56487 0 0 0 68 108 74 255
0.784411 0.22374 4.56287 0 0 0 84 112 107 255
0.529803 0.26228 4.60459 0 0 0 123 132 131 255
0.449565 0.337792 4.66269 0 0 0 132 139 131 255
1.00749 0.338155 4.64758 0 0 0 118 68 71 255
0.639143 0.371407 4.58554 0 0 0 160 162 157 255
-0.321847 0.36479 4.29374 0 0 0 75 122 156 255
0.867724 0.415805 4.58807 0 0 0 122 53 62 255
0.654173 0.420726 4.57921 0 0 0 165 114 121 255
0.841868 0.428387 4.57977 0 0 0 142 59 65 255
-0.303474 0.450015 4.3265 0 0 0 19 80 124 255
0.49955 0.52679 4.66394 0 0 0 143 157 153 255
1.11115 0.545033 4.80315 0 0 0 80 104 80 255
0.852624 0.550751 4.59249 0 0 0 162 168 166 255
0.935902 0.54712 4.61518 0 0 0 157 163 161 255
0.690418 0.557423 4.58837 0 0 0 157 169 169 255
0.761033 0.562013 4.59828 0 0 0 151 169 167 255
0.386152 0.595009 4.75615 0 0 0 126 145 145 255
0.94287 0.583976 4.62873 0 0 0 159 164 162 255
1.031 0.592595 4.6904 0 0 0 125 164 155 255
0.771207 0.60959 4.59626 0 0 0 164 169 167 255
0.486654 0.628257 4.66222 0 0 0 53 86 78 255
0.8229 0.633781 4.58676 0 0 0 91 102 87 255
-0.317316 0.66351 4.34759 0 0 0 156 159 160 255
0.553741 0.692129 4.60091 0 0 0 154 164 162 255
0.822083 0.75953 4.59528 0 0 0 71 117 87 255
1.05076 0.763701 4.6865 0 0 0 108 141 127 255
0.946265 0.788226 4.64246 0 0 0 159 166 164 255
-0.297793 0.788182 4.35545 0 0 0 142 149 153 255
0.754677 0.823612 4.6147 0 0 0 167 172 170 255
0.934261 0.825688 4.63628 0 0 0 154 166 164 255
0.854272 0.838786 4.59859 0 0 0 163 171 168 255
0.743535 0.848087 4.61082 0 0 0 157 174 171 255
0.472897 0.911151 4.67101 0 0 0 140 154 153 255
0.573233 0.924682 4.63769 0 0 0 158 166 166 255
1.88006 1.37076 6.61169 0 0 0 155 151 143 255
1.8811 1.34535 6.43721 0 0 0 139 136 128 255
2.1425 1.36871 6.2847 0 0 0 128 125 118 255
1.73224 1.44884 6.7016 0 0 0 124 123 117 255
1.87709 1.39718 6.34671 0 0 0 82 80 79 255
0.963509 1.10011 4.66909 0 0 0 28 83 125 255
0.440737 1.16803 4.76212 0 0 0 131 138 137 255
0.442566 1.15065 4.76796 0 0 0 113 133 124 255
0.938474 1.11761 4.66005 0 0 0 43 81 106 255
0.567392 1.15597 4.69984 0 0 0 137 154 151 255
0.863753 1.18584 4.64305 0 0 0 102 96 67 255
0.443706 1.25918 4.72944 0 0 0 129 136 135 255
0.575092 1.27342 4.65851 0 0 0 143 146 145 255
0.63963 1.26212 4.63418 0 0 0 91 116 85 255
0.332162 1.40292 5.00146 0 0 0 75 92 82 255
0.916488 1.36272 4.68187 0 0 0 154 161 159 255
0.332551 0.0888107 4.88578 0 0 0 72 99 83 255
1.10754 0.0987894 4.87288 0 0 0 66 101 78 255
0.527653 0.384058 4.62625 0 0 0 164 152 156 255
0.781088 0.374683 4.57724 0 0 0 164 167 166 255
0.835708 0.391993 4.57507 0 0 0 108 74 74 255
1.06847 0.548813 4.72955 0 0 0 65 104 75 255
0.817914 0.57202 4.57598 0 0 0 162 169 169 255
0.924623 0.571187 4.61318 0 0 0 157 167 164 255
0.684135 0.579526 4.58638 0 0 0 154 170 167 255
0.794207 0.581034 4.6092 0 0 0 165 169 168 255
0.555504 0.673405 4.60217 0 0 0 158 163 161 255
-0.327477 0.65537 4.33466 0 0 0 160 162 163 255
0.933614 0.804705 4.63293 0 0 0 160 167 167 255
0.823521 0.825445 4.59187 0 0 0 170 173 172 255
0.747303 0.845148 4.61214 0 0 0 157 174 172 255
0.575363 0.90289 4.64007 0 0 0 160 166 164 255
1.75385 1.45774 6.66977 0 0 0 103 102 100 255
0.43936 1.15348 4.76461 0 0 0 124 135 133 255
0.713762 1.14589 4.63654 0 0 0 140 155 150 255
0.405641 1.2289 4.77332 0 0 0 123 143 132 255
0.716458 1.26868 4.60916 0 0 0 145 150 148 255
0.340529 1.39192 5.00574 0 0 0 79 94 81 255
1.10808 0.0917655 4.87089 0 0 0 64 101 80 255
-0.337366 0.145132 4.52207 0 0 0 17 69 115 255
0.520265 0.245482 4.61535 0 0 0 142 139 140 255
0.781186 0.251224 4.56856 0 0 0 150 155 154 255
0.906998 0.247289 4.59788 0 0 0 139 150 151 255
0.641419 0.363586 4.58753 0 0 0 156 160 153 255
1.07551 0.534773 4.74387 0 0 0 82 110 73 255
0.445311 0.619415 4.70091 0 0 0 141 153 156 255
0.557295 0.645853 4.63963 0 0 0 157 163 162 255
0.766459 0.837984 4.61954 0 0 0 168 173 172 255
0.476762 0.888305 4.66992 0 0 0 142 154 154 255
2.10862 1.38253 6.43098 0 0 0 133 130 122 255
0.939706 1.05806 4.65915 0 0 0 42 93 122 255
0.937043 1.10663 4.6594 0 0 0 47 83 104 255
0.881807 1.16384 4.64162 0 0 0 169 149 74 255
0.418711 1.2344 4.74133 0 0 0 135 141 141 255
0.357664 0.127695 4.87597 0 0 0 59 95 67 255
1.0278 0.114129 4.68799 0 0 0 57 102 74 255
-0.340071 0.130714 4.5004 0 0 0 19 70 118 255
-0.325576 0.585922 4.3034 0 0 0 27 81 121 255
0.455419 1.1664 4.75549 0 0 0 134 142 142 255
2.3096 -0.219742 3.88071 0 0 0 55 55 55 255
2.34618 -0.215242 3.86127 0 0 0 66 57 63 255
2.32594 -0.206186 3.86406 0 0 0 153 157 163 255
2.23545 -0.160419 3.78625 0 0 0 138 84 84 255
2.36736 -0.16532 3.80941 0 0 0 127 62 57 255
2.32175 -0.145509 3.83236 0 0 0 167 64 83 255
2.10153 -0.149553 4.0032 0 0 0 147 143 140 255
2.33015 -0.111506 3.89249 0 0 0 95 96 98 255
2.34167 -0.112883 3.86851 0 0 0 100 98 100 255
2.32322 -0.079341 3.91675 0 0 0 55 55 62 255
2.13925 -0.0778599 3.98119 0 0 0 70 71 78 255
2.47137 -0.0426852 3.87416 0 0 0 39 44 42 255
2.33083 0.00693189 3.88477 0 0 0 200 205 207 255
2.33754 0.0693543 3.89605 0 0 0 250 252 254 255
2.35021 0.11545 3.88891 0 0 0 253 251 252 255
2.06362 0.125219 4.02835 0 0 0 123 121 117 255
2.54409 0.133631 3.95195 0 0 0 54 53 58 255
-1.02837 0.189447 4.26319 0 0 0 68 78 91 255
2.30657 0.253538 3.69147 0 0 0 122 112 94 255
-0.496284 0.254087 4.10162 0 0 0 20 46 86 255
-0.477363 0.253051 4.10365 0 0 0 99 103 125 255
2.22389 0.259284 3.70828 0 0 0 139 109 74 255
2.26811 0.257426 3.70658 0 0 0 114 99 81 255
2.4088 0.256745 3.70748 0 0 0 91 78 70 255
-0.652633 0.263711 4.05253 0 0 0 123 104 95 255
-0.628394 0.261578 4.06178 0 0 0 129 107 101 255
-0.514224 0.259506 4.0933 0 0 0 125 105 96 255
-0.445222 0.25782 4.11534 0 0 0 83 87 115 255
0.498946 0.251955 4.61701 0 0 0 100 111 110 255
-0.851166 0.263643 4.0624 0 0 0 100 102 114 255
-0.797786 0.26667 4.04875 0 0 0 97 97 97 255
-0.772331 0.259631 4.05333 0 0 0 89 75 84 255
-0.730871 0.265592 4.05645 0 0 0 106 100 99 255
-0.695166 0.266942 4.05304 0 0 0 140 126 102 255
-0.566712 0.266348 4.07723 0 0 0 110 103 101 255
0.886377 0.261002 4.57883 0 0 0 62 76 74 255
2.38292 0.273119 3.69456 0 0 0 100 56 21 255
-0.834649 0.271459 4.06297 0 0 0 120 118 85 255
-0.550929 0.274907 4.08209 0 0 0 134 110 79 255
-0.86186 0.283195 4.06667 0 0 0 126 125 102 255
-0.798128 0.279697 4.05112 0 0 0 128 122 98 255
-0.613841 0.278127 4.06746 0 0 0 122 102 59 255
2.23283 0.285212 3.69928 0 0 0 106 68 33 255
2.27259 0.282178 3.69781 0 0 0 160 122 66 255
2.30903 0.283151 3.68383 0 0 0 87 49 40 255
2.37973 0.28249 3.69044 0 0 0 91 51 24 255
-0.779514 0.290586 4.05497 0 0 0 36 44 62 255
-0.494001 0.28964 4.10391 0 0 0 77 63 50 255
0.719294 0.285395 4.56746 0 0 0 76 95 91 255
-0.855274 0.294491 4.06877 0 0 0 78 76 46 255
-0.81585 0.296093 4.05553 0 0 0 38 39 53 255
-0.685939 0.297659 4.05421 0 0 0 38 39 43 255
-0.64552 0.296449 4.05761 0 0 0 89 71 48 255
-0.610673 0.295282 4.06493 0 0 0 59 57 62 255
-0.579467 0.298879 4.07252 0 0 0 23 46 93 255
-0.551533 0.288287 4.08213 0 0 0 65 47 33 255
-0.514065 0.296628 4.09617 0 0 0 140 115 87 255
2.40105 0.298093 3.69364 0 0 0 91 74 60 255
-0.488059 0.306589 4.10626 0 0 0 98 76 83 255
2.20839 0.302391 3.7068 0 0 0 108 89 64 255
2.25943 0.309545 3.6958 0 0 0 153 118 70 255
2.28191 0.310832 3.69176 0 0 0 135 96 61 255
2.30087 0.308017 3.67765 0 0 0 165 133 81 255
-0.854781 0.314617 4.07447 0 0 0 86 93 132 255
-0.784778 0.316358 4.06056 0 0 0 87 84 115 255
-0.731421 0.31512 4.05966 0 0 0 83 94 128 255
-0.659202 0.316609 4.05986 0 0 0 128 111 86 255
-0.627267 0.313759 4.06591 0 0 0 145 116 97 255
-0.546351 0.313001 4.08728 0 0 0 113 106 101 255
-1.00741 0.326746 4.22857 0 0 0 81 104 136 255
0.611048 0.326981 4.58481 0 0 0 138 142 131 255
0.758893 0.326308 4.56527 0 0 0 141 155 125 255
1.99549 0.332862 3.98961 0 0 0 70 75 76 255
0.582551 0.349591 4.59224 0 0 0 178 129 137 255
0.60181 0.348195 4.58325 0 0 0 121 77 78 255
-0.494163 0.354508 4.10406 0 0 0 54 109 155 255
-0.390243 0.350177 4.178 0 0 0 14 87 133 255
0.820884 0.358343 4.56948 0 0 0 164 123 128 255
1.02887 0.358698 4.67794 0 0 0 172 130 136 255
1.1043 0.364532 4.74889 0 0 0 91 101 86 255
-0.902929 0.361672 4.0992 0 0 0 35 72 108 255
-0.763091 0.359229 4.06411 0 0 0 22 78 129 255
-0.63868 0.360573 4.05902 0 0 0 122 132 142 255
-0.613571 0.359687 4.06924 0 0 0 9 73 123 255
-0.588667 0.361399 4.07161 0 0 0 96 119 159 255
1.95286 0.357202 4.02306 0 0 0 86 81 79 255
-0.881362 0.365458 4.09989 0 0 0 76 99 128 255
-0.520629 0.364519 4.09489 0 0 0 7 73 123 255
-0.338701 0.36918 4.23422 0 0 0 101 88 100 255
1.05109 0.375347 4.68946 0 0 0 151 125 132 255
-0.493534 0.380622 4.10776 0 0 0 55 87 113 255
0.873864 0.384178 4.59162 0 0 0 157 138 142 255
1.96283 0.375292 3.99792 0 0 0 117 119 118 255
-0.561547 0.383952 4.08099 0 0 0 26 81 117 255
-0.536088 0.386175 4.09236 0 0 0 140 150 161 255
-0.414951 0.381962 4.1655 0 0 0 73 89 111 255
1.98381 0.379617 3.93641 0 0 0 112 117 117 255
-0.641658 0.384296 4.06141 0 0 0 68 97 95 255
-0.484242 0.386426 4.11464 0 0 0 25 65 100 255
-0.444429 0.392582 4.14369 0 0 0 36 61 105 255
-0.367784 0.388437 4.1971 0 0 0 78 80 99 255
2.45032 0.382645 3.70684 0 0 0 103 102 105 255
2.49382 0.386077 3.71823 0 0 0 123 130 133 255
2.55998 0.380527 3.76925 0 0 0 79 84 88 255
-0.504512 0.39286 4.09949 0 0 0 33 72 114 255
0.535674 0.403444 4.51771 0 0 0 121 111 114 255
2.06814 0.384801 3.76302 0 0 0 103 107 108 255
2.17596 0.392924 3.70584 0 0 0 132 134 137 255
2.19373 0.389819 3.69667 0 0 0 81 81 81 255
2.2799 0.387364 3.69052 0 0 0 81 83 84 255
2.29334 0.383721 3.68269 0 0 0 88 87 89 255
2.30437 0.391702 3.67492 0 0 0 137 136 137 255
-0.480205 0.405525 4.11803 0 0 0 121 134 152 255
-0.471975 0.406781 4.12163 0 0 0 139 150 165 255
1.05528 0.410757 4.68456 0 0 0 126 90 88 255
1.9787 0.394208 3.98136 0 0 0 73 68 66 255
2.45577 0.396294 3.71125 0 0 0 138 141 140 255
-0.598534 0.410797 4.07348 0 0 0 25 93 124 255
-0.577656 0.410127 4.07525 0 0 0 147 155 163 255
-0.398726 0.412057 4.17066 0 0 0 141 145 164 255
-0.554728 0.423686 4.08809 0 0 0 42 84 121 255
-0.514083 0.416446 4.09997 0 0 0 153 158 160 255
-0.479598 0.422669 4.11956 0 0 0 152 153 157 255
-0.441934 0.419734 4.14638 0 0 0 149 150 154 255
2.10437 0.413552 3.74296 0 0 0 60 39 39 255
2.43735 0.411115 3.70867 0 0 0 61 44 39 255
-0.539979 0.424749 4.09011 0 0 0 81 103 123 255
-0.461025 0.426761 4.13866 0 0 0 63 79 103 255
-0.361171 0.432028 4.21856 0 0 0 103 96 115 255
2.52185 0.411809 3.72532 0 0 0 76 66 67 255
-0.598551 0.431579 4.07816 0 0 0 19 93 125 255
-0.391122 0.43941 4.18498 0 0 0 79 87 98 255
-0.538535 0.438511 4.08884 0 0 0 11 83 127 255
-0.504917 0.440905 4.10763 0 0 0 30 76 115 255
-0.562352 0.445082 4.08663 0 0 0 116 163 192 255
-0.471708 0.446055 4.12736 0 0 0 39 62 90 255
-0.447989 0.448637 4.14955 0 0 0 17 60 109 255
-0.400386 0.446971 4.17474 0 0 0 57 71 108 255
-0.33889 0.453625 4.24023 0 0 0 120 89 112 255
-0.720806 0.452594 4.0702 0 0 0 142 149 136 255
-0.676813 0.451384 4.07157 0 0 0 140 149 148 255
-0.546074 0.461122 4.08891 0 0 0 25 89 126 255
-0.480307 0.460989 4.1254 0 0 0 22 70 125 255
2.10549 0.449052 3.74018 0 0 0 58 39 39 255
-0.674794 0.468542 4.06941 0 0 0 80 95 94 255
-0.635329 0.469823 4.07572 0 0 0 58 94 92 255
-0.58118 0.468199 4.08064 0 0 0 81 103 120 255
-0.425785 0.478442 4.15967 0 0 0 45 84 117 255
2.14481 0.468033 3.72195 0 0 0 91 65 52 255
-1.01701 0.489646 4.25384 0 0 0 110 92 99 255
-0.6573 0.482225 4.07287 0 0 0 84 120 108 255
-0.390876 0.491273 4.1915 0 0 0 73 98 117 255
-0.319618 0.486714 4.25988 0 0 0 31 84 119 255
-0.99573 0.497641 4.25184 0 0 0 108 94 96 255
2.28549 0.473198 3.68273 0 0 0 80 62 54 255
-0.736171 0.495794 4.07215 0 0 0 87 106 123 255
1.96886 0.498245 3.96988 0 0 0 95 96 91 255
2.10608 0.486891 3.74475 0 0 0 67 46 41 255
-0.43071 0.504541 4.16391 0 0 0 60 108 147 255
2.51865 0.486203 3.73577 0 0 0 109 105 106 255
2.12414 0.49667 3.73899 0 0 0 37 43 44 255
2.27534 0.512401 3.69211 0 0 0 87 75 65 255
2.27923 0.511158 3.69037 0 0 0 74 55 41 255
2.29903 0.509377 3.68362 0 0 0 60 51 47 255
1.10592 0.574879 4.80896 0 0 0 106 143 126 255
1.95957 0.546636 3.99041 0 0 0 119 116 115 255
2.436 0.532059 3.71356 0 0 0 64 53 57 255
-0.444687 0.561722 4.15757 0 0 0 145 149 167 255
2.21174 0.538743 3.70043 0 0 0 81 66 56 255
2.21965 0.52991 3.69911 0 0 0 50 37 39 255
-1.01017 0.571503 4.23289 0 0 0 107 113 138 255
-0.868419 0.562292 4.08701 0 0 0 104 117 151 255
-0.833045 0.565156 4.09802 0 0 0 141 145 147 255
2.45689 0.544038 3.71638 0 0 0 101 103 109 255
2.56005 0.544381 3.76875 0 0 0 131 138 138 255
-0.648642 0.572193 4.08594 0 0 0 138 140 171 255
1.954 0.56875 4.0325 0 0 0 77 67 61 255
2.49895 0.549173 3.73533 0 0 0 129 138 140 255
2.17607 0.559605 3.71607 0 0 0 114 129 133 255
-0.902262 0.585643 4.1269 0 0 0 24 52 91 255
2.2434 0.558845 3.68529 0 0 0 139 136 137 255
2.32657 0.558919 3.69201 0 0 0 93 103 105 255
2.35597 0.558936 3.68197 0 0 0 140 141 143 255
-0.955757 0.592544 4.16835 0 0 0 33 58 91 255
1.04606 0.628041 4.69556 0 0 0 71 73 73 255
-0.494949 0.605226 4.09411 0 0 0 84 89 109 255
-0.596753 0.617917 4.14062 0 0 0 53 59 75 255
-0.985466 0.652991 4.19675 0 0 0 127 129 132 255
-0.373453 0.646355 4.22628 0 0 0 36 66 115 255
-0.483789 0.651835 4.0667 0 0 0 91 90 94 255
-0.594405 0.669208 4.13534 0 0 0 61 68 87 255
-0.876901 0.680766 4.12656 0 0 0 56 60 71 255
-0.339153 0.682747 4.24124 0 0 0 116 116 118 255
-0.945002 0.680459 4.15634 0 0 0 37 42 54 255
0.549137 0.715448 4.64457 0 0 0 85 123 102 255
-0.993845 0.6909 4.1694 0 0 0 88 95 105 255
-0.439335 0.688843 4.16581 0 0 0 151 158 159 255
1.07269 0.73278 4.74805 0 0 0 127 137 136 255
-0.748471 0.696869 4.08356 0 0 0 123 125 141 255
-0.408108 0.719525 4.20005 0 0 0 132 140 162 255
0.836989 0.748879 4.62065 0 0 0 65 109 78 255
-0.88456 0.719309 4.13011 0 0 0 122 125 129 255
-0.652816 0.720164 4.09569 0 0 0 136 142 163 255
-0.340006 0.735339 4.24514 0 0 0 113 116 127 255
-0.559282 0.749517 4.11279 0 0 0 141 150 171 255
-0.523569 0.74775 4.12486 0 0 0 152 152 158 255
2.26219 0.717772 3.70351 0 0 0 79 76 68 255
2.38705 0.718067 3.72488 0 0 0 86 76 66 255
-0.795959 0.758547 4.0843 0 0 0 78 82 95 255
-0.69834 0.768895 4.09717 0 0 0 131 136 162 255
-0.453548 0.774908 4.16346 0 0 0 70 74 90 255
-0.997533 0.77871 4.20161 0 0 0 130 137 137 255
-0.339366 0.790061 4.25754 0 0 0 60 71 94 255
-0.30669 0.819767 4.31406 0 0 0 97 106 117 255
-0.324256 0.819653 4.28653 0 0 0 127 132 153 255
2.25695 0.764308 3.70903 0 0 0 89 76 57 255
-0.835404 0.810815 4.10516 0 0 0 117 120 126 255
-0.61924 0.808751 4.10704 0 0 0 79 86 105 255
2.30969 0.766099 3.70721 0 0 0 98 74 53 255
-0.634139 0.812896 4.10232 0 0 0 53 63 89 255
-0.391064 0.828139 4.22757 0 0 0 56 73 95 255
-0.453332 0.835428 4.16726 0 0 0 90 89 97 255
-0.812415 0.834663 4.09569 0 0 0 74 80 99 255
-0.369521 0.850559 4.24708 0 0 0 155 157 160 255
0.548079 0.903563 4.65429 0 0 0 71 111 93 255
-0.388748 0.869415 4.24014 0 0 0 82 92 100 255
-0.406245 0.882909 4.22622 0 0 0 156 158 157 255
-0.618384 0.873212 4.10788 0 0 0 103 105 107 255
-0.634004 0.88146 4.10231 0 0 0 67 83 105 255
-0.95753 0.898226 4.17547 0 0 0 79 88 101 255
-0.370745 0.909473 4.23758 0 0 0 73 96 127 255
-0.723298 0.904136 4.10109 0 0 0 35 64 104 255
-0.520889 0.916594 4.13908 0 0 0 157 157 163 255
1.07942 1.00249 4.76148 0 0 0 121 139 124 255
-0.557848 0.929226 4.13113 0 0 0 155 159 160 255
-0.441676 0.936737 4.19482 0 0 0 73 92 125 255
-0.731355 0.934828 4.10186 0 0 0 159 160 161 255
-0.620678 0.945239 4.1179 0 0 0 125 125 125 255
-0.596796 0.943307 4.11701 0 0 0 148 150 152 255
-0.887551 0.956635 4.14284 0 0 0 35 51 92 255
-0.717755 0.954834 4.10524 0 0 0 81 91 108 255
-0.697618 0.968445 4.10933 0 0 0 153 149 159 255
-0.583584 0.98022 4.12107 0 0 0 75 92 137 255
-0.753666 0.979926 4.10071 0 0 0 157 157 157 255
-0.618435 0.991509 4.11014 0 0 0 68 89 127 255
-0.36881 1.01493 4.26056 0 0 0 118 140 158 255
1.1788 1.13632 5.04867 0 0 0 172 176 170 255
-0.88812 1.01277 4.14789 0 0 0 40 50 84 255
-0.704958 1.01025 4.11368 0 0 0 66 84 118 255
1.90529 1.34981 6.42352 0 0 0 144 141 136 255
-0.38227 1.03482 4.25801 0 0 0 52 101 130 255
-0.939079 1.03178 4.17496 0 0 0 135 131 139 255
-0.913754 1.02909 4.16553 0 0 0 145 149 150 255
1.20368 1.17241 5.06299 0 0 0 120 118 116 255
-0.992373 1.03957 4.2015 0 0 0 116 120 122 255
-0.510792 1.05123 4.1669 0 0 0 41 99 138 255
-0.508995 1.09005 4.16762 0 0 0 60 110 140 255
-0.377846 1.11993 4.2662 0 0 0 28 73 120 255
-0.34299 1.12781 4.28185 0 0 0 29 75 113 255
2.07802 1.05211 3.81971 0 0 0 107 110 109 255
2.13003 1.05674 3.79791 0 0 0 117 117 118 255
2.17773 1.05357 3.76618 0 0 0 90 86 85 255
2.11647 1.06166 3.7973 0 0 0 99 103 103 255
2.15465 1.06425 3.82264 0 0 0 97 94 95 255
2.22217 1.05588 3.75794 0 0 0 90 92 91 255
-0.405846 1.14819 4.25605 0 0 0 135 146 156 255
-0.318099 1.14959 4.29255 0 0 0 109 132 145 255
2.26404 1.05576 3.74837 0 0 0 80 81 80 255
2.3264 1.06041 3.74368 0 0 0 103 98 100 255
2.35507 1.06018 3.74608 0 0 0 96 94 96 255
2.22214 1.07286 3.75183 0 0 0 121 124 123 255
2.21982 1.07339 3.75263 0 0 0 121 124 123 255
2.22954 1.08745 3.75064 0 0 0 86 84 84 255
-0.335572 1.18629 4.29917 0 0 0 51 76 100 255
2.17989 1.09912 3.78921 0 0 0 84 89 89 255
2.26197 1.08887 3.74247 0 0 0 83 78 76 255
2.29181 1.0807 3.73312 0 0 0 89 81 83 255
2.36642 1.08777 3.73416 0 0 0 78 78 79 255
2.4948 1.09112 3.77536 0 0 0 73 74 76 255
-0.623796 1.15929 4.11563 0 0 0 24 111 147 255
2.23041 1.0883 3.75494 0 0 0 98 105 102 255
2.40672 1.09143 3.73917 0 0 0 87 92 90 255
-0.863444 1.17532 4.12317 0 0 0 88 116 142 255
-0.648447 1.17605 4.11175 0 0 0 148 149 158 255
2.14282 1.13905 3.79381 0 0 0 102 103 105 255
-0.637345 1.19981 4.11184 0 0 0 66 85 118 255
-0.736987 1.2096 4.09954 0 0 0 115 99 115 255
-0.828483 1.21998 4.10432 0 0 0 107 103 113 255
-0.698888 1.21584 4.10641 0 0 0 113 103 118 255
2.09211 1.1822 3.84971 0 0 0 103 105 104 255
2.26796 1.18491 3.7543 0 0 0 106 107 111 255
2.08577 1.21788 3.85521 0 0 0 115 113 112 255
-0.887613 1.36107 4.11562 0 0 0 69 106 141 255
-0.380078 1.39017 4.25182 0 0 0 140 152 167 255
-0.841971 1.36098 4.10877 0 0 0 65 104 137 255
-0.401126 1.40496 4.25341 0 0 0 93 102 120 255
-0.474355 1.39765 4.18914 0 0 0 93 128 163 255
-0.815698 1.39123 4.10708 0 0 0 22 83 123 255
-0.46744 1.42722 4.18922 0 0 0 157 159 160 255
-0.886659 1.41417 4.11774 0 0 0 89 108 133 255
2.46126 1.4045 3.79337 0 0 0 84 82 84 255
2.25145 1.41287 3.79984 0 0 0 112 112 112 255
2.1707 1.43021 3.83099 0 0 0 100 100 100 255
2.31051 1.41643 3.77491 0 0 0 106 106 106 255
2.38519 1.63083 3.98878 0 0 0 191 193 199 255
2.39535 1.62889 3.98083 0 0 0 207 207 208 255
2.32063 -0.207058 3.86299 0 0 0 153 157 163 255
2.35449 -0.205857 3.85619 0 0 0 46 45 44 255
2.21894 -0.158851 3.78035 0 0 0 140 73 68 255
0.94925 -0.239783 4.65808 0 0 0 211 211 212 255
2.33217 0.0130317 3.88411 0 0 0 200 205 207 255
-1.04235 0.133339 4.24859 0 0 0 22 47 84 255
2.05036 0.133931 4.03895 0 0 0 135 135 134 255
2.21334 0.258286 3.71385 0 0 0 121 103 80 255
2.31026 0.249904 3.69086 0 0 0 80 75 76 255
2.40192 0.255101 3.70287 0 0 0 93 77 67 255
-0.724468 0.260614 4.0552 0 0 0 113 104 82 255
-0.85295 0.270082 4.06453 0 0 0 132 125 125 255
-0.566965 0.269349 4.07757 0 0 0 110 103 101 255
-0.482887 0.271384 4.10617 0 0 0 124 109 113 255
2.3796 0.281733 3.69149 0 0 0 91 51 24 255
2.29977 0.308997 3.67853 0 0 0 165 133 81 255
-0.560062 0.312683 4.07942 0 0 0 147 121 91 255
-0.92873 0.330019 4.11832 0 0 0 68 103 139 255
-0.895796 0.354914 4.09441 0 0 0 37 76 112 255
-0.646106 0.356201 4.06426 0 0 0 46 99 143 255
-0.431747 0.348022 4.14232 0 0 0 105 129 149 255
0.407869 0.36387 4.69572 0 0 0 111 87 83 255
0.798835 0.363687 4.57063 0 0 0 144 132 134 255
0.874962 0.375095 4.59039 0 0 0 136 117 121 255
-0.657326 0.391058 4.06087 0 0 0 29 88 75 255
-0.487664 0.38898 4.11183 0 0 0 30 73 108 255
-0.39174 0.398158 4.17639 0 0 0 152 156 156 255
1.98277 0.383465 3.94579 0 0 0 77 84 85 255
2.12357 0.390269 3.73126 0 0 0 89 89 90 255
2.49231 0.387175 3.72399 0 0 0 110 118 121 255
1.94136 0.413848 4.00097 0 0 0 125 120 116 255
-0.592935 0.432138 4.07638 0 0 0 19 93 125 255
2.10475 0.420303 3.74272 0 0 0 58 40 40 255
2.42125 0.416049 3.69178 0 0 0 83 63 45 255
-0.458214 0.441997 4.14075 0 0 0 16 60 108 255
1.97875 0.442672 3.94846 0 0 0 82 76 67 255
2.10551 0.433277 3.74102 0 0 0 58 42 39 255
2.45827 0.430903 3.71272 0 0 0 34 38 37 255
-0.616691 0.455893 4.07953 0 0 0 147 154 154 255
2.14551 0.468672 3.72184 0 0 0 91 65 52 255
-0.550667 0.490707 4.08598 0 0 0 104 120 136 255
-0.423708 0.505048 4.16449 0 0 0 78 121 156 255
1.94091 0.49897 3.99965 0 0 0 122 120 119 255
2.10665 0.499979 3.74486 0 0 0 55 39 39 255
1.08377 0.578489 4.73943 0 0 0 126 142 138 255
2.10407 0.525957 3.74689 0 0 0 50 42 47 255
2.21616 0.525028 3.69913 0 0 0 55 39 41 255
2.28535 0.524395 3.68707 0 0 0 46 36 38 255
2.41821 0.522756 3.69525 0 0 0 57 40 43 255
2.55859 0.540101 3.76836 0 0 0 104 112 118 255
1.95138 0.572267 4.0381 0 0 0 108 100 94 255
2.49397 0.548281 3.73559 0 0 0 123 130 131 255
2.3672 0.561186 3.68747 0 0 0 108 94 86 255
2.40693 0.550093 3.68424 0 0 0 140 142 143 255
2.42725 0.551175 3.70189 0 0 0 143 143 143 255
-1.00223 0.592198 4.2223 0 0 0 134 137 140 255
-0.913821 0.586536 4.13159 0 0 0 32 55 90 255
2.15296 0.556187 3.72417 0 0 0 107 90 75 255
-0.743854 0.61183 4.07801 0 0 0 155 156 156 255
-0.498074 0.605346 4.09258 0 0 0 88 94 113 255
-0.735678 0.647168 4.08011 0 0 0 154 156 158 255
-0.440514 0.685001 4.16105 0 0 0 151 158 159 255
-0.988451 0.707387 4.16651 0 0 0 133 131 130 255
-0.740131 0.715467 4.08272 0 0 0 156 159 161 255
-0.649073 0.709016 4.09395 0 0 0 137 143 162 255
-0.411705 0.725823 4.19658 0 0 0 155 160 168 255
-0.889918 0.728584 4.13664 0 0 0 109 111 116 255
-0.56331 0.76129 4.1128 0 0 0 158 162 163 255
2.26326 0.725127 3.70448 0 0 0 96 76 55 255
-0.899943 0.77714 4.14201 0 0 0 97 108 118 255
-0.700867 0.761787 4.09711 0 0 0 52 69 110 255
-0.466895 0.778035 4.15986 0 0 0 92 94 101 255
-0.339163 0.788934 4.25783 0 0 0 40 53 83 255
-0.323236 0.814113 4.28639 0 0 0 128 133 152 255
-0.634147 0.812897 4.10228 0 0 0 53 63 89 255
-0.464689 0.839959 4.16833 0 0 0 58 66 93 255
-0.424016 0.889613 4.21119 0 0 0 156 157 159 255
-0.462606 0.902093 4.17917 0 0 0 113 117 126 255
-0.955262 0.913001 4.17034 0 0 0 69 69 80 255
-0.516441 0.915969 4.14083 0 0 0 156 159 158 255
-0.573051 0.933615 4.12437 0 0 0 160 162 163 255
-0.744925 0.935626 4.09649 0 0 0 157 161 163 255
-0.888782 0.946296 4.14412 0 0 0 33 52 93 255
-0.684933 0.963773 4.11006 0 0 0 158 160 161 255
-0.721849 0.969216 4.10515 0 0 0 59 71 96 255
-0.754133 0.977271 4.09896 0 0 0 157 157 157 255
-0.492013 1.00328 4.16797 0 0 0 130 149 169 255
-0.853019 1.00709 4.13048 0 0 0 151 154 153 255
-0.929738 1.02649 4.16893 0 0 0 149 147 151 255
-0.513073 1.04268 4.16341 0 0 0 40 99 138 255
0.955274 1.11687 4.68499 0 0 0 29 77 115 255
0.505572 1.15006 4.71174 0 0 0 69 104 73 255
2.36038 1.07226 3.748 0 0 0 87 86 87 255
0.799159 1.25527 4.64246 0 0 0 101 120 98 255
-0.645832 1.17113 4.10929 0 0 0 136 140 153 255
-0.867516 1.17011 4.12552 0 0 0 88 116 142 255
-0.724086 1.17616 4.10304 0 0 0 85 131 170 255
-0.792585 1.1926 4.10976 0 0 0 21 85 131 255
-0.828519 1.23751 4.10132 0 0 0 80 84 109 255
-0.904309 1.27197 4.13632 0 0 0 124 142 163 255
-0.640629 1.29796 4.11232 0 0 0 37 76 110 255
-0.857059 1.32244 4.12318 0 0 0 101 111 122 255
-0.726667 1.32925 4.10682 0 0 0 95 108 135 255
-0.842447 1.36321 4.11226 0 0 0 65 104 137 255
2.39948 1.41094 3.78612 0 0 0 98 94 97 255
2.28872 -0.208014 3.87382 0 0 0 45 43 44 255
2.36235 -0.201698 3.83527 0 0 0 45 45 45 255
2.44767 -0.195436 3.88468 0 0 0 47 52 53 255
0.948638 -0.238057 4.65706 0 0 0 211 211 212 255
2.10155 -0.0574721 4.00083 0 0 0 93 84 83 255
2.45826 -0.0414321 3.86916 0 0 0 35 39 39 255
2.33246 0.00973643 3.88378 0 0 0 200 205 207 255
2.46106 0.0386469 3.89624 0 0 0 84 85 92 255
2.34259 0.0874278 3.89846 0 0 0 248 250 254 255
2.34676 0.115627 3.89236 0 0 0 255 252 253 255
2.06727 0.134409 4.03057 0 0 0 63 63 62 255
2.52728 0.140324 3.92513 0 0 0 50 50 54 255
2.30904 0.259608 3.6934 0 0 0 161 144 114 255
-0.472986 0.262127 4.11035 0 0 0 148 121 89 255
2.21613 0.266764 3.71215 0 0 0 95 75 60 255
2.3594 0.262262 3.69559 0 0 0 125 88 55 255
-0.830203 0.282403 4.05961 0 0 0 139 126 66 255
-0.803127 0.275153 4.05784 0 0 0 75 73 68 255
-0.767154 0.272654 4.05736 0 0 0 114 95 99 255
-0.627869 0.27158 4.06247 0 0 0 133 111 101 255
-0.704179 0.283624 4.05444 0 0 0 113 107 101 255
2.21526 0.297616 3.70638 0 0 0 130 106 77 255
2.37296 0.299586 3.68928 0 0 0 138 101 62 255
-0.976932 0.335141 4.19627 0 0 0 95 110 126 255
0.582228 0.372558 4.59075 0 0 0 118 39 43 255
-0.617917 0.400554 4.07412 0 0 0 149 155 160 255
-0.532453 0.398758 4.08966 0 0 0 152 158 165 255
-0.392216 0.396144 4.17492 0 0 0 148 155 155 255
0.604469 0.405633 4.58136 0 0 0 156 147 148 255
1.98144 0.390427 3.93104 0 0 0 112 121 123 255
2.07561 0.397244 3.76128 0 0 0 127 133 134 255
2.133 0.407939 3.72921 0 0 0 131 137 139 255
2.15799 0.396273 3.71666 0 0 0 40 39 44 255
2.18656 0.397202 3.70052 0 0 0 135 136 140 255
2.29262 0.397138 3.68358 0 0 0 138 147 149 255
2.41896 0.386364 3.69442 0 0 0 125 129 132 255
2.13418 0.414943 3.72892 0 0 0 123 136 140 255
2.42968 0.418539 3.70345 0 0 0 61 43 33 255
-0.605133 0.457608 4.08142 0 0 0 144 156 158 255
-0.983642 0.483463 4.22878 0 0 0 127 120 122 255
2.15186 0.470841 3.71986 0 0 0 61 40 29 255
-0.353543 0.541671 4.2379 0 0 0 32 80 117 255
2.11008 0.513398 3.74445 0 0 0 47 38 40 255
2.22025 0.518415 3.69826 0 0 0 52 36 38 255
2.42831 0.507578 3.70239 0 0 0 39 38 42 255
1.98499 0.541192 3.91922 0 0 0 130 133 131 255
2.28931 0.529384 3.68475 0 0 0 37 39 43 255
-0.921405 0.585315 4.13652 0 0 0 22 55 94 255
-0.850929 0.5716 4.09221 0 0 0 152 152 152 255
-0.644981 0.576932 4.08856 0 0 0 153 155 167 255
-0.457124 0.5697 4.15229 0 0 0 156 158 162 255
2.124 0.552328 3.73762 0 0 0 137 139 139 255
2.15445 0.552737 3.72511 0 0 0 107 90 75 255
2.1961 0.556804 3.70458 0 0 0 137 141 142 255
2.2373 0.559736 3.6884 0 0 0 142 141 144 255
2.33703 0.548994 3.68816 0 0 0 141 146 147 255
2.38345 0.553659 3.68299 0 0 0 45 41 45 255
2.43055 0.553128 3.70607 0 0 0 143 143 143 255
-0.799875 0.587088 4.08963 0 0 0 29 51 90 255
-0.744542 0.609135 4.07866 0 0 0 156 156 156 255
-0.58674 0.624043 4.14365 0 0 0 104 112 143 255
1.04117 0.653979 4.71433 0 0 0 40 80 74 255
-0.746446 0.62206 4.08077 0 0 0 156 159 158 255
-0.362761 0.660078 4.22568 0 0 0 146 151 161 255
-0.591703 0.670901 4.14485 0 0 0 61 68 87 255
-0.516475 0.663663 4.10557 0 0 0 59 65 84 255
-0.43789 0.668248 4.16148 0 0 0 153 157 159 255
-0.95346 0.686959 4.16268 0 0 0 28 44 82 255
-0.879273 0.678965 4.12655 0 0 0 56 60 71 255
-0.779142 0.678051 4.07907 0 0 0 34 53 94 255
-0.365365 0.683893 4.22326 0 0 0 146 152 161 255
-0.959661 0.700338 4.16381 0 0 0 24 46 91 255
-0.882609 0.707568 4.12699 0 0 0 111 118 126 255
-0.744591 0.709747 4.08291 0 0 0 153 157 160 255
-0.418655 0.729127 4.19403 0 0 0 154 159 171 255
-0.897447 0.766695 4.13826 0 0 0 107 117 124 255
2.28259 0.736582 3.70666 0 0 0 110 80 42 255
-0.688517 0.777922 4.1015 0 0 0 156 158 163 255
-1.00206 0.815222 4.22218 0 0 0 39 52 75 255
-0.392977 0.805144 4.2244 0 0 0 103 118 135 255
-0.292001 0.807636 4.33622 0 0 0 149 153 154 255
-0.628521 0.814507 4.10328 0 0 0 49 59 86 255
-0.341102 0.817954 4.25972 0 0 0 33 58 96 255
-0.812712 0.829704 4.09101 0 0 0 74 80 99 255
-0.625281 0.880793 4.10434 0 0 0 58 75 97 255
-0.423411 0.907089 4.22119 0 0 0 61 73 100 255
-0.749254 0.888076 4.09391 0 0 0 60 75 95 255
-0.505513 0.898754 4.13951 0 0 0 160 162 163 255
-0.874449 0.913776 4.13109 0 0 0 31 51 92 255
-0.573947 0.933865 4.12237 0 0 0 160 162 163 255
-0.878108 0.931652 4.13759 0 0 0 26 52 95 255
-0.673242 0.951593 4.1125 0 0 0 159 162 161 255
-0.628846 0.952671 4.10842 0 0 0 77 85 106 255
-0.802974 0.986789 4.11619 0 0 0 41 55 91 255
1.18576 1.11764 5.05098 0 0 0 168 174 170 255
-0.486154 1.00481 4.17002 0 0 0 137 155 172 255
-0.370294 1.01924 4.25885 0 0 0 122 144 164 255
-0.924794 1.01747 4.16493 0 0 0 148 150 151 255
1.18852 1.22246 5.06114 0 0 0 158 162 161 255
-0.626756 1.08038 4.11356 0 0 0 113 153 184 255
-0.402638 1.15261 4.27115 0 0 0 145 152 158 255
2.1327 1.06694 3.77609 0 0 0 95 95 94 255
2.29244 1.07424 3.73196 0 0 0 86 79 81 255
-0.681486 1.16095 4.10414 0 0 0 23 88 136 255
-0.64275 1.15681 4.11059 0 0 0 142 157 181 255
-0.598087 1.15101 4.11953 0 0 0 9 108 147 255
-0.864828 1.20254 4.12377 0 0 0 142 144 146 255
-0.784738 1.18171 4.10587 0 0 0 19 84 129 255
-0.63851 1.20385 4.11035 0 0 0 46 80 123 255
-0.341162 1.23925 4.29698 0 0 0 162 140 95 255
-0.912405 1.22174 4.14513 0 0 0 82 104 140 255
-0.901436 1.27334 4.13458 0 0 0 124 142 163 255
-0.865765 1.30499 4.12969 0 0 0 124 131 141 255
-0.797237 1.31309 4.1027 0 0 0 29 74 114 255
-0.711784 1.3002 4.10933 0 0 0 111 112 122 255
-0.38194 1.3965 4.25461 0 0 0 152 154 156 255
-0.868758 1.38152 4.10753 0 0 0 84 129 157 255
2.4102 1.41273 3.7808 0 0 0 93 90 94 255
2.39289 1.62949 3.9852 0 0 0 205 206 212 255
2.22057 -0.191827 3.75373 0 0 0 42 41 42 255
2.43994 -0.185189 3.87358 0 0 0 63 43 41 255
2.12644 -0.0542989 3.98953 0 0 0 47 49 51 255
2.46783 0.0515942 3.90246 0 0 0 83 86 92 255
-1.04179 0.135802 4.25252 0 0 0 22 47 84 255
-0.654614 0.273352 4.05297 0 0 0 129 110 99 255
2.28953 0.268814 3.69615 0 0 0 118 95 70 255
-0.364012 0.353667 4.20299 0 0 0 124 141 155 255
1.96398 0.334969 4.02848 0 0 0 59 58 59 255
-0.951108 0.352237 4.1547 0 0 0 96 99 113 255
-0.87198 0.333521 4.0797 0 0 0 8 56 107 255
0.767738 0.389287 4.57188 0 0 0 159 159 159 255
2.39833 0.40087 3.68918 0 0 0 122 130 137 255
-0.439454 0.420524 4.14923 0 0 0 149 150 154 255
2.07637 0.398354 3.76127 0 0 0 124 136 136 255
2.18666 0.416357 3.70024 0 0 0 132 143 146 255
2.29166 0.393655 3.68457 0 0 0 143 143 143 255
2.34471 0.433711 3.67843 0 0 0 40 41 47 255
-0.944541 0.469844 4.17479 0 0 0 145 109 78 255
2.27197 0.492445 3.6897 0 0 0 136 136 137 255
-0.462335 0.587803 4.15252 0 0 0 158 160 160 255
1.97868 0.591352 4.03025 0 0 0 45 46 47 255
-0.645181 0.575891 4.08786 0 0 0 153 155 167 255
-0.740039 0.62808 4.07787 0 0 0 156 159 159 255
-0.365494 0.655767 4.22636 0 0 0 113 126 151 255
-0.969052 0.685516 4.17698 0 0 0 22 44 84 255
-0.64202 0.687631 4.09411 0 0 0 154 158 160 255
-0.42211 0.680558 4.18402 0 0 0 32 60 105 255
-0.8869 0.725311 4.12413 0 0 0 122 125 129 255
0.789953 0.759131 4.61976 0 0 0 70 110 74 255
-0.748776 0.731659 4.08172 0 0 0 159 160 160 255
-0.419873 0.882182 4.21509 0 0 0 158 161 161 255
-0.88364 0.913095 4.13676 0 0 0 29 52 93 255
-0.773682 0.942983 4.10039 0 0 0 158 161 160 255
-0.985939 1.068 4.22199 0 0 0 23 53 95 255
-0.414524 1.11215 4.25267 0 0 0 3 94 141 255
-0.36094 1.14961 4.27557 0 0 0 146 150 155 255
-0.590615 1.15103 4.11865 0 0 0 4 108 151 255
-0.865917 1.19241 4.12135 0 0 0 141 143 145 255
-0.784769 1.18757 4.10605 0 0 0 20 85 131 255
-0.724715 1.18007 4.10187 0 0 0 126 144 160 255
-0.662476 1.18011 4.10848 0 0 0 33 87 135 255
-0.350788 1.25882 4.2887 0 0 0 164 148 92 255
0.357542 1.40856 4.98045 0 0 0 67 94 81 255
-0.881104 1.2743 4.12892 0 0 0 138 143 146 255
-0.769834 1.27475 4.10672 0 0 0 157 157 158 255
-0.365966 1.29053 4.29255 0 0 0 168 154 103 255
-0.789398 1.30462 4.10283 0 0 0 36 74 113 255
-0.724576 1.3112 4.10602 0 0 0 132 130 139 255
-0.643889 1.31045 4.11279 0 0 0 28 75 118 255
-0.568096 1.32244 4.14488 0 0 0 166 160 125 255
-0.294996 1.46103 4.65304 0 0 0 45 86 123 255
2.13413 -0.0841512 3.98367 0 0 0 65 66 72 255
-0.321603 0.108553 4.52895 0 0 0 26 61 102 255
2.05484 0.164556 4.03537 0 0 0 55 58 57 255
-0.361665 0.368411 4.21584 0 0 0 138 149 156 255
-0.901912 0.406419 4.11623 0 0 0 143 135 116 255
-0.606547 0.392967 4.07293 0 0 0 135 143 155 255
-0.529587 0.397606 4.0933 0 0 0 153 159 162 255
1.97775 0.42062 3.95795 0 0 0 111 113 111 255
-0.921774 0.449545 4.14334 0 0 0 147 142 134 255
-0.731129 0.459909 4.06472 0 0 0 117 125 105 255
-0.354953 0.463193 4.22712 0 0 0 151 153 161 255
1.0914 0.522162 4.77549 0 0 0 93 113 86 255
1.98141 0.505251 3.92872 0 0 0 121 128 125 255
-0.966057 0.535324 4.18269 0 0 0 12 59 104 255
0.829026 0.595283 4.62581 0 0 0 156 160 161 255
2.08139 0.550715 3.76239 0 0 0 135 139 140 255
2.20695 0.552217 3.70166 0 0 0 143 142 139 255
-0.630918 0.590364 4.09459 0 0 0 157 159 161 255
-0.465153 0.594867 4.14923 0 0 0 157 160 162 255
1.97484 0.601624 4.06608 0 0 0 50 52 52 255
-0.907953 0.631225 4.12854 0 0 0 150 152 151 255
-0.831811 0.599884 4.10332 0 0 0 146 152 155 255
-0.508208 0.646386 4.07443 0 0 0 156 158 158 255
-0.321709 0.689707 4.33054 0 0 0 146 153 154 255
-0.963567 0.695026 4.1688 0 0 0 23 46 87 255
0.947009 0.748348 4.63794 0 0 0 116 146 130 255
1.09109 0.774805 4.77577 0 0 0 48 91 74 255
-0.672094 0.731849 4.09069 0 0 0 27 55 103 255
-1.00769 0.823943 4.22464 0 0 0 23 61 94 255
-0.737466 0.868409 4.09727 0 0 0 37 61 107 255
-0.459084 0.835055 4.16776 0 0 0 107 104 108 255
-0.617356 0.911119 4.11047 0 0 0 158 161 165 255
-0.856699 0.979235 4.13026 0 0 0 152 154 156 255
-0.482118 1.00378 4.17392 0 0 0 137 155 172 255
-0.371564 1.02643 4.25872 0 0 0 127 129 131 255
-0.489276 1.06793 4.17032 0 0 0 148 152 158 255
-0.355979 1.21468 4.29258 0 0 0 140 124 104 255
1.11216 1.40236 5.05087 0 0 0 68 108 88 255
-0.540358 1.32891 4.15505 0 0 0 174 163 107 255
-0.948401 1.41496 4.19433 0 0 0 44 79 117 255
-0.523793 1.44591 4.17381 0 0 0 45 86 124 255
2.00886 1.58923 4.15953 0 0 0 110 112 108 255
2.12849 -0.200523 3.99144 0 0 0 84 67 60 255
2.12013 -0.12815 3.98861 0 0 0 72 57 57 255
1.05351 0.114861 4.76599 0 0 0 45 91 64 255
2.04823 0.176875 4.03597 0 0 0 54 54 54 255
2.07897 0.170996 4.01851 0 0 0 40 47 49 255
1.97793 0.264924 4.02122 0 0 0 109 101 98 255
-0.853101 0.420683 4.08634 0 0 0 147 132 77 255
1.95943 0.471225 3.9745 0 0 0 128 132 131 255
-0.409345 0.620652 4.17571 0 0 0 25 57 105 255
-0.839012 0.647977 4.10461 0 0 0 154 153 154 255
-0.696755 0.638352 4.07783 0 0 0 23 56 107 255
1.05791 0.814205 4.72491 0 0 0 50 95 71 255
-0.740172 0.819331 4.09835 0 0 0 73 84 96 255
-0.304907 0.876549 4.30157 0 0 0 18 64 112 255
2.0032 0.905877 4.10995 0 0 0 46 51 52 255
-0.392945 1.22373 4.26547 0 0 0 153 126 99 255
0.376568 1.39293 4.95479 0 0 0 64 93 79 255
-0.8284 1.21307 4.10651 0 0 0 131 129 136 255
-0.472515 1.32383 4.22554 0 0 0 173 160 74 255
-0.335438 1.44315 4.63277 0 0 0 30 78 119 255
-0.873002 1.43288 4.11136 0 0 0 50 80 110 255
