ply
format ascii 1.0
comment VCGLIB generated
element vertex 1029
property float x
property float y
property float z
property float nx
property float ny
property float nz
property uchar red
property uchar green
property uchar blue
property uchar alpha
element face 0
property list uchar int vertex_indices
end_header
0.386978 0.59554 4.75614 0 0 0 126 145 145 255
0.94352 0.584379 4.63366 0 0 0 159 164 162 255
1.0319 0.59397 4.70279 0 0 0 125 164 155 255
0.770933 0.60788 4.5904 0 0 0 164 169 167 255
0.486028 0.623973 4.67386 0 0 0 53 86 78 255
0.823774 0.634466 4.59846 0 0 0 91 102 87 255
-0.313872 0.662151 4.33206 0 0 0 156 159 160 255
0.552199 0.688071 4.63826 0 0 0 154 164 162 255
0.822812 0.759925 4.60436 0 0 0 71 117 87 255
1.05076 0.763701 4.6865 0 0 0 108 141 127 255
0.946463 0.78946 4.64256 0 0 0 159 166 164 255
-0.294453 0.78534 4.33889 0 0 0 142 149 153 255
0.754246 0.822103 4.6074 0 0 0 167 172 170 255
0.934446 0.827061 4.63664 0 0 0 154 166 164 255
0.855413 0.838993 4.61452 0 0 0 163 171 168 255
0.743267 0.84593 4.60465 0 0 0 157 174 171 255
0.471028 0.907302 4.70057 0 0 0 140 154 153 255
0.572387 0.919789 4.65082 0 0 0 158 166 166 255
1.88414 1.37471 6.63073 0 0 0 155 151 143 255
1.89482 1.35795 6.50333 0 0 0 139 136 128 255
2.1425 1.36871 6.2847 0 0 0 128 125 118 255
1.73095 1.44632 6.69282 0 0 0 124 123 117 255
1.87709 1.39718 6.34671 0 0 0 82 80 79 255
0.963949 1.10036 4.67372 0 0 0 28 83 125 255
0.441331 1.17077 4.75255 0 0 0 131 138 137 255
0.443216 1.15452 4.75811 0 0 0 113 133 124 255
0.938852 1.1179 4.66238 0 0 0 43 81 106 255
0.568038 1.15331 4.66375 0 0 0 137 154 151 255
0.862984 1.18301 4.63625 0 0 0 102 96 67 255
0.443783 1.26103 4.74236 0 0 0 129 136 135 255
0.574801 1.27175 4.66966 0 0 0 143 146 145 255
0.639402 1.25926 4.63183 0 0 0 91 116 85 255
0.331888 1.40338 4.99431 0 0 0 75 92 82 255
0.91564 1.36024 4.6738 0 0 0 154 161 159 255
0.333085 0.0893989 4.87561 0 0 0 72 99 83 255
1.11504 0.0952925 4.93915 0 0 0 66 101 78 255
0.527849 0.384385 4.6239 0 0 0 164 152 156 255
0.781206 0.374804 4.57609 0 0 0 164 167 166 255
0.836387 0.391233 4.58431 0 0 0 108 74 74 255
1.06839 0.549154 4.72857 0 0 0 65 104 75 255
0.818825 0.573265 4.59191 0 0 0 162 169 169 255
0.925208 0.571062 4.62077 0 0 0 157 167 164 255
0.684105 0.581069 4.58082 0 0 0 154 170 167 255
0.793497 0.579978 4.59843 0 0 0 165 169 168 255
0.554796 0.670716 4.6332 0 0 0 158 163 161 255
-0.324645 0.654138 4.32304 0 0 0 160 162 163 255
0.933965 0.805687 4.63728 0 0 0 160 167 167 255
0.824649 0.826329 4.60894 0 0 0 170 173 172 255
0.747006 0.842968 4.60566 0 0 0 157 174 172 255
0.574424 0.897833 4.65163 0 0 0 160 166 164 255
1.75572 1.45843 6.67899 0 0 0 103 102 100 255
0.440011 1.15851 4.75897 0 0 0 124 135 133 255
0.713288 1.14453 4.62504 0 0 0 140 155 150 255
0.407435 1.23529 4.78508 0 0 0 123 143 132 255
0.716557 1.2685 4.62604 0 0 0 145 150 148 255
0.34022 1.39202 4.99583 0 0 0 79 94 81 255
1.1164 0.0905809 4.93172 0 0 0 64 101 80 255
-0.344773 0.145121 4.56681 0 0 0 17 69 115 255
0.520463 0.245901 4.61537 0 0 0 142 139 140 255
0.781448 0.251549 4.56988 0 0 0 150 155 154 255
0.907611 0.246626 4.60401 0 0 0 139 150 151 255
0.641644 0.364829 4.58411 0 0 0 156 160 153 255
1.07533 0.534605 4.74137 0 0 0 82 110 73 255
0.444921 0.616614 4.70291 0 0 0 141 153 156 255
0.557057 0.645922 4.63361 0 0 0 157 163 162 255
0.765847 0.835484 4.60967 0 0 0 168 173 172 255
0.475539 0.884906 4.6945 0 0 0 142 154 154 255
2.10862 1.38253 6.43098 0 0 0 133 130 122 255
0.940117 1.05701 4.66677 0 0 0 42 93 122 255
0.937484 1.10695 4.66244 0 0 0 47 83 104 255
0.881512 1.16236 4.63996 0 0 0 169 149 74 255
0.419473 1.24084 4.76642 0 0 0 135 141 141 255
0.357974 0.128364 4.87394 0 0 0 59 95 67 255
1.0237 0.114199 4.64639 0 0 0 57 102 74 255
-0.348309 0.129874 4.54844 0 0 0 19 70 118 255
-0.320312 0.584403 4.27957 0 0 0 27 81 121 255
0.455541 1.16574 4.73976 0 0 0 134 142 142 255
2.31752 -0.220145 3.90392 0 0 0 55 55 55 255
2.35293 -0.216132 3.88098 0 0 0 66 57 63 255
2.33328 -0.207599 3.886 0 0 0 153 157 163 255
2.24275 -0.162741 3.81439 0 0 0 138 84 84 255
2.37576 -0.166597 3.83404 0 0 0 127 62 57 255
2.32821 -0.144279 3.84951 0 0 0 167 64 83 255
2.09954 -0.148257 3.98857 0 0 0 147 143 140 255
2.33689 -0.109386 3.90934 0 0 0 95 96 98 255
2.34955 -0.11204 3.89014 0 0 0 100 98 100 255
2.32218 -0.0772038 3.90703 0 0 0 55 55 62 255
2.13637 -0.0744442 3.96248 0 0 0 70 71 78 255
2.49556 -0.046338 3.94726 0 0 0 39 44 42 255
2.33823 0.00852752 3.90391 0 0 0 200 205 207 255
2.34403 0.0709416 3.91271 0 0 0 250 252 254 255
2.35837 0.115676 3.91371 0 0 0 253 251 252 255
2.05803 0.130919 3.98902 0 0 0 123 121 117 255
2.54701 0.135035 3.96034 0 0 0 54 53 58 255
-1.02837 0.189447 4.26319 0 0 0 68 78 91 255
2.3081 0.253312 3.69791 0 0 0 122 112 94 255
-0.495082 0.254814 4.10095 0 0 0 20 46 86 255
-0.4788 0.254018 4.11131 0 0 0 99 103 125 255
2.22294 0.258092 3.70971 0 0 0 139 109 74 255
2.26494 0.258874 3.69569 0 0 0 114 99 81 255
2.40729 0.25489 3.70382 0 0 0 91 78 70 255
-0.652909 0.264512 4.0544 0 0 0 123 104 95 255
-0.6277 0.262008 4.06067 0 0 0 129 107 101 255
-0.512809 0.260014 4.09195 0 0 0 125 105 96 255
-0.447099 0.258945 4.12519 0 0 0 83 87 115 255
0.498475 0.252189 4.62736 0 0 0 100 111 110 255
-0.861454 0.263122 4.0836 0 0 0 100 102 114 255
-0.804911 0.267061 4.06563 0 0 0 97 97 97 255
-0.77651 0.259508 4.06266 0 0 0 89 75 84 255
-0.731468 0.266243 4.05751 0 0 0 106 100 99 255
-0.696122 0.267562 4.05584 0 0 0 140 126 102 255
-0.565121 0.265766 4.07426 0 0 0 110 103 101 255
0.886603 0.260367 4.59422 0 0 0 62 76 74 255
2.38461 0.272585 3.70034 0 0 0 100 56 21 255
-0.839869 0.2708 4.07362 0 0 0 120 118 85 255
-0.548729 0.274598 4.07789 0 0 0 134 110 79 255
-0.87321 0.282638 4.09008 0 0 0 126 125 102 255
-0.803591 0.280054 4.06395 0 0 0 128 122 98 255
-0.611889 0.277946 4.06305 0 0 0 122 102 59 255
2.23121 0.284219 3.69652 0 0 0 106 68 33 255
2.26955 0.282287 3.68731 0 0 0 160 122 66 255
2.31125 0.281606 3.6936 0 0 0 87 49 40 255
2.3824 0.281297 3.6998 0 0 0 91 51 24 255
-0.781418 0.290436 4.05914 0 0 0 36 44 62 255
-0.492415 0.289912 4.1024 0 0 0 77 63 50 255
0.719951 0.285288 4.56539 0 0 0 76 95 91 255
-0.862147 0.294384 4.08232 0 0 0 78 76 46 255
-0.820566 0.296278 4.06607 0 0 0 38 39 53 255
-0.684496 0.298342 4.05094 0 0 0 38 39 43 255
-0.643863 0.296724 4.05426 0 0 0 89 71 48 255
-0.608251 0.295197 4.05966 0 0 0 59 57 62 255
-0.576545 0.29871 4.06584 0 0 0 23 46 93 255
-0.54832 0.288166 4.07554 0 0 0 65 47 33 255
-0.51045 0.296399 4.08868 0 0 0 140 115 87 255
2.40062 0.297169 3.69206 0 0 0 91 74 60 255
-0.486023 0.306566 4.10334 0 0 0 98 76 83 255
2.20558 0.302918 3.69653 0 0 0 108 89 64 255
2.25788 0.307724 3.69157 0 0 0 153 118 70 255
2.27871 0.308816 3.68219 0 0 0 135 96 61 255
2.30353 0.305497 3.69004 0 0 0 165 133 81 255
-0.858161 0.314173 4.08023 0 0 0 86 93 132 255
-0.784089 0.31608 4.05791 0 0 0 87 84 115 255
-0.729326 0.315276 4.05385 0 0 0 83 94 128 255
-0.655214 0.316465 4.05017 0 0 0 128 111 86 255
-0.624235 0.313433 4.05874 0 0 0 145 116 97 255
-0.54206 0.312953 4.0775 0 0 0 113 106 101 255
-1.00741 0.326746 4.22857 0 0 0 81 104 136 255
0.611316 0.327743 4.58836 0 0 0 138 142 131 255
0.758818 0.325748 4.57472 0 0 0 141 155 125 255
1.99184 0.337162 3.96191 0 0 0 70 75 76 255
0.582637 0.351807 4.60257 0 0 0 178 129 137 255
0.601693 0.349471 4.59119 0 0 0 121 77 78 255
-0.493685 0.354438 4.10523 0 0 0 54 109 155 255
-0.390779 0.350078 4.18183 0 0 0 14 87 133 255
0.820867 0.358446 4.58112 0 0 0 164 123 128 255
1.0293 0.359481 4.69233 0 0 0 172 130 136 255
1.10483 0.363274 4.74355 0 0 0 91 101 86 255
-0.912915 0.360983 4.1206 0 0 0 35 72 108 255
-0.760362 0.358882 4.05672 0 0 0 22 78 129 255
-0.637745 0.360424 4.05773 0 0 0 122 132 142 255
-0.613136 0.359803 4.06928 0 0 0 9 73 123 255
-0.589721 0.361441 4.07548 0 0 0 96 119 159 255
1.94611 0.360647 3.97814 0 0 0 86 81 79 255
-0.88318 0.365422 4.10199 0 0 0 76 99 128 255
-0.519399 0.364443 4.09385 0 0 0 7 73 123 255
-0.337969 0.370089 4.23434 0 0 0 101 88 100 255
1.05162 0.376078 4.70229 0 0 0 151 125 132 255
-0.49343 0.380861 4.10963 0 0 0 55 87 113 255
0.873819 0.383723 4.59876 0 0 0 157 138 142 255
1.9583 0.374437 3.97009 0 0 0 117 119 118 255
-0.562589 0.384243 4.08515 0 0 0 26 81 117 255
-0.534244 0.386443 4.08951 0 0 0 140 150 161 255
-0.412912 0.382552 4.16132 0 0 0 73 89 111 255
1.98712 0.377219 3.9504 0 0 0 112 117 117 255
-0.639577 0.384241 4.05697 0 0 0 68 97 95 255
-0.484211 0.38667 4.11675 0 0 0 25 65 100 255
-0.442505 0.392803 4.14043 0 0 0 36 61 105 255
-0.368428 0.388805 4.20257 0 0 0 78 80 99 255
2.4482 0.38217 3.70093 0 0 0 103 102 105 255
2.49336 0.386717 3.71713 0 0 0 123 130 133 255
2.56685 0.378905 3.78685 0 0 0 79 84 88 255
-0.504605 0.393145 4.10198 0 0 0 33 72 114 255
0.5267 0.403723 4.61463 0 0 0 121 111 114 255
2.06545 0.384517 3.75342 0 0 0 103 107 108 255
2.17223 0.391777 3.69443 0 0 0 132 134 137 255
2.19025 0.388424 3.68674 0 0 0 81 81 81 255
2.27432 0.385713 3.67449 0 0 0 81 83 84 255
2.28845 0.381984 3.66939 0 0 0 88 87 89 255
2.30001 0.389076 3.6644 0 0 0 137 136 137 255
-0.479516 0.405282 4.11776 0 0 0 121 134 152 255
-0.471575 0.40674 4.1225 0 0 0 139 150 165 255
1.05607 0.411117 4.70826 0 0 0 126 90 88 255
1.97406 0.389684 3.95935 0 0 0 73 68 66 255
2.45417 0.396905 3.70688 0 0 0 138 141 140 255
-0.597775 0.410812 4.07235 0 0 0 25 93 124 255
-0.577994 0.410495 4.07791 0 0 0 147 155 163 255
-0.398429 0.41172 4.17196 0 0 0 141 145 164 255
-0.55235 0.423626 4.08365 0 0 0 42 84 121 255
-0.512603 0.416472 4.09813 0 0 0 153 158 160 255
-0.478263 0.422165 4.11716 0 0 0 152 153 157 255
-0.439438 0.419443 4.14131 0 0 0 149 150 154 255
2.1012 0.412021 3.73327 0 0 0 60 39 39 255
2.4339 0.409756 3.69887 0 0 0 61 44 39 255
-0.537267 0.424614 4.08499 0 0 0 81 103 123 255
-0.457527 0.426253 4.13024 0 0 0 63 79 103 255
-0.358383 0.431989 4.21294 0 0 0 103 96 115 255
2.52012 0.411386 3.72071 0 0 0 76 66 67 255
-0.596439 0.431172 4.07297 0 0 0 19 93 125 255
-0.38838 0.438687 4.17821 0 0 0 79 87 98 255
-0.535934 0.438408 4.08419 0 0 0 11 83 127 255
-0.503151 0.440297 4.10411 0 0 0 30 76 115 255
-0.559518 0.444987 4.08047 0 0 0 116 163 192 255
-0.469534 0.445336 4.1223 0 0 0 39 62 90 255
-0.443509 0.447768 4.13809 0 0 0 17 60 109 255
-0.398064 0.446441 4.16983 0 0 0 57 71 108 255
-0.336868 0.452883 4.23559 0 0 0 120 89 112 255
-0.715761 0.451149 4.05608 0 0 0 142 149 136 255
-0.672101 0.450454 4.05896 0 0 0 140 149 148 255
-0.542374 0.460731 4.08125 0 0 0 25 89 126 255
-0.476906 0.460052 4.11703 0 0 0 22 70 125 255
2.10267 0.449539 3.72867 0 0 0 58 39 39 255
-0.670226 0.467654 4.05761 0 0 0 80 95 94 255
-0.631048 0.46891 4.06467 0 0 0 58 94 92 255
-0.577794 0.46779 4.07279 0 0 0 81 103 120 255
-0.421028 0.477738 4.14773 0 0 0 45 84 117 255
2.14027 0.465899 3.70862 0 0 0 91 65 52 255
-1.01701 0.489646 4.25384 0 0 0 110 92 99 255
-0.651475 0.48146 4.05809 0 0 0 84 120 108 255
-0.387479 0.490763 4.1832 0 0 0 73 98 117 255
-0.319751 0.484427 4.26092 0 0 0 31 84 119 255
-0.99573 0.497641 4.25184 0 0 0 108 94 96 255
2.28036 0.471115 3.66824 0 0 0 80 62 54 255
-0.729019 0.493956 4.05281 0 0 0 87 106 123 255
1.96886 0.498245 3.96988 0 0 0 95 96 91 255
2.10296 0.485166 3.73466 0 0 0 67 46 41 255
-0.425638 0.503571 4.15002 0 0 0 60 108 147 255
2.51245 0.479955 3.71822 0 0 0 109 105 106 255
2.11994 0.49498 3.72558 0 0 0 37 43 44 255
2.2698 0.508368 3.67791 0 0 0 87 75 65 255
2.27369 0.50687 3.67677 0 0 0 74 55 41 255
2.29493 0.50543 3.6746 0 0 0 60 51 47 255
1.1065 0.573564 4.81346 0 0 0 106 143 126 255
1.95736 0.549789 3.9817 0 0 0 119 116 115 255
2.42366 0.528464 3.67942 0 0 0 64 53 57 255
-0.441678 0.56144 4.1501 0 0 0 145 149 167 255
2.20677 0.53875 3.68324 0 0 0 81 66 56 255
2.21512 0.530686 3.68299 0 0 0 50 37 39 255
-1.01017 0.571503 4.23289 0 0 0 107 113 138 255
-0.881851 0.564557 4.11553 0 0 0 104 117 151 255
-0.839623 0.567662 4.1116 0 0 0 141 145 147 255
2.45246 0.547638 3.70076 0 0 0 101 103 109 255
2.56005 0.544381 3.76875 0 0 0 131 138 138 255
-0.646608 0.571802 4.07878 0 0 0 138 140 171 255
1.95068 0.57177 4.01875 0 0 0 77 67 61 255
2.49731 0.549085 3.72996 0 0 0 129 138 140 255
2.17067 0.558275 3.69708 0 0 0 114 129 133 255
-0.887554 0.583584 4.08891 0 0 0 24 52 91 255
2.24048 0.557142 3.67774 0 0 0 139 136 137 255
2.32005 0.558416 3.67131 0 0 0 93 103 105 255
2.35579 0.558445 3.68323 0 0 0 140 141 143 255
-0.955757 0.592544 4.16835 0 0 0 33 58 91 255
1.04544 0.626146 4.71784 0 0 0 71 73 73 255
-0.495246 0.60494 4.09777 0 0 0 84 89 109 255
-0.588878 0.616689 4.11668 0 0 0 53 59 75 255
-0.985466 0.652991 4.19675 0 0 0 127 129 132 255
-0.372743 0.645309 4.22343 0 0 0 36 66 115 255
-0.489045 0.6527 4.08563 0 0 0 91 90 94 255
-0.585794 0.666787 4.10936 0 0 0 61 68 87 255
-0.860077 0.678403 4.08242 0 0 0 56 60 71 255
-0.33991 0.682579 4.2436 0 0 0 116 116 118 255
-0.945002 0.680459 4.15634 0 0 0 37 42 54 255
0.547147 0.710038 4.65297 0 0 0 85 123 102 255
-0.993845 0.6909 4.1694 0 0 0 88 95 105 255
-0.435041 0.687241 4.15447 0 0 0 151 158 159 255
1.07208 0.730803 4.75542 0 0 0 127 137 136 255
-0.747756 0.697079 4.07925 0 0 0 123 125 141 255
-0.403591 0.718254 4.18755 0 0 0 132 140 162 255
0.837348 0.747615 4.61415 0 0 0 65 109 78 255
-0.866621 0.716039 4.08325 0 0 0 122 125 129 255
-0.649169 0.718718 4.08322 0 0 0 136 142 163 255
-0.339902 0.735059 4.24518 0 0 0 113 116 127 255
-0.555343 0.748295 4.10154 0 0 0 141 150 171 255
-0.522698 0.747352 4.12097 0 0 0 152 152 158 255
2.25539 0.714212 3.68393 0 0 0 79 76 68 255
2.38142 0.718093 3.70789 0 0 0 86 76 66 255
-0.793013 0.75848 4.07423 0 0 0 78 82 95 255
-0.697603 0.768995 4.09186 0 0 0 131 136 162 255
-0.450905 0.773296 4.15432 0 0 0 70 74 90 255
-0.997533 0.77871 4.20161 0 0 0 130 137 137 255
-0.338888 0.788731 4.25555 0 0 0 60 71 94 255
-0.302946 0.818577 4.3034 0 0 0 97 106 117 255
-0.321475 0.81743 4.27707 0 0 0 127 132 153 255
2.24918 0.760733 3.6853 0 0 0 89 76 57 255
-0.837455 0.811052 4.10517 0 0 0 117 120 126 255
-0.615481 0.80722 4.09386 0 0 0 79 86 105 255
2.30339 0.764075 3.68889 0 0 0 98 74 53 255
-0.629806 0.811044 4.08755 0 0 0 53 63 89 255
-0.3851 0.825563 4.20907 0 0 0 56 73 95 255
-0.450108 0.833383 4.15657 0 0 0 90 89 97 255
-0.813865 0.832924 4.09362 0 0 0 74 80 99 255
-0.363382 0.846809 4.22718 0 0 0 155 157 160 255
0.546379 0.901255 4.66353 0 0 0 71 111 93 255
-0.380078 0.865089 4.21234 0 0 0 82 92 100 255
-0.397334 0.878677 4.19827 0 0 0 156 158 157 255
-0.615684 0.871583 4.09726 0 0 0 103 105 107 255
-0.629998 0.879419 4.08833 0 0 0 67 83 105 255
-0.95753 0.898226 4.17547 0 0 0 79 88 101 255
-0.365329 0.906274 4.2189 0 0 0 73 96 127 255
-0.72137 0.902775 4.09047 0 0 0 35 64 104 255
-0.517146 0.914317 4.12535 0 0 0 157 157 163 255
1.07881 1.00084 4.75381 0 0 0 121 139 124 255
-0.550006 0.925496 4.10713 0 0 0 155 159 160 255
-0.43564 0.933265 4.17407 0 0 0 73 92 125 255
-0.72974 0.932546 4.09108 0 0 0 159 160 161 255
-0.616087 0.943191 4.1017 0 0 0 125 125 125 255
-0.588797 0.939955 4.09284 0 0 0 148 150 152 255
-0.887551 0.956635 4.14284 0 0 0 35 51 92 255
-0.715598 0.952966 4.09355 0 0 0 81 91 108 255
-0.695226 0.96705 4.09741 0 0 0 153 149 159 255
-0.577535 0.977616 4.10149 0 0 0 75 92 137 255
-0.750811 0.978673 4.08786 0 0 0 157 157 157 255
-0.614777 0.990309 4.09736 0 0 0 68 89 127 255
-0.364665 1.01304 4.24625 0 0 0 118 140 158 255
1.17911 1.13904 5.05595 0 0 0 172 176 170 255
-0.847042 0.998709 4.03906 0 0 0 40 50 84 255
-0.699514 1.00752 4.09406 0 0 0 66 84 118 255
1.92572 1.3717 6.56603 0 0 0 144 141 136 255
-0.376385 1.03249 4.23894 0 0 0 52 101 130 255
-0.906773 1.02119 4.09231 0 0 0 135 131 139 255
-0.913754 1.02909 4.16553 0 0 0 145 149 150 255
1.20408 1.17523 5.07126 0 0 0 120 118 116 255
-0.992373 1.03957 4.2015 0 0 0 116 120 122 255
-0.501873 1.0456 4.13752 0 0 0 41 99 138 255
-0.499069 1.08406 4.13591 0 0 0 60 110 140 255
-0.370646 1.11469 4.24091 0 0 0 28 73 120 255
-0.339073 1.12405 4.26618 0 0 0 29 75 113 255
2.07079 1.04843 3.79478 0 0 0 107 110 109 255
2.11958 1.05008 3.75996 0 0 0 117 117 118 255
2.16962 1.0494 3.73856 0 0 0 90 86 85 255
2.10835 1.05572 3.77083 0 0 0 99 103 103 255
2.13809 1.05453 3.76195 0 0 0 97 94 95 255
2.21225 1.05065 3.72639 0 0 0 90 92 91 255
-0.394895 1.14101 4.2195 0 0 0 135 146 156 255
-0.316915 1.14719 4.2847 0 0 0 109 132 145 255
2.25422 1.05095 3.71785 0 0 0 80 81 80 255
2.31525 1.05509 3.70984 0 0 0 103 98 100 255
2.34444 1.05514 3.71723 0 0 0 96 94 96 255
2.2131 1.06739 3.72492 0 0 0 121 124 123 255
2.21149 1.06826 3.72756 0 0 0 121 124 123 255
2.22064 1.08194 3.72349 0 0 0 86 84 84 255
-0.331485 1.18255 4.28262 0 0 0 51 76 100 255
2.1667 1.09001 3.7457 0 0 0 84 89 89 255
2.25246 1.0827 3.71255 0 0 0 83 78 76 255
2.28388 1.07576 3.71156 0 0 0 89 81 83 255
2.36093 1.08632 3.72187 0 0 0 78 78 79 255
2.47908 1.08261 3.73252 0 0 0 73 74 76 255
-0.604734 1.15047 4.05757 0 0 0 24 111 147 255
2.2206 1.08225 3.72475 0 0 0 98 105 102 255
2.4007 1.08969 3.7223 0 0 0 87 92 90 255
-0.863444 1.17532 4.12317 0 0 0 88 116 142 255
-0.629434 1.16747 4.0548 0 0 0 148 149 158 255
2.1343 1.13316 3.76435 0 0 0 102 103 105 255
-0.618032 1.19032 4.0536 0 0 0 66 85 118 255
-0.736987 1.2096 4.09954 0 0 0 115 99 115 255
-0.828483 1.21998 4.10432 0 0 0 107 103 113 255
-0.693587 1.21348 4.08747 0 0 0 113 103 118 255
2.07799 1.17121 3.79694 0 0 0 103 105 104 255
2.25468 1.17569 3.71342 0 0 0 106 107 111 255
2.07186 1.20678 3.80291 0 0 0 115 113 112 255
-0.887613 1.36107 4.11562 0 0 0 69 106 141 255
-0.376429 1.38635 4.23476 0 0 0 140 152 167 255
-0.841971 1.36098 4.10877 0 0 0 65 104 137 255
-0.390181 1.39608 4.21504 0 0 0 93 102 120 255
-0.468932 1.39294 4.16599 0 0 0 93 128 163 255
-0.815698 1.39123 4.10708 0 0 0 22 83 123 255
-0.463047 1.42285 4.16884 0 0 0 157 159 160 255
-0.886659 1.41417 4.11774 0 0 0 89 108 133 255
2.46126 1.4045 3.79337 0 0 0 84 82 84 255
2.25145 1.41287 3.79984 0 0 0 112 112 112 255
2.1707 1.43021 3.83099 0 0 0 100 100 100 255
2.31051 1.41643 3.77491 0 0 0 106 106 106 255
2.38519 1.63083 3.98878 0 0 0 191 193 199 255
2.39535 1.62889 3.98083 0 0 0 207 207 208 255
2.32909 -0.208625 3.88874 0 0 0 153 157 163 255
2.36034 -0.207403 3.87343 0 0 0 46 45 44 255
2.23142 -0.162731 3.82518 0 0 0 140 73 68 255
0.950552 -0.240825 4.69623 0 0 0 211 211 212 255
2.33862 0.0149891 3.89974 0 0 0 200 205 207 255
-1.04235 0.133339 4.24859 0 0 0 22 47 84 255
2.04809 0.135409 4.02659 0 0 0 135 135 134 255
2.21227 0.256783 3.71561 0 0 0 121 103 80 255
2.31199 0.249656 3.69839 0 0 0 80 75 76 255
2.40218 0.253338 3.70473 0 0 0 93 77 67 255
-0.725361 0.26147 4.05726 0 0 0 113 104 82 255
-0.862567 0.269511 4.08388 0 0 0 132 125 125 255
-0.564926 0.269128 4.07341 0 0 0 110 103 101 255
-0.482537 0.27153 4.10804 0 0 0 124 109 113 255
2.38192 0.280535 3.69973 0 0 0 91 51 24 255
2.30198 0.306708 3.68923 0 0 0 165 133 81 255
-0.556075 0.312461 4.07021 0 0 0 147 121 91 255
-0.92873 0.330019 4.11832 0 0 0 68 103 139 255
-0.895796 0.354914 4.09441 0 0 0 37 76 112 255
-0.6433 0.355853 4.05747 0 0 0 46 99 143 255
-0.431843 0.348501 4.14589 0 0 0 105 129 149 255
0.405462 0.365304 4.72451 0 0 0 111 87 83 255
0.799266 0.365043 4.57627 0 0 0 144 132 134 255
0.875066 0.3751 4.59971 0 0 0 136 117 121 255
-0.655079 0.390943 4.05584 0 0 0 29 88 75 255
-0.48774 0.389263 4.11421 0 0 0 30 73 108 255
-0.39187 0.397962 4.17907 0 0 0 152 156 156 255
1.98489 0.380686 3.95362 0 0 0 77 84 85 255
2.11962 0.389223 3.71867 0 0 0 89 89 90 255
2.49047 0.387678 3.71913 0 0 0 110 118 121 255
1.93393 0.408857 3.96549 0 0 0 125 120 116 255
-0.591744 0.431925 4.07401 0 0 0 19 93 125 255
2.10167 0.418623 3.7334 0 0 0 58 40 40 255
2.42055 0.410936 3.69564 0 0 0 83 63 45 255
-0.454499 0.44105 4.13121 0 0 0 16 60 108 255
1.97586 0.444694 3.93279 0 0 0 82 76 67 255
2.10262 0.433196 3.72991 0 0 0 58 42 39 255
2.45595 0.429704 3.70617 0 0 0 34 38 37 255
-0.613219 0.454962 4.07041 0 0 0 147 154 154 255
2.14093 0.466483 3.70832 0 0 0 91 65 52 255
-0.547086 0.490443 4.07882 0 0 0 104 120 136 255
-0.419657 0.504214 4.15385 0 0 0 78 121 156 255
1.94091 0.49897 3.99965 0 0 0 122 120 119 255
2.10381 0.499011 3.73509 0 0 0 55 39 39 255
1.08383 0.579123 4.75793 0 0 0 126 142 138 255
2.1009 0.526384 3.73397 0 0 0 50 42 47 255
2.21177 0.52624 3.6831 0 0 0 55 39 41 255
2.28062 0.51975 3.6771 0 0 0 46 36 38 255
2.42185 0.524989 3.70535 0 0 0 57 40 43 255
2.56522 0.541995 3.78442 0 0 0 104 112 118 255
1.94816 0.575188 4.02481 0 0 0 108 100 94 255
2.48935 0.54676 3.72299 0 0 0 123 130 131 255
2.36261 0.559962 3.67411 0 0 0 108 94 86 255
2.40324 0.549541 3.67386 0 0 0 140 142 143 255
2.42322 0.550822 3.6907 0 0 0 143 143 143 255
-1.00223 0.592198 4.2223 0 0 0 134 137 140 255
-0.913409 0.586581 4.12859 0 0 0 32 55 90 255
2.14696 0.55443 3.70363 0 0 0 107 90 75 255
-0.741048 0.611101 4.06853 0 0 0 155 156 156 255
-0.497528 0.604757 4.09415 0 0 0 88 94 113 255
-0.734295 0.646756 4.07403 0 0 0 154 156 158 255
-0.436499 0.683381 4.15036 0 0 0 151 158 159 255
-0.988451 0.707387 4.16651 0 0 0 133 131 130 255
-0.740601 0.715771 4.08123 0 0 0 156 159 161 255
-0.64514 0.707326 4.08086 0 0 0 137 143 162 255
-0.407728 0.724703 4.1862 0 0 0 155 160 168 255
-0.870511 0.724329 4.08607 0 0 0 109 111 116 255
-0.558631 0.760035 4.09926 0 0 0 158 162 163 255
2.25645 0.721695 3.6849 0 0 0 96 76 55 255
-0.879293 0.772113 4.08844 0 0 0 97 108 118 255
-0.698905 0.761474 4.08876 0 0 0 52 69 110 255
-0.462842 0.776074 4.14722 0 0 0 92 94 101 255
-0.338704 0.787626 4.25589 0 0 0 40 53 83 255
-0.320959 0.812124 4.2786 0 0 0 128 133 152 255
-0.629825 0.811049 4.08756 0 0 0 53 63 89 255
-0.459044 0.836871 4.15015 0 0 0 58 66 93 255
-0.41526 0.885256 4.1841 0 0 0 156 157 159 255
-0.455648 0.898523 4.15636 0 0 0 113 117 126 255
-0.955262 0.913001 4.17034 0 0 0 69 69 80 255
-0.513029 0.91373 4.12803 0 0 0 156 159 158 255
-0.564186 0.92964 4.09788 0 0 0 160 162 163 255
-0.742825 0.933653 4.08502 0 0 0 157 161 163 255
-0.888782 0.946296 4.14412 0 0 0 33 52 93 255
-0.684593 0.963167 4.10358 0 0 0 158 160 161 255
-0.719627 0.967489 4.09365 0 0 0 59 71 96 255
-0.751867 0.97636 4.08783 0 0 0 157 157 157 255
-0.48632 1.00025 4.14821 0 0 0 130 149 169 255
-0.820113 0.997581 4.04211 0 0 0 151 154 153 255
-0.929738 1.02649 4.16893 0 0 0 149 147 151 255
-0.504629 1.03749 4.13568 0 0 0 40 99 138 255
0.955537 1.11494 4.67202 0 0 0 29 77 115 255
0.505224 1.14912 4.71005 0 0 0 69 104 73 255
2.34778 1.06563 3.71131 0 0 0 87 86 87 255
0.79858 1.24993 4.62894 0 0 0 101 120 98 255
-0.627346 1.16292 4.05385 0 0 0 136 140 153 255
-0.867516 1.17011 4.12552 0 0 0 88 116 142 255
-0.724086 1.17616 4.10304 0 0 0 85 131 170 255
-0.792585 1.1926 4.10976 0 0 0 21 85 131 255
-0.828519 1.23751 4.10132 0 0 0 80 84 109 255
-0.904309 1.27197 4.13632 0 0 0 124 142 163 255
-0.619467 1.28605 4.04865 0 0 0 37 76 110 255
-0.857059 1.32244 4.12318 0 0 0 101 111 122 255
-0.726667 1.32925 4.10682 0 0 0 95 108 135 255
-0.842447 1.36321 4.11226 0 0 0 65 104 137 255
2.39948 1.41094 3.78612 0 0 0 98 94 97 255
2.29847 -0.209668 3.90377 0 0 0 45 43 44 255
2.36999 -0.205207 3.86021 0 0 0 45 45 45 255
2.45803 -0.198209 3.9146 0 0 0 47 52 53 255
0.949979 -0.239147 4.69579 0 0 0 211 211 212 255
2.09821 -0.0556759 3.98107 0 0 0 93 84 83 255
2.47287 -0.0443373 3.91078 0 0 0 35 39 39 255
2.33939 0.0113691 3.90129 0 0 0 200 205 207 255
2.4704 0.0370156 3.9229 0 0 0 84 85 92 255
2.34654 0.0908509 3.90518 0 0 0 248 250 254 255
2.35463 0.115951 3.91632 0 0 0 255 252 253 255
2.06482 0.136041 4.01721 0 0 0 63 63 62 255
2.53277 0.140631 3.94046 0 0 0 50 50 54 255
2.30957 0.259324 3.69678 0 0 0 161 144 114 255
-0.473024 0.262793 4.11397 0 0 0 148 121 89 255
2.21403 0.266639 3.70814 0 0 0 95 75 60 255
2.36056 0.261786 3.69996 0 0 0 125 88 55 255
-0.835367 0.28192 4.07031 0 0 0 139 126 66 255
-0.806912 0.275493 4.06603 0 0 0 75 73 68 255
-0.769218 0.272406 4.0615 0 0 0 114 95 99 255
-0.627343 0.271097 4.06152 0 0 0 133 111 101 255
-0.704265 0.284457 4.05542 0 0 0 113 107 101 255
2.21258 0.297852 3.69675 0 0 0 130 106 77 255
2.3745 0.298759 3.69501 0 0 0 138 101 62 255
-0.976932 0.335141 4.19627 0 0 0 95 110 126 255
0.582059 0.373957 4.60144 0 0 0 118 39 43 255
-0.616466 0.400671 4.071 0 0 0 149 155 160 255
-0.531069 0.399008 4.08852 0 0 0 152 158 165 255
-0.392677 0.396008 4.17868 0 0 0 148 155 155 255
0.603807 0.404852 4.59304 0 0 0 156 147 148 255
1.98527 0.38669 3.94899 0 0 0 112 121 123 255
2.07228 0.396185 3.74979 0 0 0 127 133 134 255
2.12856 0.40618 3.71586 0 0 0 131 137 139 255
2.15334 0.394818 3.70215 0 0 0 40 39 44 255
2.18297 0.395483 3.69034 0 0 0 135 136 140 255
2.28772 0.394484 3.67101 0 0 0 138 147 149 255
2.41854 0.383856 3.69674 0 0 0 125 129 132 255
2.12977 0.413245 3.71565 0 0 0 123 136 140 255
2.42503 0.416941 3.69027 0 0 0 61 43 33 255
-0.60173 0.456916 4.07264 0 0 0 144 156 158 255
-0.983642 0.483463 4.22878 0 0 0 127 120 122 255
2.14721 0.468443 3.70608 0 0 0 61 40 29 255
-0.351036 0.538332 4.23075 0 0 0 32 80 117 255
2.10664 0.512988 3.73202 0 0 0 47 38 40 255
2.216 0.519441 3.6831 0 0 0 52 36 38 255
2.42392 0.507921 3.69031 0 0 0 39 38 42 255
1.98167 0.548233 3.88741 0 0 0 130 133 131 255
2.28525 0.525209 3.67681 0 0 0 37 39 43 255
-0.921405 0.585315 4.13652 0 0 0 22 55 94 255
-0.858403 0.573718 4.10727 0 0 0 152 152 152 255
-0.643014 0.576759 4.08146 0 0 0 153 155 167 255
-0.452796 0.56934 4.14131 0 0 0 156 158 162 255
2.11991 0.550658 3.72433 0 0 0 137 139 139 255
2.14807 0.551159 3.70301 0 0 0 107 90 75 255
2.19129 0.555424 3.68844 0 0 0 137 141 142 255
2.23415 0.558192 3.67978 0 0 0 142 141 144 255
2.33134 0.548906 3.6702 0 0 0 141 146 147 255
2.37923 0.552548 3.67085 0 0 0 45 41 45 255
2.42666 0.552783 3.69527 0 0 0 143 143 143 255
-0.800821 0.58782 4.08974 0 0 0 29 51 90 255
-0.741612 0.608342 4.06879 0 0 0 156 156 156 255
-0.58057 0.622676 4.1233 0 0 0 104 112 143 255
1.03968 0.648313 4.72764 0 0 0 40 80 74 255
-0.743531 0.6216 4.0712 0 0 0 156 159 158 255
-0.362866 0.659593 4.22606 0 0 0 146 151 161 255
-0.581777 0.668296 4.11502 0 0 0 61 68 87 255
-0.509115 0.661274 4.0865 0 0 0 59 65 84 255
-0.434775 0.666941 4.15348 0 0 0 153 157 159 255
-0.95346 0.686959 4.16268 0 0 0 28 44 82 255
-0.863023 0.67665 4.08398 0 0 0 56 60 71 255
-0.776123 0.677348 4.06889 0 0 0 34 53 94 255
-0.3651 0.683392 4.22237 0 0 0 146 152 161 255
-0.959661 0.700338 4.16381 0 0 0 24 46 91 255
-0.865817 0.704693 4.08309 0 0 0 111 118 126 255
-0.744879 0.710131 4.08092 0 0 0 153 157 160 255
-0.414186 0.727814 4.18249 0 0 0 154 159 171 255
-0.877872 0.761927 4.08746 0 0 0 107 117 124 255
2.27622 0.733957 3.68821 0 0 0 110 80 42 255
-0.688432 0.777929 4.09754 0 0 0 156 158 163 255
-1.00206 0.815222 4.22218 0 0 0 39 52 75 255
-0.387466 0.803959 4.20768 0 0 0 103 118 135 255
-0.288818 0.805855 4.32625 0 0 0 149 153 154 255
-0.624222 0.812583 4.0886 0 0 0 49 59 86 255
-0.339228 0.81579 4.25368 0 0 0 33 58 96 255
-0.810932 0.827969 4.0822 0 0 0 74 80 99 255
-0.621916 0.879079 4.09221 0 0 0 58 75 97 255
-0.413067 0.901999 4.18861 0 0 0 61 73 100 255
-0.744828 0.885772 4.07734 0 0 0 60 75 95 255
-0.504621 0.897396 4.13358 0 0 0 160 162 163 255
-0.848332 0.906256 4.06249 0 0 0 31 51 92 255
-0.564991 0.929942 4.0958 0 0 0 160 162 163 255
-0.850181 0.923194 4.06429 0 0 0 26 52 95 255
-0.672659 0.950783 4.10513 0 0 0 159 162 161 255
-0.624738 0.950928 4.0943 0 0 0 77 85 106 255
-0.798775 0.985148 4.09978 0 0 0 41 55 91 255
1.18586 1.12087 5.05456 0 0 0 168 174 170 255
-0.48113 1.0019 4.1519 0 0 0 137 155 172 255
-0.366059 1.0175 4.24466 0 0 0 122 144 164 255
-0.924794 1.01747 4.16493 0 0 0 148 150 151 255
1.18884 1.22289 5.06717 0 0 0 158 162 161 255
-0.627274 1.08035 4.10921 0 0 0 113 153 184 255
-0.389826 1.14423 4.22857 0 0 0 145 152 158 255
2.12602 1.06237 3.75283 0 0 0 95 95 94 255
2.28484 1.06966 3.71126 0 0 0 86 79 81 255
-0.677784 1.15807 4.08815 0 0 0 23 88 136 255
-0.63568 1.15601 4.08591 0 0 0 142 157 181 255
-0.585984 1.14488 4.07755 0 0 0 9 108 147 255
-0.864828 1.20254 4.12377 0 0 0 142 144 146 255
-0.784738 1.18171 4.10587 0 0 0 19 84 129 255
-0.619655 1.19451 4.05355 0 0 0 46 80 123 255
-0.335184 1.23384 4.2749 0 0 0 162 140 95 255
-0.912405 1.22174 4.14513 0 0 0 82 104 140 255
-0.901436 1.27334 4.13458 0 0 0 124 142 163 255
-0.865765 1.30499 4.12969 0 0 0 124 131 141 255
-0.797237 1.31309 4.1027 0 0 0 29 74 114 255
-0.711784 1.3002 4.10933 0 0 0 111 112 122 255
-0.377224 1.39198 4.23415 0 0 0 152 154 156 255
-0.868758 1.38152 4.10753 0 0 0 84 129 157 255
2.4102 1.41273 3.7808 0 0 0 93 90 94 255
2.39289 1.62949 3.9852 0 0 0 205 206 212 255
2.23865 -0.201637 3.82419 0 0 0 42 41 42 255
2.46174 -0.192168 3.9394 0 0 0 63 43 41 255
2.12331 -0.0509928 3.9691 0 0 0 47 49 51 255
2.47645 0.0503753 3.92704 0 0 0 83 86 92 255
-1.04179 0.135802 4.25252 0 0 0 22 47 84 255
-0.654257 0.273582 4.05281 0 0 0 129 110 99 255
2.28729 0.269347 3.68833 0 0 0 118 95 70 255
-0.364386 0.354721 4.20817 0 0 0 124 141 155 255
1.96029 0.338017 4.00935 0 0 0 59 58 59 255
-0.951108 0.352237 4.1547 0 0 0 96 99 113 255
-0.879674 0.332527 4.09466 0 0 0 8 56 107 255
0.768016 0.389112 4.57493 0 0 0 159 159 159 255
2.39502 0.398087 3.68317 0 0 0 122 130 137 255
-0.436249 0.42018 4.14171 0 0 0 149 150 154 255
2.07289 0.397189 3.74917 0 0 0 124 136 136 255
2.18331 0.413679 3.69186 0 0 0 132 143 146 255
2.28663 0.391345 3.67128 0 0 0 143 143 143 255
2.34113 0.436172 3.66522 0 0 0 40 41 47 255
-0.944541 0.469844 4.17479 0 0 0 145 109 78 255
2.26676 0.489644 3.67541 0 0 0 136 136 137 255
-0.456372 0.587227 4.13712 0 0 0 158 160 160 255
1.97474 0.595684 4.01023 0 0 0 45 46 47 255
-0.643343 0.57567 4.08105 0 0 0 153 155 167 255
-0.738471 0.628043 4.07205 0 0 0 156 159 159 255
-0.36551 0.655078 4.22624 0 0 0 113 126 151 255
-0.969052 0.685516 4.17698 0 0 0 22 44 84 255
-0.639351 0.686984 4.08466 0 0 0 154 158 160 255
-0.418006 0.679105 4.17239 0 0 0 32 60 105 255
-0.870631 0.722686 4.08171 0 0 0 122 125 129 255
0.791047 0.757442 4.60178 0 0 0 70 110 74 255
-0.746828 0.730884 4.07385 0 0 0 159 160 160 255
-0.410456 0.877728 4.18558 0 0 0 158 161 161 255
-0.856086 0.905097 4.06468 0 0 0 29 52 93 255
-0.771586 0.942588 4.08971 0 0 0 158 161 160 255
-0.985939 1.068 4.22199 0 0 0 23 53 95 255
-0.403633 1.10543 4.2174 0 0 0 3 94 141 255
-0.356017 1.14538 4.25723 0 0 0 146 150 155 255
-0.573246 1.14279 4.06453 0 0 0 4 108 151 255
-0.865917 1.19241 4.12135 0 0 0 141 143 145 255
-0.784769 1.18757 4.10605 0 0 0 20 85 131 255
-0.724715 1.18007 4.10187 0 0 0 126 144 160 255
-0.658272 1.17767 4.0921 0 0 0 33 87 135 255
-0.344477 1.253 4.26683 0 0 0 164 148 92 255
0.364299 1.40188 4.92602 0 0 0 67 94 81 255
-0.881104 1.2743 4.12892 0 0 0 138 143 146 255
-0.769834 1.27475 4.10672 0 0 0 157 157 158 255
-0.357237 1.28187 4.26249 0 0 0 168 154 103 255
-0.789398 1.30462 4.10283 0 0 0 36 74 113 255
-0.690987 1.29423 4.00865 0 0 0 132 130 139 255
-0.622292 1.29811 4.04795 0 0 0 28 75 118 255
-0.54624 1.30901 4.07542 0 0 0 166 160 125 255
-0.294996 1.46103 4.65304 0 0 0 45 86 123 255
2.13167 -0.0807527 3.96672 0 0 0 65 66 72 255
-0.335001 0.10969 4.58785 0 0 0 26 61 102 255
2.05285 0.165063 4.02434 0 0 0 55 58 57 255
-0.360062 0.369384 4.21426 0 0 0 138 149 156 255
-0.892668 0.405979 4.09241 0 0 0 143 135 116 255
-0.606023 0.393059 4.07237 0 0 0 135 143 155 255
-0.52772 0.397906 4.0906 0 0 0 153 159 162 255
1.97375 0.416596 3.94064 0 0 0 111 113 111 255
-0.921774 0.449545 4.14334 0 0 0 147 142 134 255
-0.728385 0.458448 4.05685 0 0 0 117 125 105 255
-0.35237 0.462368 4.22117 0 0 0 151 153 161 255
1.0915 0.522056 4.77403 0 0 0 93 113 86 255
1.98171 0.508928 3.9308 0 0 0 121 128 125 255
-0.966057 0.535324 4.18269 0 0 0 12 59 104 255
0.83022 0.594272 4.60887 0 0 0 156 160 161 255
2.07784 0.550087 3.7482 0 0 0 135 139 140 255
2.20176 0.551126 3.68456 0 0 0 143 142 139 255
-0.629888 0.590427 4.08985 0 0 0 157 159 161 255
-0.459538 0.594405 4.13516 0 0 0 157 160 162 255
1.96749 0.603565 4.03096 0 0 0 50 52 52 255
-0.907953 0.631225 4.12854 0 0 0 150 152 151 255
-0.834359 0.602485 4.10793 0 0 0 146 152 155 255
-0.50813 0.645929 4.07803 0 0 0 156 158 158 255
-0.317392 0.687841 4.31843 0 0 0 146 153 154 255
-0.963567 0.695026 4.1688 0 0 0 23 46 87 255
0.947206 0.751165 4.64706 0 0 0 116 146 130 255
1.09051 0.770165 4.76152 0 0 0 48 91 74 255
-0.671353 0.731456 4.08555 0 0 0 27 55 103 255
-1.00769 0.823943 4.22464 0 0 0 23 61 94 255
-0.73519 0.866184 4.08529 0 0 0 37 61 107 255
-0.454581 0.832453 4.15325 0 0 0 107 104 108 255
-0.613922 0.909554 4.09784 0 0 0 158 161 165 255
-0.856699 0.979235 4.13026 0 0 0 152 154 156 255
-0.476853 1.00072 4.15448 0 0 0 137 155 172 255
-0.367062 1.02472 4.24394 0 0 0 127 129 131 255
-0.482718 1.06327 4.14748 0 0 0 148 152 158 255
-0.349874 1.21001 4.27044 0 0 0 140 124 104 255
1.11039 1.40401 5.09633 0 0 0 68 108 88 255
-0.521486 1.31712 4.09379 0 0 0 174 163 107 255
-0.948401 1.41496 4.19433 0 0 0 44 79 117 255
-0.51008 1.43785 4.13053 0 0 0 45 86 124 255
1.99513 1.57615 4.10101 0 0 0 110 112 108 255
2.12527 -0.199114 3.9714 0 0 0 84 67 60 255
2.1188 -0.124996 3.97559 0 0 0 72 57 57 255
1.05449 0.113315 4.80805 0 0 0 45 91 64 255
2.04566 0.177853 4.02249 0 0 0 54 54 54 255
2.07715 0.171305 4.00833 0 0 0 40 47 49 255
1.97775 0.270119 4.01615 0 0 0 109 101 98 255
-0.865262 0.423424 4.11343 0 0 0 147 132 77 255
1.95943 0.471225 3.9745 0 0 0 128 132 131 255
-0.407004 0.624099 4.17104 0 0 0 25 57 105 255
-0.844565 0.65006 4.11369 0 0 0 154 153 154 255
-0.691802 0.636374 4.06304 0 0 0 23 56 107 255
1.05719 0.811872 4.73744 0 0 0 50 95 71 255
-0.729759 0.817823 4.07039 0 0 0 73 84 96 255
-0.300234 0.873598 4.28567 0 0 0 18 64 112 255
1.99534 0.903841 4.07696 0 0 0 46 51 52 255
-0.382707 1.21834 4.23153 0 0 0 153 126 99 255
0.382942 1.38512 4.89982 0 0 0 64 93 79 255
-0.8284 1.21307 4.10651 0 0 0 131 129 136 255
-0.457091 1.31271 4.17184 0 0 0 173 160 74 255
-0.335438 1.44315 4.63277 0 0 0 30 78 119 255
-0.873002 1.43288 4.11136 0 0 0 50 80 110 255
2.19742 -0.189963 3.87698 0 0 0 129 93 98 255
2.49367 -0.184954 3.94525 0 0 0 82 87 87 255
2.30446 -0.170271 3.919 0 0 0 138 103 105 255
2.4991 -0.0909777 3.95417 0 0 0 115 122 124 255
2.50411 -0.0722313 3.95439 0 0 0 81 85 86 255
2.49377 -0.0122739 3.95322 0 0 0 120 127 129 255
2.21025 0.016654 3.89932 0 0 0 162 162 162 255
2.54286 0.12074 3.97055 0 0 0 113 115 117 255
-0.307197 0.0947655 4.618 0 0 0 81 87 99 255
2.33818 0.253689 3.69915 0 0 0 155 135 115 255
0.651104 0.248614 4.5862 0 0 0 30 53 50 255
0.920754 0.259187 4.60904 0 0 0 96 101 99 255
0.463924 0.273623 4.65999 0 0 0 121 130 129 255
0.961742 0.268756 4.6227 0 0 0 83 112 100 255
2.34532 0.304212 3.69593 0 0 0 76 50 28 255
-0.738129 0.289782 4.05707 0 0 0 30 47 93 255
2.31863 0.307844 3.69346 0 0 0 153 123 92 255
0.670291 0.320123 4.57421 0 0 0 123 149 104 255
-0.383527 0.320313 4.1812 0 0 0 62 112 157 255
-0.334335 0.410454 4.23283 0 0 0 114 88 103 255
2.51223 0.425096 3.71674 0 0 0 99 98 98 255
-0.419845 0.448528 4.14394 0 0 0 150 151 157 255
2.27944 0.451486 3.66859 0 0 0 86 81 78 255
-0.512052 0.478463 4.09278 0 0 0 40 83 116 255
2.11548 0.52442 3.72428 0 0 0 38 42 46 255
2.22496 0.536424 3.67899 0 0 0 35 40 52 255
2.0633 0.555487 3.75399 0 0 0 75 86 87 255
0.574649 0.686416 4.63395 0 0 0 145 153 151 255
1.10969 0.735466 4.78997 0 0 0 136 148 146 255
1.09184 0.752543 4.75829 0 0 0 134 142 139 255
1.0517 0.769839 4.74591 0 0 0 144 153 153 255
-0.791477 0.757615 4.03422 0 0 0 86 89 99 255
2.33247 0.714714 3.68074 0 0 0 73 61 49 255
-0.823819 0.877411 4.00467 0 0 0 57 71 86 255
-0.820062 0.879737 4.0023 0 0 0 61 67 88 255
1.8781 1.42384 6.90047 0 0 0 147 145 139 255
1.31842 1.38992 6.56967 0 0 0 133 131 125 255
1.23869 1.36738 6.39609 0 0 0 142 141 133 255
0.906046 1.17872 4.65036 0 0 0 95 89 43 255
2.40063 1.04612 3.71417 0 0 0 99 97 98 255
2.42126 1.04305 3.68375 0 0 0 107 115 115 255
2.16662 1.06644 3.73876 0 0 0 125 133 133 255
2.07654 1.08485 3.782 0 0 0 90 93 94 255
2.21052 1.08812 3.72442 0 0 0 73 75 74 255
2.30947 1.08406 3.70679 0 0 0 87 89 90 255
2.33963 1.08514 3.70463 0 0 0 87 93 93 255
2.20888 1.16435 3.67268 0 0 0 99 102 104 255
2.22774 1.23885 3.66602 0 0 0 109 118 116 255
2.39108 1.23456 3.65243 0 0 0 100 98 98 255
-0.418171 1.39984 4.19246 0 0 0 113 120 126 255
-0.677273 1.37259 3.84785 0 0 0 70 107 143 255
2.15026 1.36719 3.69942 0 0 0 117 120 119 255
2.18727 1.37822 3.67059 0 0 0 119 121 125 255
2.21692 1.39283 3.6575 0 0 0 100 102 104 255
2.49635 -0.000209367 3.95164 0 0 0 138 145 145 255
2.37695 0.314179 3.69057 0 0 0 106 86 56 255
0.609856 0.373197 4.58825 0 0 0 90 60 64 255
-0.727399 0.394446 4.05359 0 0 0 119 120 112 255
-0.510742 0.486844 4.09427 0 0 0 19 83 128 255
2.51005 0.492813 3.703 0 0 0 68 49 45 255
2.638 0.899688 3.88092 0 0 0 90 99 99 255
-0.66043 0.939631 4.01832 0 0 0 159 159 164 255
2.39265 1.03286 3.66956 0 0 0 81 82 82 255
-0.69468 1.36652 3.84602 0 0 0 80 126 160 255
-0.514116 1.42085 4.14668 0 0 0 64 114 148 255
2.1134 -0.198223 3.97089 0 0 0 109 98 94 255
2.10743 -0.012507 3.98602 0 0 0 149 149 147 255
0.676182 0.244443 4.58129 0 0 0 96 99 99 255
2.37949 0.260892 3.70291 0 0 0 155 118 75 255
-0.712662 0.296927 4.05357 0 0 0 143 131 87 255
2.38941 0.31924 3.68701 0 0 0 64 43 28 255
0.886192 0.396106 4.60234 0 0 0 153 144 145 255
1.02826 0.415058 4.6882 0 0 0 131 63 70 255
-0.725347 0.402716 4.05133 0 0 0 145 145 130 255
0.443364 0.428666 4.68419 0 0 0 140 139 139 255
2.34438 0.462663 3.66773 0 0 0 47 44 47 255
-0.467646 0.484995 4.11434 0 0 0 114 121 130 255
2.36939 0.541195 3.66052 0 0 0 41 40 45 255
-0.855222 0.739676 4.04469 0 0 0 93 101 111 255
2.36594 0.728794 3.70258 0 0 0 91 69 44 255
-0.697994 0.791268 4.1007 0 0 0 159 158 161 255
2.36325 0.749206 3.69795 0 0 0 97 71 33 255
-0.566996 0.908178 4.08757 0 0 0 161 161 163 255
0.857376 1.13969 4.633 0 0 0 152 156 133 255
-0.382407 1.10766 4.22649 0 0 0 9 82 129 255
0.888246 1.17661 4.64193 0 0 0 125 121 72 255
-0.430195 1.38889 4.08783 0 0 0 155 159 162 255
2.45443 1.364 3.64013 0 0 0 88 84 87 255
2.12856 -0.142211 3.96432 0 0 0 68 46 46 255
2.47309 -0.0651341 3.95126 0 0 0 60 67 75 255
2.20742 0.0152609 3.89864 0 0 0 156 158 160 255
2.4668 0.039861 3.96833 0 0 0 89 89 89 255
2.12758 0.0402332 3.96485 0 0 0 93 96 95 255
-0.356891 0.319443 4.20434 0 0 0 50 96 131 255
2.28771 0.431742 3.67335 0 0 0 141 142 141 255
2.42195 0.452798 3.67285 0 0 0 35 37 41 255
2.20719 0.48398 3.66845 0 0 0 61 36 28 255
0.7938 0.557527 4.59549 0 0 0 154 159 157 255
0.436889 0.603092 4.71314 0 0 0 86 114 109 255
2.38917 0.537179 3.66161 0 0 0 142 145 146 255
1.95794 0.592017 3.99726 0 0 0 59 59 62 255
2.24143 0.544337 3.67491 0 0 0 132 142 144 255
2.2848 0.554973 3.67893 0 0 0 35 36 40 255
-0.446418 0.642749 4.13327 0 0 0 158 159 161 255
-0.406711 0.665099 4.1759 0 0 0 25 59 107 255
-0.639351 0.666028 4.08218 0 0 0 158 158 162 255
-0.748974 0.675901 4.07763 0 0 0 36 50 91 255
-0.28845 0.763602 4.33031 0 0 0 128 132 139 255
-0.486312 0.897232 4.13646 0 0 0 159 161 160 255
-0.800954 0.973778 3.98188 0 0 0 151 150 152 255
-0.403241 1.08102 4.20122 0 0 0 1 98 145 255
-0.595906 1.10081 4.02062 0 0 0 131 148 162 255
-0.530445 1.12447 4.01562 0 0 0 0 106 149 255
-0.336439 1.16685 4.27334 0 0 0 133 134 139 255
2.40389 -0.218694 3.84563 0 0 0 144 144 144 255
2.21214 0.0211694 3.90058 0 0 0 162 162 162 255
1.08873 0.105696 4.9664 0 0 0 50 93 69 255
1.03217 0.310828 4.69911 0 0 0 143 145 133 255
-0.87721 0.397636 4.12521 0 0 0 151 135 77 255
-0.738719 0.386517 4.05412 0 0 0 129 131 116 255
2.22985 0.489624 3.67442 0 0 0 35 37 41 255
0.783197 0.593496 4.58188 0 0 0 157 162 160 255
1.984 0.533067 3.94316 0 0 0 127 133 136 255
2.38715 0.540321 3.66057 0 0 0 122 130 132 255
-0.622504 0.637305 4.09517 0 0 0 159 160 161 255
-0.406446 0.640283 4.17021 0 0 0 25 59 105 255
0.772928 0.686528 4.60489 0 0 0 67 110 68 255
-0.30809 0.747243 4.31271 0 0 0 153 156 155 255
0.78394 0.821708 4.609 0 0 0 158 163 161 255
-0.418294 0.830655 4.17158 0 0 0 158 160 162 255
-0.630487 0.897026 4.09 0 0 0 100 113 139 255
-0.462628 1.00141 4.16373 0 0 0 134 150 165 255
-0.369027 1.13882 4.24239 0 0 0 128 140 152 255
-0.535555 1.14586 4.11754 0 0 0 1 98 146 255
-0.35414 1.24959 4.25128 0 0 0 155 139 84 255
-0.305693 1.4731 4.66176 0 0 0 87 119 151 255
-0.454572 1.42155 4.08631 0 0 0 36 80 123 255
2.14292 -0.0567641 3.94755 0 0 0 33 41 36 255
1.07441 0.107515 4.91191 0 0 0 48 91 67 255
-0.360036 0.402156 4.20694 0 0 0 97 69 102 255
1.94647 0.474894 3.98393 0 0 0 90 90 87 255
2.13242 0.538237 3.71285 0 0 0 134 142 146 255
-0.400265 0.645125 4.17812 0 0 0 24 59 106 255
-0.699934 0.693732 4.06746 0 0 0 25 58 111 255
0.807787 0.775581 4.59806 0 0 0 77 116 99 255
1.07031 1.39903 5.10989 0 0 0 66 105 77 255
2.21717 -0.204992 3.86192 0 0 0 119 120 121 255
2.10227 -0.182802 3.97101 0 0 0 110 105 104 255
2.10427 -0.127923 3.96854 0 0 0 136 136 133 255
2.10219 -0.10639 3.96226 0 0 0 143 141 139 255
2.12031 -0.0748701 3.95454 0 0 0 72 73 74 255
2.35704 -0.0521796 3.83579 0 0 0 79 83 86 255
0.377035 0.151168 4.8002 0 0 0 28 59 44 255
2.35757 0.249618 3.70415 0 0 0 88 83 82 255
2.28459 0.254004 3.68634 0 0 0 57 56 59 255
2.2021 0.27094 3.71798 0 0 0 62 49 47 255
2.32288 0.27754 3.69864 0 0 0 69 58 57 255
2.3258 0.277835 3.69765 0 0 0 69 58 57 255
-0.455136 0.277955 4.1088 0 0 0 73 55 38 255
-0.439579 0.303776 4.11692 0 0 0 97 82 94 255
-0.768412 0.301382 4.06084 0 0 0 131 109 116 255
-0.455173 0.32696 4.11204 0 0 0 63 100 144 255
-0.466824 0.372 4.11618 0 0 0 137 137 146 255
-0.490169 0.4687 4.09626 0 0 0 128 145 164 255
-0.70449 0.464948 4.05301 0 0 0 120 127 124 255
1.04004 0.512741 4.71432 0 0 0 122 136 112 255
-0.366063 0.504429 4.19577 0 0 0 73 114 148 255
-0.344466 0.519583 4.21898 0 0 0 32 82 125 255
1.09977 0.707498 4.77345 0 0 0 111 118 117 255
0.455374 0.94865 4.73834 0 0 0 101 113 109 255
1.16272 1.24845 5.43323 0 0 0 140 139 133 255
2.41025 1.06856 3.7336 0 0 0 125 129 128 255
-1.04891 1.23765 4.41898 0 0 0 54 99 133 255
-0.966321 1.25906 4.38933 0 0 0 27 84 124 255
-0.847455 1.25411 4.27207 0 0 0 115 96 111 255
-1.00184 1.286 4.37983 0 0 0 106 105 114 255
2.16157 1.17834 3.77099 0 0 0 99 100 102 255
2.38634 1.18031 3.74997 0 0 0 106 105 109 255
2.37672 1.22326 3.75992 0 0 0 103 103 103 255
2.28165 1.26216 3.74589 0 0 0 103 107 110 255
-1.14857 1.4962 4.60106 0 0 0 59 110 152 255
-0.375499 1.4142 4.23999 0 0 0 160 157 163 255
-1.21661 1.58944 4.70267 0 0 0 98 112 134 255
2.23211 1.39824 3.7577 0 0 0 113 113 115 255
-0.44033 0.277373 4.11556 0 0 0 140 103 88 255
-0.465439 0.370639 4.1169 0 0 0 119 135 153 255
0.669767 0.404299 4.5712 0 0 0 124 46 49 255
-0.396541 0.484871 4.14662 0 0 0 98 119 145 255
1.10724 0.589996 4.80727 0 0 0 139 146 146 255
-0.477087 0.665124 4.08189 0 0 0 100 107 129 255
-0.74469 0.890917 4.10567 0 0 0 32 62 104 255
-0.797096 1.21278 4.23331 0 0 0 134 145 147 255
-0.97137 1.25956 4.38709 0 0 0 33 90 128 255
2.38524 1.41449 3.78214 0 0 0 95 95 99 255
2.45166 -0.216117 3.94767 0 0 0 74 74 76 255
2.35374 0.286395 3.70089 0 0 0 149 124 96 255
2.38613 0.301129 3.69197 0 0 0 133 97 66 255
2.41986 0.422363 3.70141 0 0 0 61 34 20 255
-0.648062 0.410984 4.05207 0 0 0 23 91 75 255
-0.278696 0.415728 4.29614 0 0 0 67 117 147 255
2.14897 0.509384 3.71178 0 0 0 136 140 137 255
-0.349163 0.492206 4.21529 0 0 0 125 137 153 255
0.776941 0.554664 4.59527 0 0 0 155 159 160 255
-0.51496 0.754232 4.1372 0 0 0 158 159 160 255
-0.374283 0.789336 4.2062 0 0 0 62 75 103 255
-0.820413 1.22946 4.24712 0 0 0 139 138 140 255
-0.808261 1.2166 4.24217 0 0 0 137 144 146 255
2.39743 1.41216 3.79403 0 0 0 98 92 97 255
2.14408 -0.200803 3.9334 0 0 0 47 44 45 255
2.26458 -0.201743 3.8218 0 0 0 42 40 39 255
2.1385 -0.209555 3.93985 0 0 0 56 55 55 255
2.13507 -0.109989 3.94492 0 0 0 39 41 40 255
2.28483 0.284355 3.68354 0 0 0 158 127 80 255
2.40649 0.390855 3.69255 0 0 0 119 136 144 255
2.32865 0.427117 3.66937 0 0 0 56 43 41 255
2.36907 0.441715 3.66918 0 0 0 134 144 147 255
-0.640725 0.420971 4.05588 0 0 0 37 102 91 255
-0.572066 0.440688 4.0702 0 0 0 114 141 165 255
2.40908 0.480969 3.6744 0 0 0 36 40 43 255
1.96783 0.511114 3.90193 0 0 0 109 111 110 255
0.832852 0.566046 4.60071 0 0 0 157 162 160 255
1.08505 0.598208 4.76584 0 0 0 144 149 147 255
-0.538772 0.764625 4.10961 0 0 0 97 117 135 255
0.951391 1.09102 4.66817 0 0 0 29 80 119 255
0.533235 1.23641 4.6825 0 0 0 149 152 151 255
-0.386122 1.42624 4.31098 0 0 0 28 78 122 255
2.39508 1.41859 3.7938 0 0 0 95 95 104 255
2.43682 -0.217937 3.93942 0 0 0 60 61 61 255
-0.306281 0.13382 4.53663 0 0 0 25 66 103 255
0.379212 0.0959625 4.79163 0 0 0 61 83 76 255
2.25325 0.290279 3.69976 0 0 0 140 105 63 255
1.02832 0.281311 4.68893 0 0 0 113 129 108 255
2.11662 0.413532 3.72634 0 0 0 45 49 59 255
-0.41398 0.411458 4.14538 0 0 0 129 141 148 255
-0.321728 0.420034 4.23632 0 0 0 149 130 136 255
-0.336583 0.473791 4.22496 0 0 0 147 151 157 255
2.21709 0.554334 3.68756 0 0 0 139 142 142 255
-0.293537 0.736855 4.31996 0 0 0 152 152 152 255
-0.442542 0.877498 4.15826 0 0 0 157 160 159 255
-0.352217 1.1735 4.26843 0 0 0 144 142 144 255
-0.309321 1.44962 4.62183 0 0 0 32 76 114 255
2.40724 -0.186592 3.83564 0 0 0 88 44 45 255
2.412 -0.116425 3.83455 0 0 0 34 33 35 255
2.39505 -0.0368069 3.80674 0 0 0 35 37 41 255
2.30576 0.00373622 3.87804 0 0 0 128 130 129 255
2.3339 0.0895596 3.92087 0 0 0 186 188 190 255
1.08755 0.147085 4.84243 0 0 0 49 94 67 255
-0.348528 0.168492 4.53349 0 0 0 6 57 103 255
2.07862 0.444871 3.73838 0 0 0 134 137 137 255
1.94524 0.475622 3.8811 0 0 0 133 136 135 255
0.726824 0.69528 4.61658 0 0 0 62 108 73 255
-0.328602 0.706875 4.26111 0 0 0 153 155 157 255
0.803289 0.827097 4.60732 0 0 0 160 162 162 255
2.24443 0.736711 3.69009 0 0 0 54 44 38 255
2.27499 -0.157737 3.79995 0 0 0 140 105 100 255
2.49411 -0.0127914 3.97617 0 0 0 108 115 113 255
2.22661 0.0199222 3.88758 0 0 0 169 166 167 255
2.54325 0.129214 3.98519 0 0 0 89 93 94 255
-0.973459 0.13391 4.14001 0 0 0 47 61 76 255
-3.0842 0.161919 6.43997 0 0 0 49 45 43 255
0.548505 0.245018 4.60438 0 0 0 35 59 57 255
0.936628 0.257449 4.61526 0 0 0 54 87 82 255
2.46897 0.280209 3.73225 0 0 0 89 70 78 255
0.93699 0.335504 4.63183 0 0 0 143 146 143 255
2.36255 0.303976 3.69018 0 0 0 157 124 73 255
-0.919997 0.328977 4.10973 0 0 0 91 102 119 255
-0.466226 0.343753 4.12262 0 0 0 6 68 120 255
1.02792 0.376167 4.69559 0 0 0 107 47 57 255
-0.58177 0.385798 4.08837 0 0 0 45 80 108 255
2.55379 0.374869 3.76013 0 0 0 64 72 75 255
2.48675 0.384441 3.71853 0 0 0 119 128 132 255
2.50729 0.383381 3.73174 0 0 0 128 128 131 255
2.51189 0.427005 3.72964 0 0 0 118 118 118 255
2.54307 0.435612 3.75001 0 0 0 75 63 58 255
-0.972599 0.509985 4.17917 0 0 0 40 65 93 255
1.0636 0.581096 4.73462 0 0 0 111 147 136 255
2.51635 0.485492 3.73844 0 0 0 107 100 94 255
1.09662 0.605921 4.80907 0 0 0 113 113 113 255
1.07196 0.612864 4.75256 0 0 0 126 133 130 255
1.09777 0.655587 4.79848 0 0 0 110 117 115 255
2.45462 0.534343 3.71496 0 0 0 87 97 105 255
1.07188 0.667857 4.76305 0 0 0 116 123 123 255
-0.948512 0.676525 4.14411 0 0 0 49 62 78 255
-0.897833 0.680442 4.14764 0 0 0 74 80 86 255
1.11177 0.749746 4.77548 0 0 0 139 146 145 255
-0.887649 0.724256 4.12852 0 0 0 124 128 129 255
0.869324 0.851169 4.61727 0 0 0 152 159 157 255
2.38274 0.764606 3.70342 0 0 0 107 81 51 255
-0.877727 0.947498 4.12912 0 0 0 42 53 93 255
-0.466984 0.955383 4.16154 0 0 0 77 97 137 255
-0.898934 1.0209 4.15914 0 0 0 56 62 84 255
-0.854381 1.00889 4.13014 0 0 0 147 149 152 255
-0.87188 1.01023 4.09045 0 0 0 138 139 146 255
-0.324671 1.10381 4.6703 0 0 0 65 108 139 255
1.23421 1.4137 6.67169 0 0 0 152 148 142 255
1.08549 1.42769 6.37888 0 0 0 141 142 140 255
1.03705 1.17264 4.75878 0 0 0 137 119 47 255
-0.321367 1.21136 4.67084 0 0 0 57 98 126 255
-0.633336 1.20339 4.10021 0 0 0 64 85 114 255
-0.738277 1.20815 3.97908 0 0 0 88 102 117 255
2.47773 1.0434 3.72811 0 0 0 92 91 91 255
2.52604 1.05115 3.77785 0 0 0 79 80 79 255
2.22422 1.05767 3.72942 0 0 0 76 82 80 255
2.29878 1.0515 3.70837 0 0 0 131 136 139 255
2.28662 1.05635 3.71169 0 0 0 92 94 94 255
2.43574 1.04942 3.71766 0 0 0 101 98 99 255
-0.687819 1.25849 3.94762 0 0 0 72 91 109 255
