ply
format ascii 1.0
comment VCGLIB generated
element vertex 1030
property float x
property float y
property float z
property float nx
property float ny
property float nz
property uchar red
property uchar green
property uchar blue
property uchar alpha
element face 0
property list uchar int vertex_indices
end_header
1.05076 0.763701 4.6865 0 0 0 108 141 127 255
0.946362 0.789075 4.64217 0 0 0 159 166 164 255
-0.295829 0.785921 4.34486 0 0 0 142 149 153 255
0.754286 0.822218 4.60728 0 0 0 167 172 170 255
0.934364 0.826801 4.63717 0 0 0 154 166 164 255
0.855416 0.839018 4.61444 0 0 0 163 171 168 255
0.743285 0.846229 4.60576 0 0 0 157 174 171 255
0.471993 0.908124 4.69544 0 0 0 140 154 153 255
0.572864 0.92103 4.64918 0 0 0 158 166 166 255
1.88262 1.37351 6.6238 0 0 0 155 151 143 255
1.89331 1.35668 6.49605 0 0 0 139 136 128 255
2.1425 1.36871 6.2847 0 0 0 128 125 118 255
1.72897 1.44417 6.68143 0 0 0 124 123 117 255
1.87709 1.39718 6.34671 0 0 0 82 80 79 255
0.963862 1.10011 4.67359 0 0 0 28 83 125 255
0.441042 1.1696 4.75268 0 0 0 131 138 137 255
0.443007 1.15291 4.75682 0 0 0 113 133 124 255
0.938786 1.11783 4.66328 0 0 0 43 81 106 255
0.567416 1.15288 4.66723 0 0 0 137 154 151 255
0.86303 1.18331 4.63667 0 0 0 102 96 67 255
0.443677 1.25978 4.74077 0 0 0 129 136 135 255
0.57487 1.27272 4.67117 0 0 0 143 146 145 255
0.639403 1.25985 4.63346 0 0 0 91 116 85 255
0.331903 1.40317 4.99356 0 0 0 75 92 82 255
0.915599 1.36028 4.67445 0 0 0 154 161 159 255
0.333084 0.0894905 4.87529 0 0 0 72 99 83 255
1.1149 0.0954904 4.93748 0 0 0 66 101 78 255
0.527828 0.38431 4.62426 0 0 0 164 152 156 255
0.78123 0.374955 4.57698 0 0 0 164 167 166 255
0.836428 0.391361 4.58361 0 0 0 108 74 74 255
1.06826 0.548975 4.72759 0 0 0 65 104 75 255
0.818868 0.57292 4.58763 0 0 0 162 169 169 255
0.925225 0.571222 4.6201 0 0 0 157 167 164 255
0.684068 0.580757 4.58083 0 0 0 154 170 167 255
0.793509 0.579958 4.59817 0 0 0 165 169 168 255
0.555258 0.671067 4.6301 0 0 0 158 163 161 255
-0.325875 0.65441 4.32823 0 0 0 160 162 163 255
0.933905 0.805447 4.63631 0 0 0 160 167 167 255
0.824665 0.826279 4.60819 0 0 0 170 173 172 255
0.747024 0.843285 4.60685 0 0 0 157 174 172 255
0.574937 0.899021 4.64943 0 0 0 160 166 164 255
1.75368 1.45626 6.66749 0 0 0 103 102 100 255
0.439701 1.15683 4.75834 0 0 0 124 135 133 255
0.713208 1.14419 4.62521 0 0 0 140 155 150 255
0.406539 1.23508 4.79108 0 0 0 123 143 132 255
0.716743 1.26903 4.6257 0 0 0 145 150 148 255
0.340235 1.39181 4.99507 0 0 0 79 94 81 255
1.1162 0.0908389 4.92928 0 0 0 64 101 80 255
-0.342215 0.144186 4.55651 0 0 0 17 69 115 255
0.520526 0.246098 4.61533 0 0 0 142 139 140 255
0.781481 0.251631 4.56995 0 0 0 150 155 154 255
0.907646 0.246888 4.60343 0 0 0 139 150 151 255
0.641603 0.36468 4.58489 0 0 0 156 160 153 255
1.0752 0.534433 4.74096 0 0 0 82 110 73 255
0.445147 0.617969 4.70326 0 0 0 141 153 156 255
0.557112 0.646093 4.63353 0 0 0 157 163 162 255
0.765869 0.835714 4.61043 0 0 0 168 173 172 255
0.476418 0.885531 4.6892 0 0 0 142 154 154 255
2.10862 1.38253 6.43098 0 0 0 133 130 122 255
0.940123 1.05699 4.6651 0 0 0 42 93 122 255
0.937415 1.10685 4.66323 0 0 0 47 83 104 255
0.881531 1.16264 4.6409 0 0 0 169 149 74 255
0.418999 1.24029 4.76877 0 0 0 135 141 141 255
0.357971 0.128447 4.87362 0 0 0 59 95 67 255
1.02382 0.114757 4.64803 0 0 0 57 102 74 255
-0.345256 0.129469 4.53642 0 0 0 19 70 118 255
-0.322828 0.585098 4.28991 0 0 0 27 81 121 255
0.455493 1.16495 4.73861 0 0 0 134 142 142 255
2.3147 -0.219086 3.89201 0 0 0 55 55 55 255
2.35029 -0.214834 3.87007 0 0 0 66 57 63 255
2.33086 -0.206309 3.87568 0 0 0 153 157 163 255
2.24063 -0.161156 3.8038 0 0 0 138 84 84 255
2.3731 -0.165768 3.82361 0 0 0 127 62 57 255
2.32675 -0.143896 3.84376 0 0 0 167 64 83 255
2.09998 -0.148067 3.99122 0 0 0 147 143 140 255
2.33469 -0.109385 3.90112 0 0 0 95 96 98 255
2.34681 -0.111456 3.87917 0 0 0 100 98 100 255
2.32163 -0.0771302 3.90542 0 0 0 55 55 62 255
2.13729 -0.0749047 3.96835 0 0 0 70 71 78 255
2.4904 -0.0447139 3.92796 0 0 0 39 44 42 255
2.33528 0.00848168 3.89229 0 0 0 200 205 207 255
2.34097 0.0705539 3.90095 0 0 0 250 252 254 255
2.3578 0.115899 3.91188 0 0 0 253 251 252 255
2.05951 0.129634 4.00102 0 0 0 123 121 117 255
2.54612 0.135203 3.95791 0 0 0 54 53 58 255
-1.02837 0.189447 4.26319 0 0 0 68 78 91 255
2.30699 0.253364 3.69314 0 0 0 122 112 94 255
-0.497003 0.254505 4.10639 0 0 0 20 46 86 255
-0.480606 0.253589 4.11643 0 0 0 99 103 125 255
2.22198 0.25885 3.70402 0 0 0 139 109 74 255
2.26434 0.258837 3.69306 0 0 0 114 99 81 255
2.40658 0.255285 3.70103 0 0 0 91 78 70 255
-0.654317 0.264001 4.05807 0 0 0 123 104 95 255
-0.629673 0.261798 4.06588 0 0 0 129 107 101 255
-0.515252 0.259862 4.09872 0 0 0 125 105 96 255
-0.449254 0.258282 4.13117 0 0 0 83 87 115 255
0.498839 0.252583 4.62593 0 0 0 100 111 110 255
-0.856606 0.263398 4.07413 0 0 0 100 102 114 255
-0.80462 0.26687 4.06551 0 0 0 97 97 97 255
-0.776629 0.259341 4.06345 0 0 0 89 75 84 255
-0.732234 0.265837 4.05965 0 0 0 106 100 99 255
-0.696723 0.267175 4.05767 0 0 0 140 126 102 255
-0.567256 0.265707 4.08014 0 0 0 110 103 101 255
0.886593 0.260641 4.59509 0 0 0 62 76 74 255
2.3839 0.272747 3.69767 0 0 0 100 56 21 255
-0.838935 0.271011 4.07232 0 0 0 120 118 85 255
-0.551454 0.274496 4.08523 0 0 0 134 110 79 255
-0.868912 0.282831 4.08175 0 0 0 126 125 102 255
-0.803704 0.279872 4.0647 0 0 0 128 122 98 255
-0.614329 0.277828 4.06945 0 0 0 122 102 59 255
2.23099 0.284657 3.69488 0 0 0 106 68 33 255
2.26979 0.282331 3.68845 0 0 0 160 122 66 255
2.31077 0.282055 3.69113 0 0 0 87 49 40 255
2.38196 0.281703 3.69796 0 0 0 91 51 24 255
-0.782566 0.290332 4.06218 0 0 0 36 44 62 255
-0.495356 0.289831 4.11053 0 0 0 77 63 50 255
0.719806 0.285615 4.56756 0 0 0 76 95 91 255
-0.859312 0.294591 4.07705 0 0 0 78 76 46 255
-0.820926 0.296205 4.06738 0 0 0 38 39 53 255
-0.686155 0.298066 4.05522 0 0 0 38 39 43 255
-0.646387 0.296486 4.06064 0 0 0 89 71 48 255
-0.611299 0.295117 4.0675 0 0 0 59 57 62 255
-0.579703 0.29871 4.07412 0 0 0 23 46 93 255
-0.551549 0.288075 4.08409 0 0 0 65 47 33 255
-0.514102 0.296463 4.09856 0 0 0 140 115 87 255
2.40088 0.297555 3.69312 0 0 0 91 74 60 255
-0.489482 0.306613 4.11285 0 0 0 98 76 83 255
2.20602 0.302874 3.69872 0 0 0 108 89 64 255
2.25876 0.308111 3.69534 0 0 0 153 118 70 255
2.27954 0.309374 3.68542 0 0 0 135 96 61 255
2.30357 0.306313 3.6894 0 0 0 165 133 81 255
-0.857449 0.314407 4.0794 0 0 0 86 93 132 255
-0.785783 0.316156 4.0622 0 0 0 87 84 115 255
-0.731664 0.315228 4.05962 0 0 0 83 94 128 255
-0.657946 0.316338 4.05703 0 0 0 128 111 86 255
-0.627703 0.313499 4.06754 0 0 0 145 116 97 255
-0.545868 0.312962 4.08752 0 0 0 113 106 101 255
-1.00741 0.326746 4.22857 0 0 0 81 104 136 255
0.611484 0.32767 4.58738 0 0 0 138 142 131 255
0.758856 0.32585 4.57487 0 0 0 141 155 125 255
1.99258 0.336406 3.96893 0 0 0 70 75 76 255
0.582768 0.351337 4.60117 0 0 0 178 129 137 255
0.601938 0.349169 4.58931 0 0 0 121 77 78 255
-0.496128 0.354439 4.11208 0 0 0 54 109 155 255
-0.39233 0.34983 4.18656 0 0 0 14 87 133 255
0.820935 0.358575 4.58095 0 0 0 164 123 128 255
1.02939 0.359194 4.68838 0 0 0 172 130 136 255
1.1047 0.363874 4.74664 0 0 0 91 101 86 255
-0.915301 0.361497 4.12618 0 0 0 35 72 108 255
-0.762926 0.359042 4.06296 0 0 0 22 78 129 255
-0.639797 0.360369 4.0631 0 0 0 122 132 142 255
-0.614991 0.359692 4.07424 0 0 0 9 73 123 255
-0.591154 0.361324 4.07951 0 0 0 96 119 159 255
1.94698 0.359721 3.98718 0 0 0 86 81 79 255
-0.885246 0.365669 4.10687 0 0 0 76 99 128 255
-0.521789 0.364461 4.10047 0 0 0 7 73 123 255
-0.339831 0.369978 4.24015 0 0 0 101 88 100 255
1.05155 0.375809 4.70073 0 0 0 151 125 132 255
-0.495153 0.380811 4.11464 0 0 0 55 87 113 255
0.873929 0.38399 4.59832 0 0 0 157 138 142 255
1.95928 0.374365 3.97793 0 0 0 117 119 118 255
-0.5641 0.384114 4.0894 0 0 0 26 81 117 255
-0.536717 0.386433 4.09624 0 0 0 140 150 161 255
-0.414802 0.382367 4.1669 0 0 0 73 89 111 255
1.98791 0.377554 3.95557 0 0 0 112 117 117 255
-0.641695 0.384278 4.06252 0 0 0 68 97 95 255
-0.485837 0.386548 4.12149 0 0 0 25 65 100 255
-0.4446 0.392539 4.14638 0 0 0 36 61 105 255
-0.370422 0.388746 4.20866 0 0 0 78 80 99 255
2.44786 0.382149 3.70001 0 0 0 103 102 105 255
2.49291 0.386689 3.71591 0 0 0 123 130 133 255
2.56615 0.378873 3.78502 0 0 0 79 84 88 255
-0.506657 0.393152 4.10779 0 0 0 33 72 114 255
0.527978 0.403735 4.60718 0 0 0 121 111 114 255
2.06543 0.384349 3.75311 0 0 0 103 107 108 255
2.17245 0.39199 3.69505 0 0 0 132 134 137 255
2.19041 0.3887 3.68693 0 0 0 81 81 81 255
2.27426 0.386032 3.67379 0 0 0 81 83 84 255
2.28835 0.382255 3.66864 0 0 0 88 87 89 255
2.30008 0.38957 3.66416 0 0 0 137 136 137 255
-0.48137 0.405338 4.12318 0 0 0 121 134 152 255
-0.473446 0.406691 4.12792 0 0 0 139 150 165 255
1.056 0.410996 4.70727 0 0 0 126 90 88 255
1.97521 0.390279 3.96692 0 0 0 73 68 66 255
2.45236 0.396294 3.70088 0 0 0 138 141 140 255
-0.599697 0.410868 4.07756 0 0 0 25 93 124 255
-0.580065 0.410415 4.08346 0 0 0 147 155 163 255
-0.400459 0.411773 4.17809 0 0 0 141 145 164 255
-0.555123 0.423684 4.09102 0 0 0 42 84 121 255
-0.51531 0.416575 4.10555 0 0 0 153 158 160 255
-0.480526 0.42238 4.12368 0 0 0 152 153 157 255
-0.44193 0.419489 4.14847 0 0 0 149 150 154 255
2.10144 0.412228 3.73397 0 0 0 60 39 39 255
2.43359 0.409722 3.69803 0 0 0 61 44 39 255
-0.540285 0.424705 4.09302 0 0 0 81 103 123 255
-0.460127 0.426374 4.13763 0 0 0 63 79 103 255
-0.361123 0.43191 4.22104 0 0 0 103 96 115 255
2.5196 0.411339 3.71933 0 0 0 76 66 67 255
-0.598837 0.431404 4.07938 0 0 0 19 93 125 255
-0.391076 0.43891 4.18623 0 0 0 79 87 98 255
-0.53912 0.4385 4.09263 0 0 0 11 83 127 255
-0.506081 0.440645 4.11224 0 0 0 30 76 115 255
-0.562644 0.445119 4.08867 0 0 0 116 163 192 255
-0.472196 0.44566 4.1299 0 0 0 39 62 90 255
-0.446497 0.447999 4.14658 0 0 0 17 60 109 255
-0.400813 0.446639 4.17791 0 0 0 57 71 108 255
-0.339308 0.453313 4.2433 0 0 0 120 89 112 255
-0.718362 0.451741 4.06271 0 0 0 142 149 136 255
-0.67471 0.450807 4.06563 0 0 0 140 149 148 255
-0.546124 0.461006 4.09107 0 0 0 25 89 126 255
-0.48011 0.460521 4.12602 0 0 0 22 70 125 255
2.10293 0.449235 3.73044 0 0 0 58 39 39 255
-0.673421 0.468097 4.06562 0 0 0 80 95 94 255
-0.634343 0.469361 4.07308 0 0 0 58 94 92 255
-0.581236 0.46812 4.08173 0 0 0 81 103 120 255
-0.4246 0.478112 4.15789 0 0 0 45 84 117 255
2.14081 0.466324 3.71072 0 0 0 91 65 52 255
-1.01701 0.489646 4.25384 0 0 0 110 92 99 255
-0.655057 0.481884 4.06702 0 0 0 84 120 108 255
-0.390212 0.490938 4.19122 0 0 0 73 98 117 255
-0.321733 0.485079 4.26756 0 0 0 31 84 119 255
-0.99573 0.497641 4.25184 0 0 0 108 94 96 255
2.28065 0.471297 3.66943 0 0 0 80 62 54 255
-0.732157 0.494731 4.06061 0 0 0 87 106 123 255
1.96886 0.498245 3.96988 0 0 0 95 96 91 255
2.10334 0.48545 3.73607 0 0 0 67 46 41 255
-0.428826 0.504037 4.15919 0 0 0 60 108 147 255
2.51191 0.47984 3.71671 0 0 0 109 105 106 255
2.12045 0.495245 3.72781 0 0 0 37 43 44 255
2.27025 0.50909 3.67911 0 0 0 87 75 65 255
2.27403 0.50765 3.6773 0 0 0 74 55 41 255
2.29526 0.50604 3.67539 0 0 0 60 51 47 255
1.10643 0.573364 4.81092 0 0 0 106 143 126 255
1.95738 0.549794 3.98179 0 0 0 119 116 115 255
2.42379 0.528493 3.68037 0 0 0 64 53 57 255
-0.443805 0.561547 4.15621 0 0 0 145 149 167 255
2.20727 0.538442 3.68631 0 0 0 81 66 56 255
2.2155 0.530115 3.68581 0 0 0 50 37 39 255
-1.01017 0.571503 4.23289 0 0 0 107 113 138 255
-0.878365 0.563716 4.10851 0 0 0 104 117 151 255
-0.837717 0.566756 4.10768 0 0 0 141 145 147 255
2.45095 0.546116 3.69687 0 0 0 101 103 109 255
2.56005 0.544381 3.76875 0 0 0 131 138 138 255
-0.646584 0.571748 4.07934 0 0 0 138 140 171 255
1.95066 0.571764 4.01868 0 0 0 77 67 61 255
2.4971 0.548572 3.73044 0 0 0 129 138 140 255
2.17133 0.558396 3.70041 0 0 0 114 129 133 255
-0.888308 0.583723 4.09087 0 0 0 24 52 91 255
2.24131 0.557449 3.68156 0 0 0 139 136 137 255
2.31987 0.558057 3.67105 0 0 0 93 103 105 255
2.35565 0.558254 3.6831 0 0 0 140 141 143 255
-0.955757 0.592544 4.16835 0 0 0 33 58 91 255
1.04577 0.626701 4.71428 0 0 0 71 73 73 255
-0.498286 0.605493 4.10613 0 0 0 84 89 109 255
-0.589002 0.616531 4.11751 0 0 0 53 59 75 255
-0.985466 0.652991 4.19675 0 0 0 127 129 132 255
-0.373469 0.645834 4.22634 0 0 0 36 66 115 255
-0.49238 0.653544 4.09483 0 0 0 91 90 94 255
-0.587776 0.667307 4.11483 0 0 0 61 68 87 255
-0.860838 0.678583 4.08443 0 0 0 56 60 71 255
-0.340805 0.68291 4.24684 0 0 0 116 116 118 255
-0.945002 0.680459 4.15634 0 0 0 37 42 54 255
0.547241 0.71143 4.65469 0 0 0 85 123 102 255
-0.993845 0.6909 4.1694 0 0 0 88 95 105 255
-0.438836 0.688248 4.1652 0 0 0 151 158 159 255
1.07222 0.730844 4.75209 0 0 0 127 137 136 255
-0.748201 0.697038 4.0807 0 0 0 123 125 141 255
-0.406226 0.718748 4.19517 0 0 0 132 140 162 255
0.837113 0.747702 4.61618 0 0 0 65 109 78 255
-0.867378 0.716233 4.08524 0 0 0 122 125 129 255
-0.650238 0.719158 4.08642 0 0 0 136 142 163 255
-0.34144 0.735582 4.25022 0 0 0 113 116 127 255
-0.556878 0.748652 4.10591 0 0 0 141 150 171 255
-0.523256 0.747465 4.12299 0 0 0 152 152 158 255
2.25592 0.714699 3.68583 0 0 0 79 76 68 255
2.38064 0.716944 3.70618 0 0 0 86 76 66 255
-0.794262 0.758634 4.07737 0 0 0 78 82 95 255
-0.697013 0.76877 4.09104 0 0 0 131 136 162 255
-0.452352 0.773742 4.15877 0 0 0 70 74 90 255
-0.997533 0.77871 4.20161 0 0 0 130 137 137 255
-0.340353 0.789464 4.26051 0 0 0 60 71 94 255
-0.305876 0.819495 4.31248 0 0 0 97 106 117 255
-0.323704 0.81839 4.28423 0 0 0 127 132 153 255
2.24995 0.761113 3.68887 0 0 0 89 76 57 255
-0.835523 0.810921 4.10173 0 0 0 117 120 126 255
-0.616049 0.807351 4.09579 0 0 0 79 86 105 255
2.30343 0.763641 3.68985 0 0 0 98 74 53 255
-0.629713 0.811101 4.088 0 0 0 53 63 89 255
-0.388163 0.826691 4.21817 0 0 0 56 73 95 255
-0.452184 0.834223 4.16275 0 0 0 90 89 97 255
-0.812503 0.833524 4.09141 0 0 0 74 80 99 255
-0.366567 0.847979 4.2367 0 0 0 155 157 160 255
0.546871 0.902051 4.66223 0 0 0 71 111 93 255
-0.383593 0.866386 4.22266 0 0 0 82 92 100 255
-0.400811 0.88006 4.20842 0 0 0 156 158 157 255
-0.616099 0.871814 4.0989 0 0 0 103 105 107 255
-0.630026 0.879637 4.08912 0 0 0 67 83 105 255
-0.95753 0.898226 4.17547 0 0 0 79 88 101 255
-0.367711 0.907219 4.22615 0 0 0 73 96 127 255
-0.720479 0.902988 4.08931 0 0 0 35 64 104 255
-0.518492 0.915093 4.12954 0 0 0 157 157 163 255
1.07866 1.0005 4.75306 0 0 0 121 139 124 255
-0.551929 0.926527 4.11268 0 0 0 155 159 160 255
-0.437002 0.933915 4.17838 0 0 0 73 92 125 255
-0.72815 0.932846 4.08855 0 0 0 159 160 161 255
-0.615423 0.943123 4.10082 0 0 0 125 125 125 255
-0.590349 0.940711 4.09729 0 0 0 148 150 152 255
-0.887551 0.956635 4.14284 0 0 0 35 51 92 255
-0.714298 0.953099 4.09151 0 0 0 81 91 108 255
-0.694142 0.967035 4.0957 0 0 0 153 149 159 255
-0.578414 0.978112 4.10432 0 0 0 75 92 137 255
-0.748849 0.978235 4.08419 0 0 0 157 157 157 255
-0.614364 0.990235 4.09701 0 0 0 68 89 127 255
-0.365702 1.01324 4.2495 0 0 0 118 140 158 255
1.17896 1.1385 5.05288 0 0 0 172 176 170 255
-0.847785 0.999007 4.04118 0 0 0 40 50 84 255
-0.698805 1.00768 4.09324 0 0 0 66 84 118 255
1.92328 1.36906 6.54906 0 0 0 144 141 136 255
-0.377697 1.03269 4.24284 0 0 0 52 101 130 255
-0.907461 1.02148 4.0941 0 0 0 135 131 139 255
-0.913754 1.02909 4.16553 0 0 0 145 149 150 255
1.20391 1.17465 5.06804 0 0 0 120 118 116 255
-0.992373 1.03957 4.2015 0 0 0 116 120 122 255
-0.503198 1.04668 4.14182 0 0 0 41 99 138 255
-0.500767 1.08519 4.14105 0 0 0 60 110 140 255
-0.372658 1.11614 4.24738 0 0 0 28 73 120 255
-0.340435 1.12516 4.27089 0 0 0 29 75 113 255
2.07006 1.04752 3.78932 0 0 0 107 110 109 255
2.11971 1.04967 3.76129 0 0 0 117 117 118 255
2.16972 1.04896 3.7398 0 0 0 90 86 85 255
2.10873 1.05626 3.77145 0 0 0 99 103 103 255
2.13819 1.0541 3.76318 0 0 0 97 94 95 255
2.21231 1.05016 3.72747 0 0 0 90 92 91 255
-0.397689 1.14281 4.22796 0 0 0 135 146 156 255
-0.317112 1.14766 4.28607 0 0 0 109 132 145 255
2.25406 1.0501 3.71841 0 0 0 80 81 80 255
2.31515 1.05447 3.71044 0 0 0 103 98 100 255
2.34292 1.05387 3.71057 0 0 0 96 94 96 255
2.21315 1.06689 3.72604 0 0 0 121 124 123 255
2.21154 1.06777 3.72867 0 0 0 121 124 123 255
2.22069 1.08143 3.72459 0 0 0 86 84 84 255
-0.332132 1.18311 4.28514 0 0 0 51 76 100 255
2.1669 1.09002 3.74649 0 0 0 84 89 89 255
2.25359 1.083 3.7194 0 0 0 83 78 76 255
2.28384 1.07517 3.71237 0 0 0 89 81 83 255
2.35815 1.08284 3.71253 0 0 0 78 78 79 255
2.47862 1.08216 3.73125 0 0 0 73 74 76 255
-0.605541 1.15091 4.06005 0 0 0 24 111 147 255
2.22065 1.08174 3.72584 0 0 0 98 105 102 255
2.40062 1.08915 3.72278 0 0 0 87 92 90 255
-0.863444 1.17532 4.12317 0 0 0 88 116 142 255
-0.630246 1.16792 4.05725 0 0 0 148 149 158 255
2.1344 1.13271 3.76572 0 0 0 102 103 105 255
-0.618846 1.19079 4.05608 0 0 0 66 85 118 255
-0.736987 1.2096 4.09954 0 0 0 115 99 115 255
-0.828483 1.21998 4.10432 0 0 0 107 103 113 255
-0.694623 1.21399 4.09039 0 0 0 113 103 118 255
2.07806 1.17086 3.79731 0 0 0 103 105 104 255
2.2546 1.1752 3.71331 0 0 0 106 107 111 255
2.07192 1.20643 3.8033 0 0 0 115 113 112 255
-0.887613 1.36107 4.11562 0 0 0 69 106 141 255
-0.375119 1.38596 4.23202 0 0 0 140 152 167 255
-0.841971 1.36098 4.10877 0 0 0 65 104 137 255
-0.392605 1.39838 4.22271 0 0 0 93 102 120 255
-0.466509 1.39244 4.16099 0 0 0 93 128 163 255
-0.815698 1.39123 4.10708 0 0 0 22 83 123 255
-0.460551 1.42269 4.1638 0 0 0 157 159 160 255
-0.886659 1.41417 4.11774 0 0 0 89 108 133 255
2.46126 1.4045 3.79337 0 0 0 84 82 84 255
2.25145 1.41287 3.79984 0 0 0 112 112 112 255
2.1707 1.43021 3.83099 0 0 0 100 100 100 255
2.31051 1.41643 3.77491 0 0 0 106 106 106 255
2.38519 1.63083 3.98878 0 0 0 191 193 199 255
2.39535 1.62889 3.98083 0 0 0 207 207 208 255
2.32652 -0.207344 3.8778 0 0 0 153 157 163 255
2.35814 -0.205939 3.86418 0 0 0 46 45 44 255
2.22955 -0.161279 3.81574 0 0 0 140 73 68 255
0.950477 -0.241178 4.695 0 0 0 211 211 212 255
2.33588 0.0148802 3.88904 0 0 0 200 205 207 255
-1.04235 0.133339 4.24859 0 0 0 22 47 84 255
2.04792 0.135568 4.02583 0 0 0 135 135 134 255
2.21121 0.257648 3.70919 0 0 0 121 103 80 255
2.31079 0.249718 3.69321 0 0 0 80 75 76 255
2.40122 0.253706 3.70092 0 0 0 93 77 67 255
-0.725894 0.261014 4.05886 0 0 0 113 104 82 255
-0.858083 0.26979 4.07518 0 0 0 132 125 125 255
-0.567094 0.269084 4.07938 0 0 0 110 103 101 255
-0.4848 0.271343 4.11445 0 0 0 124 109 113 255
2.3815 0.280931 3.69797 0 0 0 91 51 24 255
2.30206 0.307432 3.68885 0 0 0 165 133 81 255
-0.559696 0.312525 4.07973 0 0 0 147 121 91 255
-0.92873 0.330019 4.11832 0 0 0 68 103 139 255
-0.895796 0.354914 4.09441 0 0 0 37 76 112 255
-0.645615 0.355917 4.0635 0 0 0 46 99 143 255
-0.433825 0.348242 4.15163 0 0 0 105 129 149 255
0.405947 0.365003 4.72135 0 0 0 111 87 83 255
0.799137 0.364996 4.5775 0 0 0 144 132 134 255
0.875168 0.375282 4.59911 0 0 0 136 117 121 255
-0.657097 0.390919 4.06107 0 0 0 29 88 75 255
-0.489389 0.389189 4.11902 0 0 0 30 73 108 255
-0.393735 0.397968 4.18477 0 0 0 152 156 156 255
1.98584 0.381119 3.95982 0 0 0 77 84 85 255
2.1198 0.389268 3.7193 0 0 0 89 89 90 255
2.49002 0.387649 3.71791 0 0 0 110 118 121 255
1.93497 0.409619 3.97224 0 0 0 125 120 116 255
-0.594091 0.43211 4.0803 0 0 0 19 93 125 255
2.10195 0.418816 3.73439 0 0 0 58 40 40 255
2.41976 0.412103 3.69135 0 0 0 83 63 45 255
-0.45723 0.441316 4.13902 0 0 0 16 60 108 255
1.97591 0.444668 3.93301 0 0 0 82 76 67 255
2.1029 0.43295 3.73165 0 0 0 58 42 39 255
2.45559 0.429656 3.70518 0 0 0 34 38 37 255
-0.616149 0.455396 4.07808 0 0 0 147 154 154 255
2.14151 0.466927 3.71059 0 0 0 91 65 52 255
-0.55146 0.490876 4.09014 0 0 0 104 120 136 255
-0.422762 0.504679 4.16285 0 0 0 78 121 156 255
1.94091 0.49897 3.99965 0 0 0 122 120 119 255
2.10419 0.499013 3.73706 0 0 0 55 39 39 255
1.0841 0.578714 4.75022 0 0 0 126 142 138 255
2.10138 0.526072 3.7372 0 0 0 50 42 47 255
2.21212 0.5256 3.68582 0 0 0 55 39 41 255
2.28093 0.520737 3.67719 0 0 0 46 36 38 255
2.42258 0.524372 3.70984 0 0 0 57 40 43 255
2.56541 0.541768 3.78631 0 0 0 104 112 118 255
1.94815 0.575181 4.02472 0 0 0 108 100 94 255
2.48889 0.546636 3.72175 0 0 0 123 130 131 255
2.36247 0.559879 3.67369 0 0 0 108 94 86 255
2.40303 0.549451 3.67324 0 0 0 140 142 143 255
2.42294 0.550721 3.68991 0 0 0 143 143 143 255
-1.00223 0.592198 4.2223 0 0 0 134 137 140 255
-0.916435 0.587338 4.13562 0 0 0 32 55 90 255
2.14775 0.554689 3.70751 0 0 0 107 90 75 255
-0.741407 0.611155 4.0699 0 0 0 155 156 156 255
-0.50103 0.605463 4.1037 0 0 0 88 94 113 255
-0.734997 0.646924 4.07619 0 0 0 154 156 158 255
-0.440361 0.684404 4.16126 0 0 0 151 158 159 255
-0.988451 0.707387 4.16651 0 0 0 133 131 130 255
-0.740587 0.71564 4.08169 0 0 0 156 159 161 255
-0.646592 0.707951 4.08503 0 0 0 137 143 162 255
-0.410458 0.725207 4.19405 0 0 0 155 160 168 255
-0.871262 0.724524 4.08804 0 0 0 109 111 116 255
-0.560081 0.760342 4.10339 0 0 0 158 162 163 255
2.25698 0.722147 3.68687 0 0 0 96 76 55 255
-0.880034 0.772324 4.09038 0 0 0 97 108 118 255
-0.698676 0.761342 4.08876 0 0 0 52 69 110 255
-0.464742 0.776644 4.15281 0 0 0 92 94 101 255
-0.340126 0.788341 4.26073 0 0 0 40 53 83 255
-0.323039 0.813022 4.28532 0 0 0 128 133 152 255
-0.629739 0.811108 4.08802 0 0 0 53 63 89 255
-0.461394 0.837847 4.15704 0 0 0 58 66 93 255
-0.418812 0.886634 4.19431 0 0 0 156 157 159 255
-0.457157 0.899145 4.16097 0 0 0 113 117 126 255
-0.955262 0.913001 4.17034 0 0 0 69 69 80 255
-0.514154 0.914467 4.1317 0 0 0 156 159 158 255
-0.56642 0.930737 4.10411 0 0 0 160 162 163 255
-0.741169 0.933738 4.08225 0 0 0 157 161 163 255
-0.888782 0.946296 4.14412 0 0 0 33 52 93 255
-0.683048 0.96293 4.10062 0 0 0 158 160 161 255
-0.718407 0.967629 4.09178 0 0 0 59 71 96 255
-0.749952 0.975927 4.08426 0 0 0 157 157 157 255
-0.486436 1.00049 4.14925 0 0 0 130 149 169 255
-0.820889 0.997874 4.04433 0 0 0 151 154 153 255
-0.929738 1.02649 4.16893 0 0 0 149 147 151 255
-0.505806 1.03849 4.13959 0 0 0 40 99 138 255
0.955239 1.11493 4.67394 0 0 0 29 77 115 255
0.50547 1.14877 4.70833 0 0 0 69 104 73 255
2.34762 1.06496 3.71172 0 0 0 87 86 87 255
0.798501 1.25059 4.63072 0 0 0 101 120 98 255
-0.628161 1.16337 4.05631 0 0 0 136 140 153 255
-0.867516 1.17011 4.12552 0 0 0 88 116 142 255
-0.724086 1.17616 4.10304 0 0 0 85 131 170 255
-0.792585 1.1926 4.10976 0 0 0 21 85 131 255
-0.828519 1.23751 4.10132 0 0 0 80 84 109 255
-0.904309 1.27197 4.13632 0 0 0 124 142 163 255
-0.620284 1.28657 4.05114 0 0 0 37 76 110 255
-0.857059 1.32244 4.12318 0 0 0 101 111 122 255
-0.726667 1.32925 4.10682 0 0 0 95 108 135 255
-0.842447 1.36321 4.11226 0 0 0 65 104 137 255
2.39948 1.41094 3.78612 0 0 0 98 94 97 255
2.2966 -0.208708 3.89569 0 0 0 45 43 44 255
2.36717 -0.203262 3.84819 0 0 0 45 45 45 255
2.45745 -0.197859 3.91299 0 0 0 47 52 53 255
0.949903 -0.239496 4.6946 0 0 0 211 211 212 255
2.09905 -0.0554374 3.98587 0 0 0 93 84 83 255
2.47226 -0.044079 3.90907 0 0 0 35 39 39 255
2.33646 0.0113822 3.88967 0 0 0 200 205 207 255
2.46976 0.0372242 3.92111 0 0 0 84 85 92 255
2.34426 0.0907998 3.89625 0 0 0 248 250 254 255
2.35406 0.116173 3.9145 0 0 0 255 252 253 255
2.06464 0.136201 4.01641 0 0 0 63 63 62 255
2.53195 0.140787 3.9382 0 0 0 50 50 54 255
2.30864 0.259418 3.69279 0 0 0 161 144 114 255
-0.475505 0.262392 4.12085 0 0 0 148 121 89 255
2.21318 0.267243 3.70309 0 0 0 95 75 60 255
2.36002 0.261899 3.69793 0 0 0 125 88 55 255
-0.834831 0.282022 4.0698 0 0 0 139 126 66 255
-0.806998 0.275347 4.06674 0 0 0 75 73 68 255
-0.76998 0.272271 4.06371 0 0 0 114 95 99 255
-0.629612 0.271038 4.0675 0 0 0 133 111 101 255
-0.705562 0.284017 4.05876 0 0 0 113 107 101 255
2.21293 0.297828 3.69849 0 0 0 130 106 77 255
2.37457 0.299155 3.69528 0 0 0 138 101 62 255
-0.976932 0.335141 4.19627 0 0 0 95 110 126 255
0.582158 0.373765 4.60072 0 0 0 118 39 43 255
-0.618474 0.400671 4.07634 0 0 0 149 155 160 255
-0.533666 0.398992 4.09554 0 0 0 152 158 165 255
-0.394368 0.395982 4.18389 0 0 0 148 155 155 255
0.603709 0.405296 4.5947 0 0 0 156 147 148 255
1.98612 0.387345 3.95402 0 0 0 112 121 123 255
2.07237 0.396242 3.74982 0 0 0 127 133 134 255
2.12884 0.406462 3.71668 0 0 0 131 137 139 255
2.15364 0.395093 3.70314 0 0 0 40 39 44 255
2.18324 0.395882 3.69095 0 0 0 135 136 140 255
2.28775 0.395013 3.67051 0 0 0 138 147 149 255
2.41716 0.384094 3.69126 0 0 0 125 129 132 255
2.13014 0.413554 3.71693 0 0 0 123 136 140 255
2.42475 0.416905 3.6895 0 0 0 61 43 33 255
-0.604727 0.457346 4.08051 0 0 0 144 156 158 255
-0.983642 0.483463 4.22878 0 0 0 127 120 122 255
2.14787 0.468989 3.70866 0 0 0 61 40 29 255
-0.353433 0.538952 4.23831 0 0 0 32 80 117 255
2.10698 0.512783 3.73411 0 0 0 47 38 40 255
2.2163 0.518813 3.6856 0 0 0 52 36 38 255
2.42364 0.507842 3.68952 0 0 0 39 38 42 255
1.98249 0.54709 3.89918 0 0 0 130 133 131 255
2.28532 0.525986 3.67601 0 0 0 37 39 43 255
-0.921405 0.585315 4.13652 0 0 0 22 55 94 255
-0.855379 0.5728 4.10111 0 0 0 152 152 152 255
-0.642962 0.57665 4.08193 0 0 0 153 155 167 255
-0.455315 0.569528 4.1484 0 0 0 156 158 162 255
2.12084 0.551015 3.72907 0 0 0 137 139 139 255
2.14884 0.551341 3.7069 0 0 0 107 90 75 255
2.19201 0.555606 3.69197 0 0 0 137 141 142 255
2.23492 0.558441 3.68341 0 0 0 142 141 144 255
2.33099 0.548402 3.6694 0 0 0 141 146 147 255
2.37906 0.552463 3.67036 0 0 0 45 41 45 255
2.42637 0.552679 3.69444 0 0 0 143 143 143 255
-0.801238 0.58753 4.09097 0 0 0 29 51 90 255
-0.741987 0.608482 4.07025 0 0 0 156 156 156 255
-0.580805 0.622621 4.12444 0 0 0 104 112 143 255
1.04023 0.649702 4.72453 0 0 0 40 80 74 255
-0.74406 0.62157 4.07288 0 0 0 156 159 158 255
-0.363895 0.660068 4.22973 0 0 0 146 151 161 255
-0.583768 0.668748 4.12047 0 0 0 61 68 87 255
-0.513318 0.662424 4.09784 0 0 0 59 65 84 255
-0.43819 0.66785 4.16323 0 0 0 153 157 159 255
-0.95346 0.686959 4.16268 0 0 0 28 44 82 255
-0.863783 0.676828 4.08598 0 0 0 56 60 71 255
-0.776379 0.677551 4.07008 0 0 0 34 53 94 255
-0.36621 0.683924 4.22628 0 0 0 146 152 161 255
-0.959661 0.700338 4.16381 0 0 0 24 46 91 255
-0.866577 0.704883 4.08509 0 0 0 111 118 126 255
-0.744854 0.709998 4.08135 0 0 0 153 157 160 255
-0.417172 0.728383 4.19099 0 0 0 154 159 171 255
-0.878618 0.762136 4.08941 0 0 0 107 117 124 255
2.27657 0.733932 3.69009 0 0 0 110 80 42 255
-0.687476 0.777655 4.09591 0 0 0 156 158 163 255
-1.00206 0.815222 4.22218 0 0 0 39 52 75 255
-0.390348 0.804875 4.21619 0 0 0 103 118 135 255
-0.291255 0.8066 4.33396 0 0 0 149 153 154 255
-0.62474 0.812855 4.0905 0 0 0 49 59 86 255
-0.3415 0.816699 4.26084 0 0 0 33 58 96 255
-0.812002 0.828271 4.08501 0 0 0 74 80 99 255
-0.622401 0.879376 4.09404 0 0 0 58 75 97 255
-0.416373 0.903338 4.19819 0 0 0 61 73 100 255
-0.744208 0.886389 4.07698 0 0 0 60 75 95 255
-0.505191 0.897954 4.13589 0 0 0 160 162 163 255
-0.849105 0.906535 4.06454 0 0 0 31 51 92 255
-0.567434 0.931095 4.10253 0 0 0 160 162 163 255
-0.850947 0.923477 4.06633 0 0 0 26 52 95 255
-0.671279 0.950633 4.1026 0 0 0 159 162 161 255
-0.624117 0.950917 4.09355 0 0 0 77 85 106 255
-0.796375 0.984834 4.09503 0 0 0 41 55 91 255
1.18571 1.12034 5.05146 0 0 0 168 174 170 255
-0.481165 1.00211 4.15273 0 0 0 137 155 172 255
-0.367113 1.01764 4.24791 0 0 0 122 144 164 255
-0.924794 1.01747 4.16493 0 0 0 148 150 151 255
1.18868 1.22229 5.06405 0 0 0 158 162 161 255
-0.62424 1.07936 4.10281 0 0 0 113 153 184 255
-0.392855 1.14614 4.23768 0 0 0 145 152 158 255
2.12615 1.06197 3.7542 0 0 0 95 95 94 255
2.2848 1.06908 3.71206 0 0 0 86 79 81 255
-0.675528 1.15823 4.08382 0 0 0 23 88 136 255
-0.631377 1.15444 4.07669 0 0 0 142 157 181 255
-0.580238 1.14291 4.0649 0 0 0 9 108 147 255
-0.864828 1.20254 4.12377 0 0 0 142 144 146 255
-0.784738 1.18171 4.10587 0 0 0 19 84 129 255
-0.620471 1.19498 4.05603 0 0 0 46 80 123 255
-0.33706 1.23473 4.28061 0 0 0 162 140 95 255
-0.912405 1.22174 4.14513 0 0 0 82 104 140 255
-0.901436 1.27334 4.13458 0 0 0 124 142 163 255
-0.865765 1.30499 4.12969 0 0 0 124 131 141 255
-0.797237 1.31309 4.1027 0 0 0 29 74 114 255
-0.711784 1.3002 4.10933 0 0 0 111 112 122 255
-0.376011 1.3917 4.23172 0 0 0 152 154 156 255
-0.868758 1.38152 4.10753 0 0 0 84 129 157 255
2.4102 1.41273 3.7808 0 0 0 93 90 94 255
2.39289 1.62949 3.9852 0 0 0 205 206 212 255
2.23544 -0.198844 3.80767 0 0 0 42 41 42 255
2.46088 -0.191552 3.93682 0 0 0 63 43 41 255
2.12416 -0.0513716 3.97464 0 0 0 47 49 51 255
2.47579 0.0505783 3.92519 0 0 0 83 86 92 255
-1.04179 0.135802 4.25252 0 0 0 22 47 84 255
-0.655783 0.273171 4.0568 0 0 0 129 110 99 255
2.28713 0.269372 3.68771 0 0 0 118 95 70 255
-0.366321 0.354375 4.21395 0 0 0 124 141 155 255
1.96024 0.338044 4.00909 0 0 0 59 58 59 255
-0.951108 0.352237 4.1547 0 0 0 96 99 113 255
-0.878808 0.33288 4.09356 0 0 0 8 56 107 255
0.767918 0.389325 4.57645 0 0 0 159 159 159 255
2.39388 0.39857 3.67813 0 0 0 122 130 137 255
-0.438898 0.420258 4.1493 0 0 0 149 150 154 255
2.07299 0.39725 3.74923 0 0 0 124 136 136 255
2.18366 0.41438 3.69249 0 0 0 132 143 146 255
2.2866 0.391818 3.67054 0 0 0 143 143 143 255
2.34099 0.435128 3.66617 0 0 0 40 41 47 255
-0.944541 0.469844 4.17479 0 0 0 145 109 78 255
2.26701 0.490034 3.67604 0 0 0 136 136 137 255
-0.459506 0.587498 4.14574 0 0 0 158 160 160 255
1.97467 0.595603 4.00992 0 0 0 45 46 47 255
-0.643282 0.575578 4.0815 0 0 0 153 155 167 255
-0.73903 0.627965 4.07377 0 0 0 156 159 159 255
-0.366353 0.655558 4.22943 0 0 0 113 126 151 255
-0.969052 0.685516 4.17698 0 0 0 22 44 84 255
-0.640523 0.687506 4.08817 0 0 0 154 158 160 255
-0.421219 0.67982 4.1816 0 0 0 32 60 105 255
-0.871392 0.722883 4.0837 0 0 0 122 125 129 255
0.790721 0.757566 4.60452 0 0 0 70 110 74 255
-0.74747 0.731149 4.07589 0 0 0 159 160 160 255
-0.413916 0.879051 4.19557 0 0 0 158 161 161 255
-0.856851 0.905372 4.0667 0 0 0 29 52 93 255
-0.769553 0.942054 4.08584 0 0 0 158 161 160 255
-0.985939 1.068 4.22199 0 0 0 23 53 95 255
-0.40632 1.10713 4.22554 0 0 0 3 94 141 255
-0.357566 1.1466 4.26243 0 0 0 146 150 155 255
-0.574045 1.14323 4.06705 0 0 0 4 108 151 255
-0.865917 1.19241 4.12135 0 0 0 141 143 145 255
-0.784769 1.18757 4.10605 0 0 0 20 85 131 255
-0.724715 1.18007 4.10187 0 0 0 126 144 160 255
-0.659294 1.17815 4.09505 0 0 0 33 87 135 255
-0.347038 1.25445 4.27456 0 0 0 164 148 92 255
0.364462 1.40151 4.92452 0 0 0 67 94 81 255
-0.881104 1.2743 4.12892 0 0 0 138 143 146 255
-0.769834 1.27475 4.10672 0 0 0 157 157 158 255
-0.360542 1.28414 4.27249 0 0 0 168 154 103 255
-0.789398 1.30462 4.10283 0 0 0 36 74 113 255
-0.691717 1.29468 4.01092 0 0 0 132 130 139 255
-0.62311 1.29863 4.05044 0 0 0 28 75 118 255
-0.54701 1.30952 4.0779 0 0 0 166 160 125 255
-0.294996 1.46103 4.65304 0 0 0 45 86 123 255
2.13253 -0.0811292 3.97219 0 0 0 65 66 72 255
-0.331151 0.108869 4.57543 0 0 0 26 61 102 255
2.05267 0.165201 4.02357 0 0 0 55 58 57 255
-0.362288 0.369165 4.22092 0 0 0 138 149 156 255
-0.89343 0.406048 4.09437 0 0 0 143 135 116 255
-0.607831 0.393038 4.07726 0 0 0 135 143 155 255
-0.530348 0.397848 4.09768 0 0 0 153 159 162 255
1.97467 0.417344 3.94603 0 0 0 111 113 111 255
-0.921774 0.449545 4.14334 0 0 0 147 142 134 255
-0.731185 0.459159 4.06392 0 0 0 117 125 105 255
-0.355058 0.462606 4.22933 0 0 0 151 153 161 255
1.09151 0.521651 4.76977 0 0 0 93 113 86 255
1.98177 0.508942 3.93104 0 0 0 121 128 125 255
-0.966057 0.535324 4.18269 0 0 0 12 59 104 255
0.829988 0.594225 4.6107 0 0 0 156 160 161 255
2.07851 0.550183 3.75203 0 0 0 135 139 140 255
2.20247 0.551195 3.68814 0 0 0 143 142 139 255
-0.629762 0.590243 4.0901 0 0 0 157 159 161 255
-0.462735 0.594668 4.14391 0 0 0 157 160 162 255
1.96741 0.603492 4.03051 0 0 0 50 52 52 255
-0.907953 0.631225 4.12854 0 0 0 150 152 151 255
-0.833694 0.6016 4.10658 0 0 0 146 152 155 255
-0.511992 0.646892 4.08847 0 0 0 156 158 158 255
-0.319555 0.688309 4.32521 0 0 0 146 153 154 255
-0.963567 0.695026 4.1688 0 0 0 23 46 87 255
0.94724 0.750502 4.64453 0 0 0 116 146 130 255
1.09039 0.770903 4.76407 0 0 0 48 91 74 255
-0.670953 0.731413 4.08526 0 0 0 27 55 103 255
-1.00769 0.823943 4.22464 0 0 0 23 61 94 255
-0.734246 0.866807 4.08426 0 0 0 37 61 107 255
-0.456793 0.833386 4.1598 0 0 0 107 104 108 255
-0.614213 0.909791 4.09921 0 0 0 158 161 165 255
-0.856699 0.979235 4.13026 0 0 0 152 154 156 255
-0.47677 1.00085 4.15499 0 0 0 137 155 172 255
-0.368111 1.02481 4.24714 0 0 0 127 129 131 255
-0.48365 1.06409 4.15074 0 0 0 148 152 158 255
-0.35099 1.21085 4.27427 0 0 0 140 124 104 255
1.11146 1.40035 5.07463 0 0 0 68 108 88 255
-0.522233 1.31763 4.09625 0 0 0 174 163 107 255
-0.948401 1.41496 4.19433 0 0 0 44 79 117 255
-0.510853 1.43826 4.13296 0 0 0 45 86 124 255
1.99501 1.57572 4.10045 0 0 0 110 112 108 255
2.12556 -0.198472 3.97266 0 0 0 84 67 60 255
2.119 -0.125025 3.97722 0 0 0 72 57 57 255
1.05446 0.113482 4.80667 0 0 0 45 91 64 255
2.0455 0.177982 4.02176 0 0 0 54 54 54 255
2.07696 0.17144 4.00752 0 0 0 40 47 49 255
1.97769 0.270172 4.01583 0 0 0 109 101 98 255
-0.862804 0.422383 4.1083 0 0 0 147 132 77 255
1.95943 0.471225 3.9745 0 0 0 128 132 131 255
-0.409529 0.623914 4.17801 0 0 0 25 57 105 255
-0.8402 0.648699 4.10442 0 0 0 154 153 154 255
-0.694026 0.637063 4.06884 0 0 0 23 56 107 255
1.05733 0.812743 4.73752 0 0 0 50 95 71 255
-0.730545 0.816997 4.07208 0 0 0 73 84 96 255
-0.303379 0.87492 4.29555 0 0 0 18 64 112 255
1.99524 0.90366 4.07648 0 0 0 46 51 52 255
-0.384075 1.21893 4.23571 0 0 0 153 126 99 255
0.382996 1.38476 4.89897 0 0 0 64 93 79 255
-0.8284 1.21307 4.10651 0 0 0 131 129 136 255
-0.456724 1.31319 4.17194 0 0 0 173 160 74 255
-0.335438 1.44315 4.63277 0 0 0 30 78 119 255
-0.873002 1.43288 4.11136 0 0 0 50 80 110 255
2.19635 -0.187758 3.86752 0 0 0 129 93 98 255
2.48855 -0.181102 3.91985 0 0 0 82 87 87 255
2.30391 -0.169638 3.91674 0 0 0 138 103 105 255
2.49406 -0.090202 3.93209 0 0 0 115 122 124 255
2.49984 -0.0711247 3.93549 0 0 0 81 85 86 255
2.49262 -0.0118283 3.94936 0 0 0 120 127 129 255
2.20874 0.0169004 3.88962 0 0 0 162 162 162 255
2.54142 0.121053 3.96581 0 0 0 113 115 117 255
-0.300471 0.0939272 4.59965 0 0 0 81 87 99 255
2.3374 0.253611 3.69531 0 0 0 155 135 115 255
0.649966 0.248725 4.5925 0 0 0 30 53 50 255
0.920729 0.259623 4.60989 0 0 0 96 101 99 255
0.467838 0.273624 4.64306 0 0 0 121 130 129 255
0.961413 0.269002 4.6253 0 0 0 83 112 100 255
2.34547 0.304942 3.69614 0 0 0 76 50 28 255
-0.741506 0.289482 4.06419 0 0 0 30 47 93 255
2.31876 0.308641 3.69335 0 0 0 153 123 92 255
0.670438 0.320521 4.57435 0 0 0 123 149 104 255
-0.386952 0.320022 4.18979 0 0 0 62 112 157 255
-0.337636 0.410798 4.24164 0 0 0 114 88 103 255
2.5114 0.424996 3.71405 0 0 0 99 98 98 255
-0.423988 0.448882 4.15416 0 0 0 150 151 157 255
2.2796 0.451679 3.66937 0 0 0 86 81 78 255
-0.517494 0.479058 4.10529 0 0 0 40 83 116 255
2.11594 0.52419 3.72879 0 0 0 38 42 46 255
2.22538 0.536097 3.68296 0 0 0 35 40 52 255
2.06371 0.555534 3.75739 0 0 0 75 86 87 255
0.573864 0.687563 4.63893 0 0 0 145 153 151 255
1.10939 0.735681 4.79105 0 0 0 136 148 146 255
1.09156 0.752724 4.75932 0 0 0 134 142 139 255
1.05211 0.770591 4.74351 0 0 0 144 153 153 255
-0.793517 0.758096 4.03885 0 0 0 86 89 99 255
2.33255 0.714429 3.68225 0 0 0 73 61 49 255
-0.825926 0.878021 4.00935 0 0 0 57 71 86 255
-0.82218 0.880353 4.00701 0 0 0 61 67 88 255
1.87439 1.41752 6.85959 0 0 0 147 145 139 255
1.31627 1.39163 6.57947 0 0 0 133 131 125 255
1.23857 1.36316 6.36936 0 0 0 142 141 133 255
0.90536 1.17966 4.65511 0 0 0 95 89 43 255
2.40038 1.04535 3.71478 0 0 0 99 97 98 255
2.42074 1.04243 3.68187 0 0 0 107 115 115 255
2.16672 1.06603 3.74077 0 0 0 125 133 133 255
2.07666 1.0845 3.7842 0 0 0 90 93 94 255
2.21057 1.08729 3.72826 0 0 0 73 75 74 255
2.30941 1.08345 3.70818 0 0 0 87 89 90 255
2.33952 1.08447 3.70584 0 0 0 87 93 93 255
2.20898 1.16408 3.67293 0 0 0 99 102 104 255
2.2278 1.23853 3.66615 0 0 0 109 118 116 255
2.39073 1.23388 3.6511 0 0 0 100 98 98 255
-0.414969 1.39927 4.18677 0 0 0 113 120 126 255
-0.679745 1.37394 3.85366 0 0 0 70 107 143 255
2.15043 1.36695 3.7 0 0 0 117 120 119 255
2.18742 1.37794 3.67108 0 0 0 119 121 125 255
2.21704 1.3925 3.65783 0 0 0 100 102 104 255
2.49519 0.000222571 3.94776 0 0 0 138 145 145 255
2.37744 0.314836 3.693 0 0 0 106 86 56 255
0.609794 0.372986 4.58856 0 0 0 90 60 64 255
-0.73006 0.39441 4.05943 0 0 0 119 120 112 255
-0.515851 0.487206 4.10595 0 0 0 19 83 128 255
2.50928 0.492645 3.7005 0 0 0 68 49 45 255
2.63617 0.898691 3.87528 0 0 0 90 99 99 255
-0.662548 0.940353 4.02345 0 0 0 159 159 164 255
2.39226 1.03231 3.66807 0 0 0 81 82 82 255
-0.69715 1.36786 3.85177 0 0 0 80 126 160 255
-0.515589 1.42167 4.15067 0 0 0 64 114 148 255
2.11325 -0.196931 3.96844 0 0 0 109 98 94 255
2.1075 -0.0128701 3.98847 0 0 0 149 149 147 255
0.675855 0.244733 4.58373 0 0 0 96 99 99 255
2.37865 0.26103 3.69876 0 0 0 155 118 75 255
-0.715015 0.296466 4.05872 0 0 0 143 131 87 255
2.38981 0.319873 3.68899 0 0 0 64 43 28 255
0.886037 0.396501 4.60399 0 0 0 153 144 145 255
1.0285 0.415102 4.68536 0 0 0 131 63 70 255
-0.728466 0.402758 4.05806 0 0 0 145 145 130 255
0.445003 0.428777 4.67754 0 0 0 140 139 139 255
2.34408 0.461668 3.66816 0 0 0 47 44 47 255
-0.472419 0.48561 4.12573 0 0 0 114 121 130 255
2.36789 0.539827 3.65414 0 0 0 41 40 45 255
-0.857209 0.740118 4.04906 0 0 0 93 101 111 255
2.36518 0.72729 3.70127 0 0 0 91 69 44 255
-0.696199 0.790743 4.09788 0 0 0 159 158 161 255
2.36301 0.748578 3.69817 0 0 0 97 71 33 255
-0.570176 0.909381 4.09512 0 0 0 161 161 163 255
0.857165 1.13972 4.63398 0 0 0 152 156 133 255
-0.385187 1.10925 4.23394 0 0 0 9 82 129 255
0.887882 1.17722 4.64456 0 0 0 125 121 72 255
-0.432018 1.39006 4.09296 0 0 0 155 159 162 255
2.45389 1.36307 3.63823 0 0 0 88 84 87 255
2.1284 -0.142067 3.96389 0 0 0 68 46 46 255
2.47204 -0.0646461 3.94769 0 0 0 60 67 75 255
2.20584 0.0155664 3.88832 0 0 0 156 158 160 255
2.46304 0.0406215 3.95113 0 0 0 89 89 89 255
2.12652 0.0390855 3.95982 0 0 0 93 96 95 255
-0.359761 0.319274 4.21185 0 0 0 50 96 131 255
2.28829 0.432965 3.67492 0 0 0 141 142 141 255
2.42155 0.45271 3.67145 0 0 0 35 37 41 255
2.20735 0.483959 3.66912 0 0 0 61 36 28 255
0.794723 0.55723 4.59011 0 0 0 154 159 157 255
0.437376 0.604369 4.71263 0 0 0 86 114 109 255
2.38887 0.537043 3.66051 0 0 0 142 145 146 255
1.95791 0.591885 3.99703 0 0 0 59 59 62 255
2.24217 0.544494 3.68021 0 0 0 132 142 144 255
2.28524 0.555801 3.68023 0 0 0 35 36 40 255
-0.451488 0.643445 4.1452 0 0 0 158 159 161 255
-0.410102 0.665712 4.18442 0 0 0 25 59 107 255
-0.640008 0.666526 4.08454 0 0 0 158 158 162 255
-0.750357 0.676226 4.08105 0 0 0 36 50 91 255
-0.290639 0.763944 4.33627 0 0 0 128 132 139 255
-0.48809 0.898129 4.14137 0 0 0 159 161 160 255
-0.803123 0.974512 3.98673 0 0 0 151 150 152 255
-0.406737 1.0831 4.2104 0 0 0 1 98 145 255
-0.598005 1.10173 4.02589 0 0 0 131 148 162 255
-0.532547 1.12545 4.02109 0 0 0 0 106 149 255
-0.336994 1.1674 4.27555 0 0 0 133 134 139 255
2.40077 -0.215866 3.8287 0 0 0 144 144 144 255
2.21056 0.0213867 3.89042 0 0 0 162 162 162 255
1.08904 0.106183 4.96039 0 0 0 50 93 69 255
1.03253 0.31017 4.69346 0 0 0 143 145 133 255
-0.878905 0.397764 4.12897 0 0 0 151 135 77 255
-0.740571 0.386415 4.05838 0 0 0 129 131 116 255
2.23002 0.488686 3.67782 0 0 0 35 37 41 255
0.78307 0.593679 4.58302 0 0 0 157 162 160 255
1.98405 0.53303 3.94338 0 0 0 127 133 136 255
2.38686 0.540185 3.6595 0 0 0 122 130 132 255
-0.622767 0.637506 4.09663 0 0 0 159 160 161 255
-0.410411 0.640433 4.1797 0 0 0 25 59 105 255
0.771733 0.687492 4.61256 0 0 0 67 110 68 255
-0.310685 0.747647 4.31959 0 0 0 153 156 155 255
0.784435 0.821415 4.60618 0 0 0 158 163 161 255
-0.422681 0.831802 4.18224 0 0 0 158 160 162 255
-0.62956 0.897041 4.08909 0 0 0 100 113 139 255
-0.461623 1.00105 4.1623 0 0 0 134 150 165 255
-0.370232 1.13982 4.24623 0 0 0 128 140 152 255
-0.534429 1.14625 4.11649 0 0 0 1 98 146 255
-0.357298 1.25111 4.25938 0 0 0 155 139 84 255
-0.300081 1.47132 4.64815 0 0 0 87 119 151 255
-0.456393 1.42273 4.09137 0 0 0 36 80 123 255
2.14322 -0.0571831 3.95163 0 0 0 33 41 36 255
1.07472 0.107982 4.90653 0 0 0 48 91 67 255
-0.362866 0.40207 4.21429 0 0 0 97 69 102 255
1.94651 0.474848 3.98402 0 0 0 90 90 87 255
2.13309 0.538356 3.71835 0 0 0 134 142 146 255
-0.403621 0.64566 4.18658 0 0 0 24 59 106 255
-0.702227 0.69433 4.07279 0 0 0 25 58 111 255
0.807044 0.77612 4.60281 0 0 0 77 116 99 255
1.07031 1.3981 5.10537 0 0 0 66 105 77 255
2.21546 -0.202019 3.84018 0 0 0 119 120 121 255
2.10191 -0.180307 3.96014 0 0 0 110 105 104 255
2.10375 -0.12676 3.95978 0 0 0 136 136 133 255
2.1017 -0.105145 3.95302 0 0 0 143 141 139 255
2.12026 -0.074332 3.95474 0 0 0 72 73 74 255
2.35496 -0.0515715 3.82135 0 0 0 79 83 86 255
0.380382 0.15072 4.78772 0 0 0 28 59 44 255
2.35688 0.249344 3.7006 0 0 0 88 83 82 255
2.2836 0.253738 3.67754 0 0 0 57 56 59 255
2.20162 0.271455 3.70907 0 0 0 62 49 47 255
2.3226 0.277804 3.69655 0 0 0 69 58 57 255
2.32566 0.278185 3.69674 0 0 0 69 58 57 255
-0.457345 0.277681 4.11438 0 0 0 73 55 38 255
-0.442551 0.303632 4.12403 0 0 0 97 82 94 255
-0.772478 0.301325 4.06878 0 0 0 131 109 116 255
-0.458144 0.326947 4.11914 0 0 0 63 100 144 255
-0.466468 0.371493 4.11672 0 0 0 137 137 146 255
-0.495766 0.469516 4.10833 0 0 0 128 145 164 255
-0.710051 0.465883 4.06399 0 0 0 120 127 124 255
1.04023 0.512719 4.71193 0 0 0 122 136 112 255
-0.367428 0.504425 4.19978 0 0 0 73 114 148 255
-0.345354 0.519682 4.2221 0 0 0 32 82 125 255
1.10048 0.70641 4.76579 0 0 0 111 118 117 255
0.455581 0.951299 4.74027 0 0 0 101 113 109 255
1.16229 1.2477 5.42915 0 0 0 140 139 133 255
2.40995 1.06782 3.73546 0 0 0 125 129 128 255
-1.05058 1.23816 4.42198 0 0 0 54 99 133 255
-0.967923 1.25959 4.39239 0 0 0 27 84 124 255
-0.849109 1.25472 4.27558 0 0 0 115 96 111 255
-1.00351 1.28656 4.38295 0 0 0 106 105 114 255
2.16154 1.17754 3.77111 0 0 0 99 100 102 255
2.38597 1.17926 3.74926 0 0 0 106 105 109 255
2.37635 1.22218 3.75928 0 0 0 103 103 103 255
2.28148 1.26117 3.74574 0 0 0 103 107 110 255
-1.15009 1.49668 4.60338 0 0 0 59 110 152 255
-0.372425 1.41306 4.23508 0 0 0 160 157 163 255
-1.21799 1.58984 4.70452 0 0 0 98 112 134 255
2.23201 1.39722 3.75788 0 0 0 113 113 115 255
-0.442445 0.276959 4.12091 0 0 0 140 103 88 255
-0.464447 0.370016 4.11619 0 0 0 119 135 153 255
0.67009 0.404803 4.57097 0 0 0 124 46 49 255
-0.401338 0.485286 4.15744 0 0 0 98 119 145 255
1.10855 0.588809 4.79524 0 0 0 139 146 146 255
-0.486154 0.667327 4.10063 0 0 0 100 107 129 255
-0.749019 0.89316 4.11465 0 0 0 32 62 104 255
-0.798721 1.21338 4.23692 0 0 0 134 145 147 255
-0.97298 1.26009 4.39016 0 0 0 33 90 128 255
2.38486 1.41323 3.78165 0 0 0 95 95 99 255
2.45045 -0.214619 3.9418 0 0 0 74 74 76 255
2.35404 0.28699 3.70377 0 0 0 149 124 96 255
2.38649 0.301695 3.69558 0 0 0 133 97 66 255
2.42027 0.423875 3.70303 0 0 0 61 34 20 255
-0.64973 0.410805 4.05621 0 0 0 23 91 75 255
-0.282136 0.416183 4.30482 0 0 0 67 117 147 255
2.14972 0.509919 3.72279 0 0 0 136 140 137 255
-0.351075 0.492603 4.22063 0 0 0 125 137 153 255
0.778142 0.554271 4.59005 0 0 0 155 159 160 255
-0.516112 0.754522 4.14063 0 0 0 158 159 160 255
-0.378273 0.790473 4.21555 0 0 0 62 75 103 255
-0.82206 1.23006 4.2507 0 0 0 139 138 140 255
-0.809894 1.21719 4.24576 0 0 0 137 144 146 255
2.39701 1.41087 3.79344 0 0 0 98 92 97 255
2.1429 -0.198217 3.91404 0 0 0 47 44 45 255
2.26321 -0.198888 3.80584 0 0 0 42 40 39 255
2.13719 -0.2069 3.91856 0 0 0 56 55 55 255
2.13434 -0.108541 3.93328 0 0 0 39 41 40 255
2.28512 0.284773 3.68595 0 0 0 158 127 80 255
2.40555 0.390957 3.68611 0 0 0 119 136 144 255
2.32831 0.425556 3.67206 0 0 0 56 43 41 255
2.36868 0.441358 3.66798 0 0 0 134 144 147 255
-0.643934 0.421274 4.0629 0 0 0 37 102 91 255
-0.575448 0.44093 4.07769 0 0 0 114 141 165 255
2.4095 0.481712 3.67804 0 0 0 36 40 43 255
1.96788 0.510979 3.90165 0 0 0 109 111 110 255
0.833377 0.56567 4.59801 0 0 0 157 162 160 255
1.0866 0.597423 4.75401 0 0 0 144 149 147 255
-0.540345 0.764843 4.11371 0 0 0 97 117 135 255
0.950431 1.09108 4.67165 0 0 0 29 80 119 255
0.532192 1.23675 4.68589 0 0 0 149 152 151 255
-0.387256 1.42678 4.31431 0 0 0 28 78 122 255
2.39466 1.4173 3.79324 0 0 0 95 95 104 255
2.43569 -0.216459 3.93382 0 0 0 60 61 61 255
-0.306137 0.134086 4.53702 0 0 0 25 66 103 255
0.385357 0.0947503 4.76857 0 0 0 61 83 76 255
2.25377 0.290552 3.7054 0 0 0 140 105 63 255
1.02992 0.280347 4.67691 0 0 0 113 129 108 255
2.11712 0.413978 3.73173 0 0 0 45 49 59 255
-0.415384 0.411424 4.1495 0 0 0 129 141 148 255
-0.325755 0.420824 4.24628 0 0 0 149 130 136 255
-0.33936 0.474326 4.23214 0 0 0 147 151 157 255
2.21791 0.554951 3.69773 0 0 0 139 142 142 255
-0.294498 0.736728 4.32281 0 0 0 152 152 152 255
-0.447518 0.879033 4.16922 0 0 0 157 160 159 255
-0.352431 1.17394 4.2701 0 0 0 144 142 144 255
-0.298087 1.44407 4.59703 0 0 0 32 76 114 255
2.40816 -0.184177 3.84109 0 0 0 88 44 45 255
2.40923 -0.114657 3.8156 0 0 0 34 33 35 255
2.39366 -0.0358598 3.79781 0 0 0 35 37 41 255
2.30524 0.00444675 3.87496 0 0 0 128 130 129 255
2.3333 0.0899632 3.91853 0 0 0 186 188 190 255
1.08771 0.144843 4.83414 0 0 0 49 94 67 255
-0.349312 0.168578 4.53584 0 0 0 6 57 103 255
2.07865 0.444336 3.73939 0 0 0 134 137 137 255
1.94533 0.475508 3.88104 0 0 0 133 136 135 255
0.723965 0.697394 4.63008 0 0 0 62 108 73 255
-0.330343 0.70734 4.26595 0 0 0 153 155 157 255
0.805431 0.825553 4.59717 0 0 0 160 162 162 255
2.24532 0.737948 3.69881 0 0 0 54 44 38 255
2.27362 -0.15526 3.7681 0 0 0 140 105 100 255
2.48847 -0.0109839 3.92266 0 0 0 108 115 113 255
2.22499 0.0200644 3.84107 0 0 0 169 166 167 255
2.53864 0.126362 3.95489 0 0 0 89 93 94 255
-0.973616 0.134035 4.14153 0 0 0 47 61 76 255
-3.04763 0.161097 6.38652 0 0 0 49 45 43 255
0.557221 0.244037 4.57826 0 0 0 35 59 57 255
0.936593 0.257798 4.61543 0 0 0 54 87 82 255
2.46779 0.28015 3.72423 0 0 0 89 70 78 255
0.938782 0.334955 4.62398 0 0 0 143 146 143 255
2.36295 0.30509 3.69864 0 0 0 157 124 73 255
-0.921308 0.32966 4.11308 0 0 0 91 102 119 255
-0.476997 0.344628 4.14239 0 0 0 6 68 120 255
1.02968 0.375374 4.6862 0 0 0 107 47 57 255
-0.586559 0.385907 4.09761 0 0 0 45 80 108 255
2.55271 0.374513 3.75751 0 0 0 64 72 75 255
2.48528 0.383033 3.71047 0 0 0 119 128 132 255
2.5059 0.381931 3.72616 0 0 0 128 128 131 255
2.51213 0.427326 3.73937 0 0 0 118 118 118 255
2.54322 0.43709 3.75603 0 0 0 75 63 58 255
-0.94047 0.503549 4.13416 0 0 0 40 65 93 255
1.06204 0.581812 4.74013 0 0 0 111 147 136 255
2.51766 0.48614 3.76166 0 0 0 107 100 94 255
1.09998 0.603782 4.78972 0 0 0 113 113 113 255
1.07052 0.613744 4.75752 0 0 0 126 133 130 255
1.10098 0.652721 4.77931 0 0 0 110 117 115 255
2.45334 0.532211 3.70952 0 0 0 87 97 105 255
1.07149 0.668464 4.76321 0 0 0 116 123 123 255
-0.926184 0.670646 4.11312 0 0 0 49 62 78 255
-0.874522 0.675772 4.11522 0 0 0 74 80 86 255
1.11004 0.7506 4.78137 0 0 0 139 146 145 255
-0.87293 0.721164 4.10854 0 0 0 124 128 129 255
0.865036 0.853509 4.63314 0 0 0 152 159 157 255
2.38255 0.76437 3.7101 0 0 0 107 81 51 255
-0.84277 0.938022 4.08003 0 0 0 42 53 93 255
-0.462584 0.954172 4.15568 0 0 0 77 97 137 255
-0.848513 1.00572 4.08763 0 0 0 56 62 84 255
-0.803116 0.992166 4.05649 0 0 0 147 149 152 255
-0.871318 1.00993 4.09069 0 0 0 138 139 146 255
-0.317329 1.10241 4.65635 0 0 0 65 108 139 255
1.25196 1.37782 6.49844 0 0 0 152 148 142 255
1.09837 1.40422 6.27221 0 0 0 141 142 140 255
1.03671 1.17223 4.75783 0 0 0 137 119 47 255
-0.31219 1.20822 4.65292 0 0 0 57 98 126 255
-0.592295 1.18684 4.03768 0 0 0 64 85 114 255
-0.738325 1.20804 3.98056 0 0 0 88 102 117 255
2.47806 1.04519 3.73991 0 0 0 92 91 91 255
2.52486 1.0492 3.77739 0 0 0 79 80 79 255
2.22407 1.05784 3.73521 0 0 0 76 82 80 255
2.29862 1.05159 3.71397 0 0 0 131 136 139 255
2.28646 1.05647 3.71736 0 0 0 92 94 94 255
2.43662 1.05303 3.735 0 0 0 101 98 99 255
-0.68824 1.25856 3.94976 0 0 0 72 91 109 255
-0.741633 1.26985 3.96027 0 0 0 114 123 134 255
2.39561 1.08154 3.72717 0 0 0 75 73 74 255
2.4403 1.0879 3.73577 0 0 0 76 76 76 255
2.44596 1.08664 3.73806 0 0 0 86 90 91 255
-0.631993 1.35006 3.88332 0 0 0 66 103 130 255
2.49342 -0.0116669 3.9276 0 0 0 139 146 144 255
-0.38353 0.331849 4.21301 0 0 0 72 111 144 255
1.05284 0.349551 4.69173 0 0 0 87 87 87 255
0.74531 0.358141 4.57509 0 0 0 89 49 51 255
0.907115 0.370605 4.60729 0 0 0 150 130 132 255
