ply
format ascii 1.0
comment VCGLIB generated
element vertex 1027
property float x
property float y
property float z
property float nx
property float ny
property float nz
property uchar red
property uchar green
property uchar blue
property uchar alpha
element face 0
property list uchar int vertex_indices
end_header
1.14442 0.0603839 4.9388 0 0 0 113 126 120 255
-0.289617 0.0762379 4.58085 0 0 0 136 140 141 255
0.386868 0.112967 4.81303 0 0 0 20 47 34 255
0.391184 0.148835 4.80671 0 0 0 17 53 30 255
0.910383 0.219151 4.60222 0 0 0 106 144 136 255
0.46409 0.226814 4.62864 0 0 0 102 135 131 255
0.487014 0.227038 4.63773 0 0 0 104 132 125 255
0.531755 0.227271 4.61217 0 0 0 114 131 131 255
0.585624 0.229722 4.59391 0 0 0 95 118 115 255
0.730427 0.229972 4.56785 0 0 0 109 137 133 255
0.635177 0.229831 4.56497 0 0 0 89 119 114 255
0.669349 0.22992 4.57897 0 0 0 109 144 142 255
0.781104 0.237037 4.57219 0 0 0 130 155 154 255
0.792032 0.230584 4.56685 0 0 0 120 145 140 255
0.825057 0.228595 4.56705 0 0 0 113 138 132 255
0.908282 0.22962 4.60248 0 0 0 102 123 120 255
0.458201 0.242616 4.63991 0 0 0 40 80 62 255
0.962535 0.23733 4.61838 0 0 0 118 141 138 255
0.705155 0.247948 4.57415 0 0 0 127 155 150 255
0.862379 0.247032 4.58268 0 0 0 129 156 156 255
0.462247 0.256896 4.63153 0 0 0 50 88 80 255
0.60062 0.251091 4.60848 0 0 0 107 112 112 255
0.512961 0.267655 4.63122 0 0 0 125 148 143 255
0.76418 0.262783 4.56945 0 0 0 109 147 136 255
0.78832 0.253484 4.57331 0 0 0 147 152 151 255
0.540361 0.271152 4.61328 0 0 0 148 158 157 255
0.609066 0.269537 4.59816 0 0 0 86 110 104 255
0.657187 0.270741 4.6061 0 0 0 128 145 143 255
0.719929 0.267215 4.57195 0 0 0 128 140 138 255
0.833101 0.266469 4.57713 0 0 0 106 139 131 255
0.901706 0.27004 4.59834 0 0 0 117 125 124 255
0.951667 0.291497 4.62029 0 0 0 124 141 118 255
0.38683 0.312275 4.76572 0 0 0 113 142 111 255
0.559663 0.319998 4.61124 0 0 0 103 126 85 255
0.419046 0.338502 4.69909 0 0 0 89 85 84 255
1.05361 0.334293 4.6931 0 0 0 119 86 90 255
0.861696 0.336965 4.59066 0 0 0 102 65 64 255
0.918854 0.33608 4.60487 0 0 0 119 93 84 255
1.00098 0.336468 4.65753 0 0 0 118 69 71 255
1.01463 0.335474 4.67013 0 0 0 118 68 71 255
0.465413 0.353505 4.65672 0 0 0 111 76 80 255
0.482565 0.352341 4.64733 0 0 0 154 144 142 255
0.759324 0.343572 4.57388 0 0 0 119 88 82 255
0.803685 0.340945 4.58089 0 0 0 106 106 104 255
0.811239 0.340362 4.58465 0 0 0 98 95 96 255
0.563341 0.356657 4.63293 0 0 0 114 62 65 255
0.669987 0.34727 4.57833 0 0 0 99 76 75 255
0.688146 0.348837 4.578 0 0 0 152 152 148 255
0.950205 0.350139 4.63037 0 0 0 122 76 82 255
0.992045 0.353455 4.65145 0 0 0 138 134 134 255
0.50619 0.365876 4.65277 0 0 0 112 49 59 255
0.722071 0.355494 4.57957 0 0 0 142 156 131 255
0.904432 0.35269 4.60072 0 0 0 96 67 70 255
0.54744 0.37202 4.63837 0 0 0 120 84 87 255
0.694621 0.362715 4.57743 0 0 0 128 90 89 255
0.9345 0.358192 4.61688 0 0 0 129 90 95 255
0.450357 0.38355 4.64894 0 0 0 149 152 151 255
0.489518 0.385333 4.64731 0 0 0 176 111 122 255
0.988949 0.386277 4.64804 0 0 0 119 94 91 255
0.617288 0.38658 4.58882 0 0 0 125 52 61 255
0.641896 0.383034 4.58639 0 0 0 162 162 163 255
0.650483 0.384292 4.5817 0 0 0 161 163 164 255
0.689784 0.380605 4.57815 0 0 0 181 129 138 255
0.725127 0.388272 4.57216 0 0 0 105 56 58 255
0.749701 0.38271 4.5731 0 0 0 178 131 142 255
0.799628 0.389623 4.58133 0 0 0 129 83 88 255
0.912971 0.386865 4.60669 0 0 0 92 80 82 255
0.950381 0.386707 4.62977 0 0 0 87 76 75 255
1.02448 0.393987 4.67807 0 0 0 155 137 140 255
0.460683 0.399851 4.66128 0 0 0 112 100 101 255
0.56927 0.393631 4.60469 0 0 0 170 124 132 255
0.41166 0.410052 4.70483 0 0 0 162 120 125 255
0.934548 0.403782 4.61835 0 0 0 168 139 138 255
0.959435 0.409832 4.63616 0 0 0 150 113 116 255
0.424207 0.422619 4.68825 0 0 0 126 68 66 255
0.468224 0.421023 4.65833 0 0 0 134 96 103 255
0.508141 0.419131 4.63964 0 0 0 128 48 58 255
0.657885 0.419357 4.58097 0 0 0 165 114 121 255
1.00554 0.421485 4.65797 0 0 0 140 58 57 255
1.01046 0.420721 4.66367 0 0 0 155 85 82 255
-0.314777 0.393195 4.27863 0 0 0 65 90 109 255
0.638342 0.424869 4.58767 0 0 0 108 57 61 255
0.699349 0.421209 4.57499 0 0 0 135 55 57 255
0.801657 0.426188 4.57974 0 0 0 134 114 113 255
0.923418 0.425599 4.60991 0 0 0 107 66 66 255
0.57558 0.427691 4.6042 0 0 0 109 80 76 255
0.763546 0.424057 4.57388 0 0 0 140 48 52 255
0.835007 0.42982 4.58478 0 0 0 139 56 63 255
0.86648 0.430233 4.59774 0 0 0 144 48 57 255
0.655692 0.433248 4.58452 0 0 0 152 60 63 255
0.687485 0.436186 4.57982 0 0 0 154 132 132 255
-0.307943 0.436666 4.29126 0 0 0 34 83 119 255
-0.308192 0.455216 4.29409 0 0 0 55 105 135 255
0.500403 0.518258 4.65771 0 0 0 123 160 146 255
0.922791 0.53106 4.61879 0 0 0 132 153 149 255
0.498751 0.551727 4.65605 0 0 0 61 78 75 255
0.876228 0.539853 4.60703 0 0 0 140 156 150 255
0.682235 0.552875 4.57961 0 0 0 148 169 163 255
0.500251 0.565153 4.65607 0 0 0 54 78 69 255
0.755762 0.556106 4.59014 0 0 0 131 153 146 255
1.02843 0.575249 4.69703 0 0 0 53 108 90 255
1.05198 0.568874 4.70822 0 0 0 58 91 76 255
0.384026 0.591752 4.76701 0 0 0 91 115 111 255
0.451699 0.570797 4.68098 0 0 0 95 134 130 255
0.714308 0.560832 4.58785 0 0 0 161 167 166 255
0.956745 0.565347 4.63432 0 0 0 156 161 159 255
0.913014 0.574556 4.61637 0 0 0 143 167 163 255
0.554529 0.59088 4.6392 0 0 0 107 139 131 255
0.498001 0.592033 4.6595 0 0 0 151 156 154 255
0.533582 0.611767 4.64239 0 0 0 115 152 149 255
0.943163 0.608183 4.63966 0 0 0 151 158 158 255
0.751095 0.619982 4.58821 0 0 0 156 167 164 255
0.83263 0.627711 4.60006 0 0 0 104 120 104 255
-0.29937 0.634707 4.36043 0 0 0 113 134 153 255
-0.313536 0.674461 4.33983 0 0 0 115 122 125 255
1.05085 0.763739 4.68669 0 0 0 108 141 127 255
-0.312363 0.719833 4.33709 0 0 0 104 110 122 255
0.827381 0.769309 4.60559 0 0 0 70 115 86 255
0.916515 0.790186 4.62629 0 0 0 139 170 157 255
0.737632 0.805012 4.60288 0 0 0 82 133 112 255
-0.309694 0.771446 4.33141 0 0 0 72 79 96 255
0.925528 0.834003 4.62793 0 0 0 124 146 143 255
0.869761 0.834572 4.61459 0 0 0 161 168 166 255
0.826446 0.85743 4.60018 0 0 0 135 141 132 255
0.850414 0.855703 4.60888 0 0 0 154 164 158 255
0.739125 0.87073 4.60261 0 0 0 134 164 160 255
0.929826 0.888292 4.63029 0 0 0 78 125 99 255
0.499004 0.90765 4.68163 0 0 0 145 152 149 255
1.02397 0.933136 4.69323 0 0 0 120 149 126 255
0.783887 0.934144 4.61379 0 0 0 101 143 128 255
0.464833 0.935711 4.69467 0 0 0 127 142 138 255
0.569884 0.940332 4.64094 0 0 0 137 147 144 255
1.88585 1.38968 6.69504 0 0 0 136 132 125 255
1.89356 1.35485 6.48095 0 0 0 139 136 128 255
2.08027 1.40671 6.47381 0 0 0 109 104 95 255
2.16591 1.37303 6.29175 0 0 0 145 142 137 255
1.88745 1.46555 6.72092 0 0 0 104 100 97 255
0.967627 1.04238 4.67344 0 0 0 70 122 140 255
0.859534 1.05418 4.63126 0 0 0 72 91 101 255
0.922978 1.07908 4.65538 0 0 0 117 136 96 255
0.465989 1.17868 4.72655 0 0 0 102 108 113 255
0.964695 1.17613 4.67496 0 0 0 109 97 42 255
0.698999 1.17413 4.62838 0 0 0 108 107 108 255
0.745234 1.17498 4.6187 0 0 0 123 111 128 255
0.858462 1.17953 4.63877 0 0 0 117 99 40 255
0.453515 1.23221 4.72481 0 0 0 84 87 95 255
0.995816 1.34395 4.70006 0 0 0 138 162 150 255
0.905124 1.34666 4.67007 0 0 0 80 129 106 255
0.999418 1.36733 4.70228 0 0 0 152 161 157 255
0.907024 1.38298 4.66874 0 0 0 144 174 163 255
0.315013 0.0636487 4.88695 0 0 0 145 147 146 255
1.1324 0.0716459 4.93594 0 0 0 87 105 95 255
0.477014 0.234667 4.6226 0 0 0 134 137 136 255
0.902784 0.23892 4.59849 0 0 0 135 152 151 255
0.956198 0.233542 4.61621 0 0 0 118 141 138 255
0.518655 0.258487 4.6192 0 0 0 137 139 138 255
0.707125 0.243456 4.57271 0 0 0 83 112 104 255
0.778838 0.241356 4.56879 0 0 0 133 140 139 255
0.84606 0.336996 4.58959 0 0 0 98 79 77 255
0.912336 0.338365 4.60663 0 0 0 134 141 125 255
0.560227 0.364531 4.61317 0 0 0 120 53 56 255
0.668101 0.355026 4.57784 0 0 0 101 75 77 255
0.968601 0.36066 4.63667 0 0 0 155 151 151 255
-0.322253 0.365226 4.27478 0 0 0 95 112 131 255
0.636962 0.381965 4.58886 0 0 0 159 159 159 255
0.75206 0.381885 4.57212 0 0 0 178 131 142 255
0.456846 0.407556 4.66066 0 0 0 86 72 73 255
1.00332 0.410912 4.65913 0 0 0 137 70 66 255
-0.308533 0.400753 4.28769 0 0 0 19 85 129 255
0.683668 0.418229 4.57802 0 0 0 142 50 53 255
0.852892 0.414762 4.58772 0 0 0 141 89 96 255
0.845513 0.531541 4.59814 0 0 0 66 112 83 255
0.922686 0.536272 4.61887 0 0 0 132 153 149 255
0.682959 0.557564 4.58091 0 0 0 148 169 163 255
0.755777 0.556156 4.59025 0 0 0 131 153 146 255
1.02965 0.585447 4.69716 0 0 0 117 156 147 255
0.385209 0.605214 4.7628 0 0 0 128 146 144 255
0.555438 0.610783 4.63755 0 0 0 154 163 160 255
0.749869 0.613914 4.58761 0 0 0 153 167 167 255
0.81593 0.61411 4.59722 0 0 0 161 164 162 255
-0.305662 0.644072 4.34876 0 0 0 146 157 165 255
0.914688 0.786503 4.62621 0 0 0 111 156 132 255
-0.29766 0.789953 4.33987 0 0 0 150 159 160 255
0.85482 0.84613 4.60972 0 0 0 165 170 168 255
0.741059 0.867616 4.60372 0 0 0 134 164 160 255
1.01746 0.936138 4.69149 0 0 0 122 146 124 255
0.574269 0.940596 4.64111 0 0 0 155 164 161 255
1.71954 1.4524 6.68179 0 0 0 115 114 108 255
1.87378 1.39885 6.36062 0 0 0 88 85 83 255
2.14078 1.37002 6.2844 0 0 0 128 125 118 255
0.925547 1.12609 4.65833 0 0 0 48 82 100 255
0.462502 1.19747 4.72384 0 0 0 89 99 114 255
0.96159 1.1822 4.6748 0 0 0 98 93 54 255
0.989583 1.34865 4.69987 0 0 0 128 154 141 255
0.91095 1.36142 4.67314 0 0 0 142 173 160 255
-0.313925 0.100117 4.57146 0 0 0 35 74 110 255
0.386234 0.114021 4.81417 0 0 0 28 57 42 255
0.390162 0.141198 4.8093 0 0 0 48 86 64 255
0.476083 0.226577 4.6281 0 0 0 107 136 128 255
0.594253 0.234255 4.57916 0 0 0 141 154 149 255
0.719207 0.215254 4.57064 0 0 0 68 108 74 255
0.785295 0.223905 4.57345 0 0 0 84 112 107 255
0.530236 0.263278 4.61994 0 0 0 123 132 131 255
0.449634 0.339697 4.66675 0 0 0 132 139 131 255
1.00966 0.338753 4.66559 0 0 0 118 68 71 255
0.639373 0.372271 4.58893 0 0 0 160 162 157 255
-0.319335 0.365796 4.27888 0 0 0 75 122 156 255
0.86862 0.415574 4.59656 0 0 0 122 53 62 255
0.654536 0.420492 4.5845 0 0 0 165 114 121 255
0.842521 0.427937 4.58587 0 0 0 142 59 65 255
-0.29998 0.449294 4.30526 0 0 0 19 80 124 255
0.499496 0.529192 4.65777 0 0 0 143 157 153 255
1.11645 0.544165 4.84579 0 0 0 80 104 80 255
0.853611 0.551624 4.60215 0 0 0 162 168 166 255
0.936482 0.547534 4.62 0 0 0 157 163 161 255
0.690261 0.558281 4.5847 0 0 0 157 169 169 255
0.76054 0.561867 4.59108 0 0 0 151 169 167 255
0.386348 0.595796 4.76278 0 0 0 126 145 145 255
0.943566 0.584558 4.63475 0 0 0 159 164 162 255
1.03174 0.593962 4.69704 0 0 0 125 164 155 255
0.771028 0.608322 4.59308 0 0 0 164 169 167 255
0.486892 0.625927 4.66858 0 0 0 53 86 78 255
0.823824 0.634278 4.59656 0 0 0 91 102 87 255
-0.315387 0.662192 4.33812 0 0 0 156 159 160 255
0.554013 0.689584 4.62571 0 0 0 154 164 162 255
0.822896 0.760143 4.60343 0 0 0 71 117 87 255
1.05076 0.763701 4.6865 0 0 0 108 141 127 255
0.94632 0.78888 4.64266 0 0 0 159 166 164 255
-0.295925 0.785961 4.34519 0 0 0 142 149 153 255
0.754325 0.82239 4.60821 0 0 0 167 172 170 255
0.934263 0.826477 4.63654 0 0 0 154 166 164 255
0.855414 0.838925 4.6098 0 0 0 163 171 168 255
0.743362 0.84653 4.60663 0 0 0 157 174 171 255
0.473153 0.908272 4.68597 0 0 0 140 154 153 255
0.573568 0.921657 4.64248 0 0 0 158 166 166 255
1.88241 1.37335 6.62287 0 0 0 155 151 143 255
1.89312 1.35653 6.49517 0 0 0 139 136 128 255
2.1425 1.36871 6.2847 0 0 0 128 125 118 255
1.72897 1.44429 6.68172 0 0 0 124 123 117 255
1.87709 1.39718 6.34671 0 0 0 82 80 79 255
0.963782 1.09988 4.67108 0 0 0 28 83 125 255
0.440568 1.16822 4.75325 0 0 0 131 138 137 255
0.442396 1.15119 4.75744 0 0 0 113 133 124 255
0.938716 1.1176 4.6617 0 0 0 43 81 106 255
0.566707 1.15294 4.6741 0 0 0 137 154 151 255
0.863064 1.18326 4.6344 0 0 0 102 96 67 255
0.443823 1.25856 4.73574 0 0 0 129 136 135 255
0.575274 1.27195 4.66362 0 0 0 143 146 145 255
0.639595 1.25992 4.63097 0 0 0 91 116 85 255
0.331905 1.40308 4.99312 0 0 0 75 92 82 255
0.915508 1.35987 4.67223 0 0 0 154 161 159 255
0.333082 0.0893898 4.8753 0 0 0 72 99 83 255
1.11497 0.0953673 4.93858 0 0 0 66 101 78 255
0.527745 0.3843 4.62669 0 0 0 164 152 156 255
0.781297 0.375018 4.57872 0 0 0 164 167 166 255
0.836539 0.391635 4.58349 0 0 0 108 74 74 255
1.06851 0.549321 4.72975 0 0 0 65 104 75 255
0.818932 0.573063 4.58746 0 0 0 162 169 169 255
0.925259 0.571386 4.61859 0 0 0 157 167 164 255
0.684 0.580678 4.58352 0 0 0 154 170 167 255
0.793612 0.580225 4.60142 0 0 0 165 169 168 255
0.556029 0.671519 4.62276 0 0 0 158 163 161 255
-0.326071 0.654262 4.32876 0 0 0 160 162 163 255
0.933826 0.80523 4.6347 0 0 0 160 167 167 255
0.824654 0.826075 4.60334 0 0 0 170 173 172 255
0.747096 0.843554 4.60755 0 0 0 157 174 172 255
0.575638 0.899795 4.64275 0 0 0 160 166 164 255
1.75369 1.45638 6.66778 0 0 0 103 102 100 255
0.43915 1.15491 4.75815 0 0 0 124 135 133 255
0.713126 1.14392 4.62488 0 0 0 140 155 150 255
0.405793 1.23456 4.79569 0 0 0 123 143 132 255
0.716978 1.26822 4.61742 0 0 0 145 150 148 255
0.340236 1.39172 4.99464 0 0 0 79 94 81 255
1.11549 0.0880183 4.93741 0 0 0 64 101 80 255
-0.342649 0.14207 4.55611 0 0 0 17 69 115 255
0.520413 0.246045 4.61893 0 0 0 142 139 140 255
0.781568 0.25163 4.57275 0 0 0 150 155 154 255
0.907821 0.247098 4.60508 0 0 0 139 150 151 255
0.641499 0.364387 4.58733 0 0 0 156 160 153 255
1.07545 0.534758 4.74301 0 0 0 82 110 73 255
0.445445 0.618584 4.70185 0 0 0 141 153 156 255
0.557156 0.646278 4.63396 0 0 0 157 163 162 255
0.765951 0.836029 4.61151 0 0 0 168 173 172 255
0.477131 0.885538 4.68248 0 0 0 142 154 154 255
2.10862 1.38253 6.43098 0 0 0 133 130 122 255
0.940097 1.05689 4.66157 0 0 0 42 93 122 255
0.937342 1.10661 4.66143 0 0 0 47 83 104 255
0.881527 1.16249 4.63829 0 0 0 169 149 74 255
0.418868 1.23916 4.76651 0 0 0 135 141 141 255
0.357969 0.128351 4.87364 0 0 0 59 95 67 255
1.02469 0.114774 4.65907 0 0 0 57 102 74 255
-0.34603 0.127664 4.53765 0 0 0 19 70 118 255
-0.323758 0.58547 4.29417 0 0 0 27 81 121 255
0.455276 1.16428 4.7384 0 0 0 134 142 142 255
2.31925 -0.223 3.91208 0 0 0 55 55 55 255
2.35435 -0.217695 3.88647 0 0 0 66 57 63 255
2.33512 -0.209401 3.89339 0 0 0 153 157 163 255
2.24223 -0.162043 3.81004 0 0 0 138 84 84 255
2.3764 -0.167556 3.83594 0 0 0 127 62 57 255
2.33107 -0.147152 3.86228 0 0 0 167 64 83 255
2.10407 -0.151077 4.01284 0 0 0 147 143 140 255
2.33908 -0.112968 3.92078 0 0 0 95 96 98 255
2.35118 -0.114852 3.8982 0 0 0 100 98 100 255
2.32675 -0.0807945 3.92819 0 0 0 55 55 62 255
2.14078 -0.0770617 3.98584 0 0 0 70 71 78 255
2.49201 -0.045832 3.93395 0 0 0 39 44 42 255
2.34029 0.00532434 3.91431 0 0 0 200 205 207 255
2.34534 0.0678266 3.9205 0 0 0 250 252 254 255
2.35894 0.115782 3.91551 0 0 0 253 251 252 255
2.0624 0.127165 4.01992 0 0 0 123 121 117 255
2.54699 0.135162 3.96032 0 0 0 54 53 58 255
-1.02837 0.189447 4.26319 0 0 0 68 78 91 255
2.30798 0.253387 3.69617 0 0 0 122 112 94 255
-0.497453 0.254398 4.10748 0 0 0 20 46 86 255
-0.480562 0.253433 4.11609 0 0 0 99 103 125 255
2.22257 0.25956 3.7043 0 0 0 139 109 74 255
2.2662 0.258507 3.70033 0 0 0 114 99 81 255
2.40917 0.255852 3.7084 0 0 0 91 78 70 255
-0.653877 0.263985 4.05689 0 0 0 123 104 95 255
-0.629532 0.261829 4.0655 0 0 0 129 107 101 255
-0.515715 0.259856 4.09995 0 0 0 125 105 96 255
-0.449573 0.258022 4.13174 0 0 0 83 87 115 255
0.498229 0.252548 4.63085 0 0 0 100 111 110 255
-0.853277 0.263871 4.06695 0 0 0 100 102 114 255
-0.802957 0.267117 4.06181 0 0 0 97 97 97 255
-0.775019 0.259679 4.05992 0 0 0 89 75 84 255
-0.73154 0.265849 4.05792 0 0 0 106 100 99 255
-0.696343 0.267183 4.05668 0 0 0 140 126 102 255
-0.567024 0.265918 4.07973 0 0 0 110 103 101 255
0.886471 0.260794 4.59968 0 0 0 62 76 74 255
2.38581 0.273033 3.70331 0 0 0 100 56 21 255
-0.83728 0.271436 4.06888 0 0 0 120 118 85 255
-0.551363 0.274649 4.08512 0 0 0 134 110 79 255
-0.864759 0.283278 4.07275 0 0 0 126 125 102 255
-0.802344 0.280075 4.06167 0 0 0 128 122 98 255
-0.614372 0.278004 4.0697 0 0 0 122 102 59 255
2.23182 0.285278 3.69632 0 0 0 106 68 33 255
2.27166 0.282424 3.69498 0 0 0 160 122 66 255
2.31139 0.282524 3.69195 0 0 0 87 49 40 255
2.38365 0.282176 3.7025 0 0 0 91 51 24 255
-0.781473 0.290594 4.05981 0 0 0 36 44 62 255
-0.495638 0.289777 4.1112 0 0 0 77 63 50 255
0.719317 0.285652 4.5737 0 0 0 76 95 91 255
-0.856578 0.294868 4.07107 0 0 0 78 76 46 255
-0.818917 0.296458 4.06294 0 0 0 38 39 53 255
-0.686026 0.298056 4.05482 0 0 0 38 39 43 255
-0.646152 0.296553 4.06007 0 0 0 89 71 48 255
-0.611 0.295232 4.0668 0 0 0 59 57 62 255
-0.579313 0.298855 4.07322 0 0 0 23 46 93 255
-0.551773 0.288141 4.08471 0 0 0 65 47 33 255
-0.514775 0.29653 4.10042 0 0 0 140 115 87 255
2.40355 0.29814 3.70093 0 0 0 91 74 60 255
-0.489821 0.306662 4.11381 0 0 0 98 76 83 255
2.20731 0.302858 3.70355 0 0 0 108 89 64 255
2.2601 0.308656 3.699 0 0 0 153 118 70 255
2.28141 0.310024 3.69089 0 0 0 135 96 61 255
2.30402 0.307197 3.68878 0 0 0 165 133 81 255
-0.85604 0.314734 4.07646 0 0 0 86 93 132 255
-0.784993 0.316417 4.06054 0 0 0 87 84 115 255
-0.731238 0.315306 4.05861 0 0 0 83 94 128 255
-0.658277 0.316449 4.0579 0 0 0 128 111 86 255
-0.627478 0.313648 4.06707 0 0 0 145 116 97 255
-0.546152 0.313092 4.08837 0 0 0 113 106 101 255
-1.00741 0.326746 4.22857 0 0 0 81 104 136 255
0.611027 0.327555 4.59125 0 0 0 138 142 131 255
0.75876 0.326073 4.57778 0 0 0 141 155 125 255
1.99466 0.335112 3.98407 0 0 0 70 75 76 255
0.581854 0.350965 4.60751 0 0 0 178 129 137 255
0.60164 0.349035 4.59165 0 0 0 121 77 78 255
-0.496008 0.354452 4.11172 0 0 0 54 109 155 255
-0.391875 0.349863 4.18524 0 0 0 14 87 133 255
0.820801 0.358632 4.5837 0 0 0 164 123 128 255
1.0293 0.359214 4.69288 0 0 0 172 130 136 255
1.10487 0.364592 4.75697 0 0 0 91 101 86 255
-0.911865 0.361592 4.11865 0 0 0 35 72 108 255
-0.762295 0.359222 4.06158 0 0 0 22 78 129 255
-0.639103 0.360455 4.0614 0 0 0 122 132 142 255
-0.614416 0.359617 4.07264 0 0 0 9 73 123 255
-0.590207 0.361272 4.07697 0 0 0 96 119 159 255
1.94936 0.358276 4.00596 0 0 0 86 81 79 255
-0.883289 0.365561 4.10234 0 0 0 76 99 128 255
-0.521846 0.364538 4.10065 0 0 0 7 73 123 255
-0.339786 0.370009 4.24003 0 0 0 101 88 100 255
1.05154 0.375932 4.70445 0 0 0 151 125 132 255
-0.494912 0.380827 4.11395 0 0 0 55 87 113 255
0.873907 0.384242 4.6011 0 0 0 157 138 142 255
1.96114 0.373809 3.99055 0 0 0 117 119 118 255
-0.563241 0.383988 4.08697 0 0 0 26 81 117 255
-0.536856 0.386439 4.09654 0 0 0 140 150 161 255
-0.415014 0.382197 4.16725 0 0 0 73 89 111 255
1.9885 0.377727 3.95786 0 0 0 112 117 117 255
-0.640888 0.384379 4.06057 0 0 0 68 97 95 255
-0.485586 0.386505 4.1207 0 0 0 25 65 100 255
-0.44454 0.392419 4.14601 0 0 0 36 61 105 255
-0.37039 0.388743 4.20853 0 0 0 78 80 99 255
2.44871 0.382255 3.70237 0 0 0 103 102 105 255
2.49379 0.386799 3.71829 0 0 0 123 130 133 255
2.56705 0.378979 3.78738 0 0 0 79 84 88 255
-0.506385 0.393159 4.10701 0 0 0 33 72 114 255
0.529211 0.404261 4.60033 0 0 0 121 111 114 255
2.06614 0.384337 3.75616 0 0 0 103 107 108 255
2.17299 0.392319 3.6961 0 0 0 132 134 137 255
2.19088 0.389187 3.68727 0 0 0 81 81 81 255
2.27549 0.386526 3.67717 0 0 0 81 83 84 255
2.28941 0.382911 3.67095 0 0 0 88 87 89 255
2.30086 0.390522 3.66469 0 0 0 137 136 137 255
-0.480751 0.405376 4.12149 0 0 0 121 134 152 255
-0.473127 0.406692 4.12699 0 0 0 139 150 165 255
1.05595 0.411124 4.71175 0 0 0 126 90 88 255
1.97654 0.390676 3.97319 0 0 0 73 68 66 255
2.4538 0.396252 3.70549 0 0 0 138 141 140 255
-0.598908 0.410785 4.07542 0 0 0 25 93 124 255
-0.579339 0.410281 4.08139 0 0 0 147 155 163 255
-0.400306 0.411918 4.17779 0 0 0 141 145 164 255
-0.554935 0.423633 4.0904 0 0 0 42 84 121 255
-0.515219 0.416597 4.10527 0 0 0 153 158 160 255
-0.480047 0.422491 4.12246 0 0 0 152 153 157 255
-0.442237 0.419529 4.14931 0 0 0 149 150 154 255
2.10193 0.41263 3.73471 0 0 0 60 39 39 255
2.43443 0.409844 3.70036 0 0 0 61 44 39 255
-0.540304 0.424733 4.09303 0 0 0 81 103 123 255
-0.460326 0.426419 4.13817 0 0 0 63 79 103 255
-0.361505 0.431886 4.22208 0 0 0 103 96 115 255
2.52049 0.411465 3.72169 0 0 0 76 66 67 255
-0.598023 0.431401 4.07727 0 0 0 19 93 125 255
-0.390938 0.439061 4.18598 0 0 0 79 87 98 255
-0.539156 0.438499 4.09264 0 0 0 11 83 127 255
-0.505647 0.440744 4.11114 0 0 0 30 76 115 255
-0.562257 0.445029 4.0875 0 0 0 116 163 192 255
-0.471856 0.445803 4.12909 0 0 0 39 62 90 255
-0.44674 0.448066 4.14726 0 0 0 17 60 109 255
-0.400908 0.446759 4.17828 0 0 0 57 71 108 255
-0.33921 0.453533 4.24325 0 0 0 120 89 112 255
-0.717591 0.451975 4.06105 0 0 0 142 149 136 255
-0.674104 0.45091 4.0642 0 0 0 140 149 148 255
-0.546149 0.461018 4.09106 0 0 0 25 89 126 255
-0.479987 0.460692 4.12582 0 0 0 22 70 125 255
2.10355 0.449096 3.73328 0 0 0 58 39 39 255
-0.672684 0.468184 4.06387 0 0 0 80 95 94 255
-0.633567 0.469435 4.07119 0 0 0 58 94 92 255
-0.580822 0.468061 4.08054 0 0 0 81 103 120 255
-0.425017 0.478257 4.15916 0 0 0 45 84 117 255
2.14123 0.467065 3.7102 0 0 0 91 65 52 255
-1.01701 0.489646 4.25384 0 0 0 110 92 99 255
-0.654767 0.481897 4.06624 0 0 0 84 120 108 255
-0.390289 0.490916 4.19135 0 0 0 73 98 117 255
-0.320403 0.485518 4.26411 0 0 0 31 84 119 255
-0.99573 0.497641 4.25184 0 0 0 108 94 96 255
2.28137 0.471929 3.67047 0 0 0 80 62 54 255
-0.731365 0.49494 4.0589 0 0 0 87 106 123 255
1.96886 0.498245 3.96988 0 0 0 95 96 91 255
2.10371 0.485659 3.73676 0 0 0 67 46 41 255
-0.429208 0.504137 4.16029 0 0 0 60 108 147 255
2.51285 0.480053 3.71932 0 0 0 109 105 106 255
2.12077 0.495657 3.72772 0 0 0 37 43 44 255
2.27092 0.509974 3.67938 0 0 0 87 75 65 255
2.27458 0.508585 3.67696 0 0 0 74 55 41 255
2.29566 0.507022 3.67428 0 0 0 60 51 47 255
1.10639 0.573792 4.81792 0 0 0 106 143 126 255
1.95779 0.549901 3.98356 0 0 0 119 116 115 255
2.42475 0.529742 3.68099 0 0 0 64 53 57 255
-0.44321 0.56129 4.15422 0 0 0 145 149 167 255
2.20755 0.538505 3.68687 0 0 0 81 66 56 255
2.21593 0.530109 3.68722 0 0 0 50 37 39 255
-1.01017 0.571503 4.23289 0 0 0 107 113 138 255
-0.874637 0.563166 4.09994 0 0 0 104 117 151 255
-0.836468 0.566003 4.10412 0 0 0 141 145 147 255
2.45216 0.545715 3.70174 0 0 0 101 103 109 255
2.56005 0.544381 3.76875 0 0 0 131 138 138 255
-0.645402 0.571576 4.07626 0 0 0 138 140 171 255
1.95106 0.571879 4.02044 0 0 0 77 67 61 255
2.49814 0.548659 3.73358 0 0 0 129 138 140 255
2.17193 0.558572 3.70235 0 0 0 114 129 133 255
-0.887731 0.583585 4.08938 0 0 0 24 52 91 255
2.2412 0.55799 3.67907 0 0 0 139 136 137 255
2.32071 0.558194 3.67376 0 0 0 93 103 105 255
2.35577 0.558406 3.68268 0 0 0 140 141 143 255
-0.955757 0.592544 4.16835 0 0 0 33 58 91 255
1.04629 0.627395 4.712 0 0 0 71 73 73 255
-0.497637 0.605643 4.10455 0 0 0 84 89 109 255
-0.588051 0.616094 4.11461 0 0 0 53 59 75 255
-0.985466 0.652991 4.19675 0 0 0 127 129 132 255
-0.371668 0.64587 4.22133 0 0 0 36 66 115 255
-0.490446 0.653508 4.08984 0 0 0 91 90 94 255
-0.586515 0.666879 4.11123 0 0 0 61 68 87 255
-0.860279 0.678424 4.08297 0 0 0 56 60 71 255
-0.338935 0.682646 4.24118 0 0 0 116 116 118 255
-0.945002 0.680459 4.15634 0 0 0 37 42 54 255
0.548657 0.712136 4.64817 0 0 0 85 123 102 255
-0.993845 0.6909 4.1694 0 0 0 88 95 105 255
-0.437845 0.688142 4.16239 0 0 0 151 158 159 255
1.07258 0.731206 4.74972 0 0 0 127 137 136 255
-0.746047 0.696515 4.07536 0 0 0 123 125 141 255
-0.405481 0.718457 4.19273 0 0 0 132 140 162 255
0.837356 0.747927 4.6152 0 0 0 65 109 78 255
-0.866807 0.716063 4.08375 0 0 0 122 125 129 255
-0.64894 0.71903 4.08321 0 0 0 136 142 163 255
-0.339851 0.735283 4.24535 0 0 0 113 116 127 255
-0.556015 0.748338 4.10338 0 0 0 141 150 171 255
-0.521876 0.746972 4.11897 0 0 0 152 152 158 255
2.25557 0.715073 3.68241 0 0 0 79 76 68 255
2.38094 0.716782 3.70742 0 0 0 86 76 66 255
-0.792659 0.758172 4.0734 0 0 0 78 82 95 255
-0.69514 0.768031 4.08603 0 0 0 131 136 162 255
-0.450693 0.773321 4.15398 0 0 0 70 74 90 255
-0.997533 0.77871 4.20161 0 0 0 130 137 137 255
-0.338315 0.789106 4.2544 0 0 0 60 71 94 255
-0.305487 0.819197 4.31088 0 0 0 97 106 117 255
-0.322023 0.818002 4.27901 0 0 0 127 132 153 255
2.24951 0.761198 3.68565 0 0 0 89 76 57 255
-0.833796 0.810335 4.09747 0 0 0 117 120 126 255
-0.614605 0.806941 4.09194 0 0 0 79 86 105 255
2.30337 0.763732 3.68873 0 0 0 98 74 53 255
-0.628529 0.810811 4.08489 0 0 0 53 63 89 255
-0.387475 0.826518 4.21603 0 0 0 56 73 95 255
-0.45092 0.833865 4.15907 0 0 0 90 89 97 255
-0.808881 0.832101 4.08206 0 0 0 74 80 99 255
-0.365871 0.847819 4.23454 0 0 0 155 157 160 255
0.547751 0.902034 4.65732 0 0 0 71 111 93 255
-0.383453 0.866294 4.22204 0 0 0 82 92 100 255
-0.401078 0.88005 4.20894 0 0 0 156 158 157 255
-0.614486 0.871213 4.09451 0 0 0 103 105 107 255
-0.628876 0.879189 4.08596 0 0 0 67 83 105 255
-0.95753 0.898226 4.17547 0 0 0 79 88 101 255
-0.366308 0.906636 4.22169 0 0 0 73 96 127 255
-0.718742 0.902441 4.08494 0 0 0 35 64 104 255
-0.517301 0.914611 4.12608 0 0 0 157 157 163 255
1.07886 1.00018 4.74911 0 0 0 121 139 124 255
-0.551898 0.926422 4.11233 0 0 0 155 159 160 255
-0.436868 0.933666 4.1776 0 0 0 73 92 125 255
-0.726319 0.932362 4.08409 0 0 0 159 160 161 255
-0.614167 0.942366 4.09711 0 0 0 125 125 125 255
-0.589744 0.940322 4.09536 0 0 0 148 150 152 255
-0.887551 0.956635 4.14284 0 0 0 35 51 92 255
-0.712713 0.952431 4.08736 0 0 0 81 91 108 255
-0.692967 0.96626 4.09228 0 0 0 153 149 159 255
-0.577642 0.9775 4.10179 0 0 0 75 92 137 255
-0.748542 0.977843 4.083 0 0 0 157 157 157 255
-0.613399 0.989332 4.09381 0 0 0 68 89 127 255
-0.364283 1.01206 4.24434 0 0 0 118 140 158 255
1.17896 1.1385 5.05275 0 0 0 172 176 170 255
-0.847234 0.998777 4.03965 0 0 0 40 50 84 255
-0.698511 1.00702 4.09178 0 0 0 66 84 118 255
1.92297 1.36873 6.54688 0 0 0 144 141 136 255
-0.376767 1.03161 4.23906 0 0 0 52 101 130 255
-0.906817 1.0212 4.09246 0 0 0 135 131 139 255
-0.913754 1.02909 4.16553 0 0 0 145 149 150 255
1.2039 1.17464 5.06789 0 0 0 120 118 116 255
-0.992373 1.03957 4.2015 0 0 0 116 120 122 255
-0.503406 1.0467 4.14213 0 0 0 41 99 138 255
-0.50126 1.08513 4.1419 0 0 0 60 110 140 255
-0.37174 1.11547 4.24416 0 0 0 28 73 120 255
-0.338876 1.12434 4.26586 0 0 0 29 75 113 255
2.06977 1.04699 3.78878 0 0 0 107 110 109 255
2.12039 1.05031 3.76364 0 0 0 117 117 118 255
2.16855 1.04786 3.7349 0 0 0 90 86 85 255
2.10796 1.05563 3.76705 0 0 0 99 103 103 255
2.13799 1.05365 3.76308 0 0 0 97 94 95 255
2.2107 1.04873 3.72095 0 0 0 90 92 91 255
-0.397514 1.14237 4.22684 0 0 0 135 146 156 255
-0.314972 1.1465 4.27912 0 0 0 109 132 145 255
2.25301 1.04916 3.71431 0 0 0 80 81 80 255
2.31399 1.05334 3.70666 0 0 0 103 98 100 255
2.34174 1.05274 3.70683 0 0 0 96 94 96 255
2.21123 1.06539 3.71743 0 0 0 121 124 123 255
2.20989 1.06645 3.72125 0 0 0 121 124 123 255
2.2196 1.08055 3.71958 0 0 0 86 84 84 255
-0.33043 1.18188 4.27929 0 0 0 51 76 100 255
2.16584 1.08909 3.74144 0 0 0 84 89 89 255
2.25246 1.08219 3.71415 0 0 0 83 78 76 255
2.28214 1.07399 3.7049 0 0 0 89 81 83 255
2.35617 1.08128 3.70545 0 0 0 78 78 79 255
2.4793 1.08259 3.73311 0 0 0 73 74 76 255
-0.605141 1.15069 4.05884 0 0 0 24 111 147 255
2.21958 1.08087 3.72099 0 0 0 98 105 102 255
2.39861 1.08718 3.71726 0 0 0 87 92 90 255
-0.863444 1.17532 4.12317 0 0 0 88 116 142 255
-0.629827 1.16769 4.056 0 0 0 148 149 158 255
2.13321 1.13139 3.76087 0 0 0 102 103 105 255
-0.618432 1.19055 4.05483 0 0 0 66 85 118 255
-0.736987 1.2096 4.09954 0 0 0 115 99 115 255
-0.828483 1.21998 4.10432 0 0 0 107 103 113 255
-0.693776 1.21351 4.08799 0 0 0 113 103 118 255
2.07866 1.17151 3.79955 0 0 0 103 105 104 255
2.2554 1.17594 3.71583 0 0 0 106 107 111 255
2.07252 1.20709 3.8055 0 0 0 115 113 112 255
-0.887613 1.36107 4.11562 0 0 0 69 106 141 255
-0.375436 1.38529 4.23174 0 0 0 140 152 167 255
-0.841971 1.36098 4.10877 0 0 0 65 104 137 255
-0.393901 1.3983 4.22525 0 0 0 93 102 120 255
-0.468572 1.39254 4.16523 0 0 0 93 128 163 255
-0.815698 1.39123 4.10708 0 0 0 22 83 123 255
-0.462863 1.4229 4.16872 0 0 0 157 159 160 255
-0.886659 1.41417 4.11774 0 0 0 89 108 133 255
2.46126 1.4045 3.79337 0 0 0 84 82 84 255
2.25145 1.41287 3.79984 0 0 0 112 112 112 255
2.1707 1.43021 3.83099 0 0 0 100 100 100 255
2.31051 1.41643 3.77491 0 0 0 106 106 106 255
2.38519 1.63083 3.98878 0 0 0 191 193 199 255
2.39535 1.62889 3.98083 0 0 0 207 207 208 255
2.3307 -0.210463 3.89532 0 0 0 153 157 163 255
2.36205 -0.208287 3.87929 0 0 0 46 45 44 255
2.23143 -0.162536 3.82364 0 0 0 140 73 68 255
0.949814 -0.242936 4.70546 0 0 0 211 211 212 255
2.34105 0.0117269 3.91165 0 0 0 200 205 207 255
-1.04235 0.133339 4.24859 0 0 0 22 47 84 255
2.04865 0.135468 4.02892 0 0 0 135 135 134 255
2.21181 0.258426 3.70936 0 0 0 121 103 80 255
2.31147 0.249731 3.69511 0 0 0 80 75 76 255
2.40371 0.254208 3.70808 0 0 0 93 77 67 255
-0.725491 0.260965 4.05777 0 0 0 113 104 82 255
-0.854389 0.270312 4.06724 0 0 0 132 125 125 255
-0.56699 0.269234 4.07923 0 0 0 110 103 101 255
-0.485062 0.271337 4.11514 0 0 0 124 109 113 255
2.38322 0.281379 3.70269 0 0 0 91 51 24 255
2.30271 0.308272 3.68911 0 0 0 165 133 81 255
-0.559768 0.312703 4.08007 0 0 0 147 121 91 255
-0.92873 0.330019 4.11832 0 0 0 68 103 139 255
-0.895796 0.354914 4.09441 0 0 0 37 76 112 255
-0.645143 0.356071 4.06243 0 0 0 46 99 143 255
-0.434053 0.348177 4.15216 0 0 0 105 129 149 255
0.405426 0.364515 4.72346 0 0 0 111 87 83 255
0.798846 0.3649 4.5811 0 0 0 144 132 134 255
0.875056 0.37543 4.60255 0 0 0 136 117 121 255
-0.656347 0.391003 4.05926 0 0 0 29 88 75 255
-0.488967 0.389179 4.11781 0 0 0 30 73 108 255
-0.393393 0.398044 4.18383 0 0 0 152 156 156 255
1.98669 0.381292 3.96372 0 0 0 77 84 85 255
2.12045 0.389796 3.72047 0 0 0 89 89 90 255
2.49089 0.38776 3.72028 0 0 0 110 118 121 255
1.93666 0.410003 3.98142 0 0 0 125 120 116 255
-0.593324 0.432084 4.07826 0 0 0 19 93 125 255
2.10244 0.419236 3.73506 0 0 0 58 40 40 255
2.42028 0.413305 3.69038 0 0 0 83 63 45 255
-0.457101 0.441405 4.13872 0 0 0 16 60 108 255
1.97686 0.444488 3.93887 0 0 0 82 76 67 255
2.10356 0.432951 3.73433 0 0 0 58 42 39 255
2.45643 0.42979 3.70751 0 0 0 34 38 37 255
-0.615427 0.455481 4.07631 0 0 0 147 154 154 255
2.14195 0.46769 3.71018 0 0 0 91 65 52 255
-0.551219 0.490827 4.08939 0 0 0 104 120 136 255
-0.422936 0.504759 4.16335 0 0 0 78 121 156 255
1.94091 0.49897 3.99965 0 0 0 122 120 119 255
2.10447 0.499161 3.73748 0 0 0 55 39 39 255
1.08428 0.579 4.75012 0 0 0 126 142 138 255
2.10175 0.526011 3.73871 0 0 0 50 42 47 255
2.21252 0.525541 3.68724 0 0 0 55 39 41 255
2.28118 0.521725 3.67541 0 0 0 46 36 38 255
2.4234 0.524309 3.71258 0 0 0 57 40 43 255
2.56901 0.543261 3.79576 0 0 0 104 112 118 255
1.94854 0.575296 4.02647 0 0 0 108 100 94 255
2.48972 0.546835 3.724 0 0 0 123 130 131 255
2.36323 0.560082 3.67591 0 0 0 108 94 86 255
2.40382 0.549651 3.67549 0 0 0 140 142 143 255
2.42374 0.550922 3.69216 0 0 0 143 143 143 255
-1.00223 0.592198 4.2223 0 0 0 134 137 140 255
-0.920574 0.588367 4.14514 0 0 0 32 55 90 255
2.14841 0.555148 3.70906 0 0 0 107 90 75 255
-0.7394 0.611044 4.0652 0 0 0 155 156 156 255
-0.500745 0.605725 4.10318 0 0 0 88 94 113 255
-0.732701 0.646671 4.07072 0 0 0 154 156 158 255
-0.439263 0.684309 4.15819 0 0 0 151 158 159 255
-0.988451 0.707387 4.16651 0 0 0 133 131 130 255
-0.738276 0.715101 4.07598 0 0 0 156 159 161 255
-0.645208 0.707856 4.08164 0 0 0 137 143 162 255
-0.409731 0.724888 4.19163 0 0 0 155 160 168 255
-0.870684 0.72435 4.08654 0 0 0 109 111 116 255
-0.559438 0.760012 4.10137 0 0 0 158 162 163 255
2.25659 0.722422 3.68351 0 0 0 96 76 55 255
-0.879442 0.772135 4.08885 0 0 0 97 108 118 255
-0.697027 0.760734 4.08438 0 0 0 52 69 110 255
-0.463421 0.776312 4.149 0 0 0 92 94 101 255
-0.33813 0.787993 4.25474 0 0 0 40 53 83 255
-0.321214 0.812607 4.27967 0 0 0 128 133 152 255
-0.628554 0.810818 4.0849 0 0 0 53 63 89 255
-0.460112 0.83761 4.15348 0 0 0 58 66 93 255
-0.419115 0.88665 4.19493 0 0 0 156 157 159 255
-0.456304 0.898776 4.15832 0 0 0 113 117 126 255
-0.955262 0.913001 4.17034 0 0 0 69 69 80 255
-0.513201 0.914085 4.1289 0 0 0 156 159 158 255
-0.566274 0.930563 4.10343 0 0 0 160 162 163 255
-0.739533 0.933328 4.07829 0 0 0 157 161 163 255
-0.888782 0.946296 4.14412 0 0 0 33 52 93 255
-0.682052 0.962164 4.09757 0 0 0 158 160 161 255
-0.717519 0.967091 4.08922 0 0 0 59 71 96 255
-0.749456 0.975465 4.08261 0 0 0 157 157 157 255
-0.486052 1.00011 4.14775 0 0 0 130 149 169 255
-0.820321 0.997665 4.04274 0 0 0 151 154 153 255
-0.929738 1.02649 4.16893 0 0 0 149 147 151 255
-0.505916 1.03847 4.13963 0 0 0 40 99 138 255
0.955275 1.11469 4.67263 0 0 0 29 77 115 255
0.506186 1.14784 4.70264 0 0 0 69 104 73 255
2.34618 1.06374 3.70671 0 0 0 87 86 87 255
0.79945 1.24954 4.62199 0 0 0 101 120 98 255
-0.627744 1.16313 4.05506 0 0 0 136 140 153 255
-0.867516 1.17011 4.12552 0 0 0 88 116 142 255
-0.724086 1.17616 4.10304 0 0 0 85 131 170 255
-0.792585 1.1926 4.10976 0 0 0 21 85 131 255
-0.828519 1.23751 4.10132 0 0 0 80 84 109 255
-0.904309 1.27197 4.13632 0 0 0 124 142 163 255
-0.619858 1.2863 4.04986 0 0 0 37 76 110 255
-0.857059 1.32244 4.12318 0 0 0 101 111 122 255
-0.726667 1.32925 4.10682 0 0 0 95 108 135 255
-0.842447 1.36321 4.11226 0 0 0 65 104 137 255
2.39948 1.41094 3.78612 0 0 0 98 94 97 255
2.30058 -0.212239 3.91367 0 0 0 45 43 44 255
2.37041 -0.204697 3.85972 0 0 0 45 45 45 255
2.45836 -0.198124 3.9156 0 0 0 47 52 53 255
0.949226 -0.241278 4.70548 0 0 0 211 211 212 255
2.10273 -0.0576929 4.0052 0 0 0 93 84 83 255
2.47314 -0.0442388 3.91161 0 0 0 35 39 39 255
2.34158 0.00823318 3.91206 0 0 0 200 205 207 255
2.47062 0.0371191 3.92358 0 0 0 84 85 92 255
2.35065 0.088165 3.92298 0 0 0 248 250 254 255
2.35519 0.116056 3.91813 0 0 0 255 252 253 255
2.06539 0.136101 4.01953 0 0 0 63 63 62 255
2.53282 0.140749 3.94062 0 0 0 50 50 54 255
2.30958 0.259484 3.69557 0 0 0 161 144 114 255
-0.475773 0.262267 4.12142 0 0 0 148 121 89 255
2.21414 0.267589 3.70563 0 0 0 95 75 60 255
2.36144 0.262065 3.70214 0 0 0 125 88 55 255
-0.833192 0.282431 4.06638 0 0 0 139 126 66 255
-0.805729 0.275554 4.06392 0 0 0 75 73 68 255
-0.76884 0.272515 4.0612 0 0 0 114 95 99 255
-0.629232 0.271252 4.06672 0 0 0 133 111 101 255
-0.705574 0.283904 4.0586 0 0 0 113 107 101 255
2.21426 0.29782 3.70341 0 0 0 130 106 77 255
2.37607 0.299727 3.69902 0 0 0 138 101 62 255
-0.976932 0.335141 4.19627 0 0 0 95 110 126 255
0.581512 0.373624 4.60566 0 0 0 118 39 43 255
-0.617672 0.400594 4.07418 0 0 0 149 155 160 255
-0.533771 0.398975 4.09572 0 0 0 152 158 165 255
-0.394133 0.396063 4.18327 0 0 0 148 155 155 255
0.603798 0.405566 4.59532 0 0 0 156 147 148 255
1.98661 0.387772 3.95493 0 0 0 112 121 123 255
2.07317 0.396385 3.75289 0 0 0 127 133 134 255
2.1294 0.407069 3.7172 0 0 0 131 137 139 255
2.15408 0.395517 3.70351 0 0 0 40 39 44 255
2.18369 0.396361 3.69121 0 0 0 135 136 140 255
2.28877 0.395821 3.67234 0 0 0 138 147 149 255
2.41803 0.384787 3.69254 0 0 0 125 129 132 255
2.1306 0.414147 3.71704 0 0 0 123 136 140 255
2.42558 0.417031 3.69182 0 0 0 61 43 33 255
-0.604127 0.457335 4.07892 0 0 0 144 156 158 255
-0.983642 0.483463 4.22878 0 0 0 127 120 122 255
2.14833 0.469769 3.7083 0 0 0 61 40 29 255
-0.352547 0.539183 4.23599 0 0 0 32 80 117 255
2.10741 0.512905 3.7354 0 0 0 47 38 40 255
2.21662 0.518836 3.6864 0 0 0 52 36 38 255
2.42446 0.508019 3.6918 0 0 0 39 38 42 255
1.98316 0.545738 3.90795 0 0 0 130 133 131 255
2.28551 0.526907 3.67413 0 0 0 37 39 43 255
-0.921405 0.585315 4.13652 0 0 0 22 55 94 255
-0.853287 0.572298 4.09602 0 0 0 152 152 152 255
-0.64154 0.576388 4.07819 0 0 0 153 155 167 255
-0.455029 0.569311 4.14729 0 0 0 156 158 162 255
2.12086 0.551343 3.72756 0 0 0 137 139 139 255
2.14945 0.551724 3.70839 0 0 0 107 90 75 255
2.1924 0.555849 3.69264 0 0 0 137 141 142 255
2.23484 0.558903 3.68126 0 0 0 142 141 144 255
2.33168 0.548494 3.67153 0 0 0 141 146 147 255
2.37984 0.552664 3.67259 0 0 0 45 41 45 255
2.42717 0.552881 3.69669 0 0 0 143 143 143 255
-0.799816 0.587119 4.08733 0 0 0 29 51 90 255
-0.739973 0.608402 4.06556 0 0 0 156 156 156 255
-0.579218 0.622084 4.11988 0 0 0 104 112 143 255
1.04105 0.650776 4.72037 0 0 0 40 80 74 255
-0.7422 0.621352 4.06842 0 0 0 156 159 158 255
-0.362116 0.659965 4.22459 0 0 0 146 151 161 255
-0.582743 0.668309 4.11741 0 0 0 61 68 87 255
-0.51347 0.66275 4.09846 0 0 0 59 65 84 255
-0.437124 0.667795 4.16028 0 0 0 153 157 159 255
-0.95346 0.686959 4.16268 0 0 0 28 44 82 255
-0.863221 0.676669 4.08452 0 0 0 56 60 71 255
-0.774477 0.677222 4.06552 0 0 0 34 53 94 255
-0.364415 0.683803 4.22111 0 0 0 146 152 161 255
-0.959661 0.700338 4.16381 0 0 0 24 46 91 255
-0.866008 0.704716 4.08361 0 0 0 111 118 126 255
-0.742613 0.70944 4.07578 0 0 0 153 157 160 255
-0.416526 0.728085 4.18882 0 0 0 154 159 171 255
-0.878028 0.76195 4.08789 0 0 0 107 117 124 255
2.27637 0.734163 3.68785 0 0 0 110 80 42 255
-0.685607 0.776922 4.0909 0 0 0 156 158 163 255
-1.00206 0.815222 4.22218 0 0 0 39 52 75 255
-0.389714 0.804594 4.21406 0 0 0 103 118 135 255
-0.290326 0.80626 4.33077 0 0 0 149 153 154 255
-0.623292 0.812493 4.08672 0 0 0 49 59 86 255
-0.339811 0.81633 4.25569 0 0 0 33 58 96 255
-0.811157 0.827941 4.08279 0 0 0 74 80 99 255
-0.621046 0.878815 4.09029 0 0 0 58 75 97 255
-0.416729 0.903341 4.19893 0 0 0 61 73 100 255
-0.742722 0.886141 4.07347 0 0 0 60 75 95 255
-0.503412 0.897352 4.13087 0 0 0 160 162 163 255
-0.848532 0.906315 4.06304 0 0 0 31 51 92 255
-0.567243 0.930916 4.10174 0 0 0 160 162 163 255
-0.850369 0.923251 4.06481 0 0 0 26 52 95 255
-0.669927 0.949832 4.09873 0 0 0 159 162 161 255
-0.62358 0.950384 4.09166 0 0 0 77 85 106 255
-0.796272 0.984516 4.0944 0 0 0 41 55 91 255
1.1857 1.12034 5.05136 0 0 0 168 174 170 255
-0.480503 1.00163 4.15049 0 0 0 137 155 172 255
-0.365965 1.01659 4.24361 0 0 0 122 144 164 255
-0.924794 1.01747 4.16493 0 0 0 148 150 151 255
1.18867 1.22227 5.06383 0 0 0 158 162 161 255
-0.623744 1.07855 4.10074 0 0 0 113 153 184 255
-0.392945 1.1458 4.2373 0 0 0 145 152 158 255
2.12644 1.06232 3.75446 0 0 0 95 95 94 255
2.28308 1.06785 3.70471 0 0 0 86 79 81 255
-0.676141 1.15817 4.08497 0 0 0 23 88 136 255
-0.632724 1.15363 4.07843 0 0 0 142 157 181 255
-0.580416 1.14263 4.06479 0 0 0 9 108 147 255
-0.864828 1.20254 4.12377 0 0 0 142 144 146 255
-0.784738 1.18171 4.10587 0 0 0 19 84 129 255
-0.620055 1.19474 4.05478 0 0 0 46 80 123 255
-0.335759 1.23363 4.27597 0 0 0 162 140 95 255
-0.912405 1.22174 4.14513 0 0 0 82 104 140 255
-0.901436 1.27334 4.13458 0 0 0 124 142 163 255
-0.865765 1.30499 4.12969 0 0 0 124 131 141 255
-0.797237 1.31309 4.1027 0 0 0 29 74 114 255
-0.711784 1.3002 4.10933 0 0 0 111 112 122 255
-0.376485 1.39111 4.23188 0 0 0 152 154 156 255
-0.868758 1.38152 4.10753 0 0 0 84 129 157 255
2.4102 1.41273 3.7808 0 0 0 93 90 94 255
2.39289 1.62949 3.9852 0 0 0 205 206 212 255
2.23573 -0.197787 3.80625 0 0 0 42 41 42 255
2.46223 -0.192013 3.94089 0 0 0 63 43 41 255
2.12762 -0.0539934 3.99331 0 0 0 47 49 51 255
2.47665 0.050482 3.92765 0 0 0 83 86 92 255
-1.04179 0.135802 4.25252 0 0 0 22 47 84 255
-0.655417 0.273293 4.05596 0 0 0 129 110 99 255
2.289 0.269324 3.69436 0 0 0 118 95 70 255
-0.366488 0.354225 4.21422 0 0 0 124 141 155 255
1.96086 0.338106 4.01187 0 0 0 59 58 59 255
-0.951108 0.352237 4.1547 0 0 0 96 99 113 255
-0.87521 0.333266 4.08583 0 0 0 8 56 107 255
0.767754 0.389491 4.57963 0 0 0 159 159 159 255
2.39462 0.399342 3.6788 0 0 0 122 130 137 255
-0.439017 0.420263 4.14958 0 0 0 149 150 154 255
2.07383 0.397413 3.75249 0 0 0 124 136 136 255
2.18411 0.415035 3.69235 0 0 0 132 143 146 255
2.28765 0.392533 3.67273 0 0 0 143 143 143 255
2.34203 0.434989 3.66998 0 0 0 40 41 47 255
-0.944541 0.469844 4.17479 0 0 0 145 109 78 255
2.26781 0.490693 3.67741 0 0 0 136 136 137 255
-0.459601 0.587343 4.14571 0 0 0 158 160 160 255
1.97524 0.595827 4.01251 0 0 0 45 46 47 255
-0.641743 0.575327 4.07749 0 0 0 153 155 167 255
-0.73704 0.627652 4.06891 0 0 0 156 159 159 255
-0.364604 0.655524 4.22446 0 0 0 113 126 151 255
-0.969052 0.685516 4.17698 0 0 0 22 44 84 255
-0.639305 0.687307 4.08503 0 0 0 154 158 160 255
-0.420059 0.67961 4.17818 0 0 0 32 60 105 255
-0.870818 0.72271 4.08221 0 0 0 122 125 129 255
0.790519 0.758018 4.60811 0 0 0 70 110 74 255
-0.745353 0.73094 4.07097 0 0 0 159 160 160 255
-0.414055 0.879014 4.19573 0 0 0 158 161 161 255
-0.85627 0.90515 4.06519 0 0 0 29 52 93 255
-0.768276 0.941224 4.08226 0 0 0 158 161 160 255
-0.985939 1.068 4.22199 0 0 0 23 53 95 255
-0.4069 1.10718 4.22678 0 0 0 3 94 141 255
-0.356131 1.14568 4.25764 0 0 0 146 150 155 255
-0.573667 1.14302 4.06587 0 0 0 4 108 151 255
-0.865917 1.19241 4.12135 0 0 0 141 143 145 255
-0.784769 1.18757 4.10605 0 0 0 20 85 131 255
-0.724715 1.18007 4.10187 0 0 0 126 144 160 255
-0.658502 1.17772 4.09276 0 0 0 33 87 135 255
-0.346549 1.25376 4.27237 0 0 0 164 148 92 255
0.364519 1.40138 4.92386 0 0 0 67 94 81 255
-0.881104 1.2743 4.12892 0 0 0 138 143 146 255
-0.769834 1.27475 4.10672 0 0 0 157 157 158 255
-0.361284 1.28418 4.27406 0 0 0 168 154 103 255
-0.789398 1.30462 4.10283 0 0 0 36 74 113 255
-0.691298 1.29443 4.00964 0 0 0 132 130 139 255
-0.62268 1.29836 4.04915 0 0 0 28 75 118 255
-0.546629 1.30927 4.07669 0 0 0 166 160 125 255
-0.294996 1.46103 4.65304 0 0 0 45 86 123 255
2.13599 -0.0833062 3.98962 0 0 0 65 66 72 255
-0.33399 0.106541 4.58199 0 0 0 26 61 102 255
2.05341 0.165127 4.02664 0 0 0 55 58 57 255
-0.362666 0.369007 4.22181 0 0 0 138 149 156 255
-0.892867 0.405955 4.09293 0 0 0 143 135 116 255
-0.607054 0.392982 4.07518 0 0 0 135 143 155 255
-0.530418 0.397791 4.09773 0 0 0 153 159 162 255
1.97578 0.417907 3.95042 0 0 0 111 113 111 255
-0.921774 0.449545 4.14334 0 0 0 147 142 134 255
-0.730091 0.459424 4.06156 0 0 0 117 125 105 255
-0.355192 0.46273 4.22984 0 0 0 151 153 161 255
1.09155 0.522119 4.77544 0 0 0 93 113 86 255
1.98221 0.509027 3.93286 0 0 0 121 128 125 255
-0.966057 0.535324 4.18269 0 0 0 12 59 104 255
0.829669 0.594263 4.61446 0 0 0 156 160 161 255
2.07893 0.55017 3.75377 0 0 0 135 139 140 255
2.20285 0.55146 3.68867 0 0 0 143 142 139 255
-0.628376 0.589894 4.08633 0 0 0 157 159 161 255
-0.462619 0.594433 4.14323 0 0 0 157 160 162 255
1.96798 0.603706 4.03311 0 0 0 50 52 52 255
-0.907953 0.631225 4.12854 0 0 0 150 152 151 255
-0.83329 0.600736 4.10474 0 0 0 146 152 155 255
-0.511332 0.647119 4.08697 0 0 0 156 158 158 255
-0.319342 0.68804 4.32414 0 0 0 146 153 154 255
-0.963567 0.695026 4.1688 0 0 0 23 46 87 255
0.947104 0.75036 4.64552 0 0 0 116 146 130 255
1.09071 0.771636 4.76515 0 0 0 48 91 74 255
-0.668818 0.730995 4.0799 0 0 0 27 55 103 255
-1.00769 0.823943 4.22464 0 0 0 23 61 94 255
-0.732149 0.866542 4.07941 0 0 0 37 61 107 255
-0.455738 0.833127 4.15676 0 0 0 107 104 108 255
-0.612931 0.909096 4.09548 0 0 0 158 161 165 255
-0.856699 0.979235 4.13026 0 0 0 152 154 156 255
-0.475884 1.00029 4.15212 0 0 0 137 155 172 255
-0.367131 1.02377 4.24327 0 0 0 127 129 131 255
-0.483379 1.0638 4.14962 0 0 0 148 152 158 255
-0.349941 1.20985 4.27036 0 0 0 140 124 104 255
1.11158 1.39878 5.06678 0 0 0 68 108 88 255
-0.521866 1.31738 4.09506 0 0 0 174 163 107 255
-0.948401 1.41496 4.19433 0 0 0 44 79 117 255
-0.515035 1.43937 4.14239 0 0 0 45 86 124 255
1.99527 1.5761 4.10153 0 0 0 110 112 108 255
2.13044 -0.20211 3.99747 0 0 0 84 67 60 255
2.12309 -0.128389 3.99929 0 0 0 72 57 57 255
1.05447 0.113358 4.8081 0 0 0 45 91 64 255
2.04622 0.177918 4.02481 0 0 0 54 54 54 255
2.07772 0.171372 4.01063 0 0 0 40 47 49 255
1.97833 0.270189 4.01875 0 0 0 109 101 98 255
-0.859493 0.421796 4.10032 0 0 0 147 132 77 255
1.95943 0.471225 3.9745 0 0 0 128 132 131 255
-0.409268 0.623362 4.17653 0 0 0 25 57 105 255
-0.837457 0.647734 4.09754 0 0 0 154 153 154 255
-0.692438 0.637278 4.06534 0 0 0 23 56 107 255
1.05793 0.813294 4.73353 0 0 0 50 95 71 255
-0.730644 0.816285 4.07143 0 0 0 73 84 96 255
-0.30225 0.874574 4.29188 0 0 0 18 64 112 255
1.9956 0.903919 4.07801 0 0 0 46 51 52 255
-0.384871 1.21849 4.23685 0 0 0 153 126 99 255
0.383075 1.38465 4.8982 0 0 0 64 93 79 255
-0.8284 1.21307 4.10651 0 0 0 131 129 136 255
-0.460272 1.31444 4.18079 0 0 0 173 160 74 255
-0.335438 1.44315 4.63277 0 0 0 30 78 119 255
-0.873002 1.43288 4.11136 0 0 0 50 80 110 255
2.19979 -0.189353 3.88537 0 0 0 129 93 98 255
2.49228 -0.183141 3.93565 0 0 0 82 87 87 255
2.30523 -0.17022 3.92211 0 0 0 138 103 105 255
2.49799 -0.0924489 3.94979 0 0 0 115 122 124 255
2.50355 -0.072 3.9496 0 0 0 81 85 86 255
2.49408 -0.01213 3.9544 0 0 0 120 127 129 255
2.21212 0.0141651 3.91304 0 0 0 162 162 162 255
2.54289 0.120919 3.97074 0 0 0 113 115 117 255
-0.307405 0.0911274 4.61597 0 0 0 81 87 99 255
2.33949 0.253742 3.70369 0 0 0 155 135 115 255
0.648839 0.248474 4.59918 0 0 0 30 53 50 255
0.920341 0.259967 4.61632 0 0 0 96 101 99 255
0.468413 0.273653 4.64063 0 0 0 121 130 129 255
0.961123 0.269378 4.63144 0 0 0 83 112 100 255
2.34712 0.30579 3.70043 0 0 0 76 50 28 255
-0.741944 0.289433 4.06491 0 0 0 30 47 93 255
2.31964 0.309522 3.69369 0 0 0 153 123 92 255
0.670464 0.320731 4.57545 0 0 0 123 149 104 255
-0.387534 0.320002 4.19116 0 0 0 62 112 157 255
-0.337262 0.411125 4.24112 0 0 0 114 88 103 255
2.5129 0.425232 3.71892 0 0 0 99 98 98 255
-0.423277 0.448914 4.15248 0 0 0 150 151 157 255
2.28015 0.452306 3.66885 0 0 0 86 81 78 255
-0.516234 0.478971 4.10234 0 0 0 40 83 116 255
2.11614 0.524204 3.72863 0 0 0 38 42 46 255
2.22545 0.536146 3.68161 0 0 0 35 40 52 255
2.06411 0.555413 3.76039 0 0 0 75 86 87 255
0.575441 0.688 4.63324 0 0 0 145 153 151 255
1.10931 0.736287 4.79508 0 0 0 136 148 146 255
1.09162 0.753133 4.7611 0 0 0 134 142 139 255
1.05305 0.771085 4.73936 0 0 0 144 153 153 255
-0.792346 0.757784 4.0362 0 0 0 86 89 99 255
2.33158 0.714322 3.67404 0 0 0 73 61 49 255
-0.824687 0.877636 4.00661 0 0 0 57 71 86 255
-0.820948 0.879969 4.00428 0 0 0 61 67 88 255
1.87385 1.4166 6.85361 0 0 0 147 145 139 255
1.31616 1.38829 6.56245 0 0 0 133 131 125 255
1.23855 1.36243 6.36476 0 0 0 142 141 133 255
0.906077 1.17886 4.64958 0 0 0 95 89 43 255
2.39741 1.0424 3.70283 0 0 0 99 97 98 255
2.42191 1.04328 3.68593 0 0 0 107 115 115 255
2.16455 1.06331 3.72723 0 0 0 125 133 133 255
2.07621 1.08373 3.78078 0 0 0 90 93 94 255
2.20857 1.08484 3.71688 0 0 0 73 75 74 255
2.30739 1.08117 3.69881 0 0 0 87 89 90 255
2.33698 1.08176 3.69424 0 0 0 87 93 93 255
2.20986 1.16498 3.67665 0 0 0 99 102 104 255
2.22869 1.23949 3.6698 0 0 0 109 118 116 255
2.39181 1.23488 3.65491 0 0 0 100 98 98 255
-0.421155 1.40143 4.19987 0 0 0 113 120 126 255
-0.678814 1.37346 3.85146 0 0 0 70 107 143 255
2.15117 1.36794 3.70337 0 0 0 117 120 119 255
2.18821 1.37897 3.6745 0 0 0 119 121 125 255
2.21787 1.39354 3.66127 0 0 0 100 102 104 255
2.49665 -6.38587e-05 3.95279 0 0 0 138 145 145 255
2.37929 0.315594 3.69839 0 0 0 106 86 56 255
0.609007 0.372924 4.59304 0 0 0 90 60 64 255
-0.728296 0.39436 4.05573 0 0 0 119 120 112 255
-0.514937 0.487025 4.10364 0 0 0 19 83 128 255
2.51075 0.49296 3.70526 0 0 0 68 49 45 255
2.63751 0.899374 3.87938 0 0 0 90 99 99 255
-0.661583 0.940002 4.02112 0 0 0 159 159 164 255
2.3934 1.03316 3.67214 0 0 0 81 82 82 255
-0.696195 1.36737 3.84954 0 0 0 80 126 160 255
-0.514389 1.42094 4.14751 0 0 0 64 114 148 255
2.11808 -0.201422 4.00337 0 0 0 109 98 94 255
2.1112 -0.0161408 4.01852 0 0 0 149 149 147 255
0.673758 0.244561 4.59713 0 0 0 96 99 99 255
2.38098 0.261297 3.70753 0 0 0 155 118 75 255
-0.715219 0.296314 4.05886 0 0 0 143 131 87 255
2.39213 0.320686 3.69636 0 0 0 64 43 28 255
0.885991 0.396988 4.60721 0 0 0 153 144 145 255
1.0282 0.415486 4.69141 0 0 0 131 63 70 255
-0.726656 0.402691 4.05426 0 0 0 145 145 130 255
0.446574 0.428923 4.671 0 0 0 140 139 139 255
2.34483 0.461629 3.67119 0 0 0 47 44 47 255
-0.471557 0.485575 4.12367 0 0 0 114 121 130 255
2.36717 0.539271 3.65066 0 0 0 41 40 45 255
-0.855906 0.739791 4.0462 0 0 0 93 101 111 255
2.36544 0.726891 3.70367 0 0 0 91 69 44 255
-0.694795 0.78988 4.09413 0 0 0 159 158 161 255
2.36278 0.748516 3.69534 0 0 0 97 71 33 255
-0.568626 0.908775 4.0913 0 0 0 161 161 163 255
0.858391 1.13819 4.62439 0 0 0 152 156 133 255
-0.383093 1.10788 4.22789 0 0 0 9 82 129 255
0.889121 1.17585 4.63528 0 0 0 125 121 72 255
-0.431291 1.3896 4.09091 0 0 0 155 159 162 255
2.455 1.36417 3.64193 0 0 0 88 84 87 255
