ply
format ascii 1.0
comment VCGLIB generated
element vertex 1028
property float x
property float y
property float z
property float nx
property float ny
property float nz
property uchar red
property uchar green
property uchar blue
property uchar alpha
element face 0
property list uchar int vertex_indices
end_header
0.956504 0.566231 4.63693 0 0 0 156 161 159 255
0.912603 0.574015 4.62118 0 0 0 143 167 163 255
0.554359 0.591899 4.63898 0 0 0 107 139 131 255
0.497873 0.591151 4.65822 0 0 0 151 156 154 255
0.532661 0.609514 4.64414 0 0 0 115 152 149 255
0.9432 0.608751 4.63546 0 0 0 151 158 158 255
0.750718 0.619535 4.58829 0 0 0 156 167 164 255
0.832802 0.628386 4.60091 0 0 0 104 120 104 255
-0.295033 0.634185 4.34378 0 0 0 113 134 153 255
-0.309422 0.67397 4.32466 0 0 0 115 122 125 255
1.05085 0.763739 4.68669 0 0 0 108 141 127 255
-0.308387 0.718845 4.32236 0 0 0 104 110 122 255
0.827325 0.768711 4.60629 0 0 0 70 115 86 255
0.916594 0.791347 4.62888 0 0 0 139 170 157 255
0.737452 0.804515 4.60119 0 0 0 82 133 112 255
-0.305377 0.770103 4.31486 0 0 0 72 79 96 255
0.925662 0.835277 4.62719 0 0 0 124 146 143 255
0.869606 0.833783 4.61691 0 0 0 161 168 166 255
0.826602 0.85734 4.6023 0 0 0 135 141 132 255
0.850492 0.85553 4.60966 0 0 0 154 164 158 255
0.739173 0.869389 4.59714 0 0 0 134 164 160 255
0.929201 0.886389 4.63299 0 0 0 78 125 99 255
0.498874 0.906681 4.67997 0 0 0 145 152 149 255
1.02445 0.935379 4.70284 0 0 0 120 149 126 255
0.783788 0.932942 4.61168 0 0 0 101 143 128 255
0.464703 0.93554 4.70261 0 0 0 127 142 138 255
0.569495 0.937536 4.64174 0 0 0 137 147 144 255
1.89 1.39305 6.71416 0 0 0 136 132 125 255
1.89754 1.35837 6.50076 0 0 0 139 136 128 255
2.08027 1.40671 6.47381 0 0 0 109 104 95 255
2.16591 1.37303 6.29175 0 0 0 145 142 137 255
1.89177 1.46949 6.74195 0 0 0 104 100 97 255
0.967773 1.0422 4.67734 0 0 0 70 122 140 255
0.859775 1.05375 4.62992 0 0 0 72 91 101 255
0.923289 1.07947 4.65329 0 0 0 117 136 96 255
0.46692 1.17952 4.72406 0 0 0 102 108 113 255
0.964767 1.17525 4.67294 0 0 0 109 97 42 255
0.699996 1.17385 4.61905 0 0 0 108 107 108 255
0.745643 1.17482 4.61469 0 0 0 123 111 128 255
0.858709 1.17811 4.63272 0 0 0 117 99 40 255
0.453769 1.23501 4.72861 0 0 0 84 87 95 255
0.996484 1.34553 4.70764 0 0 0 138 162 150 255
0.905598 1.34566 4.66476 0 0 0 80 129 106 255
1.00009 1.36833 4.70543 0 0 0 152 161 157 255
0.907512 1.38116 4.65984 0 0 0 144 174 163 255
0.31499 0.0635268 4.88818 0 0 0 145 147 146 255
1.13368 0.0727495 4.94366 0 0 0 87 105 95 255
0.473631 0.235586 4.65119 0 0 0 134 137 136 255
0.902003 0.237976 4.60455 0 0 0 135 152 151 255
0.955625 0.233519 4.62375 0 0 0 118 141 138 255
0.517593 0.25811 4.62045 0 0 0 137 139 138 255
0.706407 0.243284 4.57661 0 0 0 83 112 104 255
0.778044 0.240967 4.57087 0 0 0 133 140 139 255
0.845544 0.337083 4.5936 0 0 0 98 79 77 255
0.911636 0.338068 4.61068 0 0 0 134 141 125 255
0.560397 0.3676 4.61367 0 0 0 120 53 56 255
0.667768 0.3555 4.57898 0 0 0 101 75 77 255
0.968161 0.360596 4.64473 0 0 0 155 151 151 255
-0.318247 0.365863 4.25893 0 0 0 95 112 131 255
0.636833 0.381962 4.58471 0 0 0 159 159 159 255
0.751354 0.380852 4.57187 0 0 0 178 131 142 255
0.456171 0.406964 4.66623 0 0 0 86 72 73 255
1.00268 0.409359 4.66632 0 0 0 137 70 66 255
-0.305698 0.400131 4.27435 0 0 0 19 85 129 255
0.683246 0.416915 4.57408 0 0 0 142 50 53 255
0.852173 0.413488 4.59014 0 0 0 141 89 96 255
0.845461 0.532049 4.60349 0 0 0 66 112 83 255
0.922359 0.536559 4.62544 0 0 0 132 153 149 255
0.683269 0.55902 4.57702 0 0 0 148 169 163 255
0.755387 0.556525 4.59077 0 0 0 131 153 146 255
1.02965 0.585719 4.70783 0 0 0 117 156 147 255
0.38777 0.60317 4.745 0 0 0 128 146 144 255
0.55494 0.610711 4.63786 0 0 0 154 163 160 255
0.749455 0.613391 4.58792 0 0 0 153 167 167 255
0.815792 0.61464 4.59943 0 0 0 161 164 162 255
-0.301864 0.643698 4.33452 0 0 0 146 157 165 255
0.914801 0.787816 4.62785 0 0 0 111 156 132 255
-0.293931 0.788481 4.32519 0 0 0 150 159 160 255
0.854845 0.845765 4.61124 0 0 0 165 170 168 255
0.741103 0.866456 4.59839 0 0 0 134 164 160 255
1.01796 0.938307 4.70138 0 0 0 122 146 124 255
0.573393 0.937139 4.64505 0 0 0 155 164 161 255
1.72497 1.45823 6.71277 0 0 0 115 114 108 255
1.87378 1.39885 6.36062 0 0 0 88 85 83 255
2.14078 1.37002 6.2844 0 0 0 128 125 118 255
0.925897 1.1259 4.6536 0 0 0 48 82 100 255
0.463741 1.19821 4.72017 0 0 0 89 99 114 255
0.961622 1.18079 4.66922 0 0 0 98 93 54 255
0.990333 1.35025 4.70695 0 0 0 128 154 141 255
0.911475 1.36017 4.66499 0 0 0 142 173 160 255
-0.324531 0.100768 4.61012 0 0 0 35 74 110 255
0.38683 0.115561 4.81277 0 0 0 28 57 42 255
0.390669 0.142691 4.80928 0 0 0 48 86 64 255
0.472421 0.228895 4.65978 0 0 0 107 136 128 255
0.592278 0.23432 4.60294 0 0 0 141 154 149 255
0.718804 0.216211 4.57103 0 0 0 68 108 74 255
0.784607 0.223784 4.57724 0 0 0 84 112 107 255
0.529987 0.263447 4.61652 0 0 0 123 132 131 255
0.448992 0.34256 4.68111 0 0 0 132 139 131 255
1.0095 0.339067 4.67841 0 0 0 118 68 71 255
0.639491 0.373053 4.58474 0 0 0 160 162 157 255
-0.31543 0.366309 4.26307 0 0 0 75 122 156 255
0.868 0.414332 4.59662 0 0 0 122 53 62 255
0.654096 0.418639 4.57957 0 0 0 165 114 121 255
0.841819 0.426676 4.58746 0 0 0 142 59 65 255
-0.296347 0.448211 4.28852 0 0 0 19 80 124 255
0.499829 0.534002 4.65764 0 0 0 143 157 153 255
1.11702 0.544272 4.84183 0 0 0 80 104 80 255
0.853536 0.551797 4.60426 0 0 0 162 168 166 255
0.936123 0.547918 4.62694 0 0 0 157 163 161 255
0.690549 0.559511 4.58035 0 0 0 157 169 169 255
0.760149 0.562256 4.5918 0 0 0 151 169 167 255
0.388971 0.593935 4.74537 0 0 0 126 145 145 255
0.943241 0.584172 4.63433 0 0 0 159 164 162 255
1.0317 0.594166 4.70713 0 0 0 125 164 155 255
0.770564 0.607657 4.59109 0 0 0 164 169 167 255
0.486125 0.62129 4.67013 0 0 0 53 86 78 255
0.823685 0.634492 4.59686 0 0 0 91 102 87 255
-0.311291 0.661695 4.32313 0 0 0 156 159 160 255
0.55301 0.688279 4.6359 0 0 0 154 164 162 255
0.822782 0.759421 4.60085 0 0 0 71 117 87 255
1.05076 0.763701 4.6865 0 0 0 108 141 127 255
0.946408 0.79018 4.64336 0 0 0 159 166 164 255
-0.292182 0.784257 4.33032 0 0 0 142 149 153 255
0.754181 0.821848 4.6057 0 0 0 167 172 170 255
0.9345 0.827694 4.636 0 0 0 154 166 164 255
0.855379 0.838469 4.61215 0 0 0 163 171 168 255
0.743274 0.845287 4.60169 0 0 0 157 174 171 255
0.471115 0.907419 4.69984 0 0 0 140 154 153 255
0.572454 0.919882 4.64965 0 0 0 158 166 166 255
1.8864 1.37656 6.64104 0 0 0 155 151 143 255
1.89706 1.35995 6.51435 0 0 0 139 136 128 255
2.1425 1.36871 6.2847 0 0 0 128 125 118 255
1.73446 1.45017 6.71307 0 0 0 124 123 117 255
1.87709 1.39718 6.34671 0 0 0 82 80 79 255
0.964065 1.10011 4.66997 0 0 0 28 83 125 255
0.443084 1.17215 4.74721 0 0 0 131 138 137 255
0.44451 1.15689 4.75614 0 0 0 113 133 124 255
0.939059 1.11764 4.65775 0 0 0 43 81 106 255
0.569385 1.15395 4.65579 0 0 0 137 154 151 255
0.863157 1.18231 4.63164 0 0 0 102 96 67 255
0.444127 1.26228 4.7411 0 0 0 129 136 135 255
0.575653 1.269 4.66064 0 0 0 143 146 145 255
0.639919 1.2573 4.62399 0 0 0 91 116 85 255
0.33187 1.4036 4.99509 0 0 0 75 92 82 255
0.916021 1.35914 4.66665 0 0 0 154 161 159 255
0.333066 0.0892823 4.87641 0 0 0 72 99 83 255
1.11521 0.095076 4.94124 0 0 0 66 101 78 255
0.5272 0.386224 4.63484 0 0 0 164 152 156 255
0.780761 0.374693 4.57827 0 0 0 164 167 166 255
0.83578 0.390602 4.58776 0 0 0 108 74 74 255
1.06826 0.549617 4.73061 0 0 0 65 104 75 255
0.818417 0.573392 4.59252 0 0 0 162 169 169 255
0.924817 0.570879 4.62305 0 0 0 157 167 164 255
0.684296 0.581843 4.57791 0 0 0 154 170 167 255
0.793126 0.580145 4.59959 0 0 0 165 169 168 255
0.553139 0.668843 4.63824 0 0 0 158 163 161 255
-0.321871 0.653442 4.31355 0 0 0 160 162 163 255
0.933802 0.805997 4.63885 0 0 0 160 167 167 255
0.824775 0.825705 4.60507 0 0 0 170 173 172 255
0.746995 0.842369 4.60301 0 0 0 157 174 172 255
0.573877 0.897505 4.65715 0 0 0 160 166 164 255
1.7593 1.46235 6.69954 0 0 0 103 102 100 255
0.441514 1.16071 4.75578 0 0 0 124 135 133 255
0.713946 1.14426 4.61786 0 0 0 140 155 150 255
0.40843 1.23544 4.77901 0 0 0 123 143 132 255
0.716776 1.26653 4.62091 0 0 0 145 150 148 255
0.340202 1.39225 4.99663 0 0 0 79 94 81 255
1.1166 0.0902952 4.93425 0 0 0 64 101 80 255
-0.344779 0.144909 4.5666 0 0 0 17 69 115 255
0.519268 0.245792 4.62072 0 0 0 142 139 140 255
0.780898 0.251277 4.57194 0 0 0 150 155 154 255
0.90709 0.2461 4.60873 0 0 0 139 150 151 255
0.641602 0.365447 4.58348 0 0 0 156 160 153 255
1.07528 0.534951 4.74262 0 0 0 82 110 73 255
0.444938 0.616624 4.70239 0 0 0 141 153 156 255
0.55635 0.645569 4.63565 0 0 0 157 163 162 255
0.765678 0.835151 4.60849 0 0 0 168 173 172 255
0.475636 0.885041 4.69367 0 0 0 142 154 154 255
2.10862 1.38253 6.43098 0 0 0 133 130 122 255
0.940154 1.05634 4.66366 0 0 0 42 93 122 255
0.937691 1.10661 4.65783 0 0 0 47 83 104 255
0.881724 1.1615 4.63465 0 0 0 169 149 74 255
0.420171 1.24141 4.76229 0 0 0 135 141 141 255
0.357962 0.128261 4.87469 0 0 0 59 95 67 255
1.02287 0.112971 4.64603 0 0 0 57 102 74 255
-0.348303 0.129635 4.5481 0 0 0 19 70 118 255
-0.316999 0.583011 4.26712 0 0 0 27 81 121 255
0.45639 1.1672 4.73882 0 0 0 134 142 142 255
2.31712 -0.220968 3.90327 0 0 0 55 55 55 255
2.35527 -0.218127 3.89467 0 0 0 66 57 63 255
2.33476 -0.209469 3.8992 0 0 0 153 157 163 255
2.24404 -0.165194 3.83287 0 0 0 138 84 84 255
2.37529 -0.167313 3.83317 0 0 0 127 62 57 255
2.3287 -0.144226 3.85008 0 0 0 167 64 83 255
2.09772 -0.148408 3.97523 0 0 0 147 143 140 255
2.33912 -0.110694 3.92331 0 0 0 95 96 98 255
2.35259 -0.112733 3.9067 0 0 0 100 98 100 255
2.32166 -0.0779173 3.9052 0 0 0 55 55 62 255
2.13523 -0.0738448 3.95581 0 0 0 70 71 78 255
2.50301 -0.0489205 3.99152 0 0 0 39 44 42 255
2.34101 0.00839181 3.91963 0 0 0 200 205 207 255
2.34687 0.07133 3.9282 0 0 0 250 252 254 255
2.35813 0.115567 3.91299 0 0 0 253 251 252 255
2.05653 0.13175 3.97994 0 0 0 123 121 117 255
2.54728 0.134945 3.96107 0 0 0 54 53 58 255
-1.02837 0.189447 4.26319 0 0 0 68 78 91 255
2.3073 0.253512 3.69653 0 0 0 122 112 94 255
-0.494221 0.255031 4.09788 0 0 0 20 46 86 255
-0.478002 0.254661 4.10851 0 0 0 99 103 125 255
2.22243 0.257686 3.70915 0 0 0 139 109 74 255
2.26465 0.258941 3.69749 0 0 0 114 99 81 255
2.40662 0.254574 3.70532 0 0 0 91 78 70 255
-0.65238 0.265173 4.05209 0 0 0 123 104 95 255
-0.625886 0.262123 4.05566 0 0 0 129 107 101 255
-0.511751 0.259998 4.08836 0 0 0 125 105 96 255
-0.446456 0.259981 4.1225 0 0 0 83 87 115 255
0.494913 0.252325 4.64147 0 0 0 100 111 110 255
-0.869209 0.263336 4.09774 0 0 0 100 102 114 255
-0.806512 0.267593 4.0685 0 0 0 97 97 97 255
-0.776757 0.259831 4.06256 0 0 0 89 75 84 255
-0.73027 0.266827 4.05446 0 0 0 106 100 99 255
-0.695556 0.268127 4.05368 0 0 0 140 126 102 255
-0.563649 0.265566 4.06971 0 0 0 110 103 101 255
0.885527 0.259957 4.59876 0 0 0 62 76 74 255
2.38377 0.272567 3.69925 0 0 0 100 56 21 255
-0.845078 0.271437 4.08359 0 0 0 120 118 85 255
-0.547154 0.274445 4.07313 0 0 0 134 110 79 255
-0.877186 0.281792 4.09694 0 0 0 126 125 102 255
-0.805275 0.280403 4.06675 0 0 0 128 122 98 255
-0.609861 0.277771 4.0575 0 0 0 122 102 59 255
2.23102 0.28408 3.6994 0 0 0 106 68 33 255
2.26915 0.282477 3.68896 0 0 0 160 122 66 255
2.31024 0.281158 3.69142 0 0 0 87 49 40 255
2.38145 0.281 3.69817 0 0 0 91 51 24 255
-0.781837 0.290732 4.05922 0 0 0 36 44 62 255
-0.490499 0.289927 4.09671 0 0 0 77 63 50 255
0.719225 0.284981 4.56592 0 0 0 76 95 91 255
-0.867942 0.294633 4.09257 0 0 0 78 76 46 255
-0.823254 0.296839 4.07087 0 0 0 38 39 53 255
-0.683376 0.298733 4.0475 0 0 0 38 39 43 255
-0.642119 0.296813 4.04904 0 0 0 89 71 48 255
-0.606118 0.295047 4.05374 0 0 0 59 57 62 255
-0.574248 0.298389 4.05922 0 0 0 23 46 93 255
-0.546411 0.288065 4.07003 0 0 0 65 47 33 255
-0.508358 0.296156 4.0825 0 0 0 140 115 87 255
2.39958 0.296861 3.69159 0 0 0 91 74 60 255
-0.483895 0.30642 4.09704 0 0 0 98 76 83 255
2.20477 0.303034 3.69433 0 0 0 108 89 64 255
2.25629 0.307495 3.68713 0 0 0 153 118 70 255
2.27742 0.308475 3.67974 0 0 0 135 96 61 255
2.30227 0.304425 3.68747 0 0 0 165 133 81 255
-0.863077 0.314327 4.08896 0 0 0 86 93 132 255
-0.784398 0.315991 4.05738 0 0 0 87 84 115 255
-0.72735 0.31509 4.04877 0 0 0 83 94 128 255
-0.653541 0.316491 4.04516 0 0 0 128 111 86 255
-0.621165 0.312896 4.0507 0 0 0 145 116 97 255
-0.539639 0.312669 4.07072 0 0 0 113 106 101 255
-1.00741 0.326746 4.22857 0 0 0 81 104 136 255
0.61069 0.328166 4.59084 0 0 0 138 142 131 255
0.757694 0.325345 4.57874 0 0 0 141 155 125 255
1.99071 0.337772 3.95321 0 0 0 70 75 76 255
0.582927 0.352762 4.60183 0 0 0 178 129 137 255
0.601174 0.350446 4.59381 0 0 0 121 77 78 255
-0.492155 0.354313 4.10043 0 0 0 54 109 155 255
-0.390117 0.350505 4.17892 0 0 0 14 87 133 255
0.81987 0.358491 4.58522 0 0 0 164 123 128 255
1.02855 0.360053 4.69826 0 0 0 172 130 136 255
1.10378 0.362322 4.74726 0 0 0 91 101 86 255
-0.914308 0.360754 4.1221 0 0 0 35 72 108 255
-0.759439 0.358631 4.05372 0 0 0 22 78 129 255
-0.635733 0.360351 4.05232 0 0 0 122 132 142 255
-0.611582 0.359966 4.0649 0 0 0 9 73 123 255
-0.588635 0.361594 4.07181 0 0 0 96 119 159 255
1.94558 0.361028 3.96437 0 0 0 86 81 79 255
-0.885314 0.365505 4.10498 0 0 0 76 99 128 255
-0.517196 0.364162 4.08763 0 0 0 7 73 123 255
-0.337457 0.370158 4.23158 0 0 0 101 88 100 255
1.0508 0.376624 4.70883 0 0 0 151 125 132 255
-0.491929 0.380877 4.105 0 0 0 55 87 113 255
0.873026 0.383449 4.60163 0 0 0 157 138 142 255
1.95652 0.374235 3.95635 0 0 0 117 119 118 255
-0.560596 0.384248 4.07976 0 0 0 26 81 117 255
-0.531676 0.386155 4.08259 0 0 0 140 150 161 255
-0.411608 0.382939 4.15704 0 0 0 73 89 111 255
1.98526 0.37669 3.93713 0 0 0 112 117 117 255
-0.63763 0.384128 4.05168 0 0 0 68 97 95 255
-0.482769 0.386768 4.11227 0 0 0 25 65 100 255
-0.440755 0.393406 4.13537 0 0 0 36 61 105 255
-0.367282 0.388877 4.19853 0 0 0 78 80 99 255
2.4476 0.382175 3.69931 0 0 0 103 102 105 255
2.49291 0.386729 3.71593 0 0 0 123 130 133 255
2.56674 0.378935 3.78656 0 0 0 79 84 88 255
-0.503085 0.392997 4.09735 0 0 0 33 72 114 255
0.523672 0.404638 4.63148 0 0 0 121 111 114 255
2.06437 0.385802 3.7499 0 0 0 103 107 108 255
2.17059 0.391297 3.68874 0 0 0 132 134 137 255
2.18881 0.388222 3.68368 0 0 0 81 81 81 255
2.27237 0.385435 3.66629 0 0 0 81 83 84 255
2.28674 0.381903 3.6637 0 0 0 88 87 89 255
2.29847 0.388777 3.66114 0 0 0 137 136 137 255
-0.478185 0.405281 4.11345 0 0 0 121 134 152 255
-0.469833 0.406912 4.11724 0 0 0 139 150 165 255
1.05528 0.411493 4.7148 0 0 0 126 90 88 255
1.97208 0.38909 3.94444 0 0 0 73 68 66 255
2.45337 0.397794 3.70296 0 0 0 138 141 140 255
-0.595896 0.410678 4.06707 0 0 0 25 93 124 255
-0.576444 0.410672 4.07345 0 0 0 147 155 163 255
-0.397193 0.411429 4.16743 0 0 0 141 145 164 255
-0.549701 0.423382 4.07679 0 0 0 42 84 121 255
-0.510392 0.416158 4.09184 0 0 0 153 158 160 255
-0.476563 0.421838 4.1118 0 0 0 152 153 157 255
-0.437297 0.419373 4.13498 0 0 0 149 150 154 255
2.09949 0.412018 3.72677 0 0 0 60 39 39 255
2.43327 0.409758 3.69715 0 0 0 61 44 39 255
-0.53457 0.424239 4.07767 0 0 0 81 103 123 255
-0.455167 0.426067 4.12348 0 0 0 63 79 103 255
-0.356192 0.432003 4.20638 0 0 0 103 96 115 255
2.51975 0.411407 3.71973 0 0 0 76 66 67 255
-0.594398 0.430692 4.06724 0 0 0 19 93 125 255
-0.386425 0.438137 4.1718 0 0 0 79 87 98 255
-0.532965 0.438042 4.07632 0 0 0 11 83 127 255
-0.500753 0.439627 4.09716 0 0 0 30 76 115 255
-0.556423 0.444688 4.07266 0 0 0 116 163 192 255
-0.467573 0.444762 4.1162 0 0 0 39 62 90 255
-0.441197 0.447382 4.13129 0 0 0 17 60 109 255
-0.396011 0.446011 4.16333 0 0 0 57 71 108 255
-0.335433 0.452241 4.23038 0 0 0 120 89 112 255
-0.712464 0.449401 4.04801 0 0 0 142 149 136 255
-0.668133 0.449368 4.04945 0 0 0 140 149 148 255
-0.539061 0.460222 4.07263 0 0 0 25 89 126 255
-0.474519 0.45941 4.10997 0 0 0 22 70 125 255
2.10134 0.450313 3.72227 0 0 0 58 39 39 255
-0.666121 0.46668 4.04791 0 0 0 80 95 94 255
-0.627696 0.46821 4.05639 0 0 0 58 94 92 255
-0.575138 0.467349 4.06573 0 0 0 81 103 120 255
-0.418205 0.477165 4.13934 0 0 0 45 84 117 255
2.13842 0.464985 3.70239 0 0 0 91 65 52 255
-1.01701 0.489646 4.25384 0 0 0 110 92 99 255
-0.647876 0.480892 4.04947 0 0 0 84 120 108 255
-0.385004 0.490481 4.1758 0 0 0 73 98 117 255
-0.31898 0.483448 4.25696 0 0 0 31 84 119 255
-0.99573 0.497641 4.25184 0 0 0 108 94 96 255
2.27873 0.4714 3.66275 0 0 0 80 62 54 255
-0.725268 0.492142 4.04371 0 0 0 87 106 123 255
1.96886 0.498245 3.96988 0 0 0 95 96 91 255
2.10141 0.485158 3.72693 0 0 0 67 46 41 255
-0.423025 0.502873 4.14213 0 0 0 60 108 147 255
2.51204 0.480016 3.7171 0 0 0 109 105 106 255
2.11803 0.494332 3.71612 0 0 0 37 43 44 255
2.26772 0.507621 3.66957 0 0 0 87 75 65 255
2.27162 0.506158 3.66871 0 0 0 74 55 41 255
2.29302 0.504926 3.66748 0 0 0 60 51 47 255
1.10673 0.573636 4.8129 0 0 0 106 143 126 255
1.95676 0.549632 3.97913 0 0 0 119 116 115 255
2.42275 0.52902 3.67693 0 0 0 64 53 57 255
-0.439074 0.561352 4.14279 0 0 0 145 149 167 255
2.2054 0.539298 3.67627 0 0 0 81 66 56 255
2.21363 0.531246 3.67465 0 0 0 50 37 39 255
-1.01017 0.571503 4.23289 0 0 0 107 113 138 255
-0.885208 0.566258 4.12185 0 0 0 104 117 151 255
-0.83963 0.56924 4.11131 0 0 0 141 145 147 255
2.45227 0.549999 3.69866 0 0 0 101 103 109 255
2.56005 0.544381 3.76875 0 0 0 131 138 138 255
-0.646004 0.571932 4.07652 0 0 0 138 140 171 255
1.95014 0.571609 4.01641 0 0 0 77 67 61 255
2.49601 0.549896 3.72266 0 0 0 129 138 140 255
2.16909 0.558663 3.68881 0 0 0 114 129 133 255
-0.886775 0.583389 4.08689 0 0 0 24 52 91 255
2.23893 0.556922 3.67129 0 0 0 139 136 137 255
2.31871 0.559073 3.66363 0 0 0 93 103 105 255
2.35416 0.558682 3.67385 0 0 0 140 141 143 255
-0.955757 0.592544 4.16835 0 0 0 33 58 91 255
1.04478 0.625054 4.72014 0 0 0 71 73 73 255
-0.489883 0.603325 4.08278 0 0 0 84 89 109 255
-0.587161 0.616758 4.11342 0 0 0 53 59 75 255
-0.985466 0.652991 4.19675 0 0 0 127 129 132 255
-0.371382 0.644094 4.2185 0 0 0 36 66 115 255
-0.483288 0.650723 4.06953 0 0 0 91 90 94 255
-0.583736 0.666373 4.10506 0 0 0 61 68 87 255
-0.859242 0.678149 4.08021 0 0 0 56 60 71 255
-0.339063 0.682155 4.23987 0 0 0 116 116 118 255
-0.945002 0.680459 4.15634 0 0 0 37 42 54 255
0.549964 0.707501 4.63835 0 0 0 85 123 102 255
-0.993845 0.6909 4.1694 0 0 0 88 95 105 255
-0.430961 0.685645 4.14331 0 0 0 151 158 159 255
1.07177 0.730338 4.75663 0 0 0 127 137 136 255
-0.744974 0.696616 4.0727 0 0 0 123 125 141 255
-0.400011 0.71741 4.1778 0 0 0 132 140 162 255
0.8378 0.746951 4.60865 0 0 0 65 109 78 255
-0.865792 0.715768 4.08107 0 0 0 122 125 129 255
-0.647303 0.717901 4.07803 0 0 0 136 142 163 255
-0.338122 0.734202 4.23921 0 0 0 113 116 127 255
-0.551475 0.747357 4.09188 0 0 0 141 150 171 255
-0.52044 0.747094 4.1149 0 0 0 152 152 158 255
2.25363 0.713925 3.6769 0 0 0 79 76 68 255
2.37892 0.718164 3.69345 0 0 0 86 76 66 255
-0.792279 0.756686 4.06997 0 0 0 78 82 95 255
-0.695908 0.769033 4.08769 0 0 0 131 136 162 255
-0.44813 0.772292 4.14632 0 0 0 70 74 90 255
-0.997533 0.77871 4.20161 0 0 0 130 137 137 255
-0.336607 0.78752 4.24838 0 0 0 60 71 94 255
-0.300029 0.817662 4.2948 0 0 0 97 106 117 255
-0.318942 0.816157 4.26924 0 0 0 127 132 153 255
2.24754 0.760889 3.67657 0 0 0 89 76 57 255
-0.834997 0.80943 4.09928 0 0 0 117 120 126 255
-0.611245 0.805974 4.08363 0 0 0 79 86 105 255
2.3015 0.764072 3.67685 0 0 0 98 74 53 255
-0.63011 0.811054 4.08669 0 0 0 53 63 89 255
-0.380633 0.823634 4.19689 0 0 0 56 73 95 255
-0.447025 0.831772 4.14782 0 0 0 90 89 97 255
-0.809784 0.83164 4.08585 0 0 0 74 80 99 255
-0.359476 0.845028 4.21608 0 0 0 155 157 160 255
0.547318 0.898582 4.65673 0 0 0 71 111 93 255
-0.375546 0.863143 4.19986 0 0 0 82 92 100 255
-0.392439 0.876499 4.18506 0 0 0 156 158 157 255
-0.611643 0.869849 4.08734 0 0 0 103 105 107 255
-0.629659 0.879009 4.08612 0 0 0 67 83 105 255
-0.95753 0.898226 4.17547 0 0 0 79 88 101 255
-0.361416 0.904839 4.20791 0 0 0 73 96 127 255
-0.718624 0.900807 4.08349 0 0 0 35 64 104 255
-0.513828 0.912434 4.11634 0 0 0 157 157 163 255
1.07925 1.00088 4.74975 0 0 0 121 139 124 255
-0.545181 0.923004 4.09491 0 0 0 155 159 160 255
-0.434449 0.932537 4.17001 0 0 0 73 92 125 255
-0.727371 0.93023 4.08481 0 0 0 159 160 161 255
-0.611438 0.941355 4.09085 0 0 0 125 125 125 255
-0.583898 0.937841 4.08098 0 0 0 148 150 152 255
-0.887551 0.956635 4.14284 0 0 0 35 51 92 255
-0.713428 0.951047 4.08777 0 0 0 81 91 108 255
-0.693495 0.965824 4.09264 0 0 0 153 149 159 255
-0.57344 0.976225 4.09152 0 0 0 75 92 137 255
-0.750078 0.978248 4.08524 0 0 0 157 157 157 255
-0.611197 0.98941 4.08879 0 0 0 68 89 127 255
-0.361027 1.01188 4.23653 0 0 0 118 140 158 255
1.17926 1.13964 5.0591 0 0 0 172 176 170 255
-0.846141 0.998258 4.0365 0 0 0 40 50 84 255
-0.69748 1.00631 4.0887 0 0 0 66 84 118 255
1.92935 1.37571 6.59118 0 0 0 144 141 136 255
-0.37154 1.03108 4.22654 0 0 0 52 101 130 255
-0.90602 1.02079 4.09034 0 0 0 135 131 139 255
-0.913754 1.02909 4.16553 0 0 0 145 149 150 255
1.20425 1.17589 5.07461 0 0 0 120 118 116 255
-0.992373 1.03957 4.2015 0 0 0 116 120 122 255
-0.49686 1.04244 4.12449 0 0 0 41 99 138 255
-0.493301 1.08108 4.12144 0 0 0 60 110 140 255
-0.365139 1.11111 4.2259 0 0 0 28 73 120 255
-0.335022 1.12103 4.25426 0 0 0 29 75 113 255
2.06935 1.04753 3.78429 0 0 0 107 110 109 255
2.11823 1.04991 3.75379 0 0 0 117 117 118 255
2.16824 1.04928 3.73251 0 0 0 90 86 85 255
2.10691 1.05557 3.76177 0 0 0 99 103 103 255
2.13676 1.05439 3.7559 0 0 0 97 94 95 255
2.21088 1.05058 3.72051 0 0 0 90 92 91 255
-0.388504 1.13739 4.20285 0 0 0 135 146 156 255
-0.314109 1.14509 4.27591 0 0 0 109 132 145 255
2.25154 1.04891 3.69927 0 0 0 80 81 80 255
2.31395 1.05521 3.70457 0 0 0 103 98 100 255
2.34103 1.05167 3.70083 0 0 0 96 94 96 255
2.21171 1.06731 3.71901 0 0 0 121 124 123 255
2.21011 1.06819 3.72165 0 0 0 121 124 123 255
2.21926 1.08187 3.71758 0 0 0 86 84 84 255
-0.327521 1.1805 4.27145 0 0 0 51 76 100 255
2.16368 1.08674 3.7264 0 0 0 84 89 89 255
2.24918 1.08023 3.69315 0 0 0 83 78 76 255
2.28254 1.0758 3.70602 0 0 0 89 81 83 255
2.35764 1.08432 3.70529 0 0 0 78 78 79 255
2.47862 1.0827 3.73132 0 0 0 73 74 76 255
-0.603581 1.14975 4.05402 0 0 0 24 111 147 255
2.21922 1.08219 3.71886 0 0 0 98 105 102 255
2.39921 1.0895 3.71719 0 0 0 87 92 90 255
-0.863444 1.17532 4.12317 0 0 0 88 116 142 255
-0.628284 1.16675 4.05132 0 0 0 148 149 158 255
2.13295 1.13296 3.75809 0 0 0 102 103 105 255
-0.61687 1.18958 4.05006 0 0 0 66 85 118 255
-0.736987 1.2096 4.09954 0 0 0 115 99 115 255
-0.828483 1.21998 4.10432 0 0 0 107 103 113 255
-0.69234 1.21271 4.08389 0 0 0 113 103 118 255
2.07681 1.17089 3.79212 0 0 0 103 105 104 255
2.25346 1.17555 3.70915 0 0 0 106 107 111 255
2.07068 1.20645 3.79806 0 0 0 115 113 112 255
-0.887613 1.36107 4.11562 0 0 0 69 106 141 255
-0.373008 1.38339 4.22473 0 0 0 140 152 167 255
-0.841971 1.36098 4.10877 0 0 0 65 104 137 255
-0.383984 1.39092 4.19765 0 0 0 93 102 120 255
-0.466994 1.3907 4.15967 0 0 0 93 128 163 255
-0.815698 1.39123 4.10708 0 0 0 22 83 123 255
-0.4606 1.41975 4.1613 0 0 0 157 159 160 255
-0.886659 1.41417 4.11774 0 0 0 89 108 133 255
2.46126 1.4045 3.79337 0 0 0 84 82 84 255
2.25145 1.41287 3.79984 0 0 0 112 112 112 255
2.1707 1.43021 3.83099 0 0 0 100 100 100 255
2.31051 1.41643 3.77491 0 0 0 106 106 106 255
2.38519 1.63083 3.98878 0 0 0 191 193 199 255
2.39535 1.62889 3.98083 0 0 0 207 207 208 255
2.33046 -0.210323 3.90099 0 0 0 153 157 163 255
2.36285 -0.210316 3.89378 0 0 0 46 45 44 255
2.23238 -0.164945 3.83911 0 0 0 140 73 68 255
0.947989 -0.242482 4.71347 0 0 0 211 211 212 255
2.3423 0.015208 3.91551 0 0 0 200 205 207 255
-1.04235 0.133339 4.24859 0 0 0 22 47 84 255
2.04756 0.135361 4.02449 0 0 0 135 135 134 255
2.21157 0.256282 3.71269 0 0 0 121 103 80 255
2.31125 0.249931 3.6972 0 0 0 80 75 76 255
2.4015 0.253041 3.70581 0 0 0 93 77 67 255
-0.724367 0.262169 4.05442 0 0 0 113 104 82 255
-0.870115 0.269592 4.09756 0 0 0 132 125 125 255
-0.563402 0.268901 4.06868 0 0 0 110 103 101 255
-0.481288 0.271579 4.10387 0 0 0 124 109 113 255
2.38095 0.280246 3.69791 0 0 0 91 51 24 255
2.30078 0.305771 3.68685 0 0 0 165 133 81 255
-0.553928 0.312073 4.06386 0 0 0 147 121 91 255
-0.92873 0.330019 4.11832 0 0 0 68 103 139 255
-0.895796 0.354914 4.09441 0 0 0 37 76 112 255
-0.641081 0.355728 4.05149 0 0 0 46 99 143 255
-0.430469 0.348757 4.14141 0 0 0 105 129 149 255
0.408181 0.366459 4.71658 0 0 0 111 87 83 255
0.798247 0.365355 4.58044 0 0 0 144 132 134 255
0.874421 0.375007 4.60198 0 0 0 136 117 121 255
-0.652839 0.390898 4.05002 0 0 0 29 88 75 255
-0.486378 0.389439 4.10998 0 0 0 30 73 108 255
-0.390947 0.397884 4.17529 0 0 0 152 156 156 255
1.98291 0.380155 3.93904 0 0 0 77 84 85 255
2.1177 0.38889 3.71216 0 0 0 89 89 90 255
2.49002 0.38769 3.71793 0 0 0 110 118 121 255
1.93201 0.407453 3.95048 0 0 0 125 120 116 255
-0.589565 0.431495 4.06799 0 0 0 19 93 125 255
2.09996 0.418535 3.72661 0 0 0 58 40 40 255
2.41865 0.409215 3.68802 0 0 0 83 63 45 255
-0.451913 0.440592 4.12374 0 0 0 16 60 108 255
1.97493 0.44468 3.92858 0 0 0 82 76 67 255
2.10118 0.433851 3.72331 0 0 0 58 42 39 255
2.45538 0.429711 3.70463 0 0 0 34 38 37 255
-0.610463 0.454167 4.06314 0 0 0 147 154 154 255
2.13905 0.465534 3.70199 0 0 0 91 65 52 255
-0.543905 0.489855 4.07044 0 0 0 104 120 136 255
-0.4173 0.503576 4.14652 0 0 0 78 121 156 255
1.94091 0.49897 3.99965 0 0 0 122 120 119 255
2.10234 0.499485 3.72765 0 0 0 55 39 39 255
1.08311 0.579632 4.76456 0 0 0 126 142 138 255
2.09963 0.526789 3.72753 0 0 0 50 42 47 255
2.21035 0.526925 3.67544 0 0 0 55 39 41 255
2.27854 0.518786 3.66922 0 0 0 46 36 38 255
2.4198 0.525795 3.69277 0 0 0 57 40 43 255
2.56365 0.542645 3.77626 0 0 0 104 112 118 255
1.94763 0.575028 4.0225 0 0 0 108 100 94 255
2.4889 0.546793 3.72182 0 0 0 123 130 131 255
2.36179 0.559919 3.67176 0 0 0 108 94 86 255
2.4025 0.549517 3.67178 0 0 0 140 142 143 255
2.42255 0.550813 3.68886 0 0 0 143 143 143 255
-1.00223 0.592198 4.2223 0 0 0 134 137 140 255
-0.913317 0.586281 4.12714 0 0 0 32 55 90 255
2.14531 0.554332 3.69677 0 0 0 107 90 75 255
-0.739976 0.610434 4.06501 0 0 0 155 156 156 255
-0.492083 0.603039 4.07902 0 0 0 88 94 113 255
-0.730901 0.645465 4.06586 0 0 0 154 156 158 255
-0.432707 0.681779 4.13978 0 0 0 151 158 159 255
-0.988451 0.707387 4.16651 0 0 0 133 131 130 255
-0.737045 0.715208 4.07325 0 0 0 156 159 161 255
-0.643139 0.706207 4.0753 0 0 0 137 143 162 255
-0.403732 0.723837 4.17554 0 0 0 155 160 168 255
-0.869696 0.724056 4.08393 0 0 0 109 111 116 255
-0.554539 0.759213 4.08923 0 0 0 158 162 163 255
2.25468 0.721524 3.67739 0 0 0 96 76 55 255
-0.878491 0.771821 4.08634 0 0 0 97 108 118 255
-0.696859 0.761402 4.08388 0 0 0 52 69 110 255
-0.459028 0.774803 4.13695 0 0 0 92 94 101 255
-0.336427 0.786437 4.24875 0 0 0 40 53 83 255
-0.318442 0.810877 4.27082 0 0 0 128 133 152 255
-0.630128 0.81106 4.08669 0 0 0 53 63 89 255
-0.455381 0.834968 4.14008 0 0 0 58 66 93 255
-0.409678 0.882999 4.16938 0 0 0 156 157 159 255
-0.452447 0.89714 4.14772 0 0 0 113 117 126 255
-0.955262 0.913001 4.17034 0 0 0 69 69 80 255
-0.510095 0.9119 4.11979 0 0 0 156 159 158 255
-0.559076 0.927294 4.08521 0 0 0 160 162 163 255
-0.741387 0.931916 4.08043 0 0 0 157 161 163 255
-0.888782 0.946296 4.14412 0 0 0 33 52 93 255
-0.682597 0.96222 4.09836 0 0 0 158 160 161 255
-0.717409 0.965685 4.08775 0 0 0 59 71 96 255
-0.751188 0.97595 4.08532 0 0 0 157 157 157 255
-0.483083 0.998497 4.1394 0 0 0 130 149 169 255
-0.819089 0.997137 4.0392 0 0 0 151 154 153 255
-0.929738 1.02649 4.16893 0 0 0 149 147 151 255
-0.499751 1.03443 4.12301 0 0 0 40 99 138 255
0.956449 1.11429 4.66474 0 0 0 29 77 115 255
0.505702 1.15071 4.71013 0 0 0 69 104 73 255
2.34654 1.06582 3.70629 0 0 0 87 86 87 255
0.7995 1.24791 4.62024 0 0 0 101 120 98 255
-0.626192 1.1622 4.05035 0 0 0 136 140 153 255
-0.867516 1.17011 4.12552 0 0 0 88 116 142 255
-0.724086 1.17616 4.10304 0 0 0 85 131 170 255
-0.792585 1.1926 4.10976 0 0 0 21 85 131 255
-0.828519 1.23751 4.10132 0 0 0 80 84 109 255
-0.904309 1.27197 4.13632 0 0 0 124 142 163 255
-0.618287 1.28522 4.04506 0 0 0 37 76 110 255
-0.857059 1.32244 4.12318 0 0 0 101 111 122 255
-0.726667 1.32925 4.10682 0 0 0 95 108 135 255
-0.842447 1.36321 4.11226 0 0 0 65 104 137 255
2.39948 1.41094 3.78612 0 0 0 98 94 97 255
2.29926 -0.210618 3.90821 0 0 0 45 43 44 255
2.37101 -0.207137 3.86662 0 0 0 45 45 45 255
2.45793 -0.198348 3.91424 0 0 0 47 52 53 255
0.947535 -0.240733 4.71184 0 0 0 211 211 212 255
2.09628 -0.0556607 3.96658 0 0 0 93 84 83 255
2.47279 -0.0444394 3.91049 0 0 0 35 39 39 255
2.34233 0.0111276 3.91785 0 0 0 200 205 207 255
2.47036 0.0369306 3.92274 0 0 0 84 85 92 255
2.34925 0.0912248 3.92126 0 0 0 248 250 254 255
2.35439 0.115842 3.9156 0 0 0 255 252 253 255
2.06429 0.135992 4.01514 0 0 0 63 63 62 255
2.53295 0.140555 3.94092 0 0 0 50 50 54 255
2.30867 0.259413 3.69492 0 0 0 161 144 114 255
-0.472229 0.263361 4.1111 0 0 0 148 121 89 255
2.21361 0.266507 3.70723 0 0 0 95 75 60 255
2.35962 0.261977 3.69688 0 0 0 125 88 55 255
-0.840582 0.28239 4.0801 0 0 0 139 126 66 255
-0.808972 0.27611 4.07001 0 0 0 75 73 68 255
-0.769071 0.272455 4.06038 0 0 0 114 95 99 255
-0.6252 0.270894 4.05567 0 0 0 133 111 101 255
-0.703435 0.285218 4.05288 0 0 0 113 107 101 255
2.21189 0.297832 3.69568 0 0 0 130 106 77 255
2.37344 0.298215 3.69264 0 0 0 138 101 62 255
-0.976932 0.335141 4.19627 0 0 0 95 110 126 255
0.58204 0.374222 4.6013 0 0 0 118 39 43 255
-0.614292 0.400644 4.06533 0 0 0 149 155 160 255
-0.52868 0.398896 4.08206 0 0 0 152 158 165 255
-0.391765 0.395977 4.17497 0 0 0 148 155 155 255
0.603245 0.403887 4.5934 0 0 0 156 147 148 255
1.98328 0.385937 3.9346 0 0 0 112 121 123 255
2.07083 0.396866 3.74323 0 0 0 127 133 134 255
2.12665 0.405473 3.70836 0 0 0 131 137 139 255
2.15153 0.39411 3.69603 0 0 0 40 39 44 255
2.18139 0.394953 3.68606 0 0 0 135 136 140 255
2.28586 0.394003 3.6646 0 0 0 138 147 149 255
2.41684 0.38332 3.68943 0 0 0 125 129 132 255
2.12792 0.412587 3.70821 0 0 0 123 136 140 255
2.42437 0.41694 3.68844 0 0 0 61 43 33 255
-0.598749 0.456208 4.06486 0 0 0 144 156 158 255
-0.983642 0.483463 4.22878 0 0 0 127 120 122 255
2.14526 0.467295 3.69957 0 0 0 61 40 29 255
-0.348691 0.537579 4.22345 0 0 0 32 80 117 255
2.10524 0.513542 3.72537 0 0 0 47 38 40 255
2.21449 0.519771 3.67532 0 0 0 52 36 38 255
2.42326 0.507914 3.68848 0 0 0 39 38 42 255
1.98068 0.548357 3.88215 0 0 0 130 133 131 255
2.28329 0.52446 3.66947 0 0 0 37 39 43 255
-0.921405 0.585315 4.13652 0 0 0 22 55 94 255
-0.862043 0.575622 4.11386 0 0 0 152 152 152 255
-0.642216 0.576874 4.07887 0 0 0 153 155 167 255
-0.449344 0.569028 4.1321 0 0 0 156 158 162 255
2.11808 0.549743 3.71478 0 0 0 137 139 139 255
2.14643 0.551153 3.69618 0 0 0 107 90 75 255
2.18995 0.555705 3.68171 0 0 0 137 141 142 255
2.23255 0.557965 3.67248 0 0 0 142 141 144 255
2.33017 0.549833 3.66393 0 0 0 141 146 147 255
2.37842 0.552512 3.66858 0 0 0 45 41 45 255
2.42601 0.552776 3.69347 0 0 0 143 143 143 255
-0.79981 0.588518 4.08662 0 0 0 29 51 90 255
-0.740556 0.607527 4.06526 0 0 0 156 156 156 255
-0.578524 0.622503 4.11887 0 0 0 104 112 143 255
1.03902 0.645422 4.72732 0 0 0 40 80 74 255
-0.742186 0.621166 4.06735 0 0 0 156 159 158 255
-0.361704 0.658729 4.22151 0 0 0 146 151 161 255
-0.579633 0.667929 4.11051 0 0 0 61 68 87 255
-0.505674 0.659832 4.07671 0 0 0 59 65 84 255
-0.431121 0.665271 4.14321 0 0 0 153 157 159 255
-0.95346 0.686959 4.16268 0 0 0 28 44 82 255
-0.862194 0.676398 4.08179 0 0 0 56 60 71 255
-0.775324 0.676583 4.0656 0 0 0 34 53 94 255
-0.363656 0.682456 4.21716 0 0 0 146 152 161 255
-0.959661 0.700338 4.16381 0 0 0 24 46 91 255
-0.864985 0.704427 4.0809 0 0 0 111 118 126 255
-0.74169 0.709637 4.07367 0 0 0 153 157 160 255
-0.409751 0.726778 4.17085 0 0 0 154 159 171 255
-0.877064 0.761638 4.08534 0 0 0 107 117 124 255
2.27432 0.733744 3.6783 0 0 0 110 80 42 255
-0.687395 0.778081 4.09467 0 0 0 156 158 163 255
-1.00206 0.815222 4.22218 0 0 0 39 52 75 255
-0.383166 0.802187 4.19608 0 0 0 103 118 135 255
-0.286254 0.804934 4.31844 0 0 0 149 153 154 255
-0.623045 0.812049 4.08465 0 0 0 49 59 86 255
-0.336257 0.814446 4.24487 0 0 0 33 58 96 255
-0.809791 0.82752 4.07915 0 0 0 74 80 99 255
-0.61953 0.877974 4.08587 0 0 0 58 75 97 255
-0.407859 0.899886 4.17489 0 0 0 61 73 100 255
-0.743607 0.883786 4.073 0 0 0 60 75 95 255
-0.502432 0.895791 4.12697 0 0 0 160 162 163 255
-0.847428 0.905859 4.06008 0 0 0 31 51 92 255
-0.560086 0.927701 4.08357 0 0 0 160 162 163 255
-0.849287 0.922791 4.06191 0 0 0 26 52 95 255
-0.671075 0.949936 4.10067 0 0 0 159 162 161 255
-0.62292 0.950115 4.08952 0 0 0 77 85 106 255
-0.798437 0.984982 4.09774 0 0 0 41 55 91 255
1.18601 1.12146 5.05774 0 0 0 168 174 170 255
-0.478153 1.00023 4.14361 0 0 0 137 155 172 255
-0.362361 1.01638 4.23483 0 0 0 122 144 164 255
-0.924794 1.01747 4.16493 0 0 0 148 150 151 255
1.189 1.22357 5.0704 0 0 0 158 162 161 255
-0.626078 1.07958 4.10553 0 0 0 113 153 184 255
-0.382937 1.14039 4.21083 0 0 0 145 152 158 255
2.12465 1.06219 3.7466 0 0 0 95 95 94 255
2.2835 1.06971 3.70574 0 0 0 86 79 81 255
-0.67467 1.15476 4.08009 0 0 0 23 88 136 255
-0.635906 1.15514 4.08495 0 0 0 142 157 181 255
-0.591581 1.14613 4.08742 0 0 0 9 108 147 255
-0.864828 1.20254 4.12377 0 0 0 142 144 146 255
-0.784738 1.18171 4.10587 0 0 0 19 84 129 255
-0.618491 1.19376 4.05001 0 0 0 46 80 123 255
-0.330273 1.2314 4.26143 0 0 0 162 140 95 255
-0.912405 1.22174 4.14513 0 0 0 82 104 140 255
-0.901436 1.27334 4.13458 0 0 0 124 142 163 255
-0.865765 1.30499 4.12969 0 0 0 124 131 141 255
-0.797237 1.31309 4.1027 0 0 0 29 74 114 255
-0.711784 1.3002 4.10933 0 0 0 111 112 122 255
-0.373441 1.38869 4.22317 0 0 0 152 154 156 255
-0.868758 1.38152 4.10753 0 0 0 84 129 157 255
2.4102 1.41273 3.7808 0 0 0 93 90 94 255
2.39289 1.62949 3.9852 0 0 0 205 206 212 255
2.23781 -0.20229 3.82212 0 0 0 42 41 42 255
2.46194 -0.192651 3.94008 0 0 0 63 43 41 255
2.12229 -0.0500488 3.95917 0 0 0 47 49 51 255
2.47644 0.0502897 3.92696 0 0 0 83 86 92 255
-1.04179 0.135802 4.25252 0 0 0 22 47 84 255
-0.653832 0.274031 4.05059 0 0 0 129 110 99 255
2.28647 0.269504 3.68792 0 0 0 118 95 70 255
-0.363399 0.355234 4.20469 0 0 0 124 141 155 255
1.95961 0.338006 4.00633 0 0 0 59 58 59 255
-0.951108 0.352237 4.1547 0 0 0 96 99 113 255
-0.883597 0.332294 4.10102 0 0 0 8 56 107 255
0.767139 0.388839 4.57771 0 0 0 159 159 159 255
2.39331 0.397433 3.67692 0 0 0 122 130 137 255
-0.434211 0.420092 4.13563 0 0 0 149 150 154 255
2.07141 0.397822 3.74247 0 0 0 124 136 136 255
2.18155 0.412783 3.6868 0 0 0 132 143 146 255
2.28473 0.390892 3.66466 0 0 0 143 143 143 255
2.34013 0.437388 3.66078 0 0 0 40 41 47 255
-0.944541 0.469844 4.17479 0 0 0 145 109 78 255
2.26484 0.489439 3.66719 0 0 0 136 136 137 255
-0.45251 0.586949 4.12704 0 0 0 158 160 160 255
1.97405 0.595613 4.00716 0 0 0 45 46 47 255
-0.642613 0.575795 4.0786 0 0 0 153 155 167 255
-0.736131 0.627373 4.06624 0 0 0 156 159 159 255
-0.364266 0.654073 4.22152 0 0 0 113 126 151 255
-0.969052 0.685516 4.17698 0 0 0 22 44 84 255
-0.637398 0.685876 4.07937 0 0 0 154 158 160 255
-0.41469 0.677894 4.16307 0 0 0 32 60 105 255
-0.869798 0.722411 4.07952 0 0 0 122 125 129 255
0.791884 0.75688 4.59486 0 0 0 70 110 74 255
-0.744385 0.730141 4.06771 0 0 0 159 160 160 255
-0.404951 0.875452 4.17097 0 0 0 158 161 161 255
-0.855201 0.904708 4.06233 0 0 0 29 52 93 255
-0.770133 0.942278 4.08586 0 0 0 158 161 160 255
-0.985939 1.068 4.22199 0 0 0 23 53 95 255
-0.396937 1.10118 4.19994 0 0 0 3 94 141 255
-0.351263 1.14235 4.24411 0 0 0 146 150 155 255
-0.572092 1.14207 4.0609 0 0 0 4 108 151 255
-0.865917 1.19241 4.12135 0 0 0 141 143 145 255
-0.784769 1.18757 4.10605 0 0 0 20 85 131 255
-0.724715 1.18007 4.10187 0 0 0 126 144 160 255
-0.657006 1.17691 4.08837 0 0 0 33 87 135 255
-0.339044 1.24988 4.25199 0 0 0 164 148 92 255
0.364051 1.40237 4.92811 0 0 0 67 94 81 255
-0.881104 1.2743 4.12892 0 0 0 138 143 146 255
-0.769834 1.27475 4.10672 0 0 0 157 157 158 255
-0.351352 1.27781 4.24631 0 0 0 168 154 103 255
-0.789398 1.30462 4.10283 0 0 0 36 74 113 255
-0.689758 1.29348 4.00483 0 0 0 132 130 139 255
-0.621112 1.29727 4.04436 0 0 0 28 75 118 255
-0.545096 1.30815 4.07174 0 0 0 166 160 125 255
-0.294996 1.46103 4.65304 0 0 0 45 86 123 255
2.13046 -0.080419 3.95947 0 0 0 65 66 72 255
-0.343265 0.110058 4.61062 0 0 0 26 61 102 255
2.05232 0.165024 4.02223 0 0 0 55 58 57 255
-0.358755 0.369693 4.20983 0 0 0 138 149 156 255
-0.891917 0.40587 4.09046 0 0 0 143 135 116 255
-0.604078 0.392939 4.06703 0 0 0 135 143 155 255
-0.525326 0.397797 4.08412 0 0 0 153 159 162 255
1.97201 0.415166 3.92945 0 0 0 111 113 111 255
-0.921774 0.449545 4.14334 0 0 0 147 142 134 255
-0.725074 0.456416 4.04873 0 0 0 117 125 105 255
-0.350526 0.462042 4.21516 0 0 0 151 153 161 255
1.09102 0.522512 4.77928 0 0 0 93 113 86 255
1.98101 0.50879 3.9279 0 0 0 121 128 125 255
-0.966057 0.535324 4.18269 0 0 0 12 59 104 255
0.831043 0.594012 4.60268 0 0 0 156 160 161 255
2.07663 0.550384 3.74109 0 0 0 135 139 140 255
2.2003 0.551303 3.67732 0 0 0 143 142 139 255
-0.62962 0.590916 4.08841 0 0 0 157 159 161 255
-0.455299 0.593997 4.12425 0 0 0 157 160 162 255
1.96686 0.603472 4.02823 0 0 0 50 52 52 255
-0.907953 0.631225 4.12854 0 0 0 150 152 151 255
-0.832459 0.603557 4.10372 0 0 0 146 152 155 255
-0.505696 0.644837 4.07022 0 0 0 156 158 158 255
-0.313716 0.687016 4.30838 0 0 0 146 153 154 255
-0.963567 0.695026 4.1688 0 0 0 23 46 87 255
0.947057 0.752035 4.64822 0 0 0 116 146 130 255
1.09023 0.769261 4.76099 0 0 0 48 91 74 255
-0.671109 0.731394 4.08386 0 0 0 27 55 103 255
-1.00769 0.823943 4.22464 0 0 0 23 61 94 255
-0.733518 0.863203 4.07999 0 0 0 37 61 107 255
-0.451371 0.830727 4.14423 0 0 0 107 104 108 255
-0.609575 0.907717 4.08736 0 0 0 158 161 165 255
-0.856699 0.979235 4.13026 0 0 0 152 154 156 255
-0.474022 0.999169 4.14658 0 0 0 137 155 172 255
-0.363131 1.02367 4.23367 0 0 0 127 129 131 255
-0.478232 1.06072 4.13573 0 0 0 148 152 158 255
-0.344582 1.20726 4.25626 0 0 0 140 124 104 255
1.11216 1.40703 5.10019 0 0 0 68 108 88 255
-0.520365 1.31626 4.09011 0 0 0 174 163 107 255
-0.948401 1.41496 4.19433 0 0 0 44 79 117 255
-0.508784 1.43687 4.1264 0 0 0 45 86 124 255
1.99466 1.576 4.09906 0 0 0 110 112 108 255
2.12401 -0.20054 3.96592 0 0 0 84 67 60 255
2.11766 -0.125144 3.96774 0 0 0 72 57 57 255
1.05451 0.113146 4.80944 0 0 0 45 91 64 255
2.04511 0.177819 4.0203 0 0 0 54 54 54 255
2.07661 0.171268 4.00625 0 0 0 40 47 49 255
1.97709 0.270126 4.0132 0 0 0 109 101 98 255
-0.869708 0.425461 4.12218 0 0 0 147 132 77 255
1.95943 0.471225 3.9745 0 0 0 128 132 131 255
-0.404692 0.624323 4.16493 0 0 0 25 57 105 255
-0.842039 0.65047 4.1081 0 0 0 154 153 154 255
-0.68919 0.634652 4.05582 0 0 0 23 56 107 255
1.05685 0.810401 4.73675 0 0 0 50 95 71 255
-0.727656 0.818214 4.06557 0 0 0 73 84 96 255
-0.297431 0.872493 4.277 0 0 0 18 64 112 255
1.99487 0.903769 4.07503 0 0 0 46 51 52 255
-0.376698 1.21575 4.21639 0 0 0 153 126 99 255
0.382818 1.3856 4.90115 0 0 0 64 93 79 255
-0.8284 1.21307 4.10651 0 0 0 131 129 136 255
-0.454299 1.30984 4.16394 0 0 0 173 160 74 255
-0.335438 1.44315 4.63277 0 0 0 30 78 119 255
-0.873002 1.43288 4.11136 0 0 0 50 80 110 255
2.19672 -0.19326 3.88284 0 0 0 129 93 98 255
2.49639 -0.188403 3.96249 0 0 0 82 87 87 255
2.30413 -0.170651 3.91796 0 0 0 138 103 105 255
2.50303 -0.0952507 3.98316 0 0 0 115 122 124 255
2.50447 -0.0729913 3.95597 0 0 0 81 85 86 255
2.49388 -0.0124593 3.9535 0 0 0 120 127 129 255
2.21099 0.0172435 3.90474 0 0 0 162 162 162 255
2.54332 0.120582 3.97202 0 0 0 113 115 117 255
-0.318087 0.0966209 4.64482 0 0 0 81 87 99 255
2.33706 0.254156 3.69499 0 0 0 155 135 115 255
0.652207 0.247971 4.57527 0 0 0 30 53 50 255
0.918951 0.258801 4.61624 0 0 0 96 101 99 255
0.460684 0.274548 4.67191 0 0 0 121 130 129 255
0.959787 0.268668 4.63113 0 0 0 83 112 100 255
2.34395 0.303127 3.69099 0 0 0 76 50 28 255
-0.735281 0.290241 4.05107 0 0 0 30 47 93 255
2.31749 0.306807 3.68999 0 0 0 153 123 92 255
0.668234 0.31923 4.58035 0 0 0 123 149 104 255
-0.382398 0.320635 4.17748 0 0 0 62 112 157 255
-0.333712 0.409927 4.22951 0 0 0 114 88 103 255
2.51158 0.425112 3.71468 0 0 0 99 98 98 255
-0.418015 0.44802 4.13816 0 0 0 150 151 157 255
2.27784 0.451484 3.6633 0 0 0 86 81 78 255
-0.50912 0.478239 4.08551 0 0 0 40 83 116 255
2.11413 0.524346 3.71668 0 0 0 38 42 46 255
2.2237 0.536808 3.67116 0 0 0 35 40 52 255
2.0624 0.557313 3.75585 0 0 0 75 86 87 255
0.575889 0.684264 4.62691 0 0 0 145 153 151 255
1.1096 0.735342 4.79073 0 0 0 136 148 146 255
1.09139 0.752782 4.76051 0 0 0 134 142 139 255
1.05172 0.768032 4.74368 0 0 0 144 153 153 255
-0.788855 0.756913 4.0283 0 0 0 86 89 99 255
2.33094 0.714802 3.67404 0 0 0 73 61 49 255
-0.821071 0.876518 3.9986 0 0 0 57 71 86 255
-0.817292 0.878833 3.99617 0 0 0 61 67 88 255
1.8839 1.43388 6.96449 0 0 0 147 145 139 255
1.32024 1.39649 6.6014 0 0 0 133 131 125 255
1.23886 1.37397 6.43726 0 0 0 142 141 133 255
0.90759 1.17737 4.64149 0 0 0 95 89 43 255
2.39918 1.04602 3.70754 0 0 0 99 97 98 255
2.42019 1.04285 3.68025 0 0 0 107 115 115 255
2.1652 1.06608 3.73083 0 0 0 125 133 133 255
2.07522 1.08437 3.77383 0 0 0 90 93 94 255
2.20838 1.08594 3.7044 0 0 0 73 75 74 255
2.30805 1.08394 3.69959 0 0 0 87 89 90 255
2.33824 1.08508 3.69765 0 0 0 87 93 93 255
2.20725 1.16344 3.66613 0 0 0 99 102 104 255
2.22611 1.2379 3.6596 0 0 0 109 118 116 255
2.38977 1.2341 3.64806 0 0 0 100 98 98 255
-0.416601 1.3973 4.18714 0 0 0 113 120 126 255
-0.67339 1.37017 3.83884 0 0 0 70 107 143 255
2.14862 1.36594 3.69239 0 0 0 117 120 119 255
2.18558 1.37698 3.66365 0 0 0 119 121 125 255
2.21523 1.39162 3.65075 0 0 0 100 102 104 255
2.49647 -0.000389522 3.95195 0 0 0 138 145 145 255
2.37596 0.313542 3.68878 0 0 0 106 86 56 255
0.609106 0.37387 4.59075 0 0 0 90 60 64 255
-0.724931 0.394534 4.04834 0 0 0 119 120 112 255
-0.507932 0.486514 4.08714 0 0 0 19 83 128 255
2.50931 0.492823 3.70065 0 0 0 68 49 45 255
2.63872 0.900357 3.88321 0 0 0 90 99 99 255
-0.657406 0.938504 4.01103 0 0 0 159 159 164 255
2.39144 1.03256 3.66548 0 0 0 81 82 82 255
-0.690821 1.36414 3.83714 0 0 0 80 126 160 255
-0.512184 1.4195 4.1413 0 0 0 64 114 148 255
2.11238 -0.200076 3.96552 0 0 0 109 98 94 255
2.10691 -0.0113113 3.97195 0 0 0 149 149 147 255
0.676481 0.243624 4.57617 0 0 0 96 99 99 255
2.37845 0.260947 3.70002 0 0 0 155 118 75 255
-0.711637 0.297578 4.0507 0 0 0 143 131 87 255
2.38838 0.318785 3.68615 0 0 0 64 43 28 255
0.885069 0.395687 4.60569 0 0 0 153 144 145 255
1.02684 0.415187 4.69524 0 0 0 131 63 70 255
-0.722668 0.402774 4.04567 0 0 0 145 145 130 255
0.444122 0.428148 4.68262 0 0 0 140 139 139 255
2.34335 0.463396 3.66251 0 0 0 47 44 47 255
-0.465364 0.484578 4.10792 0 0 0 114 121 130 255
2.36934 0.543429 3.66167 0 0 0 41 40 45 255
-0.852807 0.739053 4.0394 0 0 0 93 101 111 255
2.36388 0.72853 3.68564 0 0 0 91 69 44 255
-0.695761 0.791345 4.09584 0 0 0 159 158 161 255
2.36102 0.748215 3.68179 0 0 0 97 71 33 255
-0.561554 0.905962 4.07545 0 0 0 161 161 163 255
0.858813 1.13854 4.62474 0 0 0 152 156 133 255
-0.374701 1.10312 4.20861 0 0 0 9 82 129 255
0.889599 1.17548 4.63435 0 0 0 125 121 72 255
-0.427204 1.38685 4.07945 0 0 0 155 159 162 255
2.45327 1.36368 3.6365 0 0 0 88 84 87 255
2.12797 -0.142227 3.95947 0 0 0 68 46 46 255
2.47309 -0.0653173 3.95116 0 0 0 60 67 75 255
2.20817 0.0157807 3.90427 0 0 0 156 158 160 255
2.4707 0.0390924 3.99498 0 0 0 89 89 89 255
2.12709 0.042674 3.9561 0 0 0 93 96 95 255
-0.357074 0.319542 4.20317 0 0 0 50 96 131 255
2.2857 0.431173 3.66514 0 0 0 141 142 141 255
2.42079 0.452747 3.6689 0 0 0 35 37 41 255
2.20553 0.483783 3.66163 0 0 0 61 36 28 255
0.791638 0.55834 4.60308 0 0 0 154 159 157 255
0.439965 0.598789 4.69944 0 0 0 86 114 109 255
2.38789 0.537064 3.65718 0 0 0 142 145 146 255
1.95713 0.591949 3.99252 0 0 0 59 59 62 255
2.24014 0.544587 3.66903 0 0 0 132 142 144 255
2.28308 0.554762 3.66794 0 0 0 35 36 40 255
-0.442059 0.641959 4.12295 0 0 0 158 159 161 255
-0.403679 0.663987 4.16795 0 0 0 25 59 107 255
-0.636765 0.665032 4.07619 0 0 0 158 158 162 255
-0.745291 0.674749 4.06972 0 0 0 36 50 91 255
-0.286168 0.763017 4.32409 0 0 0 128 132 139 255
-0.484086 0.895814 4.13006 0 0 0 159 161 160 255
-0.798011 0.972676 3.97532 0 0 0 151 150 152 255
-0.396269 1.0767 4.18525 0 0 0 1 98 145 255
-0.592762 1.09933 4.01276 0 0 0 131 148 162 255
-0.52721 1.12287 4.00723 0 0 0 0 106 149 255
-0.331326 1.16426 4.26081 0 0 0 133 134 139 255
2.40363 -0.219688 3.84563 0 0 0 144 144 144 255
2.21295 0.0217927 3.90625 0 0 0 162 162 162 255
1.0886 0.10534 4.97165 0 0 0 50 93 69 255
1.03081 0.311532 4.70677 0 0 0 143 145 133 255
-0.875678 0.397414 4.12178 0 0 0 151 135 77 255
-0.737347 0.386687 4.05072 0 0 0 129 131 116 255
2.22883 0.48988 3.66992 0 0 0 35 37 41 255
0.781109 0.594091 4.58887 0 0 0 157 162 160 255
1.98299 0.532875 3.93751 0 0 0 127 133 136 255
2.38586 0.540202 3.6561 0 0 0 122 130 132 255
-0.621273 0.637059 4.09171 0 0 0 159 160 161 255
-0.403857 0.640461 4.16389 0 0 0 25 59 105 255
0.773875 0.685638 4.59983 0 0 0 67 110 68 255
-0.30493 0.746555 4.30488 0 0 0 153 156 155 255
0.783063 0.822114 4.61107 0 0 0 158 163 161 255
-0.412572 0.828687 4.15837 0 0 0 158 160 162 255
-0.629649 0.89633 4.08666 0 0 0 100 113 139 255
-0.460065 1.00031 4.15699 0 0 0 134 150 165 255
-0.362101 1.13508 4.22633 0 0 0 128 140 152 255
-0.530222 1.14206 4.10496 0 0 0 1 98 146 255
-0.34713 1.24604 4.23488 0 0 0 155 139 84 255
-0.305529 1.47346 4.66169 0 0 0 87 119 151 255
-0.451587 1.41947 4.07808 0 0 0 36 80 123 255
2.14275 -0.0558658 3.94522 0 0 0 33 41 36 255
1.07426 0.107178 4.91624 0 0 0 48 91 67 255
-0.359052 0.402151 4.20326 0 0 0 97 69 102 255
1.94555 0.474852 3.97858 0 0 0 90 90 87 255
2.13098 0.538051 3.7055 0 0 0 134 142 146 255
-0.398363 0.644527 4.17253 0 0 0 24 59 106 255
-0.69683 0.692499 4.06019 0 0 0 25 58 111 255
0.808777 0.77469 4.59125 0 0 0 77 116 99 255
1.07353 1.3942 5.09047 0 0 0 66 105 77 255
2.21559 -0.208756 3.88029 0 0 0 119 120 121 255
2.10154 -0.184991 3.96395 0 0 0 110 105 104 255
2.10363 -0.129156 3.96354 0 0 0 136 136 133 255
2.1016 -0.107189 3.95652 0 0 0 143 141 139 255
2.11956 -0.0751235 3.95213 0 0 0 72 73 74 255
2.35815 -0.0524793 3.85486 0 0 0 79 83 86 255
0.375938 0.150509 4.80799 0 0 0 28 59 44 255
2.35669 0.250134 3.70031 0 0 0 88 83 82 255
2.28356 0.254386 3.69222 0 0 0 57 56 59 255
2.20165 0.270735 3.71111 0 0 0 62 49 47 255
2.32182 0.27747 3.6941 0 0 0 69 58 57 255
2.32475 0.277787 3.6937 0 0 0 69 58 57 255
-0.458312 0.278549 4.11204 0 0 0 73 55 38 255
-0.442671 0.304206 4.11974 0 0 0 97 82 94 255
-0.766347 0.301438 4.05618 0 0 0 131 109 116 255
-0.456903 0.32717 4.11271 0 0 0 63 100 144 255
-0.468444 0.372638 4.11689 0 0 0 137 137 146 255
-0.489625 0.468191 4.09285 0 0 0 128 145 164 255
-0.699508 0.463053 4.0433 0 0 0 120 127 124 255
1.03858 0.51277 4.72052 0 0 0 122 136 112 255
-0.366833 0.504671 4.19517 0 0 0 73 114 148 255
-0.344892 0.519684 4.2177 0 0 0 32 82 125 255
1.09852 0.708791 4.78039 0 0 0 111 118 117 255
0.452122 0.949516 4.74637 0 0 0 101 113 109 255
1.16312 1.2513 5.44449 0 0 0 140 139 133 255
2.40908 1.06881 3.72625 0 0 0 125 129 128 255
-1.04956 1.23767 4.42041 0 0 0 54 99 133 255
-0.96673 1.259 4.39011 0 0 0 27 84 124 255
-0.847003 1.25366 4.27074 0 0 0 115 96 111 255
-1.00227 1.28594 4.38067 0 0 0 106 105 114 255
2.16023 1.17823 3.76433 0 0 0 99 100 102 255
2.38519 1.18063 3.7447 0 0 0 106 105 109 255
2.37556 1.22356 3.7545 0 0 0 103 103 103 255
2.28031 1.26218 3.7395 0 0 0 103 107 110 255
-1.1506 1.49699 4.60556 0 0 0 59 110 152 255
-0.365837 1.40777 4.21957 0 0 0 160 157 163 255
-1.21959 1.59077 4.70921 0 0 0 98 112 134 255
2.2307 1.39801 3.75056 0 0 0 113 113 115 255
-0.444461 0.278239 4.12036 0 0 0 140 103 88 255
-0.467247 0.371376 4.11805 0 0 0 119 135 153 255
0.667495 0.40415 4.57663 0 0 0 124 46 49 255
-0.397657 0.485138 4.14601 0 0 0 98 119 145 255
1.10702 0.590616 4.8104 0 0 0 139 146 146 255
-0.473226 0.663138 4.07067 0 0 0 100 107 129 255
-0.733475 0.885948 4.08571 0 0 0 32 62 104 255
-0.796416 1.21223 4.23134 0 0 0 134 145 147 255
-0.971785 1.2595 4.38788 0 0 0 33 90 128 255
2.38406 1.41471 3.77622 0 0 0 95 95 99 255
