ply
format ascii 1.0
comment VCGLIB generated
element vertex 1028
property float x
property float y
property float z
property float nx
property float ny
property float nz
property uchar red
property uchar green
property uchar blue
property uchar alpha
element face 0
property list uchar int vertex_indices
end_header
1.72269 1.45563 6.69957 0 0 0 115 114 108 255
1.87378 1.39885 6.36062 0 0 0 88 85 83 255
2.14078 1.37002 6.2844 0 0 0 128 125 118 255
0.925806 1.12586 4.6554 0 0 0 48 82 100 255
0.462816 1.19789 4.72408 0 0 0 89 99 114 255
0.961609 1.18096 4.67116 0 0 0 98 93 54 255
0.990201 1.35076 4.71049 0 0 0 128 154 141 255
0.911182 1.36078 4.66982 0 0 0 142 173 160 255
-0.321793 0.100679 4.60115 0 0 0 35 74 110 255
0.386814 0.115584 4.8128 0 0 0 28 57 42 255
0.390653 0.142711 4.80932 0 0 0 48 86 64 255
0.47393 0.227802 4.65312 0 0 0 107 136 128 255
0.593138 0.234048 4.59254 0 0 0 141 154 149 255
0.718991 0.215867 4.57235 0 0 0 68 108 74 255
0.785015 0.22394 4.57568 0 0 0 84 112 107 255
0.530556 0.263318 4.61359 0 0 0 123 132 131 255
0.44868 0.341138 4.67949 0 0 0 132 139 131 255
1.00983 0.339062 4.67499 0 0 0 118 68 71 255
0.63949 0.372801 4.58578 0 0 0 160 162 157 255
-0.316258 0.366358 4.26653 0 0 0 75 122 156 255
0.868423 0.414794 4.59495 0 0 0 122 53 62 255
0.654513 0.419202 4.57852 0 0 0 165 114 121 255
0.842326 0.427136 4.5851 0 0 0 142 59 65 255
-0.296922 0.448544 4.29155 0 0 0 19 80 124 255
0.499884 0.532237 4.656 0 0 0 143 157 153 255
1.11674 0.544286 4.84379 0 0 0 80 104 80 255
0.853625 0.55185 4.60513 0 0 0 162 168 166 255
0.936492 0.547824 4.62533 0 0 0 157 163 161 255
0.690364 0.559029 4.5827 0 0 0 157 169 169 255
0.760404 0.561993 4.59164 0 0 0 151 169 167 255
0.387587 0.594378 4.75095 0 0 0 126 145 145 255
0.94356 0.584321 4.63284 0 0 0 159 164 162 255
1.03194 0.594068 4.70497 0 0 0 125 164 155 255
0.770917 0.607698 4.59027 0 0 0 164 169 167 255
0.486132 0.622638 4.67188 0 0 0 53 86 78 255
0.823814 0.634585 4.59794 0 0 0 91 102 87 255
-0.312821 0.661942 4.32805 0 0 0 156 159 160 255
0.552029 0.687072 4.63846 0 0 0 154 164 162 255
0.82299 0.759771 4.60096 0 0 0 71 117 87 255
1.05076 0.763701 4.6865 0 0 0 108 141 127 255
0.946498 0.789739 4.64327 0 0 0 159 166 164 255
-0.293323 0.784873 4.33451 0 0 0 142 149 153 255
0.75424 0.821826 4.60708 0 0 0 167 172 170 255
0.934511 0.827203 4.63595 0 0 0 154 166 164 255
0.855519 0.838785 4.61226 0 0 0 163 171 168 255
0.743353 0.845429 4.60275 0 0 0 157 174 171 255
0.471023 0.907388 4.7008 0 0 0 140 154 153 255
0.572391 0.919874 4.65092 0 0 0 158 166 166 255
1.8849 1.37529 6.63416 0 0 0 155 151 143 255
1.89557 1.35857 6.50695 0 0 0 139 136 128 255
2.1425 1.36871 6.2847 0 0 0 128 125 118 255
1.73215 1.44755 6.69972 0 0 0 124 123 117 255
1.87709 1.39718 6.34671 0 0 0 82 80 79 255
0.964066 1.10014 4.67115 0 0 0 28 83 125 255
0.441612 1.17101 4.7512 0 0 0 131 138 137 255
0.443236 1.15521 4.75878 0 0 0 113 133 124 255
0.938982 1.11761 4.65947 0 0 0 43 81 106 255
0.56861 1.15375 4.66087 0 0 0 137 154 151 255
0.863075 1.18249 4.63409 0 0 0 102 96 67 255
0.444007 1.2622 4.74209 0 0 0 129 136 135 255
0.57527 1.26978 4.66392 0 0 0 143 146 145 255
0.639707 1.25821 4.62779 0 0 0 91 116 85 255
0.331882 1.40346 4.99459 0 0 0 75 92 82 255
0.915767 1.35963 4.67087 0 0 0 154 161 159 255
0.333077 0.0893168 4.87596 0 0 0 72 99 83 255
1.11512 0.0951501 4.94032 0 0 0 66 101 78 255
0.527181 0.385353 4.63091 0 0 0 164 152 156 255
0.781131 0.374785 4.57711 0 0 0 164 167 166 255
0.836327 0.391134 4.58531 0 0 0 108 74 74 255
1.06848 0.549446 4.72925 0 0 0 65 104 75 255
0.818693 0.573614 4.59502 0 0 0 162 169 169 255
0.925202 0.571022 4.62138 0 0 0 157 167 164 255
0.684197 0.581378 4.57962 0 0 0 154 170 167 255
0.793417 0.580103 4.59996 0 0 0 165 169 168 255
0.554593 0.670403 4.63428 0 0 0 158 163 161 255
-0.323526 0.653814 4.31879 0 0 0 160 162 163 255
0.933974 0.805772 4.63805 0 0 0 160 167 167 255
0.82479 0.826054 4.6061 0 0 0 170 173 172 255
0.747085 0.842493 4.60388 0 0 0 157 174 172 255
0.573711 0.896939 4.65583 0 0 0 160 166 164 255
1.75694 1.45969 6.68601 0 0 0 103 102 100 255
0.440142 1.15914 4.75891 0 0 0 124 135 133 255
0.713447 1.14459 4.62341 0 0 0 140 155 150 255
0.408302 1.23527 4.77958 0 0 0 123 143 132 255
0.716745 1.26724 4.62254 0 0 0 145 150 148 255
0.340214 1.39209 4.99612 0 0 0 79 94 81 255
1.1165 0.0903828 4.9333 0 0 0 64 101 80 255
-0.344859 0.144939 4.567 0 0 0 17 69 115 255
0.520244 0.245788 4.61718 0 0 0 142 139 140 255
0.781387 0.251561 4.57063 0 0 0 150 155 154 255
0.907526 0.246477 4.60667 0 0 0 139 150 151 255
0.641586 0.365077 4.58477 0 0 0 156 160 153 255
1.07542 0.534815 4.74089 0 0 0 82 110 73 255
0.444905 0.616621 4.70317 0 0 0 141 153 156 255
0.557047 0.646065 4.63378 0 0 0 157 163 162 255
0.765872 0.835187 4.60889 0 0 0 168 173 172 255
0.475528 0.88497 4.69475 0 0 0 142 154 154 255
2.10862 1.38253 6.43098 0 0 0 133 130 122 255
0.940157 1.05665 4.6658 0 0 0 42 93 122 255
0.937606 1.10665 4.65971 0 0 0 47 83 104 255
0.881643 1.16167 4.63661 0 0 0 169 149 74 255
0.42007 1.24128 4.76299 0 0 0 135 141 141 255
0.357968 0.128288 4.87429 0 0 0 59 95 67 255
1.0237 0.113859 4.64641 0 0 0 57 102 74 255
-0.348392 0.129673 4.54855 0 0 0 19 70 118 255
-0.318328 0.583763 4.27222 0 0 0 27 81 121 255
0.45554 1.1659 4.74014 0 0 0 134 142 142 255
2.31783 -0.220702 3.9053 0 0 0 55 55 55 255
2.35602 -0.217803 3.89687 0 0 0 66 57 63 255
2.33562 -0.209082 3.89841 0 0 0 153 157 163 255
2.2446 -0.164065 3.82589 0 0 0 138 84 84 255
2.37608 -0.167085 3.83535 0 0 0 127 62 57 255
2.32898 -0.144844 3.85345 0 0 0 167 64 83 255
2.09914 -0.148781 3.98561 0 0 0 147 143 140 255
2.33897 -0.110546 3.92006 0 0 0 95 96 98 255
2.35225 -0.113289 3.90391 0 0 0 100 98 100 255
2.32256 -0.0780529 3.90889 0 0 0 55 55 62 255
2.13632 -0.0743246 3.9618 0 0 0 70 71 78 255
2.49986 -0.0474475 3.9678 0 0 0 39 44 42 255
2.34113 0.00794053 3.9185 0 0 0 200 205 207 255
2.34706 0.0704545 3.92798 0 0 0 250 252 254 255
2.35869 0.115581 3.91476 0 0 0 253 251 252 255
2.05806 0.131136 3.98853 0 0 0 123 121 117 255
2.54741 0.134982 3.96142 0 0 0 54 53 58 255
-1.02837 0.189447 4.26319 0 0 0 68 78 91 255
2.30877 0.253484 3.7015 0 0 0 122 112 94 255
-0.495226 0.254928 4.10077 0 0 0 20 46 86 255
-0.479049 0.254357 4.11144 0 0 0 99 103 125 255
2.22378 0.257702 3.71538 0 0 0 139 109 74 255
2.26619 0.258811 3.70317 0 0 0 114 99 81 255
2.40811 0.254962 3.70749 0 0 0 91 78 70 255
-0.653398 0.264917 4.05505 0 0 0 123 104 95 255
-0.62752 0.26209 4.05979 0 0 0 129 107 101 255
-0.512729 0.260018 4.09122 0 0 0 125 105 96 255
-0.44743 0.259544 4.1256 0 0 0 83 87 115 255
0.497099 0.251992 4.63423 0 0 0 100 111 110 255
-0.865112 0.262815 4.0904 0 0 0 100 102 114 255
-0.806217 0.267061 4.06786 0 0 0 97 97 97 255
-0.777303 0.259508 4.06385 0 0 0 89 75 84 255
-0.731832 0.266512 4.05788 0 0 0 106 100 99 255
-0.696989 0.267841 4.05726 0 0 0 140 126 102 255
-0.564864 0.265701 4.07313 0 0 0 110 103 101 255
0.886419 0.260371 4.59572 0 0 0 62 76 74 255
2.3851 0.272656 3.70253 0 0 0 100 56 21 255
-0.842375 0.270476 4.07815 0 0 0 120 118 85 255
-0.548162 0.274626 4.07608 0 0 0 134 110 79 255
-0.876103 0.282281 4.09534 0 0 0 126 125 102 255
-0.804615 0.280054 4.06561 0 0 0 128 122 98 255
-0.611357 0.277895 4.06136 0 0 0 122 102 59 255
2.23191 0.284294 3.70103 0 0 0 106 68 33 255
2.27029 0.282505 3.69157 0 0 0 160 122 66 255
2.3115 0.281483 3.69499 0 0 0 87 49 40 255
2.38269 0.281254 3.70101 0 0 0 91 51 24 255
-0.781832 0.290485 4.05957 0 0 0 36 44 62 255
-0.491457 0.290021 4.09964 0 0 0 77 63 50 255
0.71994 0.285202 4.56516 0 0 0 76 95 91 255
-0.863882 0.294061 4.0853 0 0 0 78 76 46 255
-0.821401 0.296203 4.06733 0 0 0 38 39 53 255
-0.684432 0.298613 4.0504 0 0 0 38 39 43 255
-0.643267 0.296937 4.05252 0 0 0 89 71 48 255
-0.60721 0.295244 4.05687 0 0 0 59 57 62 255
-0.575334 0.298741 4.06262 0 0 0 23 46 93 255
-0.547299 0.288241 4.0727 0 0 0 65 47 33 255
-0.509106 0.29641 4.08502 0 0 0 140 115 87 255
2.4007 0.297316 3.69209 0 0 0 91 74 60 255
-0.484764 0.306603 4.09984 0 0 0 98 76 83 255
2.20559 0.303029 3.69681 0 0 0 108 89 64 255
2.25771 0.307859 3.69061 0 0 0 153 118 70 255
2.27851 0.308781 3.68111 0 0 0 135 96 61 255
2.30347 0.305044 3.68994 0 0 0 165 133 81 255
-0.858278 0.313727 4.07999 0 0 0 86 93 132 255
-0.783838 0.315991 4.05696 0 0 0 87 84 115 255
-0.728207 0.31528 4.05108 0 0 0 83 94 128 255
-0.654371 0.316648 4.04791 0 0 0 128 111 86 255
-0.622444 0.313313 4.0543 0 0 0 145 116 97 255
-0.540523 0.312954 4.07347 0 0 0 113 106 101 255
-1.00741 0.326746 4.22857 0 0 0 81 104 136 255
0.610885 0.327998 4.59079 0 0 0 138 142 131 255
0.758532 0.325823 4.57653 0 0 0 141 155 125 255
1.99152 0.337771 3.95698 0 0 0 70 75 76 255
0.582381 0.352185 4.60406 0 0 0 178 129 137 255
0.60133 0.349896 4.59332 0 0 0 121 77 78 255
-0.493156 0.354501 4.10348 0 0 0 54 109 155 255
-0.39089 0.35045 4.1817 0 0 0 14 87 133 255
0.820511 0.358465 4.58364 0 0 0 164 123 128 255
1.0291 0.359837 4.69557 0 0 0 172 130 136 255
1.10496 0.363076 4.74302 0 0 0 91 101 86 255
-0.90963 0.360181 4.11372 0 0 0 35 72 108 255
-0.759143 0.358784 4.05378 0 0 0 22 78 129 255
-0.636852 0.360497 4.05533 0 0 0 122 132 142 255
-0.612873 0.359975 4.06825 0 0 0 9 73 123 255
-0.589802 0.361609 4.0752 0 0 0 96 119 159 255
1.94538 0.360781 3.9667 0 0 0 86 81 79 255
-0.88089 0.364892 4.09706 0 0 0 76 99 128 255
-0.51856 0.36443 4.09139 0 0 0 7 73 123 255
-0.337862 0.370214 4.2336 0 0 0 101 88 100 255
1.05155 0.376493 4.70443 0 0 0 151 125 132 255
-0.49318 0.380966 4.10855 0 0 0 55 87 113 255
0.873754 0.383682 4.59923 0 0 0 157 138 142 255
1.95734 0.374239 3.96013 0 0 0 117 119 118 255
-0.562176 0.384326 4.08374 0 0 0 26 81 117 255
-0.533157 0.38642 4.08651 0 0 0 140 150 161 255
-0.41282 0.382881 4.16067 0 0 0 73 89 111 255
1.98611 0.376688 3.94091 0 0 0 112 117 117 255
-0.638633 0.384305 4.05447 0 0 0 68 97 95 255
-0.484216 0.386824 4.11628 0 0 0 25 65 100 255
-0.442183 0.393279 4.13927 0 0 0 36 61 105 255
-0.368139 0.388955 4.20138 0 0 0 78 80 99 255
2.44828 0.382205 3.70118 0 0 0 103 102 105 255
2.49351 0.386756 3.71753 0 0 0 123 130 133 255
2.56712 0.378947 3.78756 0 0 0 79 84 88 255
-0.504246 0.393182 4.10064 0 0 0 33 72 114 255
0.52542 0.404091 4.62139 0 0 0 121 111 114 255
2.06534 0.384662 3.75308 0 0 0 103 107 108 255
2.17214 0.391781 3.69421 0 0 0 132 134 137 255
2.19038 0.388615 3.6878 0 0 0 81 81 81 255
2.27423 0.385696 3.67408 0 0 0 81 83 84 255
2.28858 0.382178 3.67009 0 0 0 88 87 89 255
2.30023 0.389257 3.66556 0 0 0 137 136 137 255
-0.479308 0.405397 4.11678 0 0 0 121 134 152 255
-0.471202 0.406959 4.12116 0 0 0 139 150 165 255
1.05604 0.411427 4.70986 0 0 0 126 90 88 255
1.97291 0.389087 3.94823 0 0 0 73 68 66 255
2.4546 0.397432 3.70817 0 0 0 138 141 140 255
-0.59723 0.410776 4.07064 0 0 0 25 93 124 255
-0.577641 0.410631 4.07666 0 0 0 147 155 163 255
-0.397843 0.411752 4.17 0 0 0 141 145 164 255
-0.550965 0.423575 4.08001 0 0 0 42 84 121 255
-0.511629 0.416482 4.09537 0 0 0 153 158 160 255
-0.477699 0.422124 4.1153 0 0 0 152 153 157 255
-0.438452 0.419559 4.13845 0 0 0 149 150 154 255
2.10109 0.41228 3.73282 0 0 0 60 39 39 255
2.43396 0.409796 3.69907 0 0 0 61 44 39 255
-0.535796 0.424571 4.08112 0 0 0 81 103 123 255
-0.456531 0.426284 4.12735 0 0 0 63 79 103 255
-0.357222 0.432199 4.20956 0 0 0 103 96 115 255
2.5203 0.411432 3.72118 0 0 0 76 66 67 255
-0.595514 0.43092 4.07037 0 0 0 19 93 125 255
-0.387225 0.438596 4.17479 0 0 0 79 87 98 255
-0.534123 0.438384 4.07957 0 0 0 11 83 127 255
-0.501887 0.440051 4.10059 0 0 0 30 76 115 255
-0.557824 0.444936 4.07616 0 0 0 116 163 192 255
-0.468399 0.445167 4.11905 0 0 0 39 62 90 255
-0.442115 0.447729 4.13422 0 0 0 17 60 109 255
-0.396777 0.446392 4.16611 0 0 0 57 71 108 255
-0.33574 0.452589 4.2321 0 0 0 120 89 112 255
-0.713603 0.450368 4.05096 0 0 0 142 149 136 255
-0.670039 0.450005 4.05402 0 0 0 140 149 148 255
-0.540079 0.460593 4.07552 0 0 0 25 89 126 255
-0.475429 0.459796 4.11297 0 0 0 22 70 125 255
2.10255 0.449878 3.72806 0 0 0 58 39 39 255
-0.667827 0.467222 4.05196 0 0 0 80 95 94 255
-0.628917 0.468501 4.05949 0 0 0 58 94 92 255
-0.57607 0.467598 4.06843 0 0 0 81 103 120 255
-0.419094 0.477567 4.14247 0 0 0 45 84 117 255
2.13994 0.465747 3.70677 0 0 0 91 65 52 255
-1.01701 0.489646 4.25384 0 0 0 110 92 99 255
-0.649195 0.48114 4.05268 0 0 0 84 120 108 255
-0.38599 0.490743 4.17899 0 0 0 73 98 117 255
-0.319048 0.484072 4.2585 0 0 0 31 84 119 255
-0.99573 0.497641 4.25184 0 0 0 108 94 96 255
2.28031 0.471377 3.66788 0 0 0 80 62 54 255
-0.725943 0.493065 4.04583 0 0 0 87 106 123 255
1.96886 0.498245 3.96988 0 0 0 95 96 91 255
2.10272 0.485061 3.73347 0 0 0 67 46 41 255
-0.423994 0.503329 4.14546 0 0 0 60 108 147 255
2.51263 0.480043 3.71871 0 0 0 109 105 106 255
2.11948 0.494842 3.72269 0 0 0 37 43 44 255
2.2694 0.508021 3.67584 0 0 0 87 75 65 255
2.27331 0.506505 3.67481 0 0 0 74 55 41 255
2.29461 0.505289 3.67283 0 0 0 60 51 47 255
1.10669 0.573585 4.81292 0 0 0 106 143 126 255
1.9573 0.549771 3.98147 0 0 0 119 116 115 255
2.42344 0.528609 3.67785 0 0 0 64 53 57 255
-0.440942 0.561682 4.14792 0 0 0 145 149 167 255
2.20648 0.539092 3.68137 0 0 0 81 66 56 255
2.21472 0.531116 3.6803 0 0 0 50 37 39 255
-1.01017 0.571503 4.23289 0 0 0 107 113 138 255
-0.883746 0.564954 4.11902 0 0 0 104 117 151 255
-0.841457 0.568329 4.11507 0 0 0 141 145 147 255
2.45288 0.548785 3.70163 0 0 0 101 103 109 255
2.56005 0.544381 3.76875 0 0 0 131 138 138 255
-0.647733 0.571935 4.08076 0 0 0 138 140 171 255
1.95064 0.571755 4.0186 0 0 0 77 67 61 255
2.4968 0.549339 3.72674 0 0 0 129 138 140 255
2.17033 0.558433 3.69495 0 0 0 114 129 133 255
-0.887185 0.583501 4.08795 0 0 0 24 52 91 255
2.23994 0.557118 3.67451 0 0 0 139 136 137 255
2.31973 0.558545 3.66933 0 0 0 93 103 105 255
2.35534 0.558484 3.68055 0 0 0 140 141 143 255
-0.955757 0.592544 4.16835 0 0 0 33 58 91 255
1.04545 0.625542 4.71792 0 0 0 71 73 73 255
-0.493676 0.604775 4.09361 0 0 0 84 89 109 255
-0.588271 0.616519 4.11486 0 0 0 53 59 75 255
-0.985466 0.652991 4.19675 0 0 0 127 129 132 255
-0.372859 0.644896 4.22313 0 0 0 36 66 115 255
-0.486125 0.652139 4.07828 0 0 0 91 90 94 255
-0.584279 0.666172 4.10542 0 0 0 61 68 87 255
-0.8597 0.678298 4.08143 0 0 0 56 60 71 255
-0.339889 0.682603 4.24311 0 0 0 116 116 118 255
-0.945002 0.680459 4.15634 0 0 0 37 42 54 255
0.547616 0.708183 4.64938 0 0 0 85 123 102 255
-0.993845 0.6909 4.1694 0 0 0 88 95 105 255
-0.432694 0.686595 4.14821 0 0 0 151 158 159 255
1.07224 0.730325 4.75429 0 0 0 127 137 136 255
-0.747313 0.697055 4.07796 0 0 0 123 125 141 255
-0.401939 0.718047 4.18302 0 0 0 132 140 162 255
0.838076 0.747398 4.60892 0 0 0 65 109 78 255
-0.866246 0.715927 4.08226 0 0 0 122 125 129 255
-0.648751 0.718293 4.08179 0 0 0 136 142 163 255
-0.339476 0.734827 4.24358 0 0 0 113 116 127 255
-0.554483 0.748143 4.09914 0 0 0 141 150 171 255
-0.522887 0.747489 4.12098 0 0 0 152 152 158 255
2.25519 0.714074 3.68283 0 0 0 79 76 68 255
2.38076 0.718583 3.7036 0 0 0 86 76 66 255
-0.790689 0.758028 4.06917 0 0 0 78 82 95 255
-0.698324 0.769076 4.09298 0 0 0 131 136 162 255
-0.450161 0.77315 4.15207 0 0 0 70 74 90 255
-0.997533 0.77871 4.20161 0 0 0 130 137 137 255
-0.338013 0.788251 4.25276 0 0 0 60 71 94 255
-0.301182 0.818055 4.29826 0 0 0 97 106 117 255
-0.320065 0.816849 4.27286 0 0 0 127 132 153 255
2.24868 0.760504 3.68232 0 0 0 89 76 57 255
-0.835763 0.809757 4.10121 0 0 0 117 120 126 255
-0.614165 0.806942 4.09055 0 0 0 79 86 105 255
2.30283 0.764171 3.68525 0 0 0 98 74 53 255
-0.631017 0.811426 4.08981 0 0 0 53 63 89 255
-0.382804 0.824624 4.20272 0 0 0 56 73 95 255
-0.448716 0.832703 4.15265 0 0 0 90 89 97 255
-0.812278 0.831114 4.08989 0 0 0 74 80 99 255
-0.361116 0.846047 4.22089 0 0 0 155 157 160 255
0.54633 0.899895 4.66285 0 0 0 71 111 93 255
-0.377302 0.864144 4.20482 0 0 0 82 92 100 255
-0.394475 0.877554 4.19058 0 0 0 156 158 157 255
-0.614371 0.871068 4.0939 0 0 0 103 105 107 255
-0.630667 0.879425 4.08932 0 0 0 67 83 105 255
-0.95753 0.898226 4.17547 0 0 0 79 88 101 255
-0.363038 0.90562 4.21264 0 0 0 73 96 127 255
-0.721044 0.90205 4.08923 0 0 0 35 64 104 255
-0.516148 0.913623 4.12246 0 0 0 157 157 163 255
1.07925 1.00082 4.75067 0 0 0 121 139 124 255
-0.548014 0.924513 4.10203 0 0 0 155 159 160 255
-0.435468 0.933026 4.17315 0 0 0 73 92 125 255
-0.729935 0.931753 4.09098 0 0 0 159 160 161 255
-0.61504 0.942703 4.09893 0 0 0 125 125 125 255
-0.586565 0.939136 4.08739 0 0 0 148 150 152 255
-0.887551 0.956635 4.14284 0 0 0 35 51 92 255
-0.715705 0.952294 4.09319 0 0 0 81 91 108 255
-0.695588 0.966724 4.09767 0 0 0 153 149 159 255
-0.576349 0.977228 4.09841 0 0 0 75 92 137 255
-0.751868 0.978817 4.08965 0 0 0 157 157 157 255
-0.61427 0.990243 4.09587 0 0 0 68 89 127 255
-0.363906 1.01295 4.24398 0 0 0 118 140 158 255
1.17917 1.13928 5.05729 0 0 0 172 176 170 255
-0.846666 0.998537 4.03799 0 0 0 40 50 84 255
-0.699573 1.00711 4.09368 0 0 0 66 84 118 255
1.92694 1.37301 6.57451 0 0 0 144 141 136 255
-0.374891 1.03217 4.23484 0 0 0 52 101 130 255
-0.906431 1.02103 4.09142 0 0 0 135 131 139 255
-0.913754 1.02909 4.16553 0 0 0 145 149 150 255
1.20415 1.17549 5.07266 0 0 0 120 118 116 255
-0.992373 1.03957 4.2015 0 0 0 116 120 122 255
-0.500075 1.04439 4.13269 0 0 0 41 99 138 255
-0.497039 1.08297 4.13062 0 0 0 60 110 140 255
-0.36807 1.11303 4.23372 0 0 0 28 73 120 255
-0.337239 1.12277 4.26082 0 0 0 29 75 113 255
2.07005 1.04734 3.78937 0 0 0 107 110 109 255
2.11942 1.05027 3.75885 0 0 0 117 117 118 255
2.16947 1.04962 3.73751 0 0 0 90 86 85 255
2.10824 1.05604 3.7697 0 0 0 99 103 103 255
2.13794 1.05474 3.76089 0 0 0 97 94 95 255
2.21212 1.05089 3.72542 0 0 0 90 92 91 255
-0.392051 1.13929 4.21177 0 0 0 135 146 156 255
-0.315875 1.1464 4.28146 0 0 0 109 132 145 255
2.25336 1.05038 3.71229 0 0 0 80 81 80 255
2.31519 1.05542 3.70915 0 0 0 103 98 100 255
2.34336 1.0535 3.7121 0 0 0 96 94 96 255
2.21296 1.06763 3.72393 0 0 0 121 124 123 255
2.21136 1.06851 3.72657 0 0 0 121 124 123 255
2.22051 1.0822 3.72251 0 0 0 86 84 84 255
-0.330129 1.18182 4.27867 0 0 0 51 76 100 255
2.16561 1.08847 3.73868 0 0 0 84 89 89 255
2.25113 1.08147 3.70421 0 0 0 83 78 76 255
2.28379 1.07606 3.71074 0 0 0 89 81 83 255
2.35985 1.08543 3.7161 0 0 0 78 78 79 255
2.47917 1.08279 3.73279 0 0 0 73 74 76 255
-0.60431 1.15022 4.05626 0 0 0 24 111 147 255
2.22047 1.08251 3.72378 0 0 0 98 105 102 255
2.40054 1.08985 3.72156 0 0 0 87 92 90 255
-0.863444 1.17532 4.12317 0 0 0 88 116 142 255
-0.629009 1.16722 4.05351 0 0 0 148 149 158 255
2.13415 1.13336 3.76319 0 0 0 102 103 105 255
-0.617604 1.19006 4.05229 0 0 0 66 85 118 255
-0.736987 1.2096 4.09954 0 0 0 115 99 115 255
-0.828483 1.21998 4.10432 0 0 0 107 103 113 255
-0.693088 1.21319 4.08605 0 0 0 113 103 118 255
2.07787 1.17136 3.7964 0 0 0 103 105 104 255
2.25462 1.17593 3.71313 0 0 0 106 107 111 255
2.07174 1.20694 3.80235 0 0 0 115 113 112 255
-0.887613 1.36107 4.11562 0 0 0 69 106 141 255
-0.376412 1.38583 4.23416 0 0 0 140 152 167 255
-0.841971 1.36098 4.10877 0 0 0 65 104 137 255
-0.388231 1.39419 4.20944 0 0 0 93 102 120 255
-0.470263 1.39293 4.1685 0 0 0 93 128 163 255
-0.815698 1.39123 4.10708 0 0 0 22 83 123 255
-0.464184 1.42229 4.17107 0 0 0 157 159 160 255
-0.886659 1.41417 4.11774 0 0 0 89 108 133 255
2.46126 1.4045 3.79337 0 0 0 84 82 84 255
2.25145 1.41287 3.79984 0 0 0 112 112 112 255
2.1707 1.43021 3.83099 0 0 0 100 100 100 255
2.31051 1.41643 3.77491 0 0 0 106 106 106 255
2.38519 1.63083 3.98878 0 0 0 191 193 199 255
2.39535 1.62889 3.98083 0 0 0 207 207 208 255
2.33129 -0.210035 3.90052 0 0 0 153 157 163 255
2.36326 -0.20913 3.88861 0 0 0 46 45 44 255
2.23291 -0.16402 3.83468 0 0 0 140 73 68 255
0.950002 -0.240835 4.70214 0 0 0 211 211 212 255
2.34155 0.0144013 3.9145 0 0 0 200 205 207 255
-1.04235 0.133339 4.24859 0 0 0 22 47 84 255
2.04818 0.135342 4.02703 0 0 0 135 135 134 255
2.21292 0.256276 3.72027 0 0 0 121 103 80 255
2.31274 0.249882 3.70232 0 0 0 80 75 76 255
2.40305 0.25337 3.70869 0 0 0 93 77 67 255
-0.725863 0.261838 4.05794 0 0 0 113 104 82 255
-0.865923 0.269084 4.09006 0 0 0 132 125 125 255
-0.564546 0.269136 4.07203 0 0 0 110 103 101 255
-0.482115 0.271629 4.10652 0 0 0 124 109 113 255
2.3822 0.280494 3.70091 0 0 0 91 51 24 255
2.30193 0.306326 3.68916 0 0 0 165 133 81 255
-0.554645 0.312429 4.06644 0 0 0 147 121 91 255
-0.92873 0.330019 4.11832 0 0 0 68 103 139 255
-0.895796 0.354914 4.09441 0 0 0 37 76 112 255
-0.642152 0.355899 4.05452 0 0 0 46 99 143 255
-0.431617 0.348846 4.14491 0 0 0 105 129 149 255
0.405894 0.365308 4.72254 0 0 0 111 87 83 255
0.798937 0.365215 4.57861 0 0 0 144 132 134 255
0.874973 0.375103 4.60045 0 0 0 136 117 121 255
-0.654202 0.391069 4.05352 0 0 0 29 88 75 255
-0.487588 0.389428 4.11338 0 0 0 30 73 108 255
-0.391598 0.398086 4.17791 0 0 0 152 156 156 255
1.98376 0.380153 3.94283 0 0 0 77 84 85 255
2.11952 0.389477 3.71831 0 0 0 89 89 90 255
2.49061 0.387716 3.71953 0 0 0 110 118 121 255
1.93283 0.407464 3.95439 0 0 0 125 120 116 255
-0.590871 0.431717 4.07154 0 0 0 19 93 125 255
2.1015 0.418801 3.73256 0 0 0 58 40 40 255
2.42035 0.410056 3.69478 0 0 0 83 63 45 255
-0.453017 0.440947 4.12713 0 0 0 16 60 108 255
1.9758 0.444736 3.93249 0 0 0 82 76 67 255
2.10248 0.433622 3.72901 0 0 0 58 42 39 255
2.45604 0.429749 3.70643 0 0 0 34 38 37 255
-0.611831 0.45454 4.06679 0 0 0 147 154 154 255
2.14058 0.466314 3.7064 0 0 0 91 65 52 255
-0.544787 0.490222 4.07309 0 0 0 104 120 136 255
-0.418156 0.504002 4.14963 0 0 0 78 121 156 255
1.94091 0.49897 3.99965 0 0 0 122 120 119 255
2.10366 0.499329 3.73418 0 0 0 55 39 39 255
1.08367 0.579405 4.7615 0 0 0 126 142 138 255
2.10073 0.526739 3.73289 0 0 0 50 42 47 255
2.21145 0.526754 3.68088 0 0 0 55 39 41 255
2.28026 0.519242 3.67534 0 0 0 46 36 38 255
2.42079 0.525183 3.69947 0 0 0 57 40 43 255
2.5644 0.542033 3.77982 0 0 0 104 112 118 255
1.94813 0.575173 4.02466 0 0 0 108 100 94 255
2.48948 0.546837 3.72337 0 0 0 123 130 131 255
2.36259 0.560015 3.67406 0 0 0 108 94 86 255
2.40326 0.5496 3.67392 0 0 0 140 142 143 255
2.42327 0.550885 3.69084 0 0 0 143 143 143 255
-1.00223 0.592198 4.2223 0 0 0 134 137 140 255
-0.910813 0.585936 4.12299 0 0 0 32 55 90 255
2.1466 0.554566 3.70132 0 0 0 107 90 75 255
-0.74137 0.611111 4.06878 0 0 0 155 156 156 255
-0.495497 0.604457 4.08891 0 0 0 88 94 113 255
-0.733354 0.646489 4.07164 0 0 0 154 156 158 255
-0.434183 0.68274 4.14418 0 0 0 151 158 159 255
-0.988451 0.707387 4.16651 0 0 0 133 131 130 255
-0.739814 0.715707 4.07924 0 0 0 156 159 161 255
-0.644514 0.706736 4.07893 0 0 0 137 143 162 255
-0.405953 0.724511 4.1814 0 0 0 155 160 168 255
-0.870139 0.724216 4.0851 0 0 0 109 111 116 255
-0.557392 0.759874 4.09604 0 0 0 158 162 163 255
2.25619 0.721564 3.6834 0 0 0 96 76 55 255
-0.878925 0.771992 4.08748 0 0 0 97 108 118 255
-0.699273 0.76149 4.08913 0 0 0 52 69 110 255
-0.461621 0.775745 4.14382 0 0 0 92 94 101 255
-0.337857 0.787157 4.25317 0 0 0 40 53 83 255
-0.319607 0.811563 4.27454 0 0 0 128 133 152 255
-0.631034 0.811431 4.08981 0 0 0 53 63 89 255
-0.457336 0.836011 4.14546 0 0 0 58 66 93 255
-0.41217 0.884144 4.17595 0 0 0 156 157 159 255
-0.454295 0.897972 4.1526 0 0 0 113 117 126 255
-0.955262 0.913001 4.17034 0 0 0 69 69 80 255
-0.512137 0.913033 4.12537 0 0 0 156 159 158 255
-0.561869 0.928742 4.09215 0 0 0 160 162 163 255
-0.743158 0.933102 4.08516 0 0 0 157 161 163 255
-0.888782 0.946296 4.14412 0 0 0 33 52 93 255
-0.685274 0.963084 4.10465 0 0 0 158 160 161 255
-0.719734 0.966878 4.09331 0 0 0 59 71 96 255
-0.752896 0.976496 4.08956 0 0 0 157 157 157 255
-0.485921 0.9999 4.14677 0 0 0 130 149 169 255
-0.819677 0.997423 4.04086 0 0 0 151 154 153 255
-0.929738 1.02649 4.16893 0 0 0 149 147 151 255
-0.503012 1.03637 4.13128 0 0 0 40 99 138 255
0.956152 1.11437 4.66715 0 0 0 29 77 115 255
0.505187 1.14921 4.71046 0 0 0 69 104 73 255
2.34776 1.06599 3.71072 0 0 0 87 86 87 255
0.799206 1.2488 4.62426 0 0 0 101 120 98 255
-0.62692 1.16266 4.05255 0 0 0 136 140 153 255
-0.867516 1.17011 4.12552 0 0 0 88 116 142 255
-0.724086 1.17616 4.10304 0 0 0 85 131 170 255
-0.792585 1.1926 4.10976 0 0 0 21 85 131 255
-0.828519 1.23751 4.10132 0 0 0 80 84 109 255
-0.904309 1.27197 4.13632 0 0 0 124 142 163 255
-0.619035 1.28576 4.04734 0 0 0 37 76 110 255
-0.857059 1.32244 4.12318 0 0 0 101 111 122 255
-0.726667 1.32925 4.10682 0 0 0 95 108 135 255
-0.842447 1.36321 4.11226 0 0 0 65 104 137 255
2.39948 1.41094 3.78612 0 0 0 98 94 97 255
2.29982 -0.210765 3.9113 0 0 0 45 43 44 255
2.37034 -0.20575 3.86164 0 0 0 45 45 45 255
2.4583 -0.198351 3.91534 0 0 0 47 52 53 255
0.949533 -0.239085 4.70071 0 0 0 211 211 212 255
2.09764 -0.0562137 3.97677 0 0 0 93 84 83 255
2.47314 -0.0444325 3.91153 0 0 0 35 39 39 255
2.34237 0.0107242 3.91624 0 0 0 200 205 207 255
2.47068 0.0369443 3.92368 0 0 0 84 85 92 255
2.34949 0.0901487 3.91974 0 0 0 248 250 254 255
2.35495 0.115856 3.91737 0 0 0 255 252 253 255
2.06492 0.135973 4.01767 0 0 0 63 63 62 255
2.53314 0.140584 3.94145 0 0 0 50 50 54 255
2.31015 0.259434 3.69988 0 0 0 161 144 114 255
-0.473122 0.263121 4.11374 0 0 0 148 121 89 255
2.21476 0.266356 3.71317 0 0 0 95 75 60 255
2.36088 0.261903 3.70137 0 0 0 125 88 55 255
-0.83735 0.281642 4.07381 0 0 0 139 126 66 255
-0.80796 0.275475 4.06774 0 0 0 75 73 68 255
-0.769599 0.272408 4.06185 0 0 0 114 95 99 255
-0.626839 0.271004 4.05989 0 0 0 133 111 101 255
-0.704773 0.284861 4.05612 0 0 0 113 107 101 255
2.21268 0.297974 3.69752 0 0 0 130 106 77 255
2.37443 0.298594 3.69451 0 0 0 138 101 62 255
-0.976932 0.335141 4.19627 0 0 0 95 110 126 255
0.581954 0.3741 4.60194 0 0 0 118 39 43 255
-0.615901 0.400675 4.06928 0 0 0 149 155 160 255
-0.530214 0.399123 4.08608 0 0 0 152 158 165 255
-0.39242 0.39617 4.17757 0 0 0 148 155 155 255
0.604031 0.404585 4.59143 0 0 0 156 147 148 255
1.98413 0.385934 3.9384 0 0 0 112 121 123 255
2.07205 0.396212 3.74856 0 0 0 127 133 134 255
2.1283 0.406159 3.71448 0 0 0 131 137 139 255
2.15321 0.394772 3.7018 0 0 0 40 39 44 255
2.18297 0.395481 3.69069 0 0 0 135 136 140 255
2.28769 0.394439 3.67094 0 0 0 138 147 149 255
2.41882 0.383715 3.69781 0 0 0 125 129 132 255
2.1295 0.413231 3.71419 0 0 0 123 136 140 255
2.42508 0.416981 3.69042 0 0 0 61 43 33 255
-0.600126 0.456533 4.06853 0 0 0 144 156 158 255
-0.983642 0.483463 4.22878 0 0 0 127 120 122 255
2.14685 0.468212 3.70414 0 0 0 61 40 29 255
-0.349519 0.538027 4.22632 0 0 0 32 80 117 255
2.10648 0.513453 3.73089 0 0 0 47 38 40 255
2.21568 0.519848 3.68099 0 0 0 52 36 38 255
2.42398 0.507978 3.69047 0 0 0 39 38 42 255
1.98159 0.548373 3.88676 0 0 0 130 133 131 255
2.28499 0.524863 3.67554 0 0 0 37 39 43 255
-0.921405 0.585315 4.13652 0 0 0 22 55 94 255
-0.861145 0.574435 4.1125 0 0 0 152 152 152 255
-0.644069 0.576923 4.08332 0 0 0 153 155 167 255
-0.451559 0.569483 4.13793 0 0 0 156 158 162 255
2.11926 0.550333 3.72004 0 0 0 137 139 139 255
2.14774 0.551371 3.70085 0 0 0 107 90 75 255
2.19099 0.555491 3.68669 0 0 0 137 141 142 255
2.23357 0.558133 3.67634 0 0 0 142 141 144 255
2.33122 0.549272 3.66916 0 0 0 141 146 147 255
2.37922 0.552602 3.67084 0 0 0 45 41 45 255
2.42672 0.552847 3.69543 0 0 0 143 143 143 255
-0.800783 0.588153 4.08939 0 0 0 29 51 90 255
-0.74192 0.608259 4.06899 0 0 0 156 156 156 255
-0.58052 0.622503 4.1227 0 0 0 104 112 143 255
1.03981 0.646656 4.72508 0 0 0 40 80 74 255
-0.743821 0.621718 4.07143 0 0 0 156 159 158 255
-0.362857 0.659358 4.2255 0 0 0 146 151 161 255
-0.580242 0.66771 4.11103 0 0 0 61 68 87 255
-0.506101 0.660534 4.07896 0 0 0 59 65 84 255
-0.432751 0.666272 4.14796 0 0 0 153 157 159 255
-0.95346 0.686959 4.16268 0 0 0 28 44 82 255
-0.862648 0.676546 4.08299 0 0 0 56 60 71 255
-0.775654 0.677002 4.06748 0 0 0 34 53 94 255
-0.36482 0.683102 4.22112 0 0 0 146 152 161 255
-0.959661 0.700338 4.16381 0 0 0 24 46 91 255
-0.865441 0.704583 4.0821 0 0 0 111 118 126 255
-0.744215 0.710091 4.07919 0 0 0 153 157 160 255
-0.412134 0.727546 4.17701 0 0 0 154 159 171 255
-0.877501 0.761807 4.08649 0 0 0 107 117 124 255
2.27581 0.734018 3.68557 0 0 0 110 80 42 255
-0.689656 0.778089 4.09973 0 0 0 156 158 163 255
-1.00206 0.815222 4.22218 0 0 0 39 52 75 255
-0.385477 0.803129 4.20211 0 0 0 103 118 135 255
-0.287238 0.805439 4.32159 0 0 0 149 153 154 255
-0.624576 0.812678 4.08895 0 0 0 49 59 86 255
-0.337729 0.81522 4.24928 0 0 0 33 58 96 255
-0.810427 0.827783 4.08085 0 0 0 74 80 99 255
-0.6215 0.878763 4.09082 0 0 0 58 75 97 255
-0.410242 0.900938 4.18111 0 0 0 61 73 100 255
-0.744836 0.885024 4.07676 0 0 0 60 75 95 255
-0.504287 0.89686 4.13221 0 0 0 160 162 163 255
-0.847944 0.906099 4.06146 0 0 0 31 51 92 255
-0.562621 0.929069 4.08997 0 0 0 160 162 163 255
-0.849796 0.923034 4.06327 0 0 0 26 52 95 255
-0.673584 0.950756 4.10674 0 0 0 159 162 161 255
-0.624762 0.950787 4.0939 0 0 0 77 85 106 255
-0.80006 0.985105 4.10206 0 0 0 41 55 91 255
1.18592 1.1211 5.05592 0 0 0 168 174 170 255
-0.480869 1.00162 4.15079 0 0 0 137 155 172 255
-0.365141 1.01737 4.242 0 0 0 122 144 164 255
-0.924794 1.01747 4.16493 0 0 0 148 150 151 255
1.18891 1.22315 5.06851 0 0 0 158 162 161 255
-0.629601 1.08091 4.11385 0 0 0 113 153 184 255
-0.386464 1.14225 4.2195 0 0 0 145 152 158 255
2.12586 1.06257 3.7517 0 0 0 95 95 94 255
2.28475 1.06996 3.71045 0 0 0 86 79 81 255
-0.678349 1.15723 4.08886 0 0 0 23 88 136 255
-0.638517 1.1565 4.09152 0 0 0 142 157 181 255
-0.590956 1.14657 4.08813 0 0 0 9 108 147 255
-0.864828 1.20254 4.12377 0 0 0 142 144 146 255
-0.784738 1.18171 4.10587 0 0 0 19 84 129 255
-0.619226 1.19424 4.05225 0 0 0 46 80 123 255
-0.333041 1.23307 4.26906 0 0 0 162 140 95 255
-0.912405 1.22174 4.14513 0 0 0 82 104 140 255
-0.901436 1.27334 4.13458 0 0 0 124 142 163 255
-0.865765 1.30499 4.12969 0 0 0 124 131 141 255
-0.797237 1.31309 4.1027 0 0 0 29 74 114 255
-0.711784 1.3002 4.10933 0 0 0 111 112 122 255
-0.376962 1.39125 4.23289 0 0 0 152 154 156 255
-0.868758 1.38152 4.10753 0 0 0 84 129 157 255
2.4102 1.41273 3.7808 0 0 0 93 90 94 255
2.39289 1.62949 3.9852 0 0 0 205 206 212 255
2.23875 -0.202111 3.82494 0 0 0 42 41 42 255
2.46226 -0.192501 3.94099 0 0 0 63 43 41 255
2.12304 -0.051103 3.96695 0 0 0 47 49 51 255
2.47674 0.0503065 3.92784 0 0 0 83 86 92 255
-1.04179 0.135802 4.25252 0 0 0 22 47 84 255
-0.654605 0.27392 4.05314 0 0 0 129 110 99 255
2.28778 0.269512 3.69109 0 0 0 118 95 70 255
-0.36422 0.355072 4.20734 0 0 0 124 141 155 255
1.9603 0.338021 4.00944 0 0 0 59 58 59 255
-0.951108 0.352237 4.1547 0 0 0 96 99 113 255
-0.878933 0.331827 4.0927 0 0 0 8 56 107 255
0.767887 0.389049 4.5756 0 0 0 159 159 159 255
2.39536 0.397729 3.68481 0 0 0 122 130 137 255
-0.435395 0.420298 4.13916 0 0 0 149 150 154 255
2.07265 0.397205 3.74788 0 0 0 124 136 136 255
2.18312 0.413444 3.69115 0 0 0 132 143 146 255
2.2866 0.391333 3.67116 0 0 0 143 143 143 255
2.34128 0.436949 3.6655 0 0 0 40 41 47 255
-0.944541 0.469844 4.17479 0 0 0 145 109 78 255
2.2665 0.489529 3.67397 0 0 0 136 136 137 255
-0.454726 0.587382 4.13279 0 0 0 158 160 160 255
1.97474 0.595742 4.01027 0 0 0 45 46 47 255
-0.644409 0.575826 4.08292 0 0 0 153 155 167 255
-0.73828 0.628079 4.07127 0 0 0 156 159 159 255
-0.365537 0.654809 4.22576 0 0 0 113 126 151 255
-0.969052 0.685516 4.17698 0 0 0 22 44 84 255
-0.639151 0.686339 4.08361 0 0 0 154 158 160 255
-0.41629 0.678712 4.16767 0 0 0 32 60 105 255
-0.870255 0.722573 4.08072 0 0 0 122 125 129 255
0.791835 0.757083 4.59627 0 0 0 70 110 74 255
-0.745988 0.730663 4.07172 0 0 0 159 160 160 255
-0.407393 0.87662 4.17747 0 0 0 158 161 161 255
-0.855703 0.904943 4.06366 0 0 0 29 52 93 255
-0.772327 0.942667 4.09085 0 0 0 158 161 160 255
-0.985939 1.068 4.22199 0 0 0 23 53 95 255
-0.400659 1.10343 4.20927 0 0 0 3 94 141 255
-0.354056 1.14406 4.25161 0 0 0 146 150 155 255
-0.572824 1.14254 4.06321 0 0 0 4 108 151 255
-0.865917 1.19241 4.12135 0 0 0 141 143 145 255
-0.784769 1.18757 4.10605 0 0 0 20 85 131 255
-0.724715 1.18007 4.10187 0 0 0 126 144 160 255
-0.657774 1.17739 4.09064 0 0 0 33 87 135 255
-0.341599 1.25165 4.25902 0 0 0 164 148 92 255
0.364186 1.40209 4.92696 0 0 0 67 94 81 255
-0.881104 1.2743 4.12892 0 0 0 138 143 146 255
-0.769834 1.27475 4.10672 0 0 0 157 157 158 255
-0.353709 1.27973 4.25288 0 0 0 168 154 103 255
-0.789398 1.30462 4.10283 0 0 0 36 74 113 255
-0.690567 1.29397 4.00734 0 0 0 132 130 139 255
-0.62186 1.29781 4.04664 0 0 0 28 75 118 255
-0.545829 1.30871 4.0741 0 0 0 166 160 125 255
-0.294996 1.46103 4.65304 0 0 0 45 86 123 255
2.13158 -0.0807097 3.96579 0 0 0 65 66 72 255
-0.33926 0.109838 4.59992 0 0 0 26 61 102 255
2.05294 0.165007 4.02478 0 0 0 55 58 57 255
-0.359571 0.369661 4.21258 0 0 0 138 149 156 255
-0.892299 0.405931 4.09145 0 0 0 143 135 116 255
-0.605541 0.39305 4.07081 0 0 0 135 143 155 255
-0.526681 0.397992 4.08773 0 0 0 153 159 162 255
1.97288 0.415193 3.93342 0 0 0 111 113 111 255
-0.921774 0.449545 4.14334 0 0 0 147 142 134 255
-0.725936 0.45752 4.05112 0 0 0 117 125 105 255
-0.351289 0.462342 4.21791 0 0 0 151 153 161 255
1.09151 0.522368 4.77574 0 0 0 93 113 86 255
1.98163 0.508911 3.93046 0 0 0 121 128 125 255
-0.966057 0.535324 4.18269 0 0 0 12 59 104 255
0.830649 0.594316 4.60586 0 0 0 156 160 161 255
2.07734 0.549807 3.7449 0 0 0 135 139 140 255
2.20137 0.551178 3.68216 0 0 0 143 142 139 255
-0.631317 0.590744 4.09257 0 0 0 157 159 161 255
-0.457689 0.594468 4.13034 0 0 0 157 160 162 255
1.96751 0.603615 4.0311 0 0 0 50 52 52 255
-0.907953 0.631225 4.12854 0 0 0 150 152 151 255
-0.834535 0.602939 4.10808 0 0 0 146 152 155 255
-0.506169 0.645522 4.07297 0 0 0 156 158 158 255
-0.31557 0.687455 4.31317 0 0 0 146 153 154 255
-0.963567 0.695026 4.1688 0 0 0 23 46 87 255
0.947074 0.751578 4.64898 0 0 0 116 146 130 255
1.09094 0.769324 4.75688 0 0 0 48 91 74 255
-0.672419 0.731516 4.08737 0 0 0 27 55 103 255
-1.00769 0.823943 4.22464 0 0 0 23 61 94 255
-0.735055 0.865047 4.0843 0 0 0 37 61 107 255
-0.453107 0.831699 4.14912 0 0 0 107 104 108 255
-0.612768 0.909013 4.09482 0 0 0 158 161 165 255
-0.856699 0.979235 4.13026 0 0 0 152 154 156 255
-0.476863 1.00054 4.15402 0 0 0 137 155 172 255
-0.365979 1.02458 4.24088 0 0 0 127 129 131 255
-0.481379 1.06238 4.14374 0 0 0 148 152 158 255
-0.347998 1.20892 4.26514 0 0 0 140 124 104 255
1.11058 1.4049 5.09886 0 0 0 68 108 88 255
-0.521085 1.31682 4.09248 0 0 0 174 163 107 255
-0.948401 1.41496 4.19433 0 0 0 44 79 117 255
-0.509553 1.4375 4.1289 0 0 0 45 86 124 255
1.9951 1.57627 4.10088 0 0 0 110 112 108 255
2.12557 -0.200485 3.97406 0 0 0 84 67 60 255
2.11878 -0.125352 3.97543 0 0 0 72 57 57 255
1.0545 0.113193 4.80912 0 0 0 45 91 64 255
2.04575 0.177803 4.02289 0 0 0 54 54 54 255
2.07725 0.171252 4.00879 0 0 0 40 47 49 255
1.97777 0.27012 4.01628 0 0 0 109 101 98 255
-0.867741 0.424474 4.11842 0 0 0 147 132 77 255
1.95943 0.471225 3.9745 0 0 0 128 132 131 255
-0.40666 0.62428 4.16978 0 0 0 25 57 105 255
-0.844698 0.650116 4.11368 0 0 0 154 153 154 255
-0.690542 0.635955 4.05988 0 0 0 23 56 107 255
1.05767 0.810534 4.73191 0 0 0 50 95 71 255
-0.729753 0.818443 4.07018 0 0 0 73 84 96 255
-0.298249 0.872984 4.27994 0 0 0 18 64 112 255
1.99533 0.903912 4.07692 0 0 0 46 51 52 255
-0.380876 1.21745 4.22651 0 0 0 153 126 99 255
0.382867 1.38533 4.90054 0 0 0 64 93 79 255
-0.8284 1.21307 4.10651 0 0 0 131 129 136 255
-0.456437 1.31144 4.16951 0 0 0 173 160 74 255
-0.335438 1.44315 4.63277 0 0 0 30 78 119 255
-0.873002 1.43288 4.11136 0 0 0 50 80 110 255
2.19799 -0.191562 3.88343 0 0 0 129 93 98 255
2.49435 -0.185627 3.94797 0 0 0 82 87 87 255
2.3048 -0.170616 3.9205 0 0 0 138 103 105 255
2.50312 -0.0932179 3.97733 0 0 0 115 122 124 255
2.50482 -0.072715 3.95705 0 0 0 81 85 86 255
2.4943 -0.0124498 3.95501 0 0 0 120 127 129 255
2.21096 0.0161937 3.9063 0 0 0 162 162 162 255
2.54352 0.120628 3.97274 0 0 0 113 115 117 255
-0.31417 0.0949866 4.63514 0 0 0 81 87 99 255
2.33859 0.254099 3.70188 0 0 0 155 135 115 255
0.653104 0.248442 4.57693 0 0 0 30 53 50 255
0.920388 0.259091 4.61121 0 0 0 96 101 99 255
0.461687 0.273725 4.66869 0 0 0 121 130 129 255
0.961589 0.268863 4.62387 0 0 0 83 112 100 255
2.34519 0.303767 3.69484 0 0 0 76 50 28 255
-0.737084 0.290047 4.05468 0 0 0 30 47 93 255
2.3185 0.307386 3.69262 0 0 0 153 123 92 255
0.669764 0.319839 4.57624 0 0 0 123 149 104 255
-0.383208 0.320575 4.17993 0 0 0 62 112 157 255
-0.333762 0.410317 4.23093 0 0 0 114 88 103 255
2.51252 0.425178 3.71772 0 0 0 99 98 98 255
-0.418417 0.448468 4.1403 0 0 0 150 151 157 255
2.2794 0.451715 3.66823 0 0 0 86 81 78 255
-0.510045 0.478433 4.08816 0 0 0 40 83 116 255
2.11522 0.524668 3.72155 0 0 0 38 42 46 255
2.22468 0.536779 3.67622 0 0 0 35 40 52 255
2.06316 0.555652 3.75312 0 0 0 75 86 87 255
0.575541 0.684332 4.62926 0 0 0 145 153 151 255
1.11028 0.735045 4.78673 0 0 0 136 148 146 255
1.0924 0.752199 4.75523 0 0 0 134 142 139 255
1.05252 0.768184 4.74014 0 0 0 144 153 153 255
-0.790428 0.757347 4.03185 0 0 0 86 89 99 255
2.33246 0.715234 3.67988 0 0 0 73 61 49 255
-0.822735 0.877074 4.00227 0 0 0 57 71 86 255
-0.818973 0.879397 3.99988 0 0 0 61 67 88 255
1.87999 1.42703 6.92126 0 0 0 147 145 139 255
1.31896 1.39262 6.58396 0 0 0 133 131 125 255
1.23875 1.36948 6.40952 0 0 0 142 141 133 255
0.907454 1.17716 4.64238 0 0 0 95 89 43 255
2.40066 1.04653 3.71342 0 0 0 99 97 98 255
2.42132 1.04329 3.68405 0 0 0 107 115 115 255
2.16646 1.06663 3.7372 0 0 0 125 133 133 255
2.07638 1.08499 3.78031 0 0 0 90 93 94 255
2.20984 1.0873 3.71676 0 0 0 73 75 74 255
2.30938 1.08437 3.70558 0 0 0 87 89 90 255
2.33957 1.08548 3.70352 0 0 0 87 93 93 255
2.20866 1.16437 3.67185 0 0 0 99 102 104 255
2.22752 1.23888 3.66521 0 0 0 109 118 116 255
2.39103 1.23476 3.65236 0 0 0 100 98 98 255
-0.419949 1.39984 4.19546 0 0 0 113 120 126 255
-0.675983 1.37183 3.84482 0 0 0 70 107 143 255
2.15 1.36715 3.69834 0 0 0 117 120 119 255
2.187 1.37818 3.66955 0 0 0 119 121 125 255
2.21667 1.39281 3.65653 0 0 0 100 102 104 255
2.49688 -0.000378264 3.95344 0 0 0 138 145 145 255
2.37689 0.313888 3.68981 0 0 0 106 86 56 255
0.609574 0.373578 4.58943 0 0 0 90 60 64 255
-0.72624 0.394539 4.05097 0 0 0 119 120 112 255
-0.508626 0.486797 4.08943 0 0 0 19 83 128 255
2.5103 0.49292 3.70382 0 0 0 68 49 45 255
2.63873 0.900151 3.88318 0 0 0 90 99 99 255
-0.659315 0.939229 4.01563 0 0 0 159 159 164 255
2.39266 1.03306 3.66966 0 0 0 81 82 82 255
-0.693396 1.36577 3.84302 0 0 0 80 126 160 255
-0.513405 1.42038 4.14471 0 0 0 64 114 148 255
2.11364 -0.199925 3.97474 0 0 0 109 98 94 255
2.10725 -0.0123587 3.98281 0 0 0 149 149 147 255
0.676447 0.244254 4.57977 0 0 0 96 99 99 255
2.37993 0.26098 3.70551 0 0 0 155 118 75 255
-0.713118 0.297338 4.05391 0 0 0 143 131 87 255
2.38938 0.319106 3.68637 0 0 0 64 43 28 255
0.886175 0.395834 4.60231 0 0 0 153 144 145 255
1.02819 0.415108 4.6893 0 0 0 131 63 70 255
-0.723836 0.402775 4.04806 0 0 0 145 145 130 255
0.443789 0.428137 4.68236 0 0 0 140 139 139 255
2.34448 0.463231 3.66781 0 0 0 47 44 47 255
-0.46597 0.48484 4.11026 0 0 0 114 121 130 255
2.37006 0.542484 3.6643 0 0 0 41 40 45 255
-0.854206 0.739428 4.04246 0 0 0 93 101 111 255
2.3654 0.729071 3.69734 0 0 0 91 69 44 255
-0.699571 0.791527 4.10312 0 0 0 159 158 161 255
2.36247 0.748771 3.69138 0 0 0 97 71 33 255
-0.564266 0.907387 4.08169 0 0 0 161 161 163 255
0.858325 1.13881 4.62798 0 0 0 152 156 133 255
-0.378633 1.10552 4.21757 0 0 0 9 82 129 255
0.889327 1.17542 4.63596 0 0 0 125 121 72 255
-0.429188 1.38822 4.085 0 0 0 155 159 162 255
2.45445 1.36429 3.64028 0 0 0 88 84 87 255
2.12878 -0.1427 3.96702 0 0 0 68 46 46 255
2.47358 -0.0653317 3.95292 0 0 0 60 67 75 255
2.20813 0.0147497 3.90576 0 0 0 156 158 160 255
2.46962 0.0388257 3.98477 0 0 0 89 89 89 255
2.12824 0.0408643 3.97135 0 0 0 93 96 95 255
-0.357252 0.319657 4.20455 0 0 0 50 96 131 255
2.28737 0.431556 3.67067 0 0 0 141 142 141 255
2.42203 0.452868 3.67314 0 0 0 35 37 41 255
2.20699 0.484009 3.66767 0 0 0 61 36 28 255
0.792661 0.557977 4.60136 0 0 0 154 159 157 255
0.438497 0.600834 4.70621 0 0 0 86 114 109 255
2.38919 0.537263 3.66172 0 0 0 142 145 146 255
1.95792 0.592124 3.99726 0 0 0 59 59 62 255
2.24114 0.544584 3.67213 0 0 0 132 142 144 255
2.28431 0.554634 3.67483 0 0 0 35 36 40 255
-0.444215 0.642584 4.12814 0 0 0 158 159 161 255
-0.40545 0.664848 4.17262 0 0 0 25 59 107 255
-0.639503 0.66544 4.08176 0 0 0 158 158 162 255
-0.74817 0.675603 4.07565 0 0 0 36 50 91 255
-0.28737 0.763507 4.32741 0 0 0 128 132 139 255
-0.486182 0.896854 4.13555 0 0 0 159 161 160 255
-0.799834 0.973376 3.97937 0 0 0 151 150 152 255
-0.399793 1.07888 4.19305 0 0 0 1 98 145 255
-0.594787 1.1003 4.01781 0 0 0 131 148 162 255
-0.529318 1.12393 4.01269 0 0 0 0 106 149 255
-0.334612 1.16586 4.26873 0 0 0 133 134 139 255
2.40431 -0.219343 3.84759 0 0 0 144 144 144 255
2.21288 0.0207231 3.90769 0 0 0 162 162 162 255
1.08861 0.105448 4.96968 0 0 0 50 93 69 255
1.03152 0.311433 4.70462 0 0 0 143 145 133 255
-0.87646 0.397521 4.12352 0 0 0 151 135 77 255
-0.738007 0.386656 4.05232 0 0 0 129 131 116 255
2.22997 0.489982 3.67585 0 0 0 35 37 41 255
0.78266 0.593661 4.5845 0 0 0 157 162 160 255
1.9839 0.533095 3.94266 0 0 0 127 133 136 255
2.38717 0.540405 3.66067 0 0 0 122 130 132 255
-0.623691 0.637164 4.0968 0 0 0 159 160 161 255
-0.406051 0.64062 4.16889 0 0 0 25 59 105 255
0.774639 0.685464 4.59606 0 0 0 67 110 68 255
-0.306971 0.747059 4.3097 0 0 0 153 156 155 255
0.783562 0.821844 4.61091 0 0 0 158 163 161 255
-0.414958 0.829762 4.16394 0 0 0 158 160 162 255
-0.63193 0.897109 4.09214 0 0 0 100 113 139 255
-0.463533 1.00167 4.16507 0 0 0 134 150 165 255
-0.366022 1.13712 4.23516 0 0 0 128 140 152 255
-0.534014 1.14445 4.11371 0 0 0 1 98 146 255
-0.350384 1.24797 4.24255 0 0 0 155 139 84 255
-0.305802 1.47333 4.66218 0 0 0 87 119 151 255
-0.453568 1.42087 4.08353 0 0 0 36 80 123 255
2.14314 -0.0568806 3.94982 0 0 0 33 41 36 255
1.07427 0.107276 4.91484 0 0 0 48 91 67 255
-0.359688 0.402371 4.20562 0 0 0 97 69 102 255
1.94639 0.474962 3.98356 0 0 0 90 90 87 255
2.13214 0.538426 3.7101 0 0 0 134 142 146 255
-0.399824 0.645078 4.1766 0 0 0 24 59 106 255
-0.698639 0.693395 4.06453 0 0 0 25 58 111 255
0.809399 0.774795 4.58971 0 0 0 77 116 99 255
1.0731 1.39333 5.09055 0 0 0 66 105 77 255
2.21776 -0.206856 3.87521 0 0 0 119 120 121 255
2.10231 -0.184887 3.97495 0 0 0 110 105 104 255
2.10433 -0.128786 3.97169 0 0 0 136 136 133 255
2.10226 -0.107333 3.9659 0 0 0 143 141 139 255
2.12041 -0.0753573 3.95826 0 0 0 72 73 74 255
2.35849 -0.0527511 3.85233 0 0 0 79 83 86 255
0.376025 0.150587 4.80355 0 0 0 28 59 44 255
2.35788 0.250068 3.70692 0 0 0 88 83 82 255
2.28513 0.254371 3.69528 0 0 0 57 56 59 255
2.20221 0.270738 3.72284 0 0 0 62 49 47 255
2.32302 0.277674 3.70021 0 0 0 69 58 57 255
2.32597 0.277984 3.69953 0 0 0 69 58 57 255
-0.457377 0.278485 4.11199 0 0 0 73 55 38 255
-0.441112 0.304247 4.11885 0 0 0 97 82 94 255
-0.766988 0.301332 4.05783 0 0 0 131 109 116 255
-0.456493 0.327287 4.11355 0 0 0 63 100 144 255
-0.469528 0.372647 4.12024 0 0 0 137 137 146 255
-0.489085 0.468533 4.09343 0 0 0 128 145 164 255
-0.700868 0.463985 4.04624 0 0 0 120 127 124 255
1.04033 0.512519 4.71363 0 0 0 122 136 112 255
-0.366667 0.50487 4.19618 0 0 0 73 114 148 255
-0.344563 0.519782 4.21841 0 0 0 32 82 125 255
1.09979 0.707888 4.77488 0 0 0 111 118 117 255
0.455257 0.948864 4.73907 0 0 0 101 113 109 255
1.1628 1.24951 5.43802 0 0 0 140 139 133 255
2.4103 1.06899 3.73221 0 0 0 125 129 128 255
-1.0488 1.23752 4.41877 0 0 0 54 99 133 255
-0.966174 1.25893 4.38898 0 0 0 27 84 124 255
-0.847087 1.25388 4.27114 0 0 0 115 96 111 255
-1.00168 1.28585 4.37947 0 0 0 106 105 114 255
2.16149 1.17879 3.77066 0 0 0 99 100 102 255
2.38647 1.18094 3.75025 0 0 0 106 105 109 255
2.37684 1.2239 3.76015 0 0 0 103 103 103 255
2.28165 1.26272 3.74572 0 0 0 103 107 110 255
-1.14884 1.49627 4.60173 0 0 0 59 110 152 255
-0.373193 1.41224 4.23475 0 0 0 160 157 163 255
-1.21714 1.58965 4.70391 0 0 0 98 112 134 255
2.23205 1.39878 3.75724 0 0 0 113 113 115 255
-0.44342 0.278063 4.12035 0 0 0 140 103 88 255
-0.468469 0.371361 4.12156 0 0 0 119 135 153 255
0.669625 0.404059 4.57137 0 0 0 124 46 49 255
-0.395917 0.485162 4.14464 0 0 0 98 119 145 255
1.10739 0.59019 4.80813 0 0 0 139 146 146 255
-0.473498 0.664442 4.07459 0 0 0 100 107 129 255
-0.739551 0.888302 4.09646 0 0 0 32 62 104 255
-0.796678 1.21253 4.23221 0 0 0 134 145 147 255
-0.971222 1.25943 4.38673 0 0 0 33 90 128 255
2.38535 1.41521 3.7822 0 0 0 95 95 99 255
2.45237 -0.216879 3.951 0 0 0 74 74 76 255
2.35365 0.286195 3.69903 0 0 0 149 124 96 255
2.3862 0.301218 3.69156 0 0 0 133 97 66 255
2.41932 0.420975 3.69483 0 0 0 61 34 20 255
-0.64747 0.411355 4.05033 0 0 0 23 91 75 255
-0.280367 0.416078 4.29884 0 0 0 67 117 147 255
2.14879 0.509831 3.70766 0 0 0 136 140 137 255
-0.349291 0.492313 4.21475 0 0 0 125 137 153 255
0.775895 0.555054 4.59939 0 0 0 155 159 160 255
-0.515562 0.754352 4.13751 0 0 0 158 159 160 255
-0.372424 0.788791 4.20188 0 0 0 62 75 103 255
-0.820008 1.22921 4.24608 0 0 0 139 138 140 255
-0.807851 1.21635 4.24111 0 0 0 137 144 146 255
2.39757 1.4129 3.79418 0 0 0 98 92 97 255
2.14459 -0.203208 3.95256 0 0 0 47 44 45 255
2.26545 -0.203651 3.83729 0 0 0 42 40 39 255
2.13903 -0.212158 3.96106 0 0 0 56 55 55 255
2.13535 -0.111107 3.95575 0 0 0 39 41 40 255
2.285 0.284589 3.68638 0 0 0 158 127 80 255
2.40658 0.390577 3.69242 0 0 0 119 136 144 255
2.32873 0.428177 3.66933 0 0 0 56 43 41 255
2.36925 0.441804 3.67055 0 0 0 134 144 147 255
-0.639494 0.420865 4.053 0 0 0 37 102 91 255
-0.572168 0.440759 4.06952 0 0 0 114 141 165 255
2.40897 0.48033 3.67235 0 0 0 36 40 43 255
1.96776 0.511242 3.90218 0 0 0 109 111 110 255
0.833606 0.565961 4.59762 0 0 0 157 162 160 255
1.08457 0.598465 4.76977 0 0 0 144 149 147 255
-0.538047 0.764782 4.10763 0 0 0 97 117 135 255
0.952878 1.09016 4.66188 0 0 0 29 80 119 255
0.535048 1.23533 4.67658 0 0 0 149 152 151 255
-0.385816 1.42602 4.30984 0 0 0 28 78 122 255
2.39521 1.41933 3.79394 0 0 0 95 95 104 255
2.43748 -0.218691 3.94262 0 0 0 60 61 61 255
-0.306347 0.133614 4.53648 0 0 0 25 66 103 255
0.375485 0.0964219 4.80382 0 0 0 61 83 76 255
2.25347 0.290805 3.70408 0 0 0 140 105 63 255
1.02673 0.282221 4.69788 0 0 0 113 129 108 255
2.11642 0.413548 3.72274 0 0 0 45 49 59 255
-0.415452 0.411811 4.14727 0 0 0 129 141 148 255
-0.321964 0.41987 4.23595 0 0 0 149 130 136 255
-0.33688 0.473799 4.22474 0 0 0 147 151 157 255
2.21668 0.553831 3.67984 0 0 0 139 142 142 255
-0.29343 0.7372 4.31921 0 0 0 152 152 152 255
-0.439658 0.876632 4.15218 0 0 0 157 160 159 255
-0.349035 1.17192 4.26154 0 0 0 144 142 144 255
-0.31302 1.44946 4.62913 0 0 0 32 76 114 255
2.40882 -0.189283 3.85247 0 0 0 88 44 45 255
2.4146 -0.117969 3.86099 0 0 0 34 33 35 255
2.39613 -0.0372021 3.81708 0 0 0 35 37 41 255
2.30604 0.0034104 3.87977 0 0 0 128 130 129 255
2.33431 0.0893606 3.92292 0 0 0 186 188 190 255
1.08739 0.146852 4.84497 0 0 0 49 94 67 255
-0.348505 0.168348 4.5332 0 0 0 6 57 103 255
2.07847 0.445134 3.73741 0 0 0 134 137 137 255
1.94516 0.47573 3.88116 0 0 0 133 136 135 255
0.728703 0.693648 4.60903 0 0 0 62 108 73 255
-0.327758 0.706632 4.25873 0 0 0 153 155 157 255
0.802967 0.827443 4.60876 0 0 0 160 162 162 255
2.24412 0.736034 3.68471 0 0 0 54 44 38 255
2.27513 -0.158887 3.81783 0 0 0 140 105 100 255
2.4948 -0.013257 3.97845 0 0 0 108 115 113 255
2.22672 0.0191831 3.8924 0 0 0 169 166 167 255
2.54683 0.129202 4.0264 0 0 0 89 93 94 255
-0.973246 0.133697 4.13909 0 0 0 47 61 76 255
-3.09789 0.162014 6.46199 0 0 0 49 45 43 255
0.540442 0.246551 4.62682 0 0 0 35 59 57 255
0.934918 0.257689 4.62167 0 0 0 54 87 82 255
2.46925 0.279848 3.73179 0 0 0 89 70 78 255
0.93575 0.33589 4.63665 0 0 0 143 146 143 255
2.36264 0.303811 3.68958 0 0 0 157 124 73 255
-0.913908 0.327661 4.10074 0 0 0 91 102 119 255
-0.466806 0.344053 4.12243 0 0 0 6 68 120 255
1.0274 0.376531 4.69845 0 0 0 107 47 57 255
-0.584002 0.386274 4.09068 0 0 0 45 80 108 255
2.55418 0.375171 3.75949 0 0 0 64 72 75 255
2.48705 0.385021 3.7184 0 0 0 119 128 132 255
2.5076 0.384183 3.73139 0 0 0 128 128 131 255
2.51197 0.427357 3.7256 0 0 0 118 118 118 255
2.54312 0.434557 3.74463 0 0 0 75 63 58 255
-0.970904 0.50972 4.17634 0 0 0 40 65 93 255
1.065 0.58073 4.73001 0 0 0 111 147 136 255
