ply
format ascii 1.0
comment VCGLIB generated
element vertex 1027
property float x
property float y
property float z
property float nx
property float ny
property float nz
property uchar red
property uchar green
property uchar blue
property uchar alpha
element face 0
property list uchar int vertex_indices
end_header
0.721686 0.355465 4.57905 0 0 0 142 156 131 255
0.903967 0.352589 4.60619 0 0 0 96 67 70 255
0.548757 0.373792 4.6215 0 0 0 120 84 87 255
0.694308 0.362789 4.57688 0 0 0 128 90 89 255
0.934138 0.358214 4.62273 0 0 0 129 90 95 255
0.448779 0.384794 4.66481 0 0 0 149 152 151 255
0.489666 0.384304 4.64217 0 0 0 176 111 122 255
0.988606 0.386105 4.65448 0 0 0 119 94 91 255
0.617108 0.386428 4.58641 0 0 0 125 52 61 255
0.641808 0.383085 4.58262 0 0 0 162 162 163 255
0.650239 0.384177 4.57971 0 0 0 161 163 164 255
0.689435 0.380216 4.57634 0 0 0 181 129 138 255
0.724591 0.387598 4.57167 0 0 0 105 56 58 255
0.74918 0.381877 4.57194 0 0 0 178 131 142 255
0.799226 0.389422 4.57947 0 0 0 129 83 88 255
0.91242 0.386034 4.60852 0 0 0 92 80 82 255
0.949993 0.386396 4.63266 0 0 0 87 76 75 255
1.02428 0.393551 4.68662 0 0 0 155 137 140 255
0.460142 0.399012 4.66416 0 0 0 112 100 101 255
0.569154 0.393062 4.60221 0 0 0 170 124 132 255
0.411559 0.409122 4.70717 0 0 0 162 120 125 255
0.934065 0.402978 4.62086 0 0 0 168 139 138 255
0.959033 0.409483 4.63922 0 0 0 150 113 116 255
0.423394 0.420657 4.696 0 0 0 126 68 66 255
0.467415 0.419197 4.66064 0 0 0 134 96 103 255
0.507403 0.418253 4.64205 0 0 0 128 48 58 255
0.657594 0.417996 4.57727 0 0 0 165 114 121 255
1.00525 0.420771 4.66694 0 0 0 140 58 57 255
1.01013 0.419805 4.67302 0 0 0 155 85 82 255
-0.311802 0.392619 4.26543 0 0 0 65 90 109 255
0.638165 0.42346 4.58229 0 0 0 108 57 61 255
0.698954 0.420211 4.5711 0 0 0 135 55 57 255
0.801098 0.424968 4.57819 0 0 0 134 114 113 255
0.922842 0.424379 4.61157 0 0 0 107 66 66 255
0.575247 0.425651 4.60002 0 0 0 109 80 76 255
0.762995 0.422547 4.57195 0 0 0 140 48 52 255
0.834493 0.428764 4.58533 0 0 0 139 56 63 255
0.865955 0.428688 4.59557 0 0 0 144 48 57 255
0.655611 0.43219 4.57795 0 0 0 152 60 63 255
0.687374 0.435867 4.57401 0 0 0 154 132 132 255
-0.304814 0.435794 4.27748 0 0 0 34 83 119 255
-0.304865 0.454263 4.27945 0 0 0 55 105 135 255
0.499961 0.523347 4.66148 0 0 0 123 160 146 255
0.922585 0.531477 4.62583 0 0 0 132 153 149 255
0.498561 0.553414 4.65733 0 0 0 61 78 75 255
0.876059 0.539903 4.61067 0 0 0 140 156 150 255
0.682406 0.554183 4.57664 0 0 0 148 169 163 255
0.500232 0.566327 4.65586 0 0 0 54 78 69 255
0.75543 0.556482 4.59139 0 0 0 131 153 146 255
1.02853 0.575676 4.70749 0 0 0 53 108 90 255
1.05202 0.569293 4.71588 0 0 0 58 91 76 255
0.386055 0.588546 4.74866 0 0 0 91 115 111 255
0.450842 0.568383 4.68633 0 0 0 95 134 130 255
0.714207 0.561594 4.58644 0 0 0 161 167 166 255
0.956648 0.56637 4.63692 0 0 0 156 161 159 255
0.912756 0.574214 4.62074 0 0 0 143 167 163 255
0.554446 0.592003 4.63918 0 0 0 107 139 131 255
0.497916 0.591219 4.65825 0 0 0 151 156 154 255
0.533122 0.610027 4.64322 0 0 0 115 152 149 255
0.943178 0.608747 4.63538 0 0 0 151 158 158 255
0.750737 0.61953 4.58878 0 0 0 156 167 164 255
0.832703 0.628303 4.60088 0 0 0 104 120 104 255
-0.295346 0.634042 4.3445 0 0 0 113 134 153 255
-0.309629 0.673833 4.32485 0 0 0 115 122 125 255
1.05085 0.763739 4.68669 0 0 0 108 141 127 255
-0.308645 0.718694 4.3227 0 0 0 104 110 122 255
0.827428 0.768894 4.60515 0 0 0 70 115 86 255
0.916565 0.791297 4.62954 0 0 0 139 170 157 255
0.737392 0.804453 4.60239 0 0 0 82 133 112 255
-0.305614 0.770058 4.31548 0 0 0 72 79 96 255
0.925636 0.835256 4.62759 0 0 0 124 146 143 255
0.869689 0.833922 4.61621 0 0 0 161 168 166 255
0.826567 0.857366 4.60145 0 0 0 135 141 132 255
0.850482 0.855575 4.60907 0 0 0 154 164 158 255
0.73908 0.86933 4.59734 0 0 0 134 164 160 255
0.929411 0.886673 4.63179 0 0 0 78 125 99 255
0.498848 0.90667 4.68044 0 0 0 145 152 149 255
1.02444 0.935372 4.70345 0 0 0 120 149 126 255
0.78378 0.932977 4.61109 0 0 0 101 143 128 255
0.46357 0.934824 4.70532 0 0 0 127 142 138 255
0.569574 0.937801 4.64304 0 0 0 137 147 144 255
1.89011 1.39309 6.71463 0 0 0 136 132 125 255
1.89764 1.3584 6.50118 0 0 0 139 136 128 255
2.08027 1.40671 6.47381 0 0 0 109 104 95 255
2.16591 1.37303 6.29175 0 0 0 145 142 137 255
1.89188 1.46953 6.74241 0 0 0 104 100 97 255
0.967802 1.04227 4.67747 0 0 0 70 122 140 255
0.859581 1.05362 4.63087 0 0 0 72 91 101 255
0.923201 1.07944 4.65383 0 0 0 117 136 96 255
0.466417 1.17922 4.72515 0 0 0 102 108 113 255
0.96474 1.17529 4.67307 0 0 0 109 97 42 255
0.699793 1.1738 4.62028 0 0 0 108 107 108 255
0.745608 1.17487 4.61535 0 0 0 123 111 128 255
0.858661 1.17813 4.63311 0 0 0 117 99 40 255
0.453701 1.23508 4.72947 0 0 0 84 87 95 255
0.996479 1.34562 4.70848 0 0 0 138 162 150 255
0.905515 1.3457 4.66574 0 0 0 80 129 106 255
1.00008 1.36842 4.70616 0 0 0 152 161 157 255
0.907419 1.38118 4.66037 0 0 0 144 174 163 255
0.314986 0.0635161 4.88835 0 0 0 145 147 146 255
1.13366 0.0726946 4.94368 0 0 0 87 105 95 255
0.473218 0.2354 4.65416 0 0 0 134 137 136 255
0.902231 0.238258 4.60406 0 0 0 135 152 151 255
0.955848 0.233763 4.62343 0 0 0 118 141 138 255
0.517782 0.25821 4.62148 0 0 0 137 139 138 255
0.706316 0.243335 4.57536 0 0 0 83 112 104 255
0.7782 0.241151 4.57051 0 0 0 133 140 139 255
0.84565 0.337195 4.5934 0 0 0 98 79 77 255
0.911866 0.338256 4.61076 0 0 0 134 141 125 255
0.560095 0.367216 4.61382 0 0 0 120 53 56 255
0.667734 0.355427 4.57922 0 0 0 101 75 77 255
0.968302 0.36075 4.64451 0 0 0 155 151 151 255
-0.318294 0.365944 4.25941 0 0 0 95 112 131 255
0.636857 0.381985 4.58465 0 0 0 159 159 159 255
0.751553 0.381071 4.57161 0 0 0 178 131 142 255
0.456096 0.406914 4.66573 0 0 0 86 72 73 255
1.00293 0.40968 4.66579 0 0 0 137 70 66 255
-0.305619 0.400331 4.27462 0 0 0 19 85 129 255
0.683417 0.417164 4.57323 0 0 0 142 50 53 255
0.852402 0.413844 4.58908 0 0 0 141 89 96 255
0.845452 0.532086 4.60307 0 0 0 66 112 83 255
0.922479 0.536667 4.62548 0 0 0 132 153 149 255
0.683153 0.558851 4.57762 0 0 0 148 169 163 255
0.755451 0.556539 4.59143 0 0 0 131 153 146 255
1.02975 0.58581 4.70788 0 0 0 117 156 147 255
0.387286 0.60251 4.74464 0 0 0 128 146 144 255
0.555181 0.610983 4.63768 0 0 0 154 163 160 255
0.74948 0.613393 4.58837 0 0 0 153 167 167 255
0.815766 0.614587 4.59985 0 0 0 161 164 162 255
-0.302124 0.643556 4.33496 0 0 0 146 157 165 255
0.914755 0.787739 4.62868 0 0 0 111 156 132 255
-0.294054 0.788479 4.32547 0 0 0 150 159 160 255
0.854873 0.845855 4.61044 0 0 0 165 170 168 255
0.741003 0.866389 4.59869 0 0 0 134 164 160 255
1.01791 0.93827 4.70195 0 0 0 122 146 124 255
0.573337 0.937138 4.64571 0 0 0 155 164 161 255
1.72508 1.4582 6.71328 0 0 0 115 114 108 255
1.87378 1.39885 6.36062 0 0 0 88 85 83 255
2.14078 1.37002 6.2844 0 0 0 128 125 118 255
0.925807 1.12587 4.65415 0 0 0 48 82 100 255
0.463315 1.198 4.72126 0 0 0 89 99 114 255
0.961627 1.18085 4.66958 0 0 0 98 93 54 255
0.9903 1.35031 4.70768 0 0 0 128 154 141 255
0.911367 1.3602 4.66602 0 0 0 142 173 160 255
-0.326059 0.0998187 4.61337 0 0 0 35 74 110 255
0.386829 0.115553 4.81291 0 0 0 28 57 42 255
0.390668 0.142683 4.80943 0 0 0 48 86 64 255
0.471811 0.228469 4.66288 0 0 0 107 136 128 255
0.592064 0.234139 4.59996 0 0 0 141 154 149 255
0.718832 0.216024 4.57227 0 0 0 68 108 74 255
0.784697 0.223868 4.57707 0 0 0 84 112 107 255
0.530008 0.263442 4.61668 0 0 0 123 132 131 255
0.448274 0.341736 4.68217 0 0 0 132 139 131 255
1.00958 0.339132 4.67838 0 0 0 118 68 71 255
0.639433 0.37296 4.58501 0 0 0 160 162 157 255
-0.31548 0.366407 4.26366 0 0 0 75 122 156 255
0.86817 0.414613 4.59571 0 0 0 122 53 62 255
0.654295 0.418931 4.57854 0 0 0 165 114 121 255
0.842007 0.426972 4.58654 0 0 0 142 59 65 255
-0.296236 0.448443 4.28874 0 0 0 19 80 124 255
0.499112 0.533279 4.66058 0 0 0 143 157 153 255
1.11685 0.544088 4.84218 0 0 0 80 104 80 255
0.853567 0.551862 4.60395 0 0 0 162 168 166 255
0.936272 0.54805 4.62701 0 0 0 157 163 161 255
0.690439 0.559365 4.58099 0 0 0 157 169 169 255
0.760187 0.562242 4.59247 0 0 0 151 169 167 255
0.38839 0.593151 4.74505 0 0 0 126 145 145 255
0.943363 0.58435 4.63384 0 0 0 159 164 162 255
1.0318 0.594281 4.70702 0 0 0 125 164 155 255
0.770597 0.607654 4.59167 0 0 0 164 169 167 255
0.486444 0.621655 4.66859 0 0 0 53 86 78 255
0.823712 0.634506 4.59714 0 0 0 91 102 87 255
-0.31151 0.661567 4.3234 0 0 0 156 159 160 255
0.552666 0.687941 4.63527 0 0 0 154 164 162 255
0.822917 0.759628 4.59983 0 0 0 71 117 87 255
1.05076 0.763701 4.6865 0 0 0 108 141 127 255
0.946358 0.790092 4.64425 0 0 0 159 166 164 255
-0.292316 0.784261 4.33067 0 0 0 142 149 153 255
0.754104 0.821772 4.60684 0 0 0 167 172 170 255
0.934391 0.827582 4.63662 0 0 0 154 166 164 255
0.855429 0.838584 4.61127 0 0 0 163 171 168 255
0.743224 0.84526 4.60226 0 0 0 157 174 171 255
0.471069 0.907429 4.70037 0 0 0 140 154 153 255
0.572427 0.919884 4.65012 0 0 0 158 166 166 255
1.88651 1.3766 6.64148 0 0 0 155 151 143 255
1.89716 1.35998 6.51475 0 0 0 139 136 128 255
2.1425 1.36871 6.2847 0 0 0 128 125 118 255
1.73456 1.45015 6.71356 0 0 0 124 123 117 255
1.87709 1.39718 6.34671 0 0 0 82 80 79 255
0.964044 1.10014 4.6702 0 0 0 28 83 125 255
0.442045 1.17161 4.74958 0 0 0 131 138 137 255
0.443436 1.15638 4.75883 0 0 0 113 133 124 255
0.938981 1.11762 4.65826 0 0 0 43 81 106 255
0.569218 1.15413 4.6579 0 0 0 137 154 151 255
0.863139 1.18235 4.63202 0 0 0 102 96 67 255
0.444061 1.26235 4.74193 0 0 0 129 136 135 255
0.575593 1.26901 4.66062 0 0 0 143 146 145 255
0.640004 1.25746 4.6241 0 0 0 91 116 85 255
0.33187 1.40365 4.99537 0 0 0 75 92 82 255
0.915913 1.35916 4.66762 0 0 0 154 161 159 255
0.333063 0.0892721 4.87658 0 0 0 72 99 83 255
1.11522 0.0950493 4.94132 0 0 0 66 101 78 255
0.526775 0.385866 4.63342 0 0 0 164 152 156 255
0.780846 0.374773 4.57819 0 0 0 164 167 166 255
0.835984 0.390903 4.58692 0 0 0 108 74 74 255
1.06843 0.549773 4.73062 0 0 0 65 104 75 255
0.818656 0.573538 4.59348 0 0 0 162 169 169 255
0.924978 0.571083 4.62263 0 0 0 157 167 164 255
0.684259 0.581806 4.57804 0 0 0 154 170 167 255
0.793224 0.580177 4.60039 0 0 0 165 169 168 255
0.553989 0.669589 4.63598 0 0 0 158 163 161 255
-0.322053 0.653307 4.31362 0 0 0 160 162 163 255
0.933792 0.805989 4.6392 0 0 0 160 167 167 255
0.824781 0.825776 4.60416 0 0 0 170 173 172 255
0.746944 0.842341 4.60352 0 0 0 157 174 172 255
0.573757 0.896944 4.65499 0 0 0 160 166 164 255
1.75941 1.46233 6.70009 0 0 0 103 102 100 255
0.440439 1.1602 4.75839 0 0 0 124 135 133 255
0.713808 1.14426 4.61924 0 0 0 140 155 150 255
0.408353 1.2355 4.77983 0 0 0 123 143 132 255
0.716748 1.26656 4.62071 0 0 0 145 150 148 255
0.340203 1.39229 4.99691 0 0 0 79 94 81 255
1.1166 0.090269 4.93425 0 0 0 64 101 80 255
-0.344861 0.144885 4.56701 0 0 0 17 69 115 255
0.519453 0.245864 4.62197 0 0 0 142 139 140 255
0.781095 0.251493 4.57166 0 0 0 150 155 154 255
0.90726 0.246357 4.60807 0 0 0 139 150 151 255
0.641525 0.365298 4.5841 0 0 0 156 160 153 255
1.07538 0.535115 4.7422 0 0 0 82 110 73 255
0.44492 0.616618 4.70277 0 0 0 141 153 156 255
0.556751 0.646014 4.63494 0 0 0 157 163 162 255
0.765662 0.835143 4.60933 0 0 0 168 173 172 255
0.475581 0.885022 4.69423 0 0 0 142 154 154 255
2.10862 1.38253 6.43098 0 0 0 133 130 122 255
0.940147 1.05637 4.6641 0 0 0 42 93 122 255
0.937614 1.10659 4.65824 0 0 0 47 83 104 255
0.881677 1.16152 4.63472 0 0 0 169 149 74 255
0.420105 1.24148 4.7631 0 0 0 135 141 141 255
0.35796 0.128251 4.87487 0 0 0 59 95 67 255
1.0235 0.113385 4.64668 0 0 0 57 102 74 255
-0.348377 0.129613 4.54846 0 0 0 19 70 118 255
-0.316909 0.583165 4.26705 0 0 0 27 81 121 255
0.455588 1.16667 4.74047 0 0 0 134 142 142 255
2.31693 -0.220928 3.90266 0 0 0 55 55 55 255
2.35513 -0.218184 3.89429 0 0 0 66 57 63 255
2.33536 -0.209972 3.90001 0 0 0 153 157 163 255
2.24473 -0.165199 3.83222 0 0 0 138 84 84 255
2.37509 -0.167273 3.83254 0 0 0 127 62 57 255
2.3281 -0.145078 3.85131 0 0 0 167 64 83 255
2.0976 -0.148554 3.97493 0 0 0 147 143 140 255
2.339 -0.110887 3.92313 0 0 0 95 96 98 255
2.3526 -0.113899 3.90901 0 0 0 100 98 100 255
2.32152 -0.0780716 3.90498 0 0 0 55 55 62 255
2.13516 -0.0738417 3.95517 0 0 0 70 71 78 255
2.50392 -0.0495213 3.99421 0 0 0 39 44 42 255
2.34091 0.0082177 3.9195 0 0 0 200 205 207 255
2.34678 0.071236 3.92813 0 0 0 250 252 254 255
2.35799 0.115567 3.91255 0 0 0 253 251 252 255
2.05719 0.131009 3.98515 0 0 0 123 121 117 255
2.54717 0.134942 3.96076 0 0 0 54 53 58 255
-1.02837 0.189447 4.26319 0 0 0 68 78 91 255
2.30731 0.25339 3.6964 0 0 0 122 112 94 255
-0.494279 0.255052 4.09796 0 0 0 20 46 86 255
-0.478138 0.254643 4.10875 0 0 0 99 103 125 255
2.22222 0.257466 3.70918 0 0 0 139 109 74 255
2.26474 0.258621 3.69812 0 0 0 114 99 81 255
2.40695 0.254697 3.70457 0 0 0 91 78 70 255
-0.652534 0.265288 4.05282 0 0 0 123 104 95 255
-0.626112 0.262142 4.05628 0 0 0 129 107 101 255
-0.511815 0.260022 4.08847 0 0 0 125 105 96 255
-0.446611 0.260017 4.12313 0 0 0 83 87 115 255
0.49494 0.252247 4.64327 0 0 0 100 111 110 255
-0.869484 0.263398 4.09845 0 0 0 100 102 114 255
-0.807146 0.267346 4.06933 0 0 0 97 97 97 255
-0.777228 0.259709 4.06334 0 0 0 89 75 84 255
-0.730418 0.266847 4.05474 0 0 0 106 100 99 255
-0.695884 0.268159 4.05463 0 0 0 140 126 102 255
-0.563685 0.265641 4.06991 0 0 0 110 103 101 255
0.885909 0.260276 4.59744 0 0 0 62 76 74 255
2.38384 0.272541 3.69886 0 0 0 100 56 21 255
-0.846117 0.271005 4.08501 0 0 0 120 118 85 255
-0.547011 0.274574 4.07288 0 0 0 134 110 79 255
-0.87575 0.282201 4.09442 0 0 0 126 125 102 255
-0.805732 0.280273 4.06742 0 0 0 128 122 98 255
-0.609877 0.277857 4.05764 0 0 0 122 102 59 255
2.23075 0.284145 3.69837 0 0 0 106 68 33 255
2.26907 0.282479 3.68832 0 0 0 160 122 66 255
2.31009 0.281224 3.69052 0 0 0 87 49 40 255
2.38142 0.281058 3.69741 0 0 0 91 51 24 255
-0.782038 0.290755 4.05963 0 0 0 36 44 62 255
-0.490215 0.290117 4.09618 0 0 0 77 63 50 255
0.719552 0.285156 4.56579 0 0 0 76 95 91 255
-0.868226 0.294699 4.0933 0 0 0 78 76 46 255
-0.823778 0.296671 4.07159 0 0 0 38 39 53 255
-0.683357 0.298901 4.04779 0 0 0 38 39 43 255
-0.641901 0.297114 4.0492 0 0 0 89 71 48 255
-0.605874 0.295258 4.05346 0 0 0 59 57 62 255
-0.573949 0.29866 4.05899 0 0 0 23 46 93 255
-0.546093 0.288263 4.06942 0 0 0 65 47 33 255
-0.508009 0.296376 4.08186 0 0 0 140 115 87 255
2.3997 0.297102 3.69026 0 0 0 91 74 60 255
-0.483528 0.306649 4.09637 0 0 0 98 76 83 255
2.20437 0.302999 3.69353 0 0 0 108 89 64 255
2.25627 0.307729 3.68568 0 0 0 153 118 70 255
2.27732 0.308705 3.67825 0 0 0 135 96 61 255
2.30212 0.304603 3.68615 0 0 0 165 133 81 255
-0.862977 0.31429 4.08861 0 0 0 86 93 132 255
-0.784459 0.316137 4.05777 0 0 0 87 84 115 255
-0.727011 0.315332 4.04827 0 0 0 83 94 128 255
-0.653336 0.316771 4.04527 0 0 0 128 111 86 255
-0.620787 0.313177 4.05023 0 0 0 145 116 97 255
-0.539183 0.312933 4.06988 0 0 0 113 106 101 255
-1.00741 0.326746 4.22857 0 0 0 81 104 136 255
0.61066 0.328132 4.5909 0 0 0 138 142 131 255
0.758102 0.32566 4.57737 0 0 0 141 155 125 255
1.99062 0.337702 3.95298 0 0 0 70 75 76 255
0.582482 0.352445 4.60283 0 0 0 178 129 137 255
0.600955 0.35028 4.59437 0 0 0 121 77 78 255
-0.491942 0.354477 4.10008 0 0 0 54 109 155 255
-0.389961 0.350675 4.17887 0 0 0 14 87 133 255
0.82002 0.358556 4.5852 0 0 0 164 123 128 255
1.02863 0.360028 4.69871 0 0 0 172 130 136 255
1.10455 0.362844 4.7459 0 0 0 91 101 86 255
-0.914648 0.36083 4.12295 0 0 0 35 72 108 255
-0.759163 0.358864 4.05339 0 0 0 22 78 129 255
-0.635461 0.360557 4.05192 0 0 0 122 132 142 255
-0.611579 0.360068 4.06501 0 0 0 9 73 123 255
-0.588766 0.361706 4.07243 0 0 0 96 119 159 255
1.94452 0.360702 3.96251 0 0 0 86 81 79 255
-0.885636 0.365581 4.10579 0 0 0 76 99 128 255
-0.51699 0.364315 4.08725 0 0 0 7 73 123 255
-0.33736 0.370306 4.23169 0 0 0 101 88 100 255
1.05098 0.376723 4.70859 0 0 0 151 125 132 255
-0.491888 0.380976 4.10501 0 0 0 55 87 113 255
0.873283 0.383642 4.60073 0 0 0 157 138 142 255
1.95644 0.374169 3.9561 0 0 0 117 119 118 255
-0.56066 0.38429 4.07987 0 0 0 26 81 117 255
-0.531525 0.386277 4.08228 0 0 0 140 150 161 255
-0.411711 0.382987 4.15742 0 0 0 73 89 111 255
1.98518 0.376624 3.93687 0 0 0 112 117 117 255
-0.637327 0.384348 4.05124 0 0 0 68 97 95 255
-0.482778 0.386856 4.11242 0 0 0 25 65 100 255
-0.440755 0.393471 4.13539 0 0 0 36 61 105 255
-0.367201 0.38898 4.19844 0 0 0 78 80 99 255
2.44748 0.382157 3.69897 0 0 0 103 102 105 255
2.49279 0.386711 3.71559 0 0 0 123 130 133 255
2.56662 0.378915 3.78623 0 0 0 79 84 88 255
-0.503039 0.393081 4.09726 0 0 0 33 72 114 255
0.523521 0.40459 4.6294 0 0 0 121 111 114 255
2.06442 0.385527 3.75056 0 0 0 103 107 108 255
2.17056 0.391348 3.68793 0 0 0 132 134 137 255
2.18892 0.388379 3.68257 0 0 0 81 81 81 255
2.27234 0.385417 3.66579 0 0 0 81 83 84 255
2.28682 0.381976 3.66291 0 0 0 88 87 89 255
2.29863 0.388999 3.65983 0 0 0 137 136 137 255
-0.478009 0.405438 4.11322 0 0 0 121 134 152 255
-0.469741 0.407053 4.11725 0 0 0 139 150 165 255
1.05545 0.411623 4.71422 0 0 0 126 90 88 255
1.97199 0.389023 3.94418 0 0 0 73 68 66 255
2.45322 0.39757 3.70332 0 0 0 138 141 140 255
-0.596013 0.410763 4.0675 0 0 0 25 93 124 255
-0.576605 0.410718 4.07389 0 0 0 147 155 163 255
-0.396928 0.411633 4.16708 0 0 0 141 145 164 255
-0.549448 0.423499 4.07611 0 0 0 42 84 121 255
-0.510155 0.416327 4.09143 0 0 0 153 158 160 255
-0.476325 0.422036 4.11152 0 0 0 152 153 157 255
-0.437086 0.419532 4.13463 0 0 0 149 150 154 255
2.09961 0.412159 3.72572 0 0 0 60 39 39 255
2.43315 0.409738 3.69681 0 0 0 61 44 39 255
-0.53422 0.424448 4.07704 0 0 0 81 103 123 255
-0.454993 0.426206 4.12318 0 0 0 63 79 103 255
-0.356054 0.432105 4.20603 0 0 0 103 96 115 255
2.51962 0.411386 3.71939 0 0 0 76 66 67 255
-0.594413 0.430806 4.06743 0 0 0 19 93 125 255
-0.38609 0.438371 4.17132 0 0 0 79 87 98 255
-0.532598 0.438238 4.07558 0 0 0 11 83 127 255
-0.500532 0.43981 4.09686 0 0 0 30 76 115 255
-0.556156 0.444806 4.07196 0 0 0 116 163 192 255
-0.467225 0.444994 4.11567 0 0 0 39 62 90 255
-0.440738 0.447617 4.13036 0 0 0 17 60 109 255
-0.395704 0.446215 4.16283 0 0 0 57 71 108 255
-0.335107 0.452449 4.2298 0 0 0 120 89 112 255
-0.712038 0.449604 4.04716 0 0 0 142 149 136 255
-0.6679 0.449546 4.04909 0 0 0 140 149 148 255
-0.538578 0.460442 4.07161 0 0 0 25 89 126 255
-0.47417 0.459637 4.10942 0 0 0 22 70 125 255
2.10124 0.450198 3.72211 0 0 0 58 39 39 255
-0.665807 0.466853 4.04729 0 0 0 80 95 94 255
-0.627563 0.468322 4.0561 0 0 0 58 94 92 255
-0.574943 0.467504 4.06541 0 0 0 81 103 120 255
-0.417804 0.477425 4.13875 0 0 0 45 84 117 255
2.13842 0.465191 3.70087 0 0 0 91 65 52 255
-1.01701 0.489646 4.25384 0 0 0 110 92 99 255
-0.647672 0.481024 4.04903 0 0 0 84 120 108 255
-0.384774 0.490648 4.17542 0 0 0 73 98 117 255
-0.31845 0.48379 4.25625 0 0 0 31 84 119 255
-0.99573 0.497641 4.25184 0 0 0 108 94 96 255
2.27878 0.471457 3.66201 0 0 0 80 62 54 255
-0.724729 0.49241 4.04279 0 0 0 87 106 123 255
1.96886 0.498245 3.96988 0 0 0 95 96 91 255
2.10132 0.485016 3.72694 0 0 0 67 46 41 255
-0.422791 0.50308 4.14192 0 0 0 60 108 147 255
2.5119 0.47998 3.71671 0 0 0 109 105 106 255
2.11789 0.494364 3.71524 0 0 0 37 43 44 255
2.26766 0.507719 3.66852 0 0 0 87 75 65 255
2.2716 0.506247 3.66774 0 0 0 74 55 41 255
2.29295 0.505042 3.66636 0 0 0 60 51 47 255
1.10664 0.57356 4.81362 0 0 0 106 143 126 255
1.95671 0.549621 3.97894 0 0 0 119 116 115 255
2.42255 0.529063 3.67613 0 0 0 64 53 57 255
-0.439004 0.561497 4.14287 0 0 0 145 149 167 255
2.20508 0.53916 3.67607 0 0 0 81 66 56 255
2.21323 0.53112 3.67431 0 0 0 50 37 39 255
-1.01017 0.571503 4.23289 0 0 0 107 113 138 255
-0.886729 0.5661 4.12481 0 0 0 104 117 151 255
-0.841384 0.569142 4.11514 0 0 0 141 145 147 255
2.45203 0.549685 3.69944 0 0 0 101 103 109 255
2.56005 0.544381 3.76875 0 0 0 131 138 138 255
-0.646701 0.571937 4.07819 0 0 0 138 140 171 255
1.95009 0.571597 4.01623 0 0 0 77 67 61 255
2.49564 0.549767 3.72271 0 0 0 129 138 140 255
2.16889 0.558555 3.68858 0 0 0 114 129 133 255
-0.887014 0.583441 4.0875 0 0 0 24 52 91 255
2.23857 0.556979 3.67008 0 0 0 139 136 137 255
2.31832 0.558814 3.66408 0 0 0 93 103 105 255
2.35372 0.558465 3.67409 0 0 0 140 141 143 255
-0.955757 0.592544 4.16835 0 0 0 33 58 91 255
1.04516 0.625303 4.71917 0 0 0 71 73 73 255
-0.489792 0.603886 4.08433 0 0 0 84 89 109 255
-0.58735 0.616388 4.11239 0 0 0 53 59 75 255
-0.985466 0.652991 4.19675 0 0 0 127 129 132 255
-0.371277 0.644266 4.21858 0 0 0 36 66 115 255
-0.482989 0.651335 4.0706 0 0 0 91 90 94 255
-0.58382 0.666034 4.10388 0 0 0 61 68 87 255
-0.859481 0.678214 4.08084 0 0 0 56 60 71 255
-0.339013 0.682367 4.24032 0 0 0 116 116 118 255
-0.945002 0.680459 4.15634 0 0 0 37 42 54 255
0.548688 0.706893 4.64335 0 0 0 85 123 102 255
-0.993845 0.6909 4.1694 0 0 0 88 95 105 255
-0.430718 0.685795 4.14286 0 0 0 151 158 159 255
1.07191 0.73043 4.75664 0 0 0 127 137 136 255
-0.745549 0.69675 4.07417 0 0 0 123 125 141 255
-0.400038 0.717488 4.17788 0 0 0 132 140 162 255
0.838121 0.747142 4.60724 0 0 0 65 109 78 255
-0.866037 0.715838 4.0817 0 0 0 122 125 129 255
-0.648067 0.717956 4.07983 0 0 0 136 142 163 255
-0.338234 0.734344 4.23985 0 0 0 113 116 127 255
-0.551839 0.747467 4.0929 0 0 0 141 150 171 255
-0.52109 0.747142 4.11652 0 0 0 152 152 158 255
2.25368 0.713856 3.67693 0 0 0 79 76 68 255
2.37864 0.718035 3.69363 0 0 0 86 76 66 255
-0.791674 0.757491 4.07047 0 0 0 78 82 95 255
-0.697435 0.76898 4.09085 0 0 0 131 136 162 255
-0.448181 0.772495 4.1469 0 0 0 70 74 90 255
-0.997533 0.77871 4.20161 0 0 0 130 137 137 255
-0.336555 0.787669 4.24852 0 0 0 60 71 94 255
-0.300081 0.817739 4.29496 0 0 0 97 106 117 255
-0.318712 0.816315 4.26887 0 0 0 127 132 153 255
2.24734 0.760716 3.67708 0 0 0 89 76 57 255
-0.835436 0.809584 4.10037 0 0 0 117 120 126 255
-0.611519 0.806145 4.08452 0 0 0 79 86 105 255
2.30107 0.763883 3.67723 0 0 0 98 74 53 255
-0.630922 0.811305 4.08908 0 0 0 53 63 89 255
-0.380854 0.823661 4.19731 0 0 0 56 73 95 255
-0.447207 0.831898 4.14844 0 0 0 90 89 97 255
-0.811939 0.830952 4.08897 0 0 0 74 80 99 255
-0.359492 0.845125 4.21619 0 0 0 155 157 160 255
0.547138 0.898614 4.65782 0 0 0 71 111 93 255
-0.375572 0.863226 4.19993 0 0 0 82 92 100 255
-0.392513 0.876566 4.1852 0 0 0 156 158 157 255
-0.611918 0.870018 4.08819 0 0 0 103 105 107 255
-0.630792 0.879215 4.089 0 0 0 67 83 105 255
-0.95753 0.898226 4.17547 0 0 0 79 88 101 255
-0.361375 0.904983 4.20802 0 0 0 73 96 127 255
-0.719679 0.900977 4.08591 0 0 0 35 64 104 255
-0.514481 0.912573 4.11804 0 0 0 157 157 163 255
1.07935 1.00098 4.74998 0 0 0 121 139 124 255
-0.545535 0.923173 4.09594 0 0 0 155 159 160 255
-0.434951 0.932629 4.17127 0 0 0 73 92 125 255
-0.728552 0.930414 4.08772 0 0 0 159 160 161 255
-0.612181 0.941418 4.09239 0 0 0 125 125 125 255
-0.584043 0.93799 4.08145 0 0 0 148 150 152 255
-0.887551 0.956635 4.14284 0 0 0 35 51 92 255
-0.714752 0.951196 4.09066 0 0 0 81 91 108 255
-0.695039 0.965979 4.09599 0 0 0 153 149 159 255
-0.573997 0.976389 4.09293 0 0 0 75 92 137 255
-0.751659 0.978541 4.08887 0 0 0 157 157 157 255
-0.612222 0.989587 4.09118 0 0 0 68 89 127 255
-0.36177 1.01193 4.23823 0 0 0 118 140 158 255
1.17928 1.13969 5.05953 0 0 0 172 176 170 255
-0.846391 0.998363 4.0372 0 0 0 40 50 84 255
-0.699093 1.00651 4.0922 0 0 0 66 84 118 255
1.92953 1.37585 6.59241 0 0 0 144 141 136 255
-0.372203 1.0311 4.2279 0 0 0 52 101 130 255
-0.906307 1.02091 4.09107 0 0 0 135 131 139 255
-0.913754 1.02909 4.16553 0 0 0 145 149 150 255
1.20427 1.17594 5.07505 0 0 0 120 118 116 255
-0.992373 1.03957 4.2015 0 0 0 116 120 122 255
-0.497278 1.04263 4.12569 0 0 0 41 99 138 255
-0.493952 1.08126 4.12307 0 0 0 60 110 140 255
-0.36546 1.1112 4.22663 0 0 0 28 73 120 255
-0.335297 1.12123 4.25524 0 0 0 29 75 113 255
2.069 1.04741 3.78461 0 0 0 107 110 109 255
2.11815 1.04981 3.75359 0 0 0 117 117 118 255
2.16815 1.04918 3.73228 0 0 0 90 86 85 255
2.10703 1.05571 3.76434 0 0 0 99 103 103 255
2.13667 1.05429 3.7557 0 0 0 97 94 95 255
2.21078 1.05047 3.72027 0 0 0 90 92 91 255
-0.388904 1.13745 4.20364 0 0 0 135 146 156 255
-0.314607 1.14534 4.27758 0 0 0 109 132 145 255
2.25118 1.04879 3.70011 0 0 0 80 81 80 255
2.31383 1.05509 3.70428 0 0 0 103 98 100 255
2.34098 1.05166 3.70087 0 0 0 96 94 96 255
2.21161 1.0672 3.71877 0 0 0 121 124 123 255
2.21001 1.06808 3.72141 0 0 0 121 124 123 255
2.21916 1.08176 3.71734 0 0 0 86 84 84 255
-0.328151 1.18072 4.27325 0 0 0 51 76 100 255
2.16363 1.08671 3.72644 0 0 0 84 89 89 255
2.24912 1.0802 3.69318 0 0 0 83 78 76 255
2.28243 1.07568 3.70575 0 0 0 89 81 83 255
2.3576 1.08432 3.7054 0 0 0 78 78 79 255
2.47853 1.08264 3.73109 0 0 0 73 74 76 255
-0.603786 1.14987 4.05464 0 0 0 24 111 147 255
2.21913 1.08207 3.71862 0 0 0 98 105 102 255
2.39911 1.08941 3.71693 0 0 0 87 92 90 255
-0.863444 1.17532 4.12317 0 0 0 88 116 142 255
-0.628496 1.16687 4.05195 0 0 0 148 149 158 255
2.13288 1.13285 3.75792 0 0 0 102 103 105 255
-0.617081 1.1897 4.05069 0 0 0 66 85 118 255
-0.736987 1.2096 4.09954 0 0 0 115 99 115 255
-0.828483 1.21998 4.10432 0 0 0 107 103 113 255
-0.692631 1.21286 4.08471 0 0 0 113 103 118 255
2.07674 1.17081 3.79188 0 0 0 103 105 104 255
2.25336 1.17545 3.70885 0 0 0 106 107 111 255
2.07062 1.20636 3.79783 0 0 0 115 113 112 255
-0.887613 1.36107 4.11562 0 0 0 69 106 141 255
-0.374563 1.38394 4.22888 0 0 0 140 152 167 255
-0.841971 1.36098 4.10877 0 0 0 65 104 137 255
-0.385333 1.3916 4.20168 0 0 0 93 102 120 255
-0.468818 1.39142 4.16447 0 0 0 93 128 163 255
-0.815698 1.39123 4.10708 0 0 0 22 83 123 255
-0.462697 1.42018 4.16684 0 0 0 157 159 160 255
-0.886659 1.41417 4.11774 0 0 0 89 108 133 255
2.46126 1.4045 3.79337 0 0 0 84 82 84 255
2.25145 1.41287 3.79984 0 0 0 112 112 112 255
2.1707 1.43021 3.83099 0 0 0 100 100 100 255
2.31051 1.41643 3.77491 0 0 0 106 106 106 255
2.38519 1.63083 3.98878 0 0 0 191 193 199 255
2.39535 1.62889 3.98083 0 0 0 207 207 208 255
2.331 -0.210873 3.90188 0 0 0 153 157 163 255
2.36362 -0.210476 3.89384 0 0 0 46 45 44 255
2.23267 -0.165004 3.83882 0 0 0 140 73 68 255
0.948778 -0.241446 4.71036 0 0 0 211 211 212 255
2.34141 0.0146522 3.91605 0 0 0 200 205 207 255
-1.04235 0.133339 4.24859 0 0 0 22 47 84 255
2.04747 0.135358 4.02413 0 0 0 135 135 134 255
2.21121 0.256045 3.71264 0 0 0 121 103 80 255
2.31125 0.249839 3.69696 0 0 0 80 75 76 255
2.4018 0.253111 3.70523 0 0 0 93 77 67 255
-0.724654 0.262193 4.05518 0 0 0 113 104 82 255
-0.870393 0.269655 4.09828 0 0 0 132 125 125 255
-0.563423 0.26899 4.06889 0 0 0 110 103 101 255
-0.481126 0.271714 4.10359 0 0 0 124 109 113 255
2.38091 0.28029 3.69719 0 0 0 91 51 24 255
2.30061 0.305949 3.68551 0 0 0 165 133 81 255
-0.553467 0.312385 4.06321 0 0 0 147 121 91 255
-0.92873 0.330019 4.11832 0 0 0 68 103 139 255
-0.895796 0.354914 4.09441 0 0 0 37 76 112 255
-0.640798 0.355976 4.05121 0 0 0 46 99 143 255
-0.430369 0.34888 4.14133 0 0 0 105 129 149 255
0.40695 0.365678 4.7182 0 0 0 111 87 83 255
0.798368 0.365389 4.58063 0 0 0 144 132 134 255
0.874577 0.375107 4.60155 0 0 0 136 117 121 255
-0.652546 0.391127 4.04964 0 0 0 29 88 75 255
-0.486343 0.389527 4.10996 0 0 0 30 73 108 255
-0.390685 0.398107 4.17505 0 0 0 152 156 156 255
1.98283 0.380089 3.93878 0 0 0 77 84 85 255
2.11792 0.389136 3.71079 0 0 0 89 89 90 255
2.48989 0.387671 3.71759 0 0 0 110 118 121 255
1.93194 0.407377 3.95018 0 0 0 125 120 116 255
-0.589586 0.431611 4.06821 0 0 0 19 93 125 255
2.10003 0.41864 3.72566 0 0 0 58 40 40 255
2.41844 0.409218 3.68737 0 0 0 83 63 45 255
-0.451556 0.440806 4.12309 0 0 0 16 60 108 255
1.97485 0.444642 3.92825 0 0 0 82 76 67 255
2.10112 0.433812 3.72285 0 0 0 58 42 39 255
2.45526 0.429689 3.7043 0 0 0 34 38 37 255
-0.610507 0.454276 4.06339 0 0 0 147 154 154 255
2.13906 0.465746 3.70046 0 0 0 91 65 52 255
-0.543469 0.490072 4.06958 0 0 0 104 120 136 255
-0.417088 0.503785 4.1464 0 0 0 78 121 156 255
1.94091 0.49897 3.99965 0 0 0 122 120 119 255
2.10226 0.499385 3.72748 0 0 0 55 39 39 255
1.08327 0.579697 4.76493 0 0 0 126 142 138 255
2.0994 0.526669 3.7273 0 0 0 50 42 47 255
2.21 0.526792 3.67518 0 0 0 55 39 41 255
2.27853 0.518894 3.66825 0 0 0 46 36 38 255
2.41924 0.52554 3.69315 0 0 0 57 40 43 255
2.56342 0.542588 3.77614 0 0 0 104 112 118 255
1.94759 0.575016 4.02233 0 0 0 108 100 94 255
2.48879 0.546761 3.72151 0 0 0 123 130 131 255
2.36168 0.559888 3.67144 0 0 0 108 94 86 255
2.40238 0.549487 3.67145 0 0 0 140 142 143 255
2.42244 0.550782 3.68854 0 0 0 143 143 143 255
-1.00223 0.592198 4.2223 0 0 0 134 137 140 255
-0.913916 0.586472 4.12885 0 0 0 32 55 90 255
2.14519 0.554399 3.69572 0 0 0 107 90 75 255
-0.740203 0.61067 4.06601 0 0 0 155 156 156 255
-0.491855 0.603603 4.08016 0 0 0 88 94 113 255
-0.730872 0.645721 4.06626 0 0 0 154 156 158 255
-0.432399 0.681964 4.13926 0 0 0 151 158 159 255
-0.988451 0.707387 4.16651 0 0 0 133 131 130 255
-0.737558 0.715315 4.07449 0 0 0 156 159 161 255
-0.643789 0.70626 4.07682 0 0 0 137 143 162 255
-0.403744 0.723917 4.17558 0 0 0 155 160 168 255
-0.869942 0.724127 4.08457 0 0 0 109 111 116 255
-0.554822 0.759317 4.09001 0 0 0 158 162 163 255
2.25471 0.721436 3.67753 0 0 0 96 76 55 255
-0.878744 0.771899 4.08699 0 0 0 97 108 118 255
-0.698257 0.761343 4.08673 0 0 0 52 69 110 255
-0.459121 0.774977 4.13752 0 0 0 92 94 101 255
-0.336388 0.786581 4.24891 0 0 0 40 53 83 255
-0.318264 0.811027 4.27058 0 0 0 128 133 152 255
-0.630942 0.811312 4.08909 0 0 0 53 63 89 255
-0.455513 0.835091 4.14056 0 0 0 58 66 93 255
-0.409718 0.883098 4.16954 0 0 0 156 157 159 255
-0.452677 0.897208 4.14824 0 0 0 113 117 126 255
-0.955262 0.913001 4.17034 0 0 0 69 69 80 255
-0.510717 0.912053 4.12147 0 0 0 156 159 158 255
-0.55913 0.927493 4.08564 0 0 0 160 162 163 255
-0.742576 0.932232 4.08343 0 0 0 157 161 163 255
-0.888782 0.946296 4.14412 0 0 0 33 52 93 255
-0.684223 0.96235 4.10202 0 0 0 158 160 161 255
-0.718855 0.965881 4.09096 0 0 0 59 71 96 255
-0.752732 0.976241 4.08887 0 0 0 157 157 157 255
-0.483572 0.998702 4.14085 0 0 0 130 149 169 255
-0.819335 0.99724 4.03988 0 0 0 151 154 153 255
-0.929738 1.02649 4.16893 0 0 0 149 147 151 255
-0.500149 1.03462 4.12416 0 0 0 40 99 138 255
0.956305 1.11432 4.6654 0 0 0 29 77 115 255
0.504856 1.15065 4.71273 0 0 0 69 104 73 255
2.34641 1.06569 3.70599 0 0 0 87 86 87 255
0.799765 1.24808 4.61999 0 0 0 101 120 98 255
-0.626403 1.16232 4.05098 0 0 0 136 140 153 255
-0.867516 1.17011 4.12552 0 0 0 88 116 142 255
-0.724086 1.17616 4.10304 0 0 0 85 131 170 255
-0.792585 1.1926 4.10976 0 0 0 21 85 131 255
-0.828519 1.23751 4.10132 0 0 0 80 84 109 255
-0.904309 1.27197 4.13632 0 0 0 124 142 163 255
-0.618506 1.28536 4.04572 0 0 0 37 76 110 255
-0.857059 1.32244 4.12318 0 0 0 101 111 122 255
-0.726667 1.32925 4.10682 0 0 0 95 108 135 255
-0.842447 1.36321 4.11226 0 0 0 65 104 137 255
2.39948 1.41094 3.78612 0 0 0 98 94 97 255
2.29892 -0.211157 3.90874 0 0 0 45 43 44 255
2.3694 -0.205972 3.85901 0 0 0 45 45 45 255
2.4578 -0.198317 3.91386 0 0 0 47 52 53 255
0.948327 -0.239698 4.70875 0 0 0 211 211 212 255
2.09616 -0.055802 3.96631 0 0 0 93 84 83 255
2.47266 -0.0444236 3.91013 0 0 0 35 39 39 255
2.34222 0.0109542 3.91771 0 0 0 200 205 207 255
2.47024 0.0369384 3.9224 0 0 0 84 85 92 255
2.34972 0.0903478 3.92353 0 0 0 248 250 254 255
2.35425 0.115842 3.91516 0 0 0 255 252 253 255
2.0642 0.135989 4.01478 0 0 0 63 63 62 255
2.53284 0.140552 3.94061 0 0 0 50 50 54 255
2.30867 0.259317 3.6947 0 0 0 161 144 114 255
-0.472329 0.263364 4.11129 0 0 0 148 121 89 255
2.21325 0.266265 3.70721 0 0 0 95 75 60 255
2.35945 0.261916 3.69644 0 0 0 125 88 55 255
-0.841202 0.282142 4.08086 0 0 0 139 126 66 255
-0.809488 0.275834 4.07037 0 0 0 75 73 68 255
-0.769315 0.27246 4.06088 0 0 0 114 95 99 255
-0.625379 0.270944 4.05625 0 0 0 133 111 101 255
-0.703697 0.285254 4.0536 0 0 0 113 107 101 255
2.21149 0.297852 3.69469 0 0 0 130 106 77 255
2.37324 0.298313 3.69162 0 0 0 138 101 62 255
-0.976932 0.335141 4.19627 0 0 0 95 110 126 255
0.58189 0.374128 4.60129 0 0 0 118 39 43 255
-0.614403 0.400702 4.06563 0 0 0 149 155 160 255
-0.528492 0.399031 4.08167 0 0 0 152 158 165 255
-0.391524 0.396186 4.17475 0 0 0 148 155 155 255
0.60367 0.404194 4.59176 0 0 0 156 147 148 255
1.98319 0.385871 3.93433 0 0 0 112 121 123 255
2.07086 0.396701 3.74341 0 0 0 127 133 134 255
2.12667 0.405629 3.70714 0 0 0 131 137 139 255
2.15159 0.394227 3.69503 0 0 0 40 39 44 255
2.18144 0.39509 3.68497 0 0 0 135 136 140 255
2.2859 0.394113 3.66364 0 0 0 138 147 149 255
2.41674 0.383216 3.68929 0 0 0 125 129 132 255
2.12789 0.412725 3.707 0 0 0 123 136 140 255
2.42424 0.41692 3.6881 0 0 0 61 43 33 255
-0.598761 0.456323 4.06504 0 0 0 144 156 158 255
-0.983642 0.483463 4.22878 0 0 0 127 120 122 255
2.14528 0.467537 3.69791 0 0 0 61 40 29 255
-0.348412 0.53775 4.2229 0 0 0 32 80 117 255
2.10513 0.513496 3.72492 0 0 0 47 38 40 255
2.21415 0.519666 3.67492 0 0 0 52 36 38 255
2.42314 0.507887 3.68816 0 0 0 39 38 42 255
1.9806 0.548285 3.88187 0 0 0 130 133 131 255
2.28327 0.524545 3.66853 0 0 0 37 39 43 255
-0.921405 0.585315 4.13652 0 0 0 22 55 94 255
-0.863673 0.575597 4.11734 0 0 0 152 152 152 255
-0.642844 0.576878 4.08034 0 0 0 153 155 167 255
-0.449193 0.569181 4.13193 0 0 0 156 158 162 255
2.11775 0.549753 3.71376 0 0 0 137 139 139 255
2.14632 0.551219 3.69515 0 0 0 107 90 75 255
2.18962 0.555557 3.68156 0 0 0 137 141 142 255
2.23216 0.557978 3.67145 0 0 0 142 141 144 255
2.32985 0.549614 3.66424 0 0 0 141 146 147 255
2.37831 0.552481 3.66826 0 0 0 45 41 45 255
2.4259 0.552745 3.69316 0 0 0 143 143 143 255
-0.800549 0.588761 4.08888 0 0 0 29 51 90 255
-0.740734 0.607776 4.06617 0 0 0 156 156 156 255
-0.579152 0.622177 4.11923 0 0 0 104 112 143 255
1.03942 0.645703 4.72593 0 0 0 40 80 74 255
-0.742453 0.621366 4.06832 0 0 0 156 159 158 255
-0.36168 0.658921 4.22195 0 0 0 146 151 161 255
-0.579793 0.667587 4.10951 0 0 0 61 68 87 255
-0.505105 0.660176 4.07602 0 0 0 59 65 84 255
-0.430945 0.665421 4.14296 0 0 0 153 157 159 255
-0.95346 0.686959 4.16268 0 0 0 28 44 82 255
-0.862434 0.676463 4.08242 0 0 0 56 60 71 255
-0.775988 0.67687 4.0677 0 0 0 34 53 94 255
-0.363537 0.682661 4.21733 0 0 0 146 152 161 255
-0.959661 0.700338 4.16381 0 0 0 24 46 91 255
-0.865228 0.704495 4.08153 0 0 0 111 118 126 255
-0.742248 0.709742 4.075 0 0 0 153 157 160 255
-0.409726 0.726847 4.17074 0 0 0 154 159 171 255
-0.877315 0.761715 4.08599 0 0 0 107 117 124 255
2.27411 0.733661 3.67814 0 0 0 110 80 42 255
-0.689042 0.778035 4.09814 0 0 0 156 158 163 255
-1.00206 0.815222 4.22218 0 0 0 39 52 75 255
-0.383572 0.802147 4.19679 0 0 0 103 118 135 255
-0.286312 0.805014 4.31864 0 0 0 149 153 154 255
-0.62368 0.812273 4.08654 0 0 0 49 59 86 255
-0.3363 0.814546 4.24508 0 0 0 33 58 96 255
-0.810072 0.827617 4.07989 0 0 0 74 80 99 255
-0.6203 0.878106 4.08773 0 0 0 58 75 97 255
-0.407899 0.899965 4.17497 0 0 0 61 73 100 255
-0.744126 0.884151 4.07478 0 0 0 60 75 95 255
-0.503036 0.895957 4.12867 0 0 0 160 162 163 255
-0.847684 0.905956 4.06075 0 0 0 31 51 92 255
-0.560093 0.927908 4.08391 0 0 0 160 162 163 255
-0.849544 0.92289 4.06258 0 0 0 26 52 95 255
-0.672655 0.950072 4.10434 0 0 0 159 162 161 255
-0.623817 0.950172 4.09136 0 0 0 77 85 106 255
-0.800265 0.985338 4.1023 0 0 0 41 55 91 255
1.18603 1.12151 5.05817 0 0 0 168 174 170 255
-0.478633 1.00046 4.14511 0 0 0 137 155 172 255
-0.363066 1.01642 4.23642 0 0 0 122 144 164 255
-0.924794 1.01747 4.16493 0 0 0 148 150 151 255
1.18902 1.22362 5.07084 0 0 0 158 162 161 255
-0.627934 1.07991 4.10986 0 0 0 113 153 184 255
-0.383265 1.14037 4.21122 0 0 0 145 152 158 255
2.12457 1.06209 3.7464 0 0 0 95 95 94 255
2.28339 1.06959 3.70547 0 0 0 86 79 81 255
-0.676152 1.15511 4.08374 0 0 0 23 88 136 255
-0.638301 1.1554 4.09041 0 0 0 142 157 181 255
-0.593585 1.14683 4.09313 0 0 0 9 108 147 255
-0.864828 1.20254 4.12377 0 0 0 142 144 146 255
-0.784738 1.18171 4.10587 0 0 0 19 84 129 255
-0.618703 1.19388 4.05065 0 0 0 46 80 123 255
-0.330661 1.23162 4.26262 0 0 0 162 140 95 255
-0.912405 1.22174 4.14513 0 0 0 82 104 140 255
-0.901436 1.27334 4.13458 0 0 0 124 142 163 255
-0.865765 1.30499 4.12969 0 0 0 124 131 141 255
-0.797237 1.31309 4.1027 0 0 0 29 74 114 255
-0.711784 1.3002 4.10933 0 0 0 111 112 122 255
-0.374965 1.38924 4.22725 0 0 0 152 154 156 255
-0.868758 1.38152 4.10753 0 0 0 84 129 157 255
2.4102 1.41273 3.7808 0 0 0 93 90 94 255
2.39289 1.62949 3.9852 0 0 0 205 206 212 255
2.23763 -0.202237 3.82147 0 0 0 42 41 42 255
2.46178 -0.192612 3.93959 0 0 0 63 43 41 255
2.12184 -0.05056 3.9597 0 0 0 47 49 51 255
2.47632 0.050296 3.92662 0 0 0 83 86 92 255
-1.04179 0.135802 4.25252 0 0 0 22 47 84 255
-0.653861 0.274211 4.05113 0 0 0 129 110 99 255
2.28654 0.269419 3.68771 0 0 0 118 95 70 255
-0.363412 0.355288 4.20477 0 0 0 124 141 155 255
1.95954 0.337985 4.00603 0 0 0 59 58 59 255
-0.951108 0.352237 4.1547 0 0 0 96 99 113 255
-0.883907 0.332366 4.10181 0 0 0 8 56 107 255
0.767346 0.388978 4.57714 0 0 0 159 159 159 255
2.39342 0.39729 3.67707 0 0 0 122 130 137 255
-0.434005 0.420245 4.13526 0 0 0 149 150 154 255
2.07145 0.397671 3.7426 0 0 0 124 136 136 255
2.18158 0.412992 3.68537 0 0 0 132 143 146 255
2.28479 0.391002 3.66371 0 0 0 143 143 143 255
2.33992 0.437198 3.6609 0 0 0 40 41 47 255
-0.944541 0.469844 4.17479 0 0 0 145 109 78 255
2.26478 0.489434 3.66663 0 0 0 136 136 137 255
-0.452272 0.587111 4.12663 0 0 0 158 160 160 255
1.97399 0.595581 4.0069 0 0 0 45 46 47 255
-0.643239 0.575797 4.08006 0 0 0 153 155 167 255
-0.736333 0.627552 4.067 0 0 0 156 159 159 255
-0.364182 0.654265 4.22176 0 0 0 113 126 151 255
-0.969052 0.685516 4.17698 0 0 0 22 44 84 255
-0.638332 0.685806 4.08128 0 0 0 154 158 160 255
-0.414635 0.677999 4.16302 0 0 0 32 60 105 255
-0.870044 0.722481 4.08016 0 0 0 122 125 129 255
0.792022 0.75697 4.59402 0 0 0 70 110 74 255
-0.744614 0.730399 4.06868 0 0 0 159 160 160 255
-0.404991 0.875553 4.17113 0 0 0 158 161 161 255
-0.855459 0.904805 4.063 0 0 0 29 52 93 255
-0.771692 0.942526 4.08937 0 0 0 158 161 160 255
-0.985939 1.068 4.22199 0 0 0 23 53 95 255
-0.397278 1.10118 4.20045 0 0 0 3 94 141 255
-0.351685 1.14246 4.24513 0 0 0 146 150 155 255
-0.572287 1.14218 4.06151 0 0 0 4 108 151 255
-0.865917 1.19241 4.12135 0 0 0 141 143 145 255
-0.784769 1.18757 4.10605 0 0 0 20 85 131 255
-0.724715 1.18007 4.10187 0 0 0 126 144 160 255
-0.657281 1.17705 4.08917 0 0 0 33 87 135 255
-0.339351 1.25005 4.25285 0 0 0 164 148 92 255
0.363993 1.40248 4.92871 0 0 0 67 94 81 255
-0.881104 1.2743 4.12892 0 0 0 138 143 146 255
-0.769834 1.27475 4.10672 0 0 0 157 157 158 255
-0.351835 1.27797 4.24749 0 0 0 168 154 103 255
-0.789398 1.30462 4.10283 0 0 0 36 74 113 255
-0.689988 1.29362 4.00553 0 0 0 132 130 139 255
-0.621332 1.29741 4.04502 0 0 0 28 75 118 255
-0.545298 1.30829 4.07238 0 0 0 166 160 125 255
-0.294996 1.46103 4.65304 0 0 0 45 86 123 255
2.13035 -0.0803615 3.95864 0 0 0 65 66 72 255
-0.34349 0.109965 4.61141 0 0 0 26 61 102 255
2.05223 0.165018 4.02188 0 0 0 55 58 57 255
-0.358694 0.369793 4.20981 0 0 0 138 149 156 255
-0.892141 0.405902 4.09104 0 0 0 143 135 116 255
-0.604154 0.393027 4.06733 0 0 0 135 143 155 255
-0.525153 0.397918 4.08373 0 0 0 153 159 162 255
1.97194 0.415117 3.92923 0 0 0 111 113 111 255
-0.921774 0.449545 4.14334 0 0 0 147 142 134 255
-0.724557 0.456635 4.04768 0 0 0 117 125 105 255
-0.350327 0.4622 4.21485 0 0 0 151 153 161 255
1.09116 0.522611 4.77899 0 0 0 93 113 86 255
1.98096 0.50878 3.9277 0 0 0 121 128 125 255
-0.966057 0.535324 4.18269 0 0 0 12 59 104 255
0.831008 0.594013 4.60228 0 0 0 156 160 161 255
2.07627 0.550069 3.74173 0 0 0 135 139 140 255
2.19998 0.551183 3.67703 0 0 0 143 142 139 255
-0.630506 0.590881 4.09048 0 0 0 157 159 161 255
-0.45508 0.594143 4.12384 0 0 0 157 160 162 255
1.9668 0.603443 4.02796 0 0 0 50 52 52 255
-0.907953 0.631225 4.12854 0 0 0 150 152 151 255
-0.83414 0.60349 4.10732 0 0 0 146 152 155 255
-0.505252 0.645275 4.07022 0 0 0 156 158 158 255
-0.313848 0.686973 4.30831 0 0 0 146 153 154 255
-0.963567 0.695026 4.1688 0 0 0 23 46 87 255
0.946884 0.751953 4.64962 0 0 0 116 146 130 255
1.09056 0.769482 4.75984 0 0 0 48 91 74 255
-0.672343 0.731443 4.08675 0 0 0 27 55 103 255
-1.00769 0.823943 4.22464 0 0 0 23 61 94 255
-0.733942 0.863545 4.08154 0 0 0 37 61 107 255
-0.451472 0.83085 4.14464 0 0 0 107 104 108 255
-0.610319 0.907831 4.08908 0 0 0 158 161 165 255
-0.856699 0.979235 4.13026 0 0 0 152 154 156 255
-0.474573 0.999382 4.14821 0 0 0 137 155 172 255
-0.363846 1.02369 4.23521 0 0 0 127 129 131 255
-0.479023 1.0609 4.13771 0 0 0 148 152 158 255
-0.34525 1.20742 4.25792 0 0 0 140 124 104 255
1.1109 1.40589 5.10101 0 0 0 68 108 88 255
-0.520561 1.3164 4.09074 0 0 0 174 163 107 255
-0.948401 1.41496 4.19433 0 0 0 44 79 117 255
-0.509124 1.43709 4.12743 0 0 0 45 86 124 255
1.99466 1.57598 4.09907 0 0 0 110 112 108 255
2.12414 -0.200642 3.96568 0 0 0 84 67 60 255
2.11745 -0.125406 3.9677 0 0 0 72 57 57 255
1.05451 0.113125 4.80951 0 0 0 45 91 64 255
2.04503 0.177812 4.01995 0 0 0 54 54 54 255
2.07652 0.171261 4.00589 0 0 0 40 47 49 255
1.97702 0.270116 4.01287 0 0 0 109 101 98 255
-0.870037 0.425541 4.12303 0 0 0 147 132 77 255
1.95943 0.471225 3.9745 0 0 0 128 132 131 255
-0.405568 0.624095 4.16655 0 0 0 25 57 105 255
-0.844086 0.650392 4.11252 0 0 0 154 153 154 255
-0.688678 0.635063 4.05548 0 0 0 23 56 107 255
1.05721 0.810635 4.73492 0 0 0 50 95 71 255
-0.728999 0.818206 4.06831 0 0 0 73 84 96 255
-0.297131 0.872692 4.2766 0 0 0 18 64 112 255
1.99485 0.903739 4.07492 0 0 0 46 51 52 255
-0.377799 1.21583 4.21866 0 0 0 153 126 99 255
0.382745 1.38569 4.90183 0 0 0 64 93 79 255
-0.8284 1.21307 4.10651 0 0 0 131 129 136 255
-0.455603 1.31004 4.16667 0 0 0 173 160 74 255
-0.335438 1.44315 4.63277 0 0 0 30 78 119 255
-0.873002 1.43288 4.11136 0 0 0 50 80 110 255
2.19688 -0.192524 3.87981 0 0 0 129 93 98 255
2.49377 -0.186015 3.94628 0 0 0 82 87 87 255
2.30397 -0.170599 3.9173 0 0 0 138 103 105 255
2.5025 -0.0935618 3.97514 0 0 0 115 122 124 255
2.50426 -0.0729969 3.95533 0 0 0 81 85 86 255
2.49368 -0.0124264 3.95278 0 0 0 120 127 129 255
2.21033 0.0162327 3.90762 0 0 0 162 162 162 255
2.54312 0.120589 3.97135 0 0 0 113 115 117 255
-0.320808 0.0951405 4.65052 0 0 0 81 87 99 255
2.33705 0.254113 3.69437 0 0 0 155 135 115 255
0.6532 0.248255 4.57516 0 0 0 30 53 50 255
0.919384 0.259043 4.61476 0 0 0 96 101 99 255
0.459865 0.27409 4.67465 0 0 0 121 130 129 255
0.960239 0.268924 4.62958 0 0 0 83 112 100 255
2.34375 0.303225 3.68976 0 0 0 76 50 28 255
-0.73508 0.290406 4.05079 0 0 0 30 47 93 255
2.31716 0.306945 3.68858 0 0 0 153 123 92 255
0.668819 0.319534 4.57846 0 0 0 123 149 104 255
-0.382328 0.320712 4.17728 0 0 0 62 112 157 255
-0.333124 0.410195 4.22869 0 0 0 114 88 103 255
2.51136 0.425073 3.71397 0 0 0 99 98 98 255
-0.417323 0.448315 4.1372 0 0 0 150 151 157 255
2.27792 0.451621 3.66159 0 0 0 86 81 78 255
-0.508667 0.478439 4.08475 0 0 0 40 83 116 255
2.11392 0.524356 3.71574 0 0 0 38 42 46 255
2.22333 0.536764 3.67069 0 0 0 35 40 52 255
2.06234 0.55722 3.75608 0 0 0 75 86 87 255
0.575722 0.684267 4.62778 0 0 0 145 153 151 255
1.10958 0.735365 4.79106 0 0 0 136 148 146 255
1.09157 0.752859 4.76028 0 0 0 134 142 139 255
1.05186 0.76811 4.74317 0 0 0 144 153 153 255
-0.78939 0.757052 4.0295 0 0 0 86 89 99 255
2.33096 0.714805 3.67309 0 0 0 73 61 49 255
-0.821648 0.876695 3.99987 0 0 0 57 71 86 255
-0.817866 0.879011 3.99743 0 0 0 61 67 88 255
1.88417 1.43426 6.96746 0 0 0 147 145 139 255
1.32009 1.39665 6.60446 0 0 0 133 131 125 255
1.23888 1.37429 6.43967 0 0 0 142 141 133 255
0.907424 1.17743 4.64184 0 0 0 95 89 43 255
2.39908 1.04592 3.70728 0 0 0 99 97 98 255
2.42003 1.04273 3.6797 0 0 0 107 115 115 255
2.16511 1.06596 3.73063 0 0 0 125 133 133 255
2.07515 1.08427 3.77369 0 0 0 90 93 94 255
2.2083 1.08593 3.7045 0 0 0 73 75 74 255
2.30794 1.0838 3.69931 0 0 0 87 89 90 255
2.33812 1.08494 3.69736 0 0 0 87 93 93 255
2.20714 1.16332 3.66564 0 0 0 99 102 104 255
2.22599 1.23777 3.65912 0 0 0 109 118 116 255
2.38963 1.23396 3.64755 0 0 0 100 98 98 255
-0.418465 1.39796 4.19144 0 0 0 113 120 126 255
-0.673959 1.37049 3.84014 0 0 0 70 107 143 255
2.14854 1.36581 3.69199 0 0 0 117 120 119 255
2.18548 1.37684 3.66323 0 0 0 119 121 125 255
2.21512 1.39148 3.65032 0 0 0 100 102 104 255
2.49626 -0.000358748 3.95123 0 0 0 138 145 145 255
2.37576 0.313625 3.68763 0 0 0 106 86 56 255
0.60904 0.373857 4.5905 0 0 0 90 60 64 255
-0.724593 0.394692 4.04763 0 0 0 119 120 112 255
-0.507413 0.486735 4.08631 0 0 0 19 83 128 255
2.50909 0.492772 3.69992 0 0 0 68 49 45 255
2.63855 0.900258 3.88269 0 0 0 90 99 99 255
-0.65789 0.93868 4.01219 0 0 0 159 159 164 255
2.39128 1.03244 3.66493 0 0 0 81 82 82 255
-0.691402 1.36446 3.83845 0 0 0 80 126 160 255
-0.512617 1.41976 4.14247 0 0 0 64 114 148 255
2.11247 -0.200139 3.9649 0 0 0 109 98 94 255
2.10625 -0.0117091 3.97256 0 0 0 149 149 147 255
0.677095 0.24383 4.57561 0 0 0 96 99 99 255
2.3785 0.260862 3.69959 0 0 0 155 118 75 255
-0.711618 0.297704 4.05081 0 0 0 143 131 87 255
2.38832 0.318901 3.68479 0 0 0 64 43 28 255
0.885381 0.395834 4.60467 0 0 0 153 144 145 255
1.02712 0.415306 4.69449 0 0 0 131 63 70 255
-0.722207 0.40296 4.04476 0 0 0 145 145 130 255
0.443579 0.427993 4.68252 0 0 0 140 139 139 255
2.3431 0.463284 3.66249 0 0 0 47 44 47 255
-0.464812 0.484828 4.10717 0 0 0 114 121 130 255
2.36906 0.543241 3.66213 0 0 0 41 40 45 255
-0.853379 0.739192 4.04065 0 0 0 93 101 111 255
2.36359 0.728416 3.6865 0 0 0 91 69 44 255
-0.69807 0.791371 4.1001 0 0 0 159 158 161 255
2.36076 0.748165 3.68187 0 0 0 97 71 33 255
-0.561357 0.906187 4.07551 0 0 0 161 161 163 255
0.858745 1.13863 4.62518 0 0 0 152 156 133 255
-0.375018 1.10322 4.20915 0 0 0 9 82 129 255
0.889449 1.17554 4.63463 0 0 0 125 121 72 255
-0.427637 1.38713 4.08066 0 0 0 155 159 162 255
2.45313 1.36352 3.63601 0 0 0 88 84 87 255
2.12777 -0.142659 3.96001 0 0 0 68 46 46 255
2.47289 -0.065274 3.95042 0 0 0 60 67 75 255
2.2075 0.0147719 3.90714 0 0 0 156 158 160 255
2.47064 0.0389087 3.99532 0 0 0 89 89 89 255
2.12716 0.041688 3.9591 0 0 0 93 96 95 255
-0.356819 0.319691 4.20276 0 0 0 50 96 131 255
2.2858 0.431435 3.66273 0 0 0 141 142 141 255
2.42058 0.452704 3.66818 0 0 0 35 37 41 255
2.20537 0.48374 3.66095 0 0 0 61 36 28 255
0.791799 0.558345 4.60404 0 0 0 154 159 157 255
0.439712 0.598802 4.70057 0 0 0 86 114 109 255
2.38769 0.537009 3.65649 0 0 0 142 145 146 255
1.95707 0.591897 3.99217 0 0 0 59 59 62 255
2.23985 0.544612 3.66805 0 0 0 132 142 144 255
2.28285 0.55473 3.6674 0 0 0 35 36 40 255
-0.442037 0.642067 4.12299 0 0 0 158 159 161 255
-0.403797 0.664082 4.16832 0 0 0 25 59 107 255
-0.638019 0.664988 4.07843 0 0 0 158 158 162 255
-0.745779 0.674931 4.07102 0 0 0 36 50 91 255
-0.286396 0.763085 4.32459 0 0 0 128 132 139 255
-0.484877 0.896033 4.13216 0 0 0 159 161 160 255
-0.798591 0.972881 3.97661 0 0 0 151 150 152 255
-0.396337 1.07673 4.18505 0 0 0 1 98 145 255
-0.593234 1.09954 4.01394 0 0 0 131 148 162 255
-0.527648 1.12308 4.00836 0 0 0 0 106 149 255
-0.332042 1.16451 4.26261 0 0 0 133 134 139 255
2.40342 -0.219639 3.84486 0 0 0 144 144 144 255
2.21226 0.0207994 3.9091 0 0 0 162 162 162 255
1.0886 0.105282 4.97164 0 0 0 50 93 69 255
1.03101 0.311531 4.7069 0 0 0 143 145 133 255
-0.876093 0.397472 4.12271 0 0 0 151 135 77 255
-0.737041 0.386859 4.05018 0 0 0 129 131 116 255
2.22857 0.489576 3.67106 0 0 0 35 37 41 255
0.78128 0.594132 4.58926 0 0 0 157 162 160 255
1.98291 0.532838 3.93706 0 0 0 127 133 136 255
2.38566 0.540146 3.65541 0 0 0 122 130 132 255
-0.622873 0.636966 4.09468 0 0 0 159 160 161 255
-0.404689 0.640386 4.16533 0 0 0 25 59 105 255
0.773755 0.685649 4.59859 0 0 0 67 110 68 255
-0.305379 0.746557 4.30559 0 0 0 153 156 155 255
0.782878 0.822127 4.61278 0 0 0 158 163 161 255
-0.412442 0.828778 4.15803 0 0 0 158 160 162 255
-0.631592 0.896582 4.09081 0 0 0 100 113 139 255
-0.46102 1.00058 4.15941 0 0 0 134 150 165 255
-0.362684 1.13521 4.2274 0 0 0 128 140 152 255
-0.531158 1.14245 4.10739 0 0 0 1 98 146 255
-0.347608 1.24624 4.23596 0 0 0 155 139 84 255
-0.306106 1.47376 4.66345 0 0 0 87 119 151 255
-0.45204 1.41977 4.07932 0 0 0 36 80 123 255
2.14233 -0.0564059 3.94625 0 0 0 33 41 36 255
1.07426 0.107124 4.91621 0 0 0 48 91 67 255
