ply
format ascii 1.0
comment VCGLIB generated
element vertex 1028
property float x
property float y
property float z
property float nx
property float ny
property float nz
property uchar red
property uchar green
property uchar blue
property uchar alpha
element face 0
property list uchar int vertex_indices
end_header
-0.292297 0.788649 4.32116 0 0 0 150 159 160 255
0.853707 0.846945 4.61554 0 0 0 165 170 168 255
0.741515 0.865986 4.5982 0 0 0 134 164 160 255
1.01779 0.938807 4.7034 0 0 0 122 146 124 255
0.573449 0.937399 4.645 0 0 0 155 164 161 255
1.72494 1.45849 6.71243 0 0 0 115 114 108 255
1.87378 1.39885 6.36062 0 0 0 88 85 83 255
2.14078 1.37002 6.2844 0 0 0 128 125 118 255
0.924819 1.12674 4.65718 0 0 0 48 82 100 255
0.465371 1.19792 4.71621 0 0 0 89 99 114 255
0.960468 1.18227 4.67285 0 0 0 98 93 54 255
0.989432 1.35187 4.71034 0 0 0 128 154 141 255
0.913064 1.35896 4.66143 0 0 0 142 173 160 255
-0.323778 0.10155 4.6072 0 0 0 35 74 110 255
0.386861 0.115501 4.81246 0 0 0 28 57 42 255
0.387915 0.142395 4.81768 0 0 0 48 86 64 255
0.472738 0.22828 4.65853 0 0 0 107 136 128 255
0.594631 0.235091 4.59904 0 0 0 141 154 149 255
0.719776 0.215957 4.57053 0 0 0 68 108 74 255
0.786717 0.223023 4.57458 0 0 0 84 112 107 255
0.529078 0.263304 4.61907 0 0 0 123 132 131 255
0.451388 0.343861 4.6767 0 0 0 132 139 131 255
1.00943 0.339057 4.68139 0 0 0 118 68 71 255
0.639862 0.372614 4.58528 0 0 0 160 162 157 255
-0.31323 0.365018 4.25885 0 0 0 75 122 156 255
0.86788 0.413711 4.5992 0 0 0 122 53 62 255
0.653693 0.417611 4.58185 0 0 0 165 114 121 255
0.841276 0.426059 4.59087 0 0 0 142 59 65 255
-0.295704 0.448013 4.28644 0 0 0 19 80 124 255
0.501114 0.535058 4.65525 0 0 0 143 157 153 255
1.11603 0.546314 4.84818 0 0 0 80 104 80 255
0.853101 0.552308 4.60766 0 0 0 162 168 166 255
0.936806 0.548283 4.6272 0 0 0 157 163 161 255
0.690402 0.560451 4.58189 0 0 0 157 169 169 255
0.761573 0.561984 4.58964 0 0 0 151 169 167 255
0.388588 0.59632 4.74758 0 0 0 126 145 145 255
0.943583 0.583827 4.63523 0 0 0 159 164 162 255
1.03207 0.594131 4.70836 0 0 0 125 164 155 255
0.77159 0.606976 4.58966 0 0 0 164 169 167 255
0.487588 0.619333 4.66778 0 0 0 53 86 78 255
0.822732 0.635611 4.60094 0 0 0 91 102 87 255
-0.311377 0.66288 4.32211 0 0 0 156 159 160 255
0.554997 0.689652 4.63189 0 0 0 154 164 162 255
0.821447 0.760312 4.60561 0 0 0 71 117 87 255
1.05076 0.763701 4.6865 0 0 0 108 141 127 255
0.94655 0.789266 4.64446 0 0 0 159 166 164 255
-0.290481 0.784439 4.32631 0 0 0 142 149 153 255
0.756099 0.820877 4.60221 0 0 0 167 172 170 255
0.934958 0.826642 4.63613 0 0 0 154 166 164 255
0.85435 0.839579 4.61619 0 0 0 163 171 168 255
0.744388 0.844552 4.59994 0 0 0 157 174 171 255
0.471228 0.907592 4.69918 0 0 0 140 154 153 255
0.574663 0.920543 4.64195 0 0 0 158 166 166 255
1.88677 1.37691 6.64274 0 0 0 155 151 143 255
1.89747 1.36042 6.51655 0 0 0 139 136 128 255
2.1425 1.36871 6.2847 0 0 0 128 125 118 255
1.73443 1.45044 6.71278 0 0 0 124 123 117 255
1.87709 1.39718 6.34671 0 0 0 82 80 79 255
0.963523 1.10099 4.67252 0 0 0 28 83 125 255
0.449566 1.17045 4.73298 0 0 0 131 138 137 255
0.447092 1.15597 4.75094 0 0 0 113 133 124 255
0.937944 1.11882 4.66151 0 0 0 43 81 106 255
0.571594 1.15288 4.65088 0 0 0 137 154 151 255
0.864053 1.18197 4.63033 0 0 0 102 96 67 255
0.444228 1.26247 4.74019 0 0 0 129 136 135 255
0.573994 1.27009 4.66338 0 0 0 143 146 145 255
0.640153 1.25695 4.62382 0 0 0 91 116 85 255
0.331856 1.40371 4.99517 0 0 0 75 92 82 255
0.917889 1.35767 4.66245 0 0 0 154 161 159 255
0.333332 0.0908625 4.87322 0 0 0 72 99 83 255
1.11535 0.0949508 4.94287 0 0 0 66 101 78 255
0.532488 0.385433 4.62542 0 0 0 164 152 156 255
0.781822 0.374494 4.57764 0 0 0 164 167 166 255
0.836028 0.390035 4.58934 0 0 0 108 74 74 255
1.06781 0.549813 4.73515 0 0 0 65 104 75 255
0.817192 0.574083 4.59704 0 0 0 162 169 169 255
0.924805 0.571015 4.62501 0 0 0 157 167 164 255
0.683447 0.58285 4.58107 0 0 0 154 170 167 255
0.795283 0.579465 4.59574 0 0 0 165 169 168 255
0.553526 0.668291 4.63762 0 0 0 158 163 161 255
-0.321127 0.654303 4.31133 0 0 0 160 162 163 255
0.934968 0.804741 4.63738 0 0 0 160 167 167 255
0.82351 0.826766 4.60979 0 0 0 170 173 172 255
0.748448 0.84146 4.60053 0 0 0 157 174 172 255
0.579262 0.896936 4.6442 0 0 0 160 166 164 255
1.75928 1.46261 6.69917 0 0 0 103 102 100 255
0.442841 1.15964 4.75342 0 0 0 124 135 133 255
0.715158 1.1442 4.61558 0 0 0 140 155 150 255
0.408595 1.23562 4.77785 0 0 0 123 143 132 255
0.715929 1.26709 4.62269 0 0 0 145 150 148 255
0.340188 1.39235 4.99672 0 0 0 79 94 81 255
1.11674 0.0901825 4.9355 0 0 0 64 101 80 255
-0.34435 0.144832 4.56432 0 0 0 17 69 115 255
0.517154 0.24567 4.62561 0 0 0 142 139 140 255
0.781675 0.250702 4.57226 0 0 0 150 155 154 255
0.908162 0.245734 4.60884 0 0 0 139 150 151 255
0.641788 0.365268 4.58442 0 0 0 156 160 153 255
1.07379 0.535572 4.74984 0 0 0 82 110 73 255
0.449244 0.616993 4.68933 0 0 0 141 153 156 255
0.5567 0.644335 4.63516 0 0 0 157 163 162 255
0.767687 0.834169 4.60449 0 0 0 168 173 172 255
0.475734 0.885218 4.69309 0 0 0 142 154 154 255
2.10862 1.38253 6.43098 0 0 0 133 130 122 255
0.940425 1.05686 4.66439 0 0 0 42 93 122 255
0.936737 1.10755 4.66138 0 0 0 47 83 104 255
0.881848 1.16162 4.63519 0 0 0 169 149 74 255
0.420278 1.24158 4.7613 0 0 0 135 141 141 255
0.357981 0.1282 4.87453 0 0 0 59 95 67 255
1.02091 0.112678 4.65243 0 0 0 57 102 74 255
-0.350077 0.13071 4.55017 0 0 0 19 70 118 255
-0.31747 0.582851 4.26653 0 0 0 27 81 121 255
0.462175 1.16606 4.72603 0 0 0 134 142 142 255
2.31971 -0.220991 3.9088 0 0 0 55 55 55 255
2.35772 -0.21927 3.90276 0 0 0 66 57 63 255
2.33711 -0.210412 3.90743 0 0 0 153 157 163 255
2.24602 -0.166149 3.84224 0 0 0 138 84 84 255
2.37775 -0.168351 3.84094 0 0 0 127 62 57 255
2.33147 -0.145002 3.85748 0 0 0 167 64 83 255
2.09952 -0.149345 3.98296 0 0 0 147 143 140 255
2.34135 -0.111759 3.93207 0 0 0 95 96 98 255
2.35571 -0.113369 3.91305 0 0 0 100 98 100 255
2.32404 -0.0787609 3.91344 0 0 0 55 55 62 255
2.13694 -0.0749911 3.96695 0 0 0 70 71 78 255
2.50567 -0.0493317 3.99873 0 0 0 39 44 42 255
2.34371 0.00811154 3.92689 0 0 0 200 205 207 255
2.3492 0.0717841 3.93563 0 0 0 250 252 254 255
2.36029 0.115226 3.91974 0 0 0 253 251 252 255
2.05811 0.132158 3.99306 0 0 0 123 121 117 255
2.54949 0.134704 3.96711 0 0 0 54 53 58 255
-1.03983 0.192105 4.28594 0 0 0 68 78 91 255
2.31004 0.253258 3.70486 0 0 0 122 112 94 255
-0.492778 0.254534 4.09494 0 0 0 20 46 86 255
-0.475793 0.254198 4.10445 0 0 0 99 103 125 255
2.22501 0.257718 3.71705 0 0 0 139 109 74 255
2.26719 0.258884 3.70591 0 0 0 114 99 81 255
2.40955 0.254488 3.7138 0 0 0 91 78 70 255
-0.650979 0.264564 4.04872 0 0 0 123 104 95 255
-0.624626 0.261718 4.05233 0 0 0 129 107 101 255
-0.510576 0.259496 4.08571 0 0 0 125 105 96 255
-0.445188 0.260028 4.11952 0 0 0 83 87 115 255
0.493809 0.25195 4.64393 0 0 0 100 111 110 255
-0.863621 0.263368 4.08781 0 0 0 100 102 114 255
-0.800692 0.267242 4.05937 0 0 0 97 97 97 255
-0.771289 0.25929 4.05405 0 0 0 89 75 84 255
-0.72707 0.26598 4.04874 0 0 0 106 100 99 255
-0.69325 0.267446 4.04894 0 0 0 140 126 102 255
-0.562174 0.265172 4.06659 0 0 0 110 103 101 255
0.885874 0.259632 4.60053 0 0 0 62 76 74 255
2.38647 0.272515 3.70822 0 0 0 100 56 21 255
-0.834831 0.271045 4.06885 0 0 0 120 118 85 255
-0.54645 0.274173 4.07098 0 0 0 134 110 79 255
-0.871374 0.280127 4.08771 0 0 0 126 125 102 255
-0.800788 0.279962 4.05915 0 0 0 128 122 98 255
-0.608647 0.277685 4.05446 0 0 0 122 102 59 255
2.2335 0.283992 3.70772 0 0 0 106 68 33 255
2.27171 0.282212 3.69753 0 0 0 160 122 66 255
2.31286 0.281019 3.70008 0 0 0 87 49 40 255
2.38412 0.280946 3.70722 0 0 0 91 51 24 255
-0.779028 0.29018 4.05378 0 0 0 36 44 62 255
-0.490792 0.289323 4.09602 0 0 0 77 63 50 255
0.718368 0.284911 4.56939 0 0 0 76 95 91 255
-0.860469 0.292628 4.08028 0 0 0 78 76 46 255
-0.818616 0.296434 4.06301 0 0 0 38 39 53 255
-0.68374 0.298061 4.04614 0 0 0 38 39 43 255
-0.642724 0.296225 4.04807 0 0 0 89 71 48 255
-0.606518 0.294782 4.05279 0 0 0 59 57 62 255
-0.575738 0.298173 4.0596 0 0 0 23 46 93 255
-0.546943 0.287753 4.06954 0 0 0 65 47 33 255
-0.510004 0.295777 4.08356 0 0 0 140 115 87 255
2.40225 0.296886 3.70084 0 0 0 91 74 60 255
-0.48522 0.306008 4.09766 0 0 0 98 76 83 255
2.20706 0.302837 3.70301 0 0 0 108 89 64 255
2.25864 0.307431 3.69607 0 0 0 153 118 70 255
2.27982 0.308323 3.68878 0 0 0 135 96 61 255
2.3047 0.30441 3.69656 0 0 0 165 133 81 255
-0.854979 0.312762 4.07646 0 0 0 86 93 132 255
-0.783422 0.315555 4.05392 0 0 0 87 84 115 255
-0.727569 0.314539 4.04701 0 0 0 83 94 128 255
-0.655151 0.316022 4.04545 0 0 0 128 111 86 255
-0.621817 0.31259 4.0499 0 0 0 145 116 97 255
-0.541136 0.312439 4.07137 0 0 0 113 106 101 255
-1.02307 0.329459 4.25909 0 0 0 81 104 136 255
0.612556 0.328289 4.58813 0 0 0 138 142 131 255
0.759695 0.324172 4.57605 0 0 0 141 155 125 255
1.99137 0.337579 3.96753 0 0 0 70 75 76 255
0.583942 0.35323 4.60084 0 0 0 178 129 137 255
0.602134 0.35069 4.59306 0 0 0 121 77 78 255
-0.491141 0.353848 4.09791 0 0 0 54 109 155 255
-0.387891 0.35039 4.17471 0 0 0 14 87 133 255
0.820576 0.358386 4.58552 0 0 0 164 123 128 255
1.0294 0.360343 4.69808 0 0 0 172 130 136 255
1.10051 0.362146 4.76023 0 0 0 91 101 86 255
-0.905839 0.357994 4.10824 0 0 0 35 72 108 255
-0.757493 0.357647 4.04928 0 0 0 22 78 129 255
-0.635324 0.359786 4.05034 0 0 0 122 132 142 255
-0.608637 0.359193 4.0595 0 0 0 9 73 123 255
-0.586607 0.360964 4.06733 0 0 0 96 119 159 255
1.94695 0.361129 3.97186 0 0 0 86 81 79 255
-0.883442 0.364392 4.10004 0 0 0 76 99 128 255
-0.517666 0.363875 4.08721 0 0 0 7 73 123 255
-0.336336 0.368718 4.22888 0 0 0 101 88 100 255
1.05058 0.376779 4.71181 0 0 0 151 125 132 255
-0.490355 0.380408 4.10173 0 0 0 55 87 113 255
0.873879 0.382961 4.60189 0 0 0 157 138 142 255
1.95769 0.375229 3.96505 0 0 0 117 119 118 255
-0.557519 0.383525 4.07433 0 0 0 26 81 117 255
-0.531864 0.386071 4.08168 0 0 0 140 150 161 255
-0.41058 0.383043 4.15438 0 0 0 73 89 111 255
1.9868 0.37682 3.94432 0 0 0 112 117 117 255
-0.637693 0.383651 4.05034 0 0 0 68 97 95 255
-0.480198 0.386275 4.1076 0 0 0 25 65 100 255
-0.439695 0.393782 4.13279 0 0 0 36 61 105 255
-0.366565 0.38853 4.19644 0 0 0 78 80 99 255
2.44963 0.382311 3.70491 0 0 0 103 102 105 255
2.49505 0.386875 3.72166 0 0 0 123 130 133 255
2.56903 0.379074 3.79254 0 0 0 79 84 88 255
-0.502015 0.392462 4.09466 0 0 0 33 72 114 255
0.529416 0.403114 4.62083 0 0 0 121 111 114 255
2.06625 0.385909 3.75811 0 0 0 103 107 108 255
2.17278 0.391592 3.69726 0 0 0 132 134 137 255
2.19109 0.388522 3.69215 0 0 0 81 81 81 255
2.27497 0.38553 3.67484 0 0 0 81 83 84 255
2.28938 0.382075 3.67224 0 0 0 88 87 89 255
2.30109 0.389062 3.66977 0 0 0 137 136 137 255
-0.476012 0.404668 4.10925 0 0 0 121 134 152 255
-0.468325 0.406687 4.11388 0 0 0 139 150 165 255
1.05485 0.411383 4.71847 0 0 0 126 90 88 255
1.973 0.389719 3.95184 0 0 0 73 68 66 255
2.45622 0.398218 3.71202 0 0 0 138 141 140 255
-0.595094 0.410139 4.06422 0 0 0 25 93 124 255
-0.574853 0.410207 4.06968 0 0 0 147 155 163 255
-0.39671 0.411092 4.16558 0 0 0 141 145 164 255
-0.54855 0.423138 4.0741 0 0 0 42 84 121 255
-0.51014 0.415699 4.09021 0 0 0 153 158 160 255
-0.475498 0.421326 4.10899 0 0 0 152 153 157 255
-0.436976 0.419455 4.13341 0 0 0 149 150 154 255
2.10139 0.412305 3.73526 0 0 0 60 39 39 255
2.43526 0.409935 3.70269 0 0 0 61 44 39 255
-0.535766 0.424335 4.078 0 0 0 81 103 123 255
-0.455161 0.426163 4.12233 0 0 0 63 79 103 255
-0.356854 0.43224 4.20621 0 0 0 103 96 115 255
2.52194 0.411594 3.72553 0 0 0 76 66 67 255
-0.593879 0.43003 4.06473 0 0 0 19 93 125 255
-0.386959 0.438287 4.17131 0 0 0 79 87 98 255
-0.534929 0.438376 4.07769 0 0 0 11 83 127 255
-0.500409 0.439153 4.09524 0 0 0 30 76 115 255
-0.556157 0.444622 4.07087 0 0 0 116 163 192 255
-0.466994 0.44423 4.11404 0 0 0 39 62 90 255
-0.441505 0.447332 4.13056 0 0 0 17 60 109 255
-0.397143 0.446207 4.16365 0 0 0 57 71 108 255
-0.334637 0.451596 4.22797 0 0 0 120 89 112 255
-0.711513 0.44932 4.04493 0 0 0 142 149 136 255
-0.668626 0.449257 4.04825 0 0 0 140 149 148 255
-0.541602 0.460619 4.07462 0 0 0 25 89 126 255
-0.47452 0.45915 4.10858 0 0 0 22 70 125 255
2.10314 0.45054 3.73106 0 0 0 58 39 39 255
-0.667039 0.46661 4.04724 0 0 0 80 95 94 255
-0.627438 0.467926 4.05431 0 0 0 58 94 92 255
-0.576785 0.467343 4.0661 0 0 0 81 103 120 255
-0.422201 0.477631 4.14357 0 0 0 45 84 117 255
2.14045 0.465467 3.71096 0 0 0 91 65 52 255
-1.03595 0.493263 4.29357 0 0 0 110 92 99 255
-0.648891 0.480863 4.04901 0 0 0 84 120 108 255
-0.386048 0.490566 4.17607 0 0 0 73 98 117 255
-0.316734 0.483489 4.25222 0 0 0 31 84 119 255
-0.99573 0.497641 4.25184 0 0 0 108 94 96 255
2.28117 0.471764 3.67171 0 0 0 80 62 54 255
-0.72822 0.492702 4.04513 0 0 0 87 106 123 255
1.96792 0.496667 3.96112 0 0 0 95 96 91 255
2.10324 0.485633 3.73555 0 0 0 67 46 41 255
-0.42659 0.503337 4.14545 0 0 0 60 108 147 255
2.51438 0.480376 3.72356 0 0 0 109 105 106 255
2.12 0.494889 3.72459 0 0 0 37 43 44 255
2.27015 0.50803 3.67844 0 0 0 87 75 65 255
2.27407 0.506576 3.67758 0 0 0 74 55 41 255
2.29547 0.505466 3.67648 0 0 0 60 51 47 255
1.10566 0.575926 4.81868 0 0 0 106 143 126 255
1.95967 0.548268 3.99076 0 0 0 119 116 115 255
2.42517 0.529406 3.68733 0 0 0 64 53 57 255
-0.438192 0.561243 4.14012 0 0 0 145 149 167 255
2.20739 0.539919 3.68561 0 0 0 81 66 56 255
2.21567 0.531871 3.68393 0 0 0 50 37 39 255
-1.02479 0.573462 4.26551 0 0 0 107 113 138 255
-0.878189 0.564435 4.10907 0 0 0 104 117 151 255
-0.836836 0.567975 4.10413 0 0 0 141 145 147 255
2.45468 0.55103 3.70909 0 0 0 101 103 109 255
2.56005 0.544381 3.76875 0 0 0 131 138 138 255
-0.639764 0.570504 4.06627 0 0 0 138 140 171 255
1.95334 0.570911 4.03247 0 0 0 77 67 61 255
2.49885 0.550635 3.73204 0 0 0 129 138 140 255
2.17105 0.559273 3.69787 0 0 0 114 129 133 255
-0.900722 0.585231 4.11429 0 0 0 24 52 91 255
2.24095 0.557769 3.68079 0 0 0 139 136 137 255
2.32091 0.559763 3.67355 0 0 0 93 103 105 255
2.35667 0.559421 3.68317 0 0 0 140 141 143 255
-0.955757 0.592544 4.16835 0 0 0 33 58 91 255
1.04621 0.625246 4.71801 0 0 0 71 73 73 255
-0.493706 0.603748 4.08755 0 0 0 84 89 109 255
-0.581818 0.615263 4.10273 0 0 0 53 59 75 255
-0.985466 0.652991 4.19675 0 0 0 127 129 132 255
-0.366691 0.641991 4.21043 0 0 0 36 66 115 255
-0.484541 0.651184 4.07054 0 0 0 91 90 94 255
-0.579715 0.665595 4.09608 0 0 0 61 68 87 255
-0.870855 0.678467 4.10367 0 0 0 56 60 71 255
-0.334608 0.680379 4.23159 0 0 0 116 116 118 255
-0.951212 0.684648 4.16701 0 0 0 37 42 54 255
0.549703 0.710572 4.6376 0 0 0 85 123 102 255
-1.01189 0.693316 4.21205 0 0 0 88 95 105 255
-0.433431 0.686714 4.14534 0 0 0 151 158 159 255
1.07246 0.730464 4.75645 0 0 0 127 137 136 255
-0.742948 0.696624 4.06688 0 0 0 123 125 141 255
-0.401277 0.718734 4.17805 0 0 0 132 140 162 255
0.837533 0.747433 4.61095 0 0 0 65 109 78 255
-0.875863 0.717996 4.101 0 0 0 122 125 129 255
-0.643688 0.717283 4.07059 0 0 0 136 142 163 255
-0.335496 0.733347 4.2335 0 0 0 113 116 127 255
-0.551208 0.747716 4.08947 0 0 0 141 150 171 255
-0.515936 0.746174 4.10636 0 0 0 152 152 158 255
2.25591 0.714889 3.68593 0 0 0 79 76 68 255
2.38145 0.719525 3.70267 0 0 0 86 76 66 255
-0.787438 0.757311 4.06104 0 0 0 78 82 95 255
-0.690237 0.767406 4.07716 0 0 0 131 136 162 255
-0.447236 0.772284 4.1429 0 0 0 70 74 90 255
-1.00655 0.781256 4.2218 0 0 0 130 137 137 255
-0.333818 0.786452 4.24258 0 0 0 60 71 94 255
-0.300765 0.817806 4.29421 0 0 0 97 106 117 255
-0.31768 0.815542 4.26573 0 0 0 127 132 153 255
2.24953 0.761989 3.68629 0 0 0 89 76 57 255
-0.828976 0.808689 4.08852 0 0 0 117 120 126 255
-0.609252 0.805641 4.07817 0 0 0 79 86 105 255
2.3037 0.765358 3.68645 0 0 0 98 74 53 255
-0.627476 0.810548 4.08026 0 0 0 53 63 89 255
-0.381584 0.823291 4.19665 0 0 0 56 73 95 255
-0.444106 0.831085 4.14159 0 0 0 90 89 97 255
-0.808444 0.831617 4.08154 0 0 0 74 80 99 255
-0.359231 0.845878 4.21379 0 0 0 155 157 160 255
0.54883 0.899594 4.65303 0 0 0 71 111 93 255
-0.376937 0.864283 4.19994 0 0 0 82 92 100 255
-0.395123 0.877873 4.18701 0 0 0 156 158 157 255
-0.608213 0.869089 4.07983 0 0 0 103 105 107 255
-0.627486 0.878816 4.08013 0 0 0 67 83 105 255
-0.958125 0.900101 4.17491 0 0 0 79 88 101 255
-0.359352 0.904598 4.20267 0 0 0 73 96 127 255
-0.715091 0.900787 4.07543 0 0 0 35 64 104 255
-0.511098 0.912193 4.10963 0 0 0 157 157 163 255
1.07818 1.00256 4.75439 0 0 0 121 139 124 255
-0.546224 0.924065 4.09358 0 0 0 155 159 160 255
-0.42691 0.930364 4.15702 0 0 0 73 92 125 255
-0.723786 0.930154 4.0766 0 0 0 159 160 161 255
-0.604723 0.939753 4.0794 0 0 0 125 125 125 255
-0.584636 0.938538 4.07936 0 0 0 148 150 152 255
-0.887469 0.957217 4.14165 0 0 0 35 51 92 255
-0.709098 0.950592 4.0786 0 0 0 81 91 108 255
-0.688273 0.964903 4.08224 0 0 0 153 149 159 255
-0.573068 0.976543 4.08785 0 0 0 75 92 137 255
-0.746762 0.977439 4.0773 0 0 0 157 157 157 255
-0.607156 0.988305 4.08046 0 0 0 68 89 127 255
-0.357459 1.01202 4.22926 0 0 0 118 140 158 255
1.17937 1.14008 5.06135 0 0 0 172 176 170 255
-0.863665 1.00236 4.07157 0 0 0 40 50 84 255
-0.693679 1.00532 4.08006 0 0 0 66 84 118 255
1.92995 1.37646 6.59543 0 0 0 144 141 136 255
-0.370322 1.03174 4.22291 0 0 0 52 101 130 255
-0.914158 1.02201 4.10698 0 0 0 135 131 139 255
-0.911383 1.02847 4.15923 0 0 0 145 149 150 255
1.20437 1.17636 5.07691 0 0 0 120 118 116 255
-0.992373 1.03957 4.2015 0 0 0 116 120 122 255
-0.496833 1.04332 4.12163 0 0 0 41 99 138 255
-0.494947 1.0826 4.12083 0 0 0 60 110 140 255
-0.365713 1.11208 4.22462 0 0 0 28 73 120 255
-0.333302 1.12089 4.24927 0 0 0 29 75 113 255
2.07122 1.0492 3.79214 0 0 0 107 110 109 255
2.12006 1.05136 3.76058 0 0 0 117 117 118 255
2.17021 1.05077 3.73948 0 0 0 90 86 85 255
2.10828 1.05731 3.77014 0 0 0 99 103 103 255
2.13863 1.05586 3.76273 0 0 0 97 94 95 255
2.21296 1.0521 3.72761 0 0 0 90 92 91 255
-0.391125 1.13878 4.20446 0 0 0 135 146 156 255
-0.310471 1.14435 4.26762 0 0 0 109 132 145 255
2.25349 1.05088 3.70886 0 0 0 80 81 80 255
2.31414 1.05575 3.70782 0 0 0 103 98 100 255
2.34357 1.05356 3.70943 0 0 0 96 94 96 255
2.2138 1.06887 3.72611 0 0 0 121 124 123 255
2.21219 1.06974 3.72874 0 0 0 121 124 123 255
2.22136 1.08346 3.72469 0 0 0 86 84 84 255
-0.325385 1.18004 4.26568 0 0 0 51 76 100 255
2.16582 1.08857 3.73446 0 0 0 84 89 89 255
2.25158 1.08208 3.70146 0 0 0 83 78 76 255
2.28481 1.07741 3.71332 0 0 0 89 81 83 255
2.3603 1.08619 3.7138 0 0 0 78 78 79 255
2.4806 1.08386 3.73673 0 0 0 73 74 76 255
-0.607939 1.15106 4.06456 0 0 0 24 111 147 255
2.22132 1.08377 3.72596 0 0 0 98 105 102 255
2.40169 1.09111 3.72454 0 0 0 87 92 90 255
-0.863444 1.17532 4.12317 0 0 0 88 116 142 255
-0.628987 1.16642 4.05383 0 0 0 148 149 158 255
2.13481 1.13458 3.76488 0 0 0 102 103 105 255
-0.621562 1.19129 4.06144 0 0 0 66 85 118 255
-0.733 1.20848 4.08931 0 0 0 115 99 115 255
-0.83566 1.22379 4.12163 0 0 0 107 103 113 255
-0.689301 1.21189 4.07679 0 0 0 113 103 118 255
2.07831 1.17232 3.79781 0 0 0 103 105 104 255
2.25541 1.17713 3.71541 0 0 0 106 107 111 255
2.07217 1.20792 3.80371 0 0 0 115 113 112 255
-0.892304 1.36383 4.12837 0 0 0 69 106 141 255
-0.371483 1.38357 4.2193 0 0 0 140 152 167 255
-0.845525 1.36429 4.11767 0 0 0 65 104 137 255
-0.387831 1.39354 4.20119 0 0 0 93 102 120 255
-0.46068 1.38823 4.14739 0 0 0 93 128 163 255
-0.815698 1.39123 4.10708 0 0 0 22 83 123 255
-0.457224 1.4176 4.15456 0 0 0 157 159 160 255
-0.893894 1.4179 4.13726 0 0 0 89 108 133 255
2.46126 1.4045 3.79337 0 0 0 84 82 84 255
2.25145 1.41287 3.79984 0 0 0 112 112 112 255
2.1707 1.43021 3.83099 0 0 0 100 100 100 255
2.31051 1.41643 3.77491 0 0 0 106 106 106 255
2.38519 1.63083 3.98878 0 0 0 191 193 199 255
2.39535 1.62889 3.98083 0 0 0 207 207 208 255
2.33283 -0.21125 3.90913 0 0 0 153 157 163 255
2.36536 -0.211439 3.90207 0 0 0 46 45 44 255
2.23452 -0.165827 3.84786 0 0 0 140 73 68 255
0.949012 -0.243703 4.71129 0 0 0 211 211 212 255
2.34472 0.0145719 3.92372 0 0 0 200 205 207 255
-1.07018 0.132218 4.30949 0 0 0 22 47 84 255
2.04778 0.136877 4.02152 0 0 0 135 135 134 255
2.2142 0.256286 3.72043 0 0 0 121 103 80 255
2.31403 0.249674 3.70547 0 0 0 80 75 76 255
2.40439 0.252956 3.71432 0 0 0 93 77 67 255
-0.721482 0.261238 4.04908 0 0 0 113 104 82 255
-0.864774 0.269154 4.08975 0 0 0 132 125 125 255
-0.562446 0.268655 4.0662 0 0 0 110 103 101 255
-0.480164 0.270996 4.10135 0 0 0 124 109 113 255
2.38362 0.280198 3.70695 0 0 0 91 51 24 255
2.30321 0.30573 3.69594 0 0 0 165 133 81 255
-0.556307 0.311838 4.06567 0 0 0 147 121 91 255
-0.917016 0.327525 4.09227 0 0 0 68 103 139 255
-0.895913 0.35715 4.09125 0 0 0 37 76 112 255
-0.640624 0.355108 4.04937 0 0 0 46 99 143 255
-0.429654 0.348429 4.13933 0 0 0 105 129 149 255
0.408962 0.367037 4.71544 0 0 0 111 87 83 255
0.799451 0.365382 4.57918 0 0 0 144 132 134 255
0.875183 0.374814 4.60247 0 0 0 136 117 121 255
-0.653002 0.390551 4.04869 0 0 0 29 88 75 255
-0.483739 0.388864 4.10526 0 0 0 30 73 108 255
-0.38987 0.397416 4.17259 0 0 0 152 156 156 255
1.98444 0.380292 3.94622 0 0 0 77 84 85 255
2.11978 0.389199 3.72042 0 0 0 89 89 90 255
2.49214 0.387837 3.72365 0 0 0 110 118 121 255
1.93321 0.407943 3.95893 0 0 0 125 120 116 255
-0.589198 0.430931 4.06563 0 0 0 19 93 125 255
2.10183 0.418828 3.73517 0 0 0 58 40 40 255
2.42159 0.409549 3.69672 0 0 0 83 63 45 255
-0.452793 0.440647 4.12376 0 0 0 16 60 108 255
1.97642 0.444202 3.92873 0 0 0 82 76 67 255
2.10298 0.434108 3.73207 0 0 0 58 42 39 255
2.45742 0.42992 3.71023 0 0 0 34 38 37 255
-0.610193 0.453814 4.06082 0 0 0 147 154 154 255
2.14107 0.466021 3.71057 0 0 0 91 65 52 255
-0.547 0.490284 4.07291 0 0 0 104 120 136 255
-0.420628 0.50405 4.14949 0 0 0 78 121 156 255
1.94285 0.497587 4.00349 0 0 0 122 120 119 255
2.10418 0.499939 3.73629 0 0 0 55 39 39 255
1.08292 0.58033 4.76745 0 0 0 126 142 138 255
2.10135 0.527337 3.73638 0 0 0 50 42 47 255
2.21239 0.52754 3.6847 0 0 0 55 39 41 255
2.28096 0.519322 3.67819 0 0 0 46 36 38 255
2.42261 0.526027 3.70192 0 0 0 57 40 43 255
2.5666 0.542797 3.78571 0 0 0 104 112 118 255
1.94968 0.574704 4.0322 0 0 0 108 100 94 255
2.491 0.547183 3.72748 0 0 0 123 130 131 255
2.36361 0.560307 3.67703 0 0 0 108 94 86 255
2.40441 0.549899 3.67718 0 0 0 140 142 143 255
2.42451 0.551198 3.69432 0 0 0 143 143 143 255
-1.0213 0.59074 4.26706 0 0 0 134 137 140 255
-0.921768 0.586519 4.13331 0 0 0 32 55 90 255
2.14719 0.554993 3.70574 0 0 0 107 90 75 255
-0.738244 0.610655 4.06016 0 0 0 155 156 156 255
-0.494616 0.603997 4.08024 0 0 0 88 94 113 255
-0.730477 0.64569 4.06234 0 0 0 154 156 158 255
-0.435388 0.682916 4.14199 0 0 0 151 158 159 255
-0.988451 0.707387 4.16651 0 0 0 133 131 130 255
-0.734678 0.715266 4.06712 0 0 0 156 159 161 255
-0.640136 0.705796 4.0687 0 0 0 137 143 162 255
-0.405475 0.725271 4.17656 0 0 0 155 160 168 255
-0.868513 0.723786 4.08084 0 0 0 109 111 116 255
-0.554883 0.759598 4.08759 0 0 0 158 162 163 255
2.25693 0.722599 3.68647 0 0 0 96 76 55 255
-0.891006 0.772886 4.11179 0 0 0 97 108 118 255
-0.692292 0.760124 4.07484 0 0 0 52 69 110 255
-0.459788 0.775218 4.13599 0 0 0 92 94 101 255
-0.333595 0.785388 4.24289 0 0 0 40 53 83 255
-0.317327 0.810344 4.26753 0 0 0 128 133 152 255
-0.627515 0.81056 4.08028 0 0 0 53 63 89 255
-0.453514 0.834519 4.13544 0 0 0 58 66 93 255
-0.412724 0.884937 4.17149 0 0 0 156 157 159 255
-0.446554 0.895573 4.13758 0 0 0 113 117 126 255
-0.955262 0.913001 4.17034 0 0 0 69 69 80 255
-0.50694 0.911458 4.11244 0 0 0 156 159 158 255
-0.561684 0.928715 4.0861 0 0 0 160 162 163 255
-0.738572 0.931657 4.07324 0 0 0 157 161 163 255
-0.884538 0.945229 4.13354 0 0 0 33 52 93 255
-0.676401 0.960999 4.08673 0 0 0 158 160 161 255
-0.713255 0.964996 4.07876 0 0 0 59 71 96 255
-0.747702 0.975018 4.07717 0 0 0 157 157 157 255
-0.47848 0.99676 4.13042 0 0 0 130 149 169 255
-0.840784 1.00281 4.08992 0 0 0 151 154 153 255
-0.933548 1.02683 4.17852 0 0 0 149 147 151 255
-0.499388 1.03493 4.11978 0 0 0 40 99 138 255
0.955126 1.11601 4.66934 0 0 0 29 77 115 255
0.508472 1.15088 4.70304 0 0 0 69 104 73 255
2.34897 1.06743 3.71373 0 0 0 87 86 87 255
0.800287 1.24743 4.61896 0 0 0 101 120 98 255
-0.625314 1.16179 4.04771 0 0 0 136 140 153 255
-0.867516 1.17011 4.12552 0 0 0 88 116 142 255
-0.725971 1.17492 4.11288 0 0 0 85 131 170 255
-0.783152 1.1896 4.08586 0 0 0 21 85 131 255
-0.828519 1.23751 4.10132 0 0 0 80 84 109 255
-0.904309 1.27197 4.13632 0 0 0 124 142 163 255
-0.628124 1.28984 4.06785 0 0 0 37 76 110 255
-0.857059 1.32244 4.12318 0 0 0 101 111 122 255
-0.721791 1.3233 4.09854 0 0 0 95 108 135 255
-0.843802 1.36477 4.11618 0 0 0 65 104 137 255
2.39948 1.41094 3.78612 0 0 0 98 94 97 255
2.30203 -0.211433 3.91501 0 0 0 45 43 44 255
2.37404 -0.207837 3.87292 0 0 0 45 45 45 255
2.45997 -0.199087 3.92009 0 0 0 47 52 53 255
0.944565 -0.242586 4.72122 0 0 0 211 211 212 255
2.09857 -0.0563301 3.97466 0 0 0 93 84 83 255
2.47486 -0.0449494 3.91636 0 0 0 35 39 39 255
2.34475 0.0104719 3.92608 0 0 0 200 205 207 255
2.47241 0.0365462 3.92859 0 0 0 84 85 92 255
2.35162 0.0899671 3.93026 0 0 0 248 250 254 255
2.35653 0.115502 3.92234 0 0 0 255 252 253 255
2.06692 0.135685 4.03832 0 0 0 63 63 62 255
2.53513 0.140322 3.94692 0 0 0 50 50 54 255
2.31136 0.259184 3.70339 0 0 0 161 144 114 255
-0.469859 0.263075 4.1068 0 0 0 148 121 89 255
2.21616 0.266561 3.71516 0 0 0 95 75 60 255
2.36244 0.261854 3.70538 0 0 0 125 88 55 255
-0.831589 0.281695 4.06706 0 0 0 139 126 66 255
-0.800879 0.275564 4.05831 0 0 0 75 73 68 255
-0.765121 0.271707 4.05357 0 0 0 114 95 99 255
-0.624085 0.270804 4.05252 0 0 0 133 111 101 255
-0.701412 0.284428 4.04848 0 0 0 113 107 101 255
2.21423 0.297593 3.70431 0 0 0 130 106 77 255
2.37606 0.298181 3.7018 0 0 0 138 101 62 255
-0.966669 0.334397 4.1738 0 0 0 95 110 126 255
0.582641 0.374223 4.60125 0 0 0 118 39 43 255
-0.612363 0.399788 4.0611 0 0 0 149 155 160 255
-0.529329 0.398807 4.08174 0 0 0 152 158 165 255
-0.390626 0.395557 4.1722 0 0 0 148 155 155 255
0.603775 0.402871 4.5936 0 0 0 156 147 148 255
1.98481 0.386086 3.94179 0 0 0 112 121 123 255
2.07269 0.397016 3.75154 0 0 0 127 133 134 255
2.12874 0.405966 3.71663 0 0 0 131 137 139 255
2.15365 0.394432 3.70452 0 0 0 40 39 44 255
2.18362 0.395274 3.69457 0 0 0 135 136 140 255
2.28848 0.394266 3.67314 0 0 0 138 147 149 255
2.41991 0.383425 3.69771 0 0 0 125 129 132 255
2.12999 0.413102 3.71653 0 0 0 123 136 140 255
2.42634 0.417127 3.69395 0 0 0 61 43 33 255
-0.599053 0.455755 4.0633 0 0 0 144 156 158 255
-0.983642 0.483463 4.22878 0 0 0 127 120 122 255
2.1473 0.467749 3.70818 0 0 0 61 40 29 255
-0.348165 0.538345 4.22137 0 0 0 32 80 117 255
2.10704 0.514085 3.73407 0 0 0 47 38 40 255
2.21657 0.520418 3.6845 0 0 0 52 36 38 255
2.42522 0.508236 3.69396 0 0 0 39 38 42 255
1.98166 0.550767 3.89232 0 0 0 130 133 131 255
2.28571 0.525017 3.67846 0 0 0 37 39 43 255
-0.934011 0.587539 4.16374 0 0 0 22 55 94 255
-0.856959 0.574067 4.1036 0 0 0 152 152 152 255
-0.634934 0.575178 4.06727 0 0 0 153 155 167 255
-0.450896 0.569484 4.13292 0 0 0 156 158 162 255
2.11981 0.55049 3.72375 0 0 0 137 139 139 255
2.14831 0.551783 3.70517 0 0 0 107 90 75 255
2.19194 0.556331 3.6909 0 0 0 137 141 142 255
2.23454 0.558809 3.68199 0 0 0 142 141 144 255
2.33242 0.550531 3.67383 0 0 0 141 146 147 255
2.38028 0.552893 3.67391 0 0 0 45 41 45 255
2.42797 0.553165 3.69895 0 0 0 143 143 143 255
-0.803508 0.588239 4.08746 0 0 0 29 51 90 255
-0.738608 0.607735 4.06016 0 0 0 156 156 156 255
-0.5758 0.62203 4.11439 0 0 0 104 112 143 255
1.04127 0.646314 4.72281 0 0 0 40 80 74 255
-0.740032 0.62114 4.06192 0 0 0 156 159 158 255
-0.357716 0.656893 4.2141 0 0 0 146 151 161 255
-0.578383 0.667619 4.10675 0 0 0 61 68 87 255
-0.513526 0.661328 4.08482 0 0 0 59 65 84 255
-0.432554 0.666193 4.14367 0 0 0 153 157 159 255
-0.95346 0.686959 4.16268 0 0 0 28 44 82 255
-0.877738 0.676338 4.11491 0 0 0 56 60 71 255
-0.77624 0.67615 4.06339 0 0 0 34 53 94 255
-0.360766 0.680856 4.21133 0 0 0 146 152 161 255
-0.959661 0.700338 4.16381 0 0 0 24 46 91 255
-0.863812 0.704168 4.07784 0 0 0 111 118 126 255
-0.739508 0.7097 4.0677 0 0 0 153 157 160 255
-0.412229 0.728383 4.17302 0 0 0 154 159 171 255
-0.890125 0.763989 4.11048 0 0 0 107 117 124 255
2.27666 0.734855 3.68732 0 0 0 110 80 42 255
-0.680613 0.776213 4.08255 0 0 0 156 158 163 255
-1.00206 0.815222 4.22218 0 0 0 39 52 75 255
-0.383836 0.801629 4.19544 0 0 0 103 118 135 255
-0.287639 0.806121 4.31888 0 0 0 149 153 154 255
-0.62104 0.811879 4.07906 0 0 0 49 59 86 255
-0.334641 0.814501 4.24062 0 0 0 33 58 96 255
-0.808193 0.82709 4.07495 0 0 0 74 80 99 255
-0.616545 0.877651 4.07895 0 0 0 58 75 97 255
-0.410159 0.901381 4.17606 0 0 0 61 73 100 255
-0.742415 0.883088 4.06792 0 0 0 60 75 95 255
-0.496946 0.894147 4.11651 0 0 0 160 162 163 255
-0.87146 0.911736 4.10977 0 0 0 31 51 92 255
-0.562906 0.929145 4.08476 0 0 0 160 162 163 255
-0.862921 0.925176 4.08981 0 0 0 26 52 95 255
-0.664395 0.94847 4.08841 0 0 0 159 162 161 255
-0.615912 0.948439 4.07778 0 0 0 77 85 106 255
-0.797925 0.984399 4.09308 0 0 0 41 55 91 255
1.18612 1.1219 5.06003 0 0 0 168 174 170 255
-0.472886 0.998268 4.13363 0 0 0 137 155 172 255
-0.359374 1.01653 4.22836 0 0 0 122 144 164 255
-0.924794 1.01747 4.16493 0 0 0 148 150 151 255
1.18911 1.22404 5.07261 0 0 0 158 162 161 255
-0.617362 1.07658 4.09063 0 0 0 113 153 184 255
-0.385138 1.14178 4.21203 0 0 0 145 152 158 255
2.12651 1.06368 3.75342 0 0 0 95 95 94 255
2.28577 1.07131 3.71304 0 0 0 86 79 81 255
-0.672797 1.15417 4.07504 0 0 0 23 88 136 255
-0.630634 1.15254 4.07596 0 0 0 142 157 181 255
-0.584205 1.14329 4.07267 0 0 0 9 108 147 255
-0.877497 1.20605 4.15871 0 0 0 142 144 146 255
-0.784738 1.18171 4.10587 0 0 0 19 84 129 255
-0.629213 1.19778 4.0752 0 0 0 46 80 123 255
-0.329427 1.23278 4.25745 0 0 0 162 140 95 255
-0.912405 1.22174 4.14513 0 0 0 82 104 140 255
-0.89202 1.26781 4.11537 0 0 0 124 142 163 255
-0.853968 1.30253 4.09956 0 0 0 124 131 141 255
-0.79185 1.31115 4.09001 0 0 0 29 74 114 255
-0.700014 1.29454 4.07888 0 0 0 111 112 122 255
-0.372356 1.3887 4.21844 0 0 0 152 154 156 255
-0.891911 1.39365 4.16343 0 0 0 84 129 157 255
2.4102 1.41273 3.7808 0 0 0 93 90 94 255
2.39289 1.62949 3.9852 0 0 0 205 206 212 255
2.23999 -0.203402 3.8298 0 0 0 42 41 42 255
2.46435 -0.193575 3.94715 0 0 0 63 43 41 255
2.12382 -0.0510459 3.97106 0 0 0 47 49 51 255
2.4785 0.049925 3.93282 0 0 0 83 86 92 255
-1.06771 0.134065 4.31009 0 0 0 22 47 84 255
-0.65325 0.273455 4.04819 0 0 0 129 110 99 255
2.28907 0.269236 3.69648 0 0 0 118 95 70 255
-0.362101 0.354639 4.20186 0 0 0 124 141 155 255
1.96174 0.338233 4.02773 0 0 0 59 58 59 255
-0.928487 0.353883 4.09946 0 0 0 96 99 113 255
-0.881657 0.331974 4.09612 0 0 0 8 56 107 255
0.768083 0.388384 4.57718 0 0 0 159 159 159 255
2.39638 0.397365 3.68519 0 0 0 122 130 137 255
-0.434478 0.420222 4.13482 0 0 0 149 150 154 255
2.07327 0.397979 3.7508 0 0 0 124 136 136 255
2.18375 0.413199 3.69536 0 0 0 132 143 146 255
2.28735 0.391094 3.67321 0 0 0 143 143 143 255
2.34265 0.437532 3.67019 0 0 0 40 41 47 255
-0.944541 0.469844 4.17479 0 0 0 145 109 78 255
2.26726 0.489788 3.67611 0 0 0 136 136 137 255
-0.455511 0.587637 4.12999 0 0 0 158 160 160 255
1.97713 0.597151 4.03584 0 0 0 45 46 47 255
-0.635377 0.574124 4.06705 0 0 0 153 155 167 255
-0.734951 0.62757 4.06199 0 0 0 156 159 159 255
-0.359837 0.651991 4.21359 0 0 0 113 126 151 255
-0.962077 0.687483 4.15773 0 0 0 22 44 84 255
-0.633 0.685441 4.07091 0 0 0 154 158 160 255
-0.415886 0.679116 4.16332 0 0 0 32 60 105 255
-0.868615 0.72214 4.07644 0 0 0 122 125 129 255
0.78999 0.757956 4.60092 0 0 0 70 110 74 255
-0.743201 0.730277 4.06316 0 0 0 159 160 160 255
-0.408339 0.877443 4.17367 0 0 0 158 161 161 255
-0.870479 0.906943 4.0959 0 0 0 29 52 93 255
-0.766831 0.941318 4.07799 0 0 0 158 161 160 255
-0.985939 1.068 4.22199 0 0 0 23 53 95 255
-0.398242 1.10216 4.19993 0 0 0 3 94 141 255
-0.350796 1.14266 4.24116 0 0 0 146 150 155 255
-0.571292 1.1417 4.0584 0 0 0 4 108 151 255
-0.866429 1.19076 4.12594 0 0 0 141 143 145 255
-0.784769 1.18757 4.10605 0 0 0 20 85 131 255
-0.711312 1.17392 4.06913 0 0 0 126 144 160 255
-0.655605 1.17631 4.08438 0 0 0 33 87 135 255
-0.339387 1.25143 4.24954 0 0 0 164 148 92 255
0.364146 1.40234 4.92735 0 0 0 67 94 81 255
-0.89078 1.27782 4.15372 0 0 0 138 143 146 255
-0.769834 1.27475 4.10672 0 0 0 157 157 158 255
-0.350966 1.27829 4.24266 0 0 0 168 154 103 255
-0.787146 1.30414 4.09753 0 0 0 36 74 113 255
-0.69446 1.29472 4.0182 0 0 0 132 130 139 255
-0.620221 1.29679 4.04168 0 0 0 28 75 118 255
-0.544314 1.30772 4.06924 0 0 0 166 160 125 255
-0.294996 1.46103 4.65304 0 0 0 45 86 123 255
2.1322 -0.0816805 3.97043 0 0 0 65 66 72 255
-0.341928 0.111199 4.60622 0 0 0 26 61 102 255
2.05375 0.164798 4.02808 0 0 0 55 58 57 255
-0.357851 0.368852 4.2075 0 0 0 138 149 156 255
-0.878852 0.407567 4.06168 0 0 0 143 135 116 255
-0.602278 0.392034 4.06299 0 0 0 135 143 155 255
-0.525994 0.397727 4.08385 0 0 0 153 159 162 255
1.97352 0.415356 3.93652 0 0 0 111 113 111 255
-0.921774 0.449545 4.14334 0 0 0 147 142 134 255
-0.723233 0.456222 4.0446 0 0 0 117 125 105 255
-0.350592 0.462346 4.21401 0 0 0 151 153 161 255
1.08818 0.524193 4.79097 0 0 0 93 113 86 255
1.982 0.508981 3.93203 0 0 0 121 128 125 255
-0.980569 0.536486 4.21516 0 0 0 12 59 104 255
0.831162 0.594672 4.60469 0 0 0 156 160 161 255
2.0783 0.55096 3.7498 0 0 0 135 139 140 255
2.20223 0.551981 3.68672 0 0 0 143 142 139 255
-0.621368 0.5891 4.07515 0 0 0 157 159 161 255
-0.45901 0.594956 4.12817 0 0 0 157 160 162 255
1.96788 0.605593 4.03646 0 0 0 50 52 52 255
-0.907953 0.631225 4.12854 0 0 0 150 152 151 255
-0.833625 0.602889 4.10127 0 0 0 146 152 155 255
-0.504674 0.644572 4.067 0 0 0 156 158 158 255
-0.31582 0.688611 4.31029 0 0 0 146 153 154 255
-0.973969 0.699928 4.18924 0 0 0 23 46 87 255
0.946624 0.751739 4.65107 0 0 0 116 146 130 255
1.08776 0.76962 4.77104 0 0 0 48 91 74 255
-0.666946 0.730478 4.07545 0 0 0 27 55 103 255
-1.00769 0.823943 4.22464 0 0 0 23 61 94 255
-0.73019 0.862201 4.07216 0 0 0 37 61 107 255
-0.44849 0.829883 4.1381 0 0 0 107 104 108 255
-0.606429 0.907481 4.08019 0 0 0 158 161 165 255
-0.844214 0.972856 4.10458 0 0 0 152 154 156 255
-0.468438 0.997086 4.13606 0 0 0 137 155 172 255
-0.360381 1.02389 4.22755 0 0 0 127 129 131 255
-0.476985 1.06151 4.131 0 0 0 148 152 158 255
-0.344023 1.20751 4.25304 0 0 0 140 124 104 255
1.11244 1.40735 5.09897 0 0 0 68 108 88 255
-0.519618 1.31584 4.08768 0 0 0 174 163 107 255
-0.948401 1.41496 4.19433 0 0 0 44 79 117 255
-0.507189 1.4361 4.12174 0 0 0 45 86 124 255
1.99559 1.57733 4.10306 0 0 0 110 112 108 255
2.12619 -0.20116 3.97445 0 0 0 84 67 60 255
2.11944 -0.125967 3.97826 0 0 0 72 57 57 255
1.05259 0.111353 4.83221 0 0 0 45 91 64 255
2.04675 0.178694 4.03526 0 0 0 54 54 54 255
2.0781 0.171049 4.01218 0 0 0 40 47 49 255
1.97837 0.27007 4.01892 0 0 0 109 101 98 255
-0.860069 0.424999 4.10722 0 0 0 147 132 77 255
1.95943 0.471225 3.9745 0 0 0 128 132 131 255
-0.40326 0.622833 4.16131 0 0 0 25 57 105 255
-0.8417 0.649366 4.1037 0 0 0 154 153 154 255
-0.68976 0.635753 4.05405 0 0 0 23 56 107 255
1.05557 0.80953 4.74234 0 0 0 50 95 71 255
-0.727922 0.816293 4.06289 0 0 0 73 84 96 255
-0.300098 0.873399 4.27915 0 0 0 18 64 112 255
1.99588 0.904438 4.07931 0 0 0 46 51 52 255
-0.37964 1.21818 4.21848 0 0 0 153 126 99 255
0.383014 1.3856 4.89983 0 0 0 64 93 79 255
-0.8284 1.21307 4.10651 0 0 0 131 129 136 255
-0.452903 1.30947 4.15975 0 0 0 173 160 74 255
-0.335438 1.44315 4.63277 0 0 0 30 78 119 255
-0.873002 1.43288 4.11136 0 0 0 50 80 110 255
2.20006 -0.193421 3.88475 0 0 0 129 93 98 255
2.49921 -0.188516 3.9655 0 0 0 82 87 87 255
2.30648 -0.171789 3.92711 0 0 0 138 103 105 255
2.50598 -0.0972748 3.99141 0 0 0 115 122 124 255
2.50709 -0.0738256 3.96441 0 0 0 81 85 86 255
2.49737 -0.0133783 3.96547 0 0 0 120 127 129 255
2.21318 0.0167167 3.91269 0 0 0 162 162 162 255
2.54701 0.12005 3.9843 0 0 0 113 115 117 255
-0.307752 0.0976998 4.62444 0 0 0 81 87 99 255
2.33984 0.253985 3.70362 0 0 0 155 135 115 255
0.648408 0.248251 4.58458 0 0 0 30 53 50 255
0.920582 0.258167 4.61475 0 0 0 96 101 99 255
0.458809 0.274468 4.67472 0 0 0 121 130 129 255
0.960263 0.268116 4.63264 0 0 0 83 112 100 255
2.34647 0.303265 3.70064 0 0 0 76 50 28 255
-0.734685 0.289489 4.04843 0 0 0 30 47 93 255
2.32006 0.306878 3.69917 0 0 0 153 123 92 255
0.671049 0.317593 4.57578 0 0 0 123 149 104 255
-0.383755 0.320734 4.17865 0 0 0 62 112 157 255
-0.33348 0.40864 4.22799 0 0 0 114 88 103 255
2.51526 0.425514 3.72656 0 0 0 99 98 98 255
-0.422698 0.448589 4.14329 0 0 0 150 151 157 255
2.28021 0.451969 3.67289 0 0 0 86 81 78 255
-0.511401 0.478776 4.08698 0 0 0 40 83 116 255
2.11574 0.525108 3.72655 0 0 0 38 42 46 255
2.22552 0.53771 3.68187 0 0 0 35 40 52 255
2.06477 0.556673 3.75831 0 0 0 75 86 87 255
0.576453 0.68336 4.62585 0 0 0 145 153 151 255
1.10923 0.736485 4.79459 0 0 0 136 148 146 255
1.08887 0.75389 4.77035 0 0 0 134 142 139 255
1.05329 0.767899 4.74085 0 0 0 144 153 153 255
-0.786324 0.756364 4.02256 0 0 0 86 89 99 255
2.33329 0.716065 3.68423 0 0 0 73 61 49 255
-0.818397 0.875815 3.99266 0 0 0 57 71 86 255
-0.814628 0.87813 3.99025 0 0 0 61 67 88 255
1.88466 1.43533 6.97303 0 0 0 147 145 139 255
1.32204 1.39383 6.59055 0 0 0 133 131 125 255
1.23887 1.37491 6.44242 0 0 0 142 141 133 255
0.905851 1.1789 4.64662 0 0 0 95 89 43 255
2.40187 1.04801 3.71675 0 0 0 99 97 98 255
2.42341 1.04507 3.69139 0 0 0 107 115 115 255
2.16723 1.06804 3.73942 0 0 0 125 133 133 255
2.07697 1.08628 3.78203 0 0 0 90 93 94 255
2.21055 1.08802 3.71326 0 0 0 73 75 74 255
2.31052 1.08604 3.70865 0 0 0 87 89 90 255
2.3408 1.08721 3.7068 0 0 0 87 93 93 255
2.20959 1.16574 3.67593 0 0 0 99 102 104 255
2.2285 1.24041 3.66946 0 0 0 109 118 116 255
2.39284 1.23683 3.65888 0 0 0 100 98 98 255
-0.414694 1.39773 4.1812 0 0 0 113 120 126 255
-0.671154 1.36927 3.83357 0 0 0 70 107 143 255
2.1507 1.36865 3.70174 0 0 0 117 120 119 255
2.18779 1.37978 3.67318 0 0 0 119 121 125 255
2.21756 1.39451 3.66043 0 0 0 100 102 104 255
2.49997 -0.00127394 3.96394 0 0 0 138 145 145 255
2.37842 0.313755 3.69907 0 0 0 106 86 56 255
0.609895 0.373856 4.59044 0 0 0 90 60 64 255
-0.722661 0.393652 4.04382 0 0 0 119 120 112 255
-0.509803 0.486943 4.08806 0 0 0 19 83 128 255
2.51299 0.493439 3.71249 0 0 0 68 49 45 255
2.64283 0.90228 3.89584 0 0 0 90 99 99 255
-0.655274 0.937852 4.00586 0 0 0 159 159 164 255
2.39454 1.03472 3.67645 0 0 0 81 82 82 255
-0.688532 1.36323 3.8318 0 0 0 80 126 160 255
-0.510135 1.41851 4.1359 0 0 0 64 114 148 255
2.11414 -0.20083 3.97624 0 0 0 109 98 94 255
2.10789 -0.0120294 3.98643 0 0 0 149 149 147 255
0.678164 0.242354 4.57401 0 0 0 96 99 99 255
2.38119 0.260905 3.70917 0 0 0 155 118 75 255
-0.710153 0.296653 4.04703 0 0 0 143 131 87 255
2.39078 0.319111 3.69681 0 0 0 64 43 28 255
0.88617 0.394696 4.60517 0 0 0 153 144 145 255
1.02768 0.415013 4.69508 0 0 0 131 63 70 255
-0.721548 0.401952 4.04265 0 0 0 145 145 130 255
0.444156 0.426671 4.68248 0 0 0 140 139 139 255
2.34574 0.463751 3.67292 0 0 0 47 44 47 255
-0.468424 0.485005 4.11056 0 0 0 114 121 130 255
2.37141 0.544706 3.67361 0 0 0 41 40 45 255
-0.850057 0.738491 4.03334 0 0 0 93 101 111 255
2.36621 0.730036 3.69622 0 0 0 91 69 44 255
-0.687077 0.788773 4.08136 0 0 0 159 158 161 255
2.36323 0.749759 3.69285 0 0 0 97 71 33 255
-0.568804 0.90921 4.08236 0 0 0 161 161 163 255
0.858115 1.1391 4.62757 0 0 0 152 156 133 255
-0.380209 1.10622 4.21458 0 0 0 9 82 129 255
0.889252 1.17608 4.63608 0 0 0 125 121 72 255
-0.449072 1.39902 4.13219 0 0 0 155 159 162 255
2.4566 1.36688 3.64761 0 0 0 88 84 87 255
2.12936 -0.143102 3.97237 0 0 0 68 46 46 255
2.47649 -0.0663834 3.96299 0 0 0 60 67 75 255
2.21034 0.0152402 3.91228 0 0 0 156 158 160 255
2.47358 0.03948 4.00138 0 0 0 89 89 89 255
2.12883 0.0421994 3.96454 0 0 0 93 96 95 255
-0.356309 0.318853 4.20112 0 0 0 50 96 131 255
2.28816 0.431863 3.67442 0 0 0 141 142 141 255
2.42408 0.453217 3.68019 0 0 0 35 37 41 255
2.20793 0.484284 3.67161 0 0 0 61 36 28 255
0.796557 0.55667 4.59227 0 0 0 154 159 157 255
0.440983 0.601534 4.69701 0 0 0 86 114 109 255
2.39103 0.537777 3.66825 0 0 0 142 145 146 255
1.95845 0.59258 4.00013 0 0 0 59 59 62 255
2.24201 0.545593 3.67974 0 0 0 132 142 144 255
2.28526 0.555511 3.67823 0 0 0 35 36 40 255
-0.450043 0.64527 4.13229 0 0 0 158 159 161 255
-0.40534 0.66527 4.16864 0 0 0 25 59 107 255
-0.632084 0.663062 4.06767 0 0 0 158 158 162 255
-0.743738 0.67484 4.06467 0 0 0 36 50 91 255
-0.288168 0.764778 4.32562 0 0 0 128 132 139 255
-0.481317 0.895214 4.12323 0 0 0 159 161 160 255
-0.795398 0.97188 3.96948 0 0 0 151 150 152 255
-0.402612 1.07966 4.19236 0 0 0 1 98 145 255
-0.590811 1.09858 4.00784 0 0 0 131 148 162 255
-0.525449 1.12215 4.00263 0 0 0 0 106 149 255
-0.331274 1.16494 4.25819 0 0 0 133 134 139 255
2.4062 -0.220925 3.85444 0 0 0 144 144 144 255
2.21515 0.0212665 3.9142 0 0 0 162 162 162 255
1.09168 0.10545 4.95373 0 0 0 50 93 69 255
1.03331 0.31105 4.70235 0 0 0 143 145 133 255
-0.873039 0.397145 4.11589 0 0 0 151 135 77 255
-0.733762 0.38558 4.04459 0 0 0 129 131 116 255
2.2308 0.490798 3.68014 0 0 0 35 37 41 255
0.781352 0.593866 4.58917 0 0 0 157 162 160 255
1.98497 0.529265 3.93848 0 0 0 127 133 136 255
2.38899 0.540924 3.66715 0 0 0 122 130 132 255
-0.611841 0.634734 4.07678 0 0 0 159 160 161 255
-0.404261 0.64133 4.16274 0 0 0 25 59 105 255
0.774262 0.685497 4.59914 0 0 0 67 110 68 255
-0.307808 0.748894 4.30768 0 0 0 153 156 155 255
0.786668 0.820515 4.603 0 0 0 158 163 161 255
-0.419897 0.831981 4.16689 0 0 0 158 160 162 255
-0.627153 0.896373 4.08021 0 0 0 100 113 139 255
-0.451423 0.997444 4.14209 0 0 0 134 150 165 255
-0.364533 1.13682 4.22774 0 0 0 128 140 152 255
-0.534613 1.14423 4.10761 0 0 0 1 98 146 255
-0.347533 1.24694 4.23244 0 0 0 155 139 84 255
-0.303429 1.47264 4.6553 0 0 0 87 119 151 255
-0.450041 1.41862 4.07377 0 0 0 36 80 123 255
2.14403 -0.0568189 3.95836 0 0 0 33 41 36 255
1.07229 0.110526 4.92528 0 0 0 48 91 67 255
-0.359503 0.401691 4.20279 0 0 0 97 69 102 255
1.94699 0.47525 3.98732 0 0 0 90 90 87 255
2.13259 0.538958 3.71558 0 0 0 134 142 146 255
-0.396436 0.643496 4.16805 0 0 0 24 59 106 255
-0.697415 0.693505 4.0582 0 0 0 25 58 111 255
0.804492 0.777026 4.603 0 0 0 77 116 99 255
1.07371 1.39471 5.08988 0 0 0 66 105 77 255
2.21835 -0.209554 3.88612 0 0 0 119 120 121 255
2.10406 -0.186051 3.96913 0 0 0 110 105 104 255
2.10586 -0.130143 3.96981 0 0 0 136 136 133 255
2.10378 -0.108388 3.96303 0 0 0 143 141 139 255
2.12178 -0.0764089 3.95868 0 0 0 72 73 74 255
2.3607 -0.0532661 3.86316 0 0 0 79 83 86 255
0.376252 0.150395 4.80683 0 0 0 28 59 44 255
2.35955 0.249883 3.70853 0 0 0 88 83 82 255
2.28635 0.253936 3.70002 0 0 0 57 56 59 255
2.20443 0.27052 3.71794 0 0 0 62 49 47 255
2.32468 0.27731 3.702 0 0 0 69 58 57 255
2.32759 0.277641 3.7017 0 0 0 69 58 57 255
-0.458064 0.277977 4.11053 0 0 0 73 55 38 255
-0.44431 0.304159 4.12043 0 0 0 97 82 94 255
-0.763454 0.300385 4.05069 0 0 0 131 109 116 255
-0.458217 0.327206 4.11308 0 0 0 63 100 144 255
-0.46661 0.372111 4.11323 0 0 0 137 137 146 255
-0.493726 0.468496 4.09651 0 0 0 128 145 164 255
-0.702362 0.463481 4.04477 0 0 0 120 127 124 255
1.03924 0.511715 4.72123 0 0 0 122 136 112 255
-0.368876 0.505277 4.19681 0 0 0 73 114 148 255
-0.34881 0.521678 4.22191 0 0 0 32 82 125 255
1.09898 0.709778 4.78147 0 0 0 111 118 117 255
0.462297 0.942716 4.71887 0 0 0 101 113 109 255
1.16386 1.25114 5.44019 0 0 0 140 139 133 255
2.41031 1.07242 3.73944 0 0 0 125 129 128 255
-1.04444 1.23598 4.40998 0 0 0 54 99 133 255
-0.9621 1.25741 4.38039 0 0 0 27 84 124 255
-0.843173 1.25232 4.26238 0 0 0 115 96 111 255
-0.997407 1.28424 4.37064 0 0 0 106 105 114 255
2.16213 1.18039 3.77212 0 0 0 99 100 102 255
2.38772 1.18292 3.75298 0 0 0 106 105 109 255
2.37805 1.22593 3.76272 0 0 0 103 103 103 255
2.28254 1.26463 3.74758 0 0 0 103 107 110 255
-1.14413 1.49439 4.59269 0 0 0 59 110 152 255
-0.368347 1.40998 4.21977 0 0 0 160 157 163 255
-1.21236 1.58771 4.695 0 0 0 98 112 134 255
2.23278 1.40076 3.75846 0 0 0 113 113 115 255
-0.444777 0.277985 4.11939 0 0 0 140 103 88 255
-0.465235 0.370848 4.11419 0 0 0 119 135 153 255
0.667366 0.403522 4.57842 0 0 0 124 46 49 255
-0.406599 0.486806 4.15655 0 0 0 98 119 145 255
1.1057 0.593563 4.81664 0 0 0 139 146 146 255
-0.472266 0.662889 4.06758 0 0 0 100 107 129 255
-0.726448 0.884493 4.07352 0 0 0 32 62 104 255
-0.792963 1.21106 4.22363 0 0 0 134 145 147 255
-0.967131 1.25791 4.37814 0 0 0 33 90 128 255
2.38653 1.41754 3.78435 0 0 0 95 95 99 255
2.45441 -0.218481 3.95726 0 0 0 74 74 76 255
2.35518 0.285866 3.70347 0 0 0 149 124 96 255
2.38742 0.301122 3.70222 0 0 0 133 97 66 255
2.42087 0.420584 3.69387 0 0 0 61 34 20 255
-0.649152 0.411395 4.04929 0 0 0 23 91 75 255
-0.288527 0.416592 4.30907 0 0 0 67 117 147 255
2.14907 0.509706 3.71228 0 0 0 136 140 137 255
-0.351498 0.492738 4.21521 0 0 0 125 137 153 255
0.78061 0.553843 4.58876 0 0 0 155 159 160 255
-0.499685 0.750746 4.11119 0 0 0 158 159 160 255
-0.372937 0.786458 4.19883 0 0 0 62 75 103 255
-0.81619 1.22769 4.2374 0 0 0 139 138 140 255
-0.804092 1.21487 4.23249 0 0 0 137 144 146 255
2.39893 1.41554 3.7962 0 0 0 98 92 97 255
2.1452 -0.204702 3.95495 0 0 0 47 44 45 255
2.26702 -0.206542 3.85618 0 0 0 42 40 39 255
2.13884 -0.213089 3.9676 0 0 0 56 55 55 255
2.13663 -0.112212 3.95775 0 0 0 39 41 40 255
2.28611 0.284286 3.69492 0 0 0 158 127 80 255
2.40807 0.389928 3.68786 0 0 0 119 136 144 255
2.32981 0.428332 3.67392 0 0 0 56 43 41 255
2.3706 0.442326 3.67393 0 0 0 134 144 147 255
-0.640561 0.420212 4.05121 0 0 0 37 102 91 255
-0.574122 0.440539 4.06873 0 0 0 114 141 165 255
2.41088 0.481615 3.67869 0 0 0 36 40 43 255
1.96822 0.511586 3.90422 0 0 0 109 111 110 255
0.831378 0.567183 4.60389 0 0 0 157 162 160 255
1.08478 0.599896 4.77239 0 0 0 144 149 147 255
-0.532963 0.763937 4.09598 0 0 0 97 117 135 255
0.951286 1.09176 4.66628 0 0 0 29 80 119 255
0.535738 1.23517 4.67375 0 0 0 149 152 151 255
-0.38314 1.42464 4.30195 0 0 0 28 78 122 255
2.39648 1.42179 3.79609 0 0 0 95 95 104 255
2.43946 -0.220296 3.9488 0 0 0 60 61 61 255
-0.304825 0.133367 4.53163 0 0 0 25 66 103 255
0.381194 0.0993457 4.79184 0 0 0 61 83 76 255
2.25487 0.290497 3.70653 0 0 0 140 105 63 255
1.02814 0.282507 4.69699 0 0 0 113 129 108 255
2.1168 0.413426 3.72486 0 0 0 45 49 59 255
-0.418064 0.411958 4.14779 0 0 0 129 141 148 255
-0.323739 0.418295 4.23618 0 0 0 149 130 136 255
-0.339169 0.473736 4.22542 0 0 0 147 151 157 255
2.21745 0.554752 3.68502 0 0 0 139 142 142 255
-0.298417 0.740113 4.32379 0 0 0 152 152 152 255
-0.437614 0.876639 4.14433 0 0 0 157 160 159 255
-0.346451 1.1714 4.25223 0 0 0 144 142 144 255
-0.31024 1.44854 4.62156 0 0 0 32 76 114 255
2.41058 -0.191023 3.85882 0 0 0 88 44 45 255
2.41642 -0.119368 3.86715 0 0 0 34 33 35 255
2.39724 -0.0389501 3.83737 0 0 0 35 37 41 255
2.30748 0.00252916 3.88494 0 0 0 128 130 129 255
2.33592 0.0888081 3.92807 0 0 0 186 188 190 255
1.08786 0.146664 4.84539 0 0 0 49 94 67 255
-0.347043 0.168151 4.52864 0 0 0 6 57 103 255
2.08011 0.445746 3.73656 0 0 0 134 137 137 255
1.94557 0.476008 3.88283 0 0 0 133 136 135 255
0.73493 0.690108 4.59408 0 0 0 62 108 73 255
-0.324929 0.705824 4.2519 0 0 0 153 155 157 255
0.807145 0.825638 4.59927 0 0 0 160 162 162 255
2.24478 0.737463 3.68759 0 0 0 54 44 38 255
2.27527 -0.161063 3.83525 0 0 0 140 105 100 255
2.49716 -0.0154267 3.98011 0 0 0 108 115 113 255
2.22728 0.0195718 3.9081 0 0 0 169 166 167 255
2.5517 0.13058 4.03009 0 0 0 89 93 94 255
-0.981374 0.131594 4.1476 0 0 0 47 61 76 255
-3.07696 0.162283 6.43812 0 0 0 49 45 43 255
0.55507 0.243798 4.60053 0 0 0 35 59 57 255
0.93606 0.25652 4.62181 0 0 0 54 87 82 255
2.47147 0.279903 3.73621 0 0 0 89 70 78 255
0.940096 0.334187 4.62874 0 0 0 143 146 143 255
2.36412 0.303939 3.69994 0 0 0 157 124 73 255
-0.91064 0.326828 4.09323 0 0 0 91 102 119 255
-0.462574 0.342909 4.11387 0 0 0 6 68 120 255
1.0288 0.376219 4.69824 0 0 0 107 47 57 255
-0.571575 0.383917 4.0714 0 0 0 45 80 108 255
2.55642 0.37528 3.7638 0 0 0 64 72 75 255
2.48881 0.385419 3.7223 0 0 0 119 128 132 255
