ply
format ascii 1.0
comment VCGLIB generated
element vertex 1027
property float x
property float y
property float z
property float nx
property float ny
property float nz
property uchar red
property uchar green
property uchar blue
property uchar alpha
element face 0
property list uchar int vertex_indices
end_header
0.467677 0.418792 4.66137 0 0 0 134 96 103 255
0.507884 0.41776 4.64304 0 0 0 128 48 58 255
0.657552 0.417328 4.57879 0 0 0 165 114 121 255
1.00503 0.420415 4.66828 0 0 0 140 58 57 255
1.01009 0.41934 4.6745 0 0 0 155 85 82 255
-0.311504 0.392294 4.26469 0 0 0 65 90 109 255
0.638041 0.42269 4.58387 0 0 0 108 57 61 255
0.698886 0.419558 4.57268 0 0 0 135 55 57 255
0.800987 0.424546 4.57958 0 0 0 134 114 113 255
0.922502 0.423801 4.61321 0 0 0 107 66 66 255
0.575149 0.42502 4.60167 0 0 0 109 80 76 255
0.762684 0.421885 4.57362 0 0 0 140 48 52 255
0.834399 0.4281 4.58722 0 0 0 139 56 63 255
0.866007 0.428054 4.59748 0 0 0 144 48 57 255
0.655543 0.431501 4.57949 0 0 0 152 60 63 255
0.687377 0.435332 4.57536 0 0 0 154 132 132 255
-0.304576 0.435444 4.27678 0 0 0 34 83 119 255
-0.3047 0.453834 4.27872 0 0 0 55 105 135 255
0.501188 0.52477 4.65798 0 0 0 123 160 146 255
0.922679 0.531453 4.62631 0 0 0 132 153 149 255
0.499243 0.554 4.65582 0 0 0 61 78 75 255
0.876259 0.539788 4.61127 0 0 0 140 156 150 255
0.682547 0.554546 4.57629 0 0 0 148 169 163 255
0.5007 0.566577 4.65485 0 0 0 54 78 69 255
0.755432 0.556507 4.59126 0 0 0 131 153 146 255
1.02862 0.575431 4.70807 0 0 0 53 108 90 255
1.05194 0.568909 4.71664 0 0 0 58 91 76 255
0.387364 0.589903 4.74863 0 0 0 91 115 111 255
0.451289 0.569252 4.68554 0 0 0 95 134 130 255
0.714293 0.561791 4.58619 0 0 0 161 167 166 255
0.956531 0.566333 4.6376 0 0 0 156 161 159 255
0.912678 0.573877 4.62192 0 0 0 143 167 163 255
0.554487 0.591858 4.63915 0 0 0 107 139 131 255
0.498149 0.590871 4.65835 0 0 0 151 156 154 255
0.532629 0.608914 4.64457 0 0 0 115 152 149 255
0.943065 0.608688 4.63626 0 0 0 151 158 158 255
0.750642 0.619312 4.58897 0 0 0 156 167 164 255
0.833048 0.628533 4.60142 0 0 0 104 120 104 255
-0.294424 0.634319 4.34295 0 0 0 113 134 153 255
-0.308917 0.673918 4.32391 0 0 0 115 122 125 255
1.05085 0.763739 4.68669 0 0 0 108 141 127 255
-0.307882 0.719051 4.32146 0 0 0 104 110 122 255
0.827412 0.768674 4.60692 0 0 0 70 115 86 255
0.916514 0.791127 4.62972 0 0 0 139 170 157 255
0.737439 0.804385 4.60177 0 0 0 82 133 112 255
-0.305017 0.770143 4.31403 0 0 0 72 79 96 255
0.925382 0.835226 4.62806 0 0 0 124 146 143 255
0.869542 0.83385 4.61759 0 0 0 161 168 166 255
0.826497 0.857415 4.60295 0 0 0 135 141 132 255
0.850415 0.855666 4.6103 0 0 0 154 164 158 255
0.739073 0.869271 4.59776 0 0 0 134 164 160 255
0.928954 0.886063 4.63397 0 0 0 78 125 99 255
0.498891 0.906737 4.67982 0 0 0 145 152 149 255
1.0243 0.935597 4.70352 0 0 0 120 149 126 255
0.78407 0.932922 4.61217 0 0 0 101 143 128 255
0.464566 0.936588 4.702 0 0 0 127 142 138 255
0.568782 0.937694 4.64206 0 0 0 137 147 144 255
1.89011 1.39322 6.71471 0 0 0 136 132 125 255
1.89768 1.35861 6.50165 0 0 0 139 136 128 255
2.08027 1.40671 6.47381 0 0 0 109 104 95 255
2.16591 1.37303 6.29175 0 0 0 145 142 137 255
1.89188 1.46971 6.74263 0 0 0 104 100 97 255
0.96766 1.0421 4.67814 0 0 0 70 122 140 255
0.859777 1.05377 4.63056 0 0 0 72 91 101 255
0.92316 1.07955 4.654 0 0 0 117 136 96 255
0.467199 1.1798 4.7237 0 0 0 102 108 113 255
0.964326 1.17544 4.67375 0 0 0 109 97 42 255
0.699932 1.17394 4.61946 0 0 0 108 107 108 255
0.745464 1.175 4.61517 0 0 0 123 111 128 255
0.858559 1.17802 4.63347 0 0 0 117 99 40 255
0.453789 1.23509 4.72833 0 0 0 84 87 95 255
0.996208 1.34573 4.70836 0 0 0 138 162 150 255
0.905434 1.34559 4.66551 0 0 0 80 129 106 255
0.999596 1.36861 4.70622 0 0 0 152 161 157 255
0.907185 1.38122 4.66061 0 0 0 144 174 163 255
0.315 0.0635122 4.88804 0 0 0 145 147 146 255
1.13373 0.0727506 4.94388 0 0 0 87 105 95 255
0.472575 0.235436 4.65201 0 0 0 134 137 136 255
0.90233 0.237731 4.60523 0 0 0 135 152 151 255
0.955896 0.233387 4.62442 0 0 0 118 141 138 255
0.517382 0.258008 4.6207 0 0 0 137 139 138 255
0.707231 0.243061 4.57699 0 0 0 83 112 104 255
0.778363 0.240753 4.57147 0 0 0 133 140 139 255
0.845986 0.336985 4.59415 0 0 0 98 79 77 255
0.911785 0.337917 4.61139 0 0 0 134 141 125 255
0.561119 0.367821 4.61362 0 0 0 120 53 56 255
0.668154 0.355465 4.57935 0 0 0 101 75 77 255
0.968381 0.360487 4.64541 0 0 0 155 151 151 255
-0.317813 0.365788 4.25822 0 0 0 95 112 131 255
0.637029 0.381776 4.58515 0 0 0 159 159 159 255
0.751427 0.380665 4.57251 0 0 0 178 131 142 255
0.456004 0.406628 4.66641 0 0 0 86 72 73 255
1.0026 0.409235 4.66712 0 0 0 137 70 66 255
-0.30532 0.400041 4.27375 0 0 0 19 85 129 255
0.683408 0.416594 4.57467 0 0 0 142 50 53 255
0.852267 0.413186 4.59092 0 0 0 141 89 96 255
0.845967 0.532004 4.60399 0 0 0 66 112 83 255
0.922561 0.536616 4.62605 0 0 0 132 153 149 255
0.683327 0.559224 4.57741 0 0 0 148 169 163 255
0.755454 0.556564 4.59129 0 0 0 131 153 146 255
1.02981 0.585612 4.70848 0 0 0 117 156 147 255
0.388567 0.603631 4.74474 0 0 0 128 146 144 255
0.554955 0.610445 4.63816 0 0 0 154 163 160 255
0.749395 0.613166 4.5886 0 0 0 153 167 167 255
0.816056 0.614692 4.59995 0 0 0 161 164 162 255
-0.301302 0.643758 4.33372 0 0 0 146 157 165 255
0.914719 0.787625 4.62867 0 0 0 111 156 132 255
-0.293622 0.788586 4.32432 0 0 0 150 159 160 255
0.854774 0.845864 4.6119 0 0 0 165 170 168 255
0.740976 0.866373 4.599 0 0 0 134 164 160 255
1.01784 0.938473 4.70206 0 0 0 122 146 124 255
0.573398 0.937239 4.64511 0 0 0 155 164 161 255
1.72485 1.45828 6.71201 0 0 0 115 114 108 255
1.87378 1.39885 6.36062 0 0 0 88 85 83 255
2.14078 1.37002 6.2844 0 0 0 128 125 118 255
0.925511 1.12607 4.65436 0 0 0 48 82 100 255
0.463848 1.19828 4.71995 0 0 0 89 99 114 255
0.961143 1.18098 4.67004 0 0 0 98 93 54 255
0.990036 1.35045 4.70767 0 0 0 128 154 141 255
0.911251 1.36016 4.66575 0 0 0 142 173 160 255
-0.323874 0.100853 4.60867 0 0 0 35 74 110 255
0.386845 0.115549 4.81259 0 0 0 28 57 42 255
0.390684 0.142681 4.8091 0 0 0 48 86 64 255
0.472174 0.228783 4.65997 0 0 0 107 136 128 255
0.592795 0.234756 4.60309 0 0 0 141 154 149 255
0.719097 0.21627 4.57145 0 0 0 68 108 74 255
0.7851 0.223658 4.57774 0 0 0 84 112 107 255
0.530008 0.263333 4.61676 0 0 0 123 132 131 255
0.449591 0.343304 4.68072 0 0 0 132 139 131 255
1.00978 0.339044 4.67899 0 0 0 118 68 71 255
0.63971 0.372935 4.58515 0 0 0 160 162 157 255
-0.314961 0.36622 4.26238 0 0 0 75 122 156 255
0.868164 0.414039 4.59738 0 0 0 122 53 62 255
0.654163 0.418204 4.58018 0 0 0 165 114 121 255
0.841896 0.426401 4.58823 0 0 0 142 59 65 255
-0.296085 0.448082 4.2879 0 0 0 19 80 124 255
0.500273 0.534654 4.65716 0 0 0 143 157 153 255
1.11762 0.544338 4.84184 0 0 0 80 104 80 255
0.853803 0.551776 4.60484 0 0 0 162 168 166 255
0.936264 0.548008 4.62757 0 0 0 157 163 161 255
0.690683 0.559692 4.58072 0 0 0 157 169 169 255
0.760225 0.562259 4.59234 0 0 0 151 169 167 255
0.389736 0.594452 4.74508 0 0 0 126 145 145 255
0.943206 0.584068 4.63511 0 0 0 159 164 162 255
1.03183 0.594124 4.70777 0 0 0 125 164 155 255
0.770472 0.607513 4.59177 0 0 0 164 169 167 255
0.486442 0.620489 4.67034 0 0 0 53 86 78 255
0.823768 0.634586 4.59744 0 0 0 91 102 87 255
-0.310783 0.661733 4.32233 0 0 0 156 159 160 255
0.553524 0.688748 4.63546 0 0 0 154 164 162 255
0.822729 0.759437 4.60151 0 0 0 71 117 87 255
1.05076 0.763701 4.6865 0 0 0 108 141 127 255
0.946257 0.790184 4.64414 0 0 0 159 166 164 255
-0.291809 0.784332 4.32948 0 0 0 142 149 153 255
0.754259 0.821752 4.60626 0 0 0 167 172 170 255
0.934317 0.827669 4.63681 0 0 0 154 166 164 255
0.855318 0.838549 4.61281 0 0 0 163 171 168 255
0.743232 0.845177 4.60229 0 0 0 157 174 171 255
0.47115 0.907475 4.69957 0 0 0 140 154 153 255
0.572561 0.920223 4.64905 0 0 0 158 166 166 255
1.88651 1.37672 6.6416 0 0 0 155 151 143 255
1.8972 1.36018 6.5152 0 0 0 139 136 128 255
2.1425 1.36871 6.2847 0 0 0 128 125 118 255
1.73433 1.45023 6.71233 0 0 0 124 123 117 255
1.87709 1.39718 6.34671 0 0 0 82 80 79 255
0.963822 1.10031 4.67069 0 0 0 28 83 125 255
0.443912 1.17251 4.7462 0 0 0 131 138 137 255
0.445578 1.15745 4.75477 0 0 0 113 133 124 255
0.938701 1.11789 4.65848 0 0 0 43 81 106 255
0.569481 1.15401 4.65584 0 0 0 137 154 151 255
0.86301 1.18222 4.6324 0 0 0 102 96 67 255
0.444151 1.26235 4.74076 0 0 0 129 136 135 255
0.575034 1.26896 4.66101 0 0 0 143 146 145 255
0.639804 1.25715 4.62443 0 0 0 91 116 85 255
0.331863 1.40365 4.99507 0 0 0 75 92 82 255
0.915833 1.35909 4.66742 0 0 0 154 161 159 255
0.333075 0.0892682 4.87629 0 0 0 72 99 83 255
1.11526 0.0950481 4.94177 0 0 0 66 101 78 255
0.528096 0.386223 4.63481 0 0 0 164 152 156 255
0.78102 0.374613 4.57883 0 0 0 164 167 166 255
0.835984 0.390346 4.58846 0 0 0 108 74 74 255
1.06858 0.549435 4.7312 0 0 0 65 104 75 255
0.818363 0.573421 4.59317 0 0 0 162 169 169 255
0.92484 0.570804 4.62379 0 0 0 157 167 164 255
0.68437 0.581913 4.57835 0 0 0 154 170 167 255
0.793259 0.580082 4.60016 0 0 0 165 169 168 255
0.55301 0.668555 4.63869 0 0 0 158 163 161 255
-0.321282 0.653444 4.31278 0 0 0 160 162 163 255
0.933756 0.805725 4.63971 0 0 0 160 167 167 255
0.824787 0.825713 4.60571 0 0 0 170 173 172 255
0.746999 0.842244 4.6036 0 0 0 157 174 172 255
0.574545 0.897888 4.65708 0 0 0 160 166 164 255
1.75917 1.46239 6.69873 0 0 0 103 102 100 255
0.442613 1.16124 4.75442 0 0 0 124 135 133 255
0.713916 1.14439 4.61827 0 0 0 140 155 150 255
0.408485 1.23549 4.77849 0 0 0 123 143 132 255
0.716237 1.26656 4.62163 0 0 0 145 150 148 255
0.340195 1.39229 4.99661 0 0 0 79 94 81 255
1.11665 0.0902839 4.93453 0 0 0 64 101 80 255
-0.344626 0.1449 4.56578 0 0 0 17 69 115 255
0.519128 0.245698 4.62096 0 0 0 142 139 140 255
0.781197 0.251038 4.57256 0 0 0 150 155 154 255
0.907524 0.245848 4.60937 0 0 0 139 150 151 255
0.641828 0.36542 4.58384 0 0 0 156 160 153 255
1.07541 0.534812 4.74326 0 0 0 82 110 73 255
0.444951 0.616644 4.70223 0 0 0 141 153 156 255
0.556235 0.645198 4.63604 0 0 0 157 163 162 255
0.765654 0.835115 4.60906 0 0 0 168 173 172 255
0.475667 0.885101 4.69343 0 0 0 142 154 154 255
2.10862 1.38253 6.43098 0 0 0 133 130 122 255
0.940115 1.05643 4.66432 0 0 0 42 93 122 255
0.937411 1.10679 4.65856 0 0 0 47 83 104 255
0.881469 1.16148 4.63544 0 0 0 169 149 74 255
0.420202 1.24146 4.76187 0 0 0 135 141 141 255
0.35797 0.128249 4.87459 0 0 0 59 95 67 255
1.02245 0.112722 4.64702 0 0 0 57 102 74 255
-0.348159 0.129622 4.54732 0 0 0 19 70 118 255
-0.316727 0.583014 4.26639 0 0 0 27 81 121 255
0.457093 1.16763 4.73803 0 0 0 134 142 142 255
2.31834 -0.220315 3.90421 0 0 0 55 55 55 255
2.35625 -0.218569 3.89791 0 0 0 66 57 63 255
2.33568 -0.2097 3.90244 0 0 0 153 157 163 255
2.24474 -0.165484 3.83701 0 0 0 138 84 84 255
2.37626 -0.167715 3.8362 0 0 0 127 62 57 255
2.33002 -0.144373 3.85247 0 0 0 167 64 83 255
2.09846 -0.14878 3.97842 0 0 0 147 143 140 255
2.33992 -0.111224 3.92719 0 0 0 95 96 98 255
2.35425 -0.112823 3.90815 0 0 0 100 98 100 255
2.32262 -0.0782644 3.90859 0 0 0 55 55 62 255
2.13646 -0.0744084 3.95804 0 0 0 70 71 78 255
2.50404 -0.0488752 3.9934 0 0 0 39 44 42 255
2.34228 0.00847923 3.92205 0 0 0 200 205 207 255
2.34777 0.0720684 3.93086 0 0 0 250 252 254 255
2.35896 0.115422 3.91558 0 0 0 253 251 252 255
2.05798 0.132119 3.98058 0 0 0 123 121 117 255
2.54818 0.13484 3.96352 0 0 0 54 53 58 255
-1.02837 0.189447 4.26319 0 0 0 68 78 91 255
2.30856 0.2533 3.69991 0 0 0 122 112 94 255
-0.493131 0.254948 4.09655 0 0 0 20 46 86 255
-0.476984 0.254534 4.10725 0 0 0 99 103 125 255
2.22368 0.257753 3.71222 0 0 0 139 109 74 255
2.26578 0.258917 3.70102 0 0 0 114 99 81 255
2.4079 0.254524 3.70874 0 0 0 91 78 70 255
-0.651451 0.265049 4.05065 0 0 0 123 104 95 255
-0.625119 0.262152 4.05427 0 0 0 129 107 101 255
-0.510672 0.26001 4.08697 0 0 0 125 105 96 255
-0.445721 0.259965 4.12138 0 0 0 83 87 115 255
0.494622 0.252184 4.64193 0 0 0 100 111 110 255
-0.868487 0.263242 4.09592 0 0 0 100 102 114 255
-0.804946 0.267781 4.06629 0 0 0 97 97 97 255
-0.775167 0.259907 4.06046 0 0 0 89 75 84 255
-0.729103 0.266686 4.05276 0 0 0 106 100 99 255
-0.694689 0.26804 4.05216 0 0 0 140 126 102 255
-0.562521 0.26552 4.06826 0 0 0 110 103 101 255
0.885966 0.259671 4.59912 0 0 0 62 76 74 255
2.38487 0.272524 3.70319 0 0 0 100 56 21 255
-0.843078 0.271743 4.08103 0 0 0 120 118 85 255
-0.546165 0.274392 4.07178 0 0 0 134 110 79 255
-0.876243 0.281304 4.09549 0 0 0 126 125 102 255
-0.803943 0.280526 4.06468 0 0 0 128 122 98 255
-0.608809 0.277879 4.05595 0 0 0 122 102 59 255
2.23215 0.283987 3.70289 0 0 0 106 68 33 255
2.27029 0.282209 3.69264 0 0 0 160 122 66 255
2.31137 0.281016 3.69513 0 0 0 87 49 40 255
2.38251 0.280942 3.70219 0 0 0 91 51 24 255
-0.780683 0.290684 4.05737 0 0 0 36 44 62 255
-0.489734 0.289643 4.09565 0 0 0 77 63 50 255
0.719216 0.28486 4.56659 0 0 0 76 95 91 255
-0.867216 0.294534 4.09075 0 0 0 78 76 46 255
-0.821938 0.296946 4.06877 0 0 0 38 39 53 255
-0.68276 0.298513 4.0462 0 0 0 38 39 43 255
-0.641568 0.296595 4.04785 0 0 0 89 71 48 255
-0.605285 0.294981 4.0524 0 0 0 59 57 62 255
-0.573721 0.298292 4.0581 0 0 0 23 46 93 255
-0.545533 0.287914 4.06879 0 0 0 65 47 33 255
-0.50762 0.29601 4.08138 0 0 0 140 115 87 255
2.40061 0.296856 3.69579 0 0 0 91 74 60 255
-0.483271 0.306194 4.09604 0 0 0 98 76 83 255
2.20575 0.302805 3.69822 0 0 0 108 89 64 255
2.25724 0.307389 3.6912 0 0 0 153 118 70 255
2.27839 0.308279 3.68388 0 0 0 135 96 61 255
2.30322 0.30437 3.69163 0 0 0 165 133 81 255
-0.861847 0.314172 4.08715 0 0 0 86 93 132 255
-0.783597 0.316034 4.05565 0 0 0 87 84 115 255
-0.726683 0.315015 4.04728 0 0 0 83 94 128 255
-0.65302 0.316293 4.04395 0 0 0 128 111 86 255
-0.620484 0.312827 4.04941 0 0 0 145 116 97 255
-0.538968 0.312562 4.06957 0 0 0 113 106 101 255
-1.00741 0.326746 4.22857 0 0 0 81 104 136 255
0.61147 0.32824 4.59032 0 0 0 138 142 131 255
0.758261 0.324957 4.57888 0 0 0 141 155 125 255
1.99133 0.337748 3.95639 0 0 0 70 75 76 255
0.583605 0.352981 4.60131 0 0 0 178 129 137 255
0.601848 0.3506 4.59336 0 0 0 121 77 78 255
-0.491254 0.354123 4.09922 0 0 0 54 109 155 255
-0.38925 0.350358 4.17777 0 0 0 14 87 133 255
0.820196 0.358377 4.5856 0 0 0 164 123 128 255
1.02875 0.360148 4.69872 0 0 0 172 130 136 255
1.10366 0.362018 4.74833 0 0 0 91 101 86 255
-0.913972 0.360118 4.12073 0 0 0 35 72 108 255
-0.75858 0.358392 4.05213 0 0 0 22 78 129 255
-0.634797 0.360138 4.05092 0 0 0 122 132 142 255
-0.610676 0.359765 4.06354 0 0 0 9 73 123 255
-0.588114 0.361436 4.07066 0 0 0 96 119 159 255
1.94614 0.361031 3.96769 0 0 0 86 81 79 255
-0.884543 0.365396 4.10307 0 0 0 76 99 128 255
-0.516194 0.364028 4.08631 0 0 0 7 73 123 255
-0.33686 0.369975 4.23062 0 0 0 101 88 100 255
1.05084 0.376654 4.70956 0 0 0 151 125 132 255
-0.490964 0.380719 4.10373 0 0 0 55 87 113 255
0.873437 0.383193 4.60199 0 0 0 157 138 142 255
1.95713 0.374248 3.9594 0 0 0 117 119 118 255
-0.55958 0.384071 4.07838 0 0 0 26 81 117 255
-0.530649 0.386135 4.08119 0 0 0 140 150 161 255
-0.410852 0.382955 4.15587 0 0 0 73 89 111 255
1.98591 0.376704 3.94023 0 0 0 112 117 117 255
-0.636665 0.383893 4.05027 0 0 0 68 97 95 255
-0.481799 0.386543 4.11103 0 0 0 25 65 100 255
-0.439779 0.393413 4.13405 0 0 0 36 61 105 255
-0.366491 0.38881 4.19739 0 0 0 78 80 99 255
2.44846 0.382215 3.70166 0 0 0 103 102 105 255
2.4938 0.386774 3.71831 0 0 0 123 130 133 255
2.5677 0.378978 3.78905 0 0 0 79 84 88 255
-0.50223 0.392846 4.09613 0 0 0 33 72 114 255
0.525111 0.404345 4.63021 0 0 0 121 111 114 255
2.06518 0.385759 3.75362 0 0 0 103 107 108 255
2.17153 0.391425 3.69256 0 0 0 132 134 137 255
2.1898 0.388358 3.68742 0 0 0 81 81 81 255
2.27353 0.385365 3.66998 0 0 0 81 83 84 255
2.28792 0.381914 3.66735 0 0 0 88 87 89 255
2.29961 0.388889 3.66487 0 0 0 137 136 137 255
-0.47736 0.405016 4.11232 0 0 0 121 134 152 255
-0.469087 0.406737 4.11612 0 0 0 139 150 165 255
1.05529 0.411381 4.71563 0 0 0 126 90 88 255
1.97214 0.389583 3.94777 0 0 0 73 68 66 255
2.4545 0.398027 3.70697 0 0 0 138 141 140 255
-0.595401 0.410503 4.06593 0 0 0 25 93 124 255
-0.575793 0.410531 4.07223 0 0 0 147 155 163 255
-0.396574 0.411254 4.16644 0 0 0 141 145 164 255
-0.548549 0.423251 4.07533 0 0 0 42 84 121 255
-0.509635 0.415961 4.09069 0 0 0 153 158 160 255
-0.475926 0.421598 4.11077 0 0 0 152 153 157 255
-0.436482 0.419242 4.13383 0 0 0 149 150 154 255
2.10026 0.412112 3.73071 0 0 0 60 39 39 255
2.43411 0.409816 3.69948 0 0 0 61 44 39 255
-0.533717 0.424146 4.07639 0 0 0 81 103 123 255
-0.454372 0.425896 4.12234 0 0 0 63 79 103 255
-0.355521 0.432019 4.20527 0 0 0 103 96 115 255
2.52067 0.411469 3.72215 0 0 0 76 66 67 255
-0.593958 0.430465 4.06614 0 0 0 19 93 125 255
-0.385884 0.438077 4.17081 0 0 0 79 87 98 255
-0.532129 0.437976 4.07504 0 0 0 11 83 127 255
-0.500188 0.439433 4.09611 0 0 0 30 76 115 255
-0.555606 0.444581 4.07137 0 0 0 116 163 192 255
-0.467035 0.444491 4.11524 0 0 0 39 62 90 255
-0.440484 0.447177 4.13022 0 0 0 17 60 109 255
-0.39554 0.445946 4.16239 0 0 0 57 71 108 255
-0.334966 0.452033 4.2295 0 0 0 120 89 112 255
-0.711449 0.449466 4.04627 0 0 0 142 149 136 255
-0.667375 0.44934 4.04797 0 0 0 140 149 148 255
-0.538404 0.460113 4.07145 0 0 0 25 89 126 255
-0.473986 0.45914 4.10901 0 0 0 22 70 125 255
2.10201 0.450291 3.72653 0 0 0 58 39 39 255
-0.665421 0.46659 4.04649 0 0 0 80 95 94 255
-0.627001 0.468072 4.05506 0 0 0 58 94 92 255
-0.574796 0.467185 4.06469 0 0 0 81 103 120 255
-0.417981 0.477029 4.13856 0 0 0 45 84 117 255
2.13925 0.465191 3.70636 0 0 0 91 65 52 255
-1.01701 0.489646 4.25384 0 0 0 110 92 99 255
-0.647188 0.480755 4.04811 0 0 0 84 120 108 255
-0.384503 0.490287 4.17488 0 0 0 73 98 117 255
-0.318582 0.483177 4.25614 0 0 0 31 84 119 255
-0.99573 0.497641 4.25184 0 0 0 108 94 96 255
2.27973 0.471463 3.66688 0 0 0 80 62 54 255
-0.724863 0.492181 4.04225 0 0 0 87 106 123 255
1.96886 0.498245 3.96988 0 0 0 95 96 91 255
2.10211 0.485332 3.73104 0 0 0 67 46 41 255
-0.423044 0.502815 4.14144 0 0 0 60 108 147 255
2.51302 0.480143 3.71982 0 0 0 109 105 106 255
2.11884 0.494572 3.72005 0 0 0 37 43 44 255
2.26873 0.507675 3.67365 0 0 0 87 75 65 255
2.27264 0.506222 3.67278 0 0 0 74 55 41 255
2.294 0.505112 3.67166 0 0 0 60 51 47 255
1.10701 0.573776 4.81302 0 0 0 106 143 126 255
1.95716 0.549727 3.98084 0 0 0 119 116 115 255
2.42349 0.529009 3.68237 0 0 0 64 53 57 255
-0.438505 0.561275 4.14171 0 0 0 145 149 167 255
2.20608 0.539522 3.68094 0 0 0 81 66 56 255
2.21434 0.531486 3.67924 0 0 0 50 37 39 255
-1.01017 0.571503 4.23289 0 0 0 107 113 138 255
-0.885342 0.566371 4.12003 0 0 0 104 117 151 255
-0.840044 0.569334 4.10986 0 0 0 141 145 147 255
2.45296 0.550574 3.70411 0 0 0 101 103 109 255
2.56005 0.544381 3.76875 0 0 0 131 138 138 255
-0.645367 0.57173 4.07515 0 0 0 138 140 171 255
1.95053 0.571719 4.01813 0 0 0 77 67 61 255
2.49707 0.550205 3.72704 0 0 0 129 138 140 255
2.16979 0.558852 3.69328 0 0 0 114 129 133 255
-0.886278 0.583299 4.0856 0 0 0 24 52 91 255
2.23958 0.55734 3.67607 0 0 0 139 136 137 255
2.3194 0.559323 3.66872 0 0 0 93 103 105 255
2.35511 0.55898 3.6783 0 0 0 140 141 143 255
-0.955757 0.592544 4.16835 0 0 0 33 58 91 255
1.04489 0.624923 4.72083 0 0 0 71 73 73 255
-0.488276 0.602867 4.08124 0 0 0 84 89 109 255
-0.58827 0.616731 4.11279 0 0 0 53 59 75 255
-0.985466 0.652991 4.19675 0 0 0 127 129 132 255
-0.370627 0.643728 4.21742 0 0 0 36 66 115 255
-0.481546 0.650451 4.06785 0 0 0 91 90 94 255
-0.584706 0.666575 4.10428 0 0 0 61 68 87 255
-0.858749 0.67804 4.07893 0 0 0 56 60 71 255
-0.338838 0.681876 4.23911 0 0 0 116 116 118 255
-0.945002 0.680459 4.15634 0 0 0 37 42 54 255
0.549288 0.708654 4.63883 0 0 0 85 123 102 255
-0.993845 0.6909 4.1694 0 0 0 88 95 105 255
-0.430469 0.685671 4.14221 0 0 0 151 158 159 255
1.07166 0.730081 4.75767 0 0 0 127 137 136 255
-0.745073 0.696903 4.07121 0 0 0 123 125 141 255
-0.399524 0.717524 4.17665 0 0 0 132 140 162 255
0.83783 0.746997 4.60933 0 0 0 65 109 78 255
-0.865291 0.715649 4.07976 0 0 0 122 125 129 255
-0.647119 0.718089 4.07665 0 0 0 136 142 163 255
-0.337947 0.73415 4.23837 0 0 0 113 116 127 255
-0.551125 0.747373 4.09068 0 0 0 141 150 171 255
-0.520384 0.747073 4.11392 0 0 0 152 152 158 255
2.25452 0.714223 3.68129 0 0 0 79 76 68 255
2.37986 0.71884 3.69788 0 0 0 86 76 66 255
-0.791226 0.757391 4.06746 0 0 0 78 82 95 255
-0.696143 0.769036 4.08648 0 0 0 131 136 162 255
-0.448204 0.772288 4.14552 0 0 0 70 74 90 255
-0.997533 0.77871 4.20161 0 0 0 130 137 137 255
-0.336315 0.787288 4.24753 0 0 0 60 71 94 255
-0.299928 0.81753 4.29403 0 0 0 97 106 117 255
-0.318711 0.815904 4.26844 0 0 0 127 132 153 255
2.24814 0.761255 3.68169 0 0 0 89 76 57 255
-0.834218 0.80924 4.0973 0 0 0 117 120 126 255
-0.611404 0.806078 4.08252 0 0 0 79 86 105 255
2.30223 0.764611 3.68178 0 0 0 98 74 53 255
-0.630315 0.811193 4.08554 0 0 0 53 63 89 255
-0.38037 0.823543 4.19597 0 0 0 56 73 95 255
-0.446879 0.831829 4.14683 0 0 0 90 89 97 255
-0.809046 0.831439 4.08393 0 0 0 74 80 99 255
-0.359311 0.845148 4.21513 0 0 0 155 157 160 255
0.54748 0.898987 4.65649 0 0 0 71 111 93 255
-0.375474 0.86325 4.19896 0 0 0 82 92 100 255
-0.392383 0.876582 4.18417 0 0 0 156 158 157 255
-0.611844 0.870047 4.08619 0 0 0 103 105 107 255
-0.629941 0.879344 4.08489 0 0 0 67 83 105 255
-0.95753 0.898226 4.17547 0 0 0 79 88 101 255
-0.361555 0.904796 4.20724 0 0 0 73 96 127 255
-0.71875 0.901344 4.08184 0 0 0 35 64 104 255
-0.51418 0.912843 4.11534 0 0 0 157 157 163 255
1.07896 1.0012 4.75084 0 0 0 121 139 124 255
-0.545366 0.923365 4.09378 0 0 0 155 159 160 255
-0.434263 0.932495 4.16901 0 0 0 73 92 125 255
-0.727654 0.930816 4.08327 0 0 0 159 160 161 255
-0.610986 0.941511 4.08932 0 0 0 125 125 125 255
-0.583893 0.938058 4.07974 0 0 0 148 150 152 255
-0.887551 0.956635 4.14284 0 0 0 35 51 92 255
-0.713646 0.951553 4.08617 0 0 0 81 91 108 255
-0.693862 0.966294 4.09118 0 0 0 153 149 159 255
-0.573984 0.976512 4.09056 0 0 0 75 92 137 255
-0.750438 0.978654 4.08366 0 0 0 157 157 157 255
-0.611349 0.989514 4.08761 0 0 0 68 89 127 255
-0.360542 1.0122 4.23517 0 0 0 118 140 158 255
1.1793 1.13982 5.05991 0 0 0 172 176 170 255
-0.845643 0.998084 4.0351 0 0 0 40 50 84 255
-0.698071 1.00666 4.0874 0 0 0 66 84 118 255
1.92952 1.376 6.59241 0 0 0 144 141 136 255
-0.371061 1.03124 4.22526 0 0 0 52 101 130 255
-0.905448 1.02059 4.08888 0 0 0 135 131 139 255
-0.913754 1.02909 4.16553 0 0 0 145 149 150 255
1.20429 1.17608 5.07544 0 0 0 120 118 116 255
-0.992373 1.03957 4.2015 0 0 0 116 120 122 255
-0.497093 1.04292 4.12336 0 0 0 41 99 138 255
-0.493713 1.08153 4.12044 0 0 0 60 110 140 255
-0.365044 1.11132 4.22484 0 0 0 28 73 120 255
-0.335207 1.12124 4.25342 0 0 0 29 75 113 255
2.07014 1.04816 3.78813 0 0 0 107 110 109 255
2.119 1.05046 3.75676 0 0 0 117 117 118 255
2.16906 1.04984 3.73554 0 0 0 90 86 85 255
2.10718 1.05629 3.7662 0 0 0 99 103 103 255
2.13755 1.05495 3.75888 0 0 0 97 94 95 255
2.21175 1.05115 3.72359 0 0 0 90 92 91 255
-0.388609 1.13749 4.20197 0 0 0 135 146 156 255
-0.314516 1.14543 4.27516 0 0 0 109 132 145 255
2.25212 1.04973 3.70447 0 0 0 80 81 80 255
2.31289 1.05484 3.70401 0 0 0 103 98 100 255
2.34208 1.05241 3.70484 0 0 0 96 94 96 255
2.21259 1.0679 3.72209 0 0 0 121 124 123 255
2.21098 1.06878 3.72473 0 0 0 121 124 123 255
2.22014 1.08247 3.72067 0 0 0 86 84 84 255
-0.327882 1.18058 4.27078 0 0 0 51 76 100 255
2.1646 1.08744 3.73019 0 0 0 84 89 89 255
2.25021 1.08092 3.69704 0 0 0 83 78 76 255
2.28349 1.0764 3.70916 0 0 0 89 81 83 255
2.35878 1.08502 3.70924 0 0 0 78 78 79 255
2.47947 1.08318 3.73363 0 0 0 73 74 76 255
-0.603202 1.14957 4.05287 0 0 0 24 111 147 255
2.2201 1.08279 3.72194 0 0 0 98 105 102 255
2.40026 1.09013 3.72033 0 0 0 87 92 90 255
-0.863444 1.17532 4.12317 0 0 0 88 116 142 255
-0.627886 1.16656 4.05013 0 0 0 148 149 158 255
2.13374 1.13358 3.76107 0 0 0 102 103 105 255
-0.616478 1.18938 4.04887 0 0 0 66 85 118 255
-0.736987 1.2096 4.09954 0 0 0 115 99 115 255
-0.828483 1.21998 4.10432 0 0 0 107 103 113 255
-0.691771 1.21246 4.0823 0 0 0 113 103 118 255
2.07743 1.17144 3.79449 0 0 0 103 105 104 255
2.25426 1.17616 3.71173 0 0 0 106 107 111 255
2.0713 1.20702 3.80041 0 0 0 115 113 112 255
-0.887613 1.36107 4.11562 0 0 0 69 106 141 255
-0.373501 1.38407 4.22369 0 0 0 140 152 167 255
-0.841971 1.36098 4.10877 0 0 0 65 104 137 255
-0.383654 1.39087 4.19648 0 0 0 93 102 120 255
-0.467744 1.39122 4.15874 0 0 0 93 128 163 255
-0.815698 1.39123 4.10708 0 0 0 22 83 123 255
-0.460228 1.41965 4.16002 0 0 0 157 159 160 255
-0.886659 1.41417 4.11774 0 0 0 89 108 133 255
2.46126 1.4045 3.79337 0 0 0 84 82 84 255
2.25145 1.41287 3.79984 0 0 0 112 112 112 255
2.1707 1.43021 3.83099 0 0 0 100 100 100 255
2.31051 1.41643 3.77491 0 0 0 106 106 106 255
2.38519 1.63083 3.98878 0 0 0 191 193 199 255
2.39535 1.62889 3.98083 0 0 0 207 207 208 255
2.33141 -0.210537 3.90415 0 0 0 153 157 163 255
2.36385 -0.210726 3.89706 0 0 0 46 45 44 255
2.23326 -0.165168 3.84266 0 0 0 140 73 68 255
0.946936 -0.242918 4.71572 0 0 0 211 211 212 255
2.34327 0.0149389 3.91888 0 0 0 200 205 207 255
-1.04235 0.133339 4.24859 0 0 0 22 47 84 255
2.04812 0.135244 4.02678 0 0 0 135 135 134 255
2.21288 0.256324 3.71561 0 0 0 121 103 80 255
2.31254 0.24972 3.70051 0 0 0 80 75 76 255
2.40276 0.252995 3.70926 0 0 0 93 77 67 255
-0.723272 0.261988 4.05279 0 0 0 113 104 82 255
-0.868273 0.269551 4.09598 0 0 0 132 125 125 255
-0.562326 0.268914 4.06723 0 0 0 110 103 101 255
-0.480321 0.271389 4.10266 0 0 0 124 109 113 255
2.38202 0.280195 3.70192 0 0 0 91 51 24 255
2.30174 0.305689 3.69101 0 0 0 165 133 81 255
-0.553299 0.311926 4.06274 0 0 0 147 121 91 255
-0.92873 0.330019 4.11832 0 0 0 68 103 139 255
-0.895796 0.354914 4.09441 0 0 0 37 76 112 255
-0.640218 0.355508 4.05012 0 0 0 46 99 143 255
-0.429465 0.34866 4.14014 0 0 0 105 129 149 255
0.409044 0.366641 4.71546 0 0 0 111 87 83 255
0.798473 0.365341 4.58087 0 0 0 144 132 134 255
0.874859 0.374859 4.60227 0 0 0 136 117 121 255
-0.651915 0.390736 4.04856 0 0 0 29 88 75 255
-0.485369 0.389233 4.10871 0 0 0 30 73 108 255
-0.39032 0.397676 4.17431 0 0 0 152 156 156 255
1.98355 0.380172 3.94213 0 0 0 77 84 85 255
2.11861 0.389039 3.71581 0 0 0 89 89 90 255
2.4909 0.387735 3.72031 0 0 0 110 118 121 255
1.93259 0.40751 3.9536 0 0 0 125 120 116 255
-0.5892 0.431304 4.06692 0 0 0 19 93 125 255
2.1007 0.418625 3.73063 0 0 0 58 40 40 255
2.41992 0.409327 3.69164 0 0 0 83 63 45 255
-0.451267 0.440376 4.12271 0 0 0 16 60 108 255
1.97552 0.444739 3.93123 0 0 0 82 76 67 255
2.10185 0.433884 3.72752 0 0 0 58 42 39 255
2.45624 0.429782 3.70699 0 0 0 34 38 37 255
-0.61006 0.45405 4.06198 0 0 0 147 154 154 255
2.13987 0.465743 3.70597 0 0 0 91 65 52 255
-0.543535 0.48974 4.06941 0 0 0 104 120 136 255
-0.417353 0.503516 4.14586 0 0 0 78 121 156 255
1.94091 0.49897 3.99965 0 0 0 122 120 119 255
2.10304 0.499617 3.73178 0 0 0 55 39 39 255
1.0832 0.579614 4.76516 0 0 0 126 142 138 255
2.10022 0.526976 3.7319 0 0 0 50 42 47 255
2.21106 0.527161 3.68002 0 0 0 55 39 41 255
2.27952 0.518939 3.67339 0 0 0 46 36 38 255
2.42095 0.525636 3.69697 0 0 0 57 40 43 255
2.56474 0.542384 3.78069 0 0 0 104 112 118 255
1.94802 0.575138 4.02421 0 0 0 108 100 94 255
2.48979 0.546939 3.7242 0 0 0 123 130 131 255
2.36256 0.560064 3.674 0 0 0 108 94 86 255
2.40331 0.549659 3.67406 0 0 0 140 142 143 255
2.42338 0.550956 3.69116 0 0 0 143 143 143 255
-1.00223 0.592198 4.2223 0 0 0 134 137 140 255
-0.914139 0.58604 4.12575 0 0 0 32 55 90 255
2.14598 0.554583 3.70118 0 0 0 107 90 75 255
-0.739494 0.610711 4.06329 0 0 0 155 156 156 255
-0.492414 0.603331 4.07825 0 0 0 88 94 113 255
-0.730866 0.645743 4.06437 0 0 0 154 156 158 255
-0.432331 0.681833 4.13874 0 0 0 151 158 159 255
-0.988451 0.707387 4.16651 0 0 0 133 131 130 255
-0.736999 0.71551 4.07169 0 0 0 156 159 161 255
-0.642941 0.706422 4.07391 0 0 0 137 143 162 255
-0.403194 0.723895 4.17439 0 0 0 155 160 168 255
-0.869193 0.723936 4.08262 0 0 0 109 111 116 255
-0.554316 0.75917 4.08813 0 0 0 158 162 163 255
2.25554 0.721921 3.68184 0 0 0 96 76 55 255
-0.877976 0.771687 4.085 0 0 0 97 108 118 255
-0.697052 0.761441 4.08264 0 0 0 52 69 110 255
-0.458997 0.77475 4.1361 0 0 0 92 94 101 255
-0.336118 0.786204 4.24789 0 0 0 40 53 83 255
-0.318207 0.810637 4.27001 0 0 0 128 133 152 255
-0.630337 0.8112 4.08554 0 0 0 53 63 89 255
-0.455172 0.834968 4.13908 0 0 0 58 66 93 255
-0.409862 0.883211 4.16856 0 0 0 156 157 159 255
-0.451878 0.897064 4.14651 0 0 0 113 117 126 255
-0.955262 0.913001 4.17034 0 0 0 69 69 80 255
-0.510497 0.912297 4.11884 0 0 0 156 159 158 255
-0.559201 0.92758 4.08407 0 0 0 160 162 163 255
-0.741614 0.932394 4.07879 0 0 0 157 161 163 255
-0.888782 0.946296 4.14412 0 0 0 33 52 93 255
-0.683121 0.962703 4.09705 0 0 0 158 160 161 255
-0.717748 0.966141 4.08623 0 0 0 59 71 96 255
-0.751561 0.976349 4.08375 0 0 0 157 157 157 255
-0.483241 0.998443 4.13854 0 0 0 130 149 169 255
-0.818599 0.996973 4.03782 0 0 0 151 154 153 255
-0.929738 1.02649 4.16893 0 0 0 149 147 151 255
-0.499944 1.03479 4.12192 0 0 0 40 99 138 255
0.955923 1.11475 4.66609 0 0 0 29 77 115 255
0.505693 1.15118 4.70984 0 0 0 69 104 73 255
2.34754 1.06642 3.70946 0 0 0 87 86 87 255
0.79915 1.24786 4.62141 0 0 0 101 120 98 255
-0.625796 1.16201 4.04916 0 0 0 136 140 153 255
-0.867516 1.17011 4.12552 0 0 0 88 116 142 255
-0.724086 1.17616 4.10304 0 0 0 85 131 170 255
-0.792585 1.1926 4.10976 0 0 0 21 85 131 255
-0.828519 1.23751 4.10132 0 0 0 80 84 109 255
-0.904309 1.27197 4.13632 0 0 0 124 142 163 255
-0.617883 1.285 4.04385 0 0 0 37 76 110 255
-0.857059 1.32244 4.12318 0 0 0 101 111 122 255
-0.726667 1.32925 4.10682 0 0 0 95 108 135 255
-0.842447 1.36321 4.11226 0 0 0 65 104 137 255
2.39948 1.41094 3.78612 0 0 0 98 94 97 255
2.30066 -0.210726 3.91007 0 0 0 45 43 44 255
2.37257 -0.207117 3.86808 0 0 0 45 45 45 255
2.45876 -0.198653 3.91662 0 0 0 47 52 53 255
0.946481 -0.241153 4.71407 0 0 0 211 211 212 255
2.09788 -0.0560089 3.9681 0 0 0 93 84 83 255
2.47363 -0.0446544 3.91289 0 0 0 35 39 39 255
2.34331 0.0108387 3.92125 0 0 0 200 205 207 255
2.4712 0.0367658 3.92514 0 0 0 84 85 92 255
2.35019 0.0902287 3.92549 0 0 0 248 250 254 255
2.35521 0.115697 3.91819 0 0 0 255 252 253 255
2.06486 0.135874 4.01745 0 0 0 63 63 62 255
2.53384 0.140452 3.94336 0 0 0 50 50 54 255
2.30988 0.259216 3.69843 0 0 0 161 144 114 255
-0.471143 0.263349 4.10975 0 0 0 148 121 89 255
2.21484 0.266583 3.71035 0 0 0 95 75 60 255
2.36087 0.26188 3.70036 0 0 0 125 88 55 255
-0.838747 0.282503 4.07772 0 0 0 139 126 66 255
-0.807016 0.276253 4.06763 0 0 0 75 73 68 255
-0.767889 0.272359 4.05857 0 0 0 114 95 99 255
-0.624388 0.27101 4.05423 0 0 0 133 111 101 255
-0.702608 0.285034 4.05141 0 0 0 113 107 101 255
2.21291 0.297568 3.69951 0 0 0 130 106 77 255
2.37447 0.298149 3.69679 0 0 0 138 101 62 255
-0.976932 0.335141 4.19627 0 0 0 95 110 126 255
0.582609 0.374265 4.60097 0 0 0 118 39 43 255
-0.613611 0.400394 4.06408 0 0 0 149 155 160 255
-0.527748 0.398814 4.08073 0 0 0 152 158 165 255
-0.3911 0.395789 4.17396 0 0 0 148 155 155 255
0.603638 0.40353 4.59349 0 0 0 156 147 148 255
1.98392 0.385959 3.9377 0 0 0 112 121 123 255
2.07162 0.396849 3.74704 0 0 0 127 133 134 255
2.12756 0.40578 3.71201 0 0 0 131 137 139 255
2.15243 0.394261 3.69986 0 0 0 40 39 44 255
2.18235 0.3951 3.68986 0 0 0 135 136 140 255
2.28702 0.394086 3.66826 0 0 0 138 147 149 255
2.41824 0.383257 3.69269 0 0 0 125 129 132 255
2.12881 0.412905 3.71192 0 0 0 123 136 140 255
2.4252 0.417002 3.69076 0 0 0 61 43 33 255
-0.598464 0.456009 4.06382 0 0 0 144 156 158 255
-0.983642 0.483463 4.22878 0 0 0 127 120 122 255
2.14609 0.467468 3.70357 0 0 0 61 40 29 255
-0.348229 0.537237 4.22261 0 0 0 32 80 117 255
2.10591 0.513743 3.72957 0 0 0 47 38 40 255
2.21523 0.52005 3.6798 0 0 0 52 36 38 255
2.42408 0.508031 3.69078 0 0 0 39 38 42 255
1.98096 0.549047 3.88446 0 0 0 130 133 131 255
2.28426 0.524634 3.67366 0 0 0 37 39 43 255
-0.921405 0.585315 4.13652 0 0 0 22 55 94 255
-0.862091 0.575718 4.11201 0 0 0 152 152 152 255
-0.641514 0.576653 4.07747 0 0 0 153 155 167 255
-0.448778 0.568953 4.13101 0 0 0 156 158 162 255
2.11865 0.550091 3.71924 0 0 0 137 139 139 255
2.1471 0.551377 3.70061 0 0 0 107 90 75 255
2.19065 0.555911 3.68626 0 0 0 137 141 142 255
2.23318 0.55838 3.67728 0 0 0 142 141 144 255
2.33089 0.550105 3.66898 0 0 0 141 146 147 255
2.37921 0.552654 3.67084 0 0 0 45 41 45 255
2.42684 0.552922 3.69578 0 0 0 143 143 143 255
-0.800651 0.58846 4.08556 0 0 0 29 51 90 255
-0.740019 0.607833 4.06349 0 0 0 156 156 156 255
-0.576625 0.622267 4.11686 0 0 0 104 112 143 255
1.03931 0.645324 4.72766 0 0 0 40 80 74 255
-0.741759 0.621357 4.06568 0 0 0 156 159 158 255
-0.361326 0.658471 4.22063 0 0 0 146 151 161 255
-0.579242 0.66784 4.10929 0 0 0 61 68 87 255
-0.506416 0.659891 4.07626 0 0 0 59 65 84 255
-0.430641 0.665385 4.14208 0 0 0 153 157 159 255
-0.95346 0.686959 4.16268 0 0 0 28 44 82 255
-0.8617 0.676289 4.0805 0 0 0 56 60 71 255
-0.775843 0.676557 4.06442 0 0 0 34 53 94 255
-0.36339 0.682143 4.21638 0 0 0 146 152 161 255
-0.959661 0.700338 4.16381 0 0 0 24 46 91 255
-0.864486 0.704311 4.0796 0 0 0 111 118 126 255
-0.741733 0.709927 4.07215 0 0 0 153 157 160 255
-0.409142 0.726786 4.16967 0 0 0 154 159 171 255
-0.876551 0.761507 4.08401 0 0 0 107 117 124 255
2.27523 0.734157 3.68267 0 0 0 110 80 42 255
-0.687715 0.77811 4.09351 0 0 0 156 158 163 255
-1.00206 0.815222 4.22218 0 0 0 39 52 75 255
-0.382802 0.802263 4.19501 0 0 0 103 118 135 255
-0.286076 0.805036 4.31749 0 0 0 149 153 154 255
-0.623221 0.812265 4.08346 0 0 0 49 59 86 255
-0.336058 0.814419 4.24398 0 0 0 33 58 96 255
-0.809181 0.827348 4.07753 0 0 0 74 80 99 255
-0.619636 0.878309 4.08457 0 0 0 58 75 97 255
-0.407939 0.899975 4.17406 0 0 0 61 73 100 255
-0.744073 0.884082 4.07161 0 0 0 60 75 95 255
-0.502751 0.895996 4.12607 0 0 0 160 162 163 255
-0.846914 0.905694 4.05873 0 0 0 31 51 92 255
-0.560211 0.927973 4.08244 0 0 0 160 162 163 255
-0.848769 0.922621 4.06055 0 0 0 26 52 95 255
-0.671604 0.950404 4.09938 0 0 0 159 162 161 255
-0.622331 0.950252 4.08789 0 0 0 77 85 106 255
-0.799375 0.985427 4.09656 0 0 0 41 55 91 255
1.18605 1.12164 5.05856 0 0 0 168 174 170 255
-0.478362 1.00019 4.14279 0 0 0 137 155 172 255
-0.362006 1.01666 4.23358 0 0 0 122 144 164 255
-0.924794 1.01747 4.16493 0 0 0 148 150 151 255
1.18904 1.22377 5.07121 0 0 0 158 162 161 255
-0.626717 1.07999 4.10437 0 0 0 113 153 184 255
-0.382839 1.14044 4.20984 0 0 0 145 152 158 255
2.12543 1.06276 3.74959 0 0 0 95 95 94 255
2.28444 1.07031 3.70888 0 0 0 86 79 81 255
-0.674061 1.15456 4.07837 0 0 0 23 88 136 255
-0.635365 1.155 4.08339 0 0 0 142 157 181 255
-0.591766 1.14644 4.08492 0 0 0 9 108 147 255
-0.864828 1.20254 4.12377 0 0 0 142 144 146 255
-0.784738 1.18171 4.10587 0 0 0 19 84 129 255
-0.618098 1.19356 4.04883 0 0 0 46 80 123 255
-0.330515 1.23189 4.26045 0 0 0 162 140 95 255
-0.912405 1.22174 4.14513 0 0 0 82 104 140 255
-0.901436 1.27334 4.13458 0 0 0 124 142 163 255
-0.865765 1.30499 4.12969 0 0 0 124 131 141 255
-0.797237 1.31309 4.1027 0 0 0 29 74 114 255
-0.711784 1.3002 4.10933 0 0 0 111 112 122 255
-0.373953 1.38936 4.22215 0 0 0 152 154 156 255
-0.868758 1.38152 4.10753 0 0 0 84 129 157 255
2.4102 1.41273 3.7808 0 0 0 93 90 94 255
2.39289 1.62949 3.9852 0 0 0 205 206 212 255
2.23869 -0.202725 3.8252 0 0 0 42 41 42 255
2.46285 -0.193003 3.94273 0 0 0 63 43 41 255
2.12347 -0.0506036 3.96149 0 0 0 47 49 51 255
2.47728 0.0501331 3.92936 0 0 0 83 86 92 255
-1.04179 0.135802 4.25252 0 0 0 22 47 84 255
-0.653038 0.273908 4.04921 0 0 0 129 110 99 255
2.28762 0.269254 3.69156 0 0 0 118 95 70 255
-0.362573 0.355094 4.20357 0 0 0 124 141 155 255
1.96011 0.338006 4.00854 0 0 0 59 58 59 255
-0.951108 0.352237 4.1547 0 0 0 96 99 113 255
-0.882849 0.332192 4.09916 0 0 0 8 56 107 255
0.767401 0.388658 4.57814 0 0 0 159 159 159 255
2.39475 0.397176 3.68019 0 0 0 122 130 137 255
-0.433495 0.419978 4.13453 0 0 0 149 150 154 255
2.07219 0.39781 3.7463 0 0 0 124 136 136 255
2.18247 0.412996 3.69066 0 0 0 132 143 146 255
2.2859 0.39092 3.66833 0 0 0 143 143 143 255
2.3411 0.437282 3.66526 0 0 0 40 41 47 255
-0.944541 0.469844 4.17479 0 0 0 145 109 78 255
2.26584 0.489461 3.67131 0 0 0 136 136 137 255
-0.451923 0.586805 4.12597 0 0 0 158 160 160 255
1.97455 0.595768 4.00935 0 0 0 45 46 47 255
-0.641918 0.575579 4.0772 0 0 0 153 155 167 255
-0.735813 0.627585 4.06463 0 0 0 156 159 159 255
-0.363768 0.653738 4.2206 0 0 0 113 126 151 255
-0.969052 0.685516 4.17698 0 0 0 22 44 84 255
-0.63714 0.686153 4.07794 0 0 0 154 158 160 255
-0.414059 0.678066 4.16182 0 0 0 32 60 105 255
-0.869292 0.722289 4.0782 0 0 0 122 125 129 255
0.791685 0.756965 4.59577 0 0 0 70 110 74 255
-0.744274 0.730442 4.06609 0 0 0 159 160 160 255
-0.405078 0.875666 4.17013 0 0 0 158 161 161 255
-0.854681 0.904542 4.06097 0 0 0 29 52 93 255
-0.770477 0.942674 4.08425 0 0 0 158 161 160 255
-0.985939 1.068 4.22199 0 0 0 23 53 95 255
-0.396589 1.10133 4.19872 0 0 0 3 94 141 255
-0.351356 1.14244 4.24325 0 0 0 146 150 155 255
-0.571734 1.1419 4.05979 0 0 0 4 108 151 255
-0.865917 1.19241 4.12135 0 0 0 141 143 145 255
-0.784769 1.18757 4.10605 0 0 0 20 85 131 255
-0.724715 1.18007 4.10187 0 0 0 126 144 160 255
-0.656477 1.17667 4.08686 0 0 0 33 87 135 255
-0.339409 1.25058 4.25096 0 0 0 164 148 92 255
0.36411 1.40234 4.92761 0 0 0 67 94 81 255
-0.881104 1.2743 4.12892 0 0 0 138 143 146 255
-0.769834 1.27475 4.10672 0 0 0 157 157 158 255
-0.351807 1.27852 4.2453 0 0 0 168 154 103 255
-0.789398 1.30462 4.10283 0 0 0 36 74 113 255
-0.689405 1.29327 4.00376 0 0 0 132 130 139 255
-0.620705 1.29704 4.04314 0 0 0 28 75 118 255
-0.544738 1.30795 4.0706 0 0 0 166 160 125 255
-0.294996 1.46103 4.65304 0 0 0 45 86 123 255
2.13172 -0.081 3.96162 0 0 0 65 66 72 255
-0.342873 0.11002 4.60919 0 0 0 26 61 102 255
2.05288 0.164923 4.02453 0 0 0 55 58 57 255
-0.358044 0.369489 4.2088 0 0 0 138 149 156 255
-0.891437 0.405818 4.08923 0 0 0 143 135 116 255
-0.603442 0.392683 4.06583 0 0 0 135 143 155 255
-0.524375 0.39773 4.08278 0 0 0 153 159 162 255
1.97264 0.415207 3.93251 0 0 0 111 113 111 255
-0.921774 0.449545 4.14334 0 0 0 147 142 134 255
-0.723892 0.456453 4.04689 0 0 0 117 125 105 255
-0.350005 0.461927 4.2142 0 0 0 151 153 161 255
1.09121 0.522499 4.7797 0 0 0 93 113 86 255
1.98143 0.508871 3.92964 0 0 0 121 128 125 255
-0.966057 0.535324 4.18269 0 0 0 12 59 104 255
0.831543 0.594007 4.60278 0 0 0 156 160 161 255
2.07722 0.550568 3.74538 0 0 0 135 139 140 255
2.20093 0.551566 3.68206 0 0 0 143 142 139 255
-0.629231 0.590752 4.08716 0 0 0 157 159 161 255
-0.454708 0.593903 4.12315 0 0 0 157 160 162 255
1.96735 0.603626 4.03037 0 0 0 50 52 52 255
-0.907953 0.631225 4.12854 0 0 0 150 152 151 255
-0.833206 0.603575 4.10246 0 0 0 146 152 155 255
-0.505394 0.644766 4.06924 0 0 0 156 158 158 255
-0.313093 0.686849 4.30724 0 0 0 146 153 154 255
-0.963567 0.695026 4.1688 0 0 0 23 46 87 255
0.946827 0.752142 4.64931 0 0 0 116 146 130 255
1.09001 0.768845 4.7623 0 0 0 48 91 74 255
-0.671172 0.731537 4.08257 0 0 0 27 55 103 255
-1.00769 0.823943 4.22464 0 0 0 23 61 94 255
-0.73405 0.863775 4.07867 0 0 0 37 61 107 255
-0.451212 0.830713 4.14327 0 0 0 107 104 108 255
-0.609674 0.908109 4.08603 0 0 0 158 161 165 255
-0.856699 0.979235 4.13026 0 0 0 152 154 156 255
-0.474292 0.99915 4.14578 0 0 0 137 155 172 255
-0.362793 1.02392 4.23244 0 0 0 127 129 131 255
-0.478555 1.06131 4.13463 0 0 0 148 152 158 255
-0.344789 1.20734 4.25546 0 0 0 140 124 104 255
1.11225 1.40705 5.09932 0 0 0 68 108 88 255
-0.520022 1.31606 4.089 0 0 0 174 163 107 255
-0.948401 1.41496 4.19433 0 0 0 44 79 117 255
-0.508195 1.43658 4.12465 0 0 0 45 86 124 255
1.99506 1.57656 4.10074 0 0 0 110 112 108 255
2.12547 -0.200882 3.96743 0 0 0 84 67 60 255
2.11896 -0.12552 3.96964 0 0 0 72 57 57 255
1.05454 0.11311 4.81016 0 0 0 45 91 64 255
2.04567 0.177726 4.02259 0 0 0 54 54 54 255
2.0772 0.171169 4.00857 0 0 0 40 47 49 255
1.9776 0.270094 4.01546 0 0 0 109 101 98 255
-0.868936 0.425333 4.12023 0 0 0 147 132 77 255
1.95943 0.471225 3.9745 0 0 0 128 132 131 255
-0.404209 0.624572 4.16376 0 0 0 25 57 105 255
-0.842915 0.650436 4.10693 0 0 0 154 153 154 255
-0.688695 0.635067 4.05413 0 0 0 23 56 107 255
1.05633 0.809852 4.73859 0 0 0 50 95 71 255
-0.728181 0.817754 4.06467 0 0 0 73 84 96 255
-0.297739 0.872332 4.27656 0 0 0 18 64 112 255
1.9953 0.904042 4.07684 0 0 0 46 51 52 255
-0.376608 1.21619 4.21516 0 0 0 153 126 99 255
0.382908 1.38558 4.90049 0 0 0 64 93 79 255
-0.8284 1.21307 4.10651 0 0 0 131 129 136 255
-0.453925 1.30977 4.16268 0 0 0 173 160 74 255
-0.335438 1.44315 4.63277 0 0 0 30 78 119 255
-0.873002 1.43288 4.11136 0 0 0 50 80 110 255
2.19835 -0.193425 3.88359 0 0 0 129 93 98 255
2.4976 -0.187827 3.96024 0 0 0 82 87 87 255
2.30503 -0.171089 3.92141 0 0 0 138 103 105 255
2.50436 -0.0967278 3.98611 0 0 0 115 122 124 255
2.50544 -0.0733127 3.95909 0 0 0 81 85 86 255
2.4953 -0.0128422 3.95838 0 0 0 120 127 129 255
2.21199 0.0170766 3.90768 0 0 0 162 162 162 255
2.54481 0.120357 3.97699 0 0 0 113 115 117 255
-0.317589 0.0965624 4.64316 0 0 0 81 87 99 255
2.33834 0.253996 3.69833 0 0 0 155 135 115 255
0.651358 0.247954 4.57707 0 0 0 30 53 50 255
0.919816 0.258448 4.61563 0 0 0 96 101 99 255
0.458967 0.274591 4.67442 0 0 0 121 130 129 255
0.960361 0.268368 4.63103 0 0 0 83 112 100 255
2.34496 0.303192 3.69536 0 0 0 76 50 28 255
-0.734005 0.28997 4.04902 0 0 0 30 47 93 255
2.31859 0.3068 3.69392 0 0 0 153 123 92 255
0.669365 0.318672 4.57922 0 0 0 123 149 104 255
-0.380722 0.320642 4.17526 0 0 0 62 112 157 255
-0.332938 0.409661 4.22821 0 0 0 114 88 103 255
2.5131 0.425254 3.71959 0 0 0 99 98 98 255
-0.417661 0.4479 4.13723 0 0 0 150 151 157 255
2.27881 0.451649 3.66776 0 0 0 86 81 78 255
-0.508471 0.478085 4.08423 0 0 0 40 83 116 255
2.11463 0.52469 3.72175 0 0 0 38 42 46 255
2.22421 0.537255 3.67688 0 0 0 35 40 52 255
2.06278 0.557139 3.76089 0 0 0 75 86 87 255
0.575869 0.684345 4.62714 0 0 0 145 153 151 255
1.11007 0.735159 4.79054 0 0 0 136 148 146 255
1.09109 0.752652 4.76194 0 0 0 134 142 139 255
1.0516 0.767767 4.74475 0 0 0 144 153 153 255
-0.78777 0.756667 4.02584 0 0 0 86 89 99 255
2.33179 0.715311 3.67921 0 0 0 73 61 49 255
-0.819898 0.876199 3.996 0 0 0 57 71 86 255
-0.816123 0.878514 3.99358 0 0 0 61 67 88 255
1.8841 1.43442 6.96697 0 0 0 147 145 139 255
1.32167 1.39441 6.5958 0 0 0 133 131 125 255
1.23885 1.37432 6.43861 0 0 0 142 141 133 255
0.906368 1.17796 4.64438 0 0 0 95 89 43 255
2.40033 1.04682 3.71157 0 0 0 99 97 98 255
2.42156 1.04376 3.68497 0 0 0 107 115 115 255
2.16606 1.06684 3.73464 0 0 0 125 133 133 255
2.07596 1.08512 3.77749 0 0 0 90 93 94 255
2.2093 1.08675 3.70862 0 0 0 73 75 74 255
2.30908 1.08474 3.70354 0 0 0 87 89 90 255
2.3393 1.0859 3.70162 0 0 0 87 93 93 255
2.20826 1.1644 3.67035 0 0 0 99 102 104 255
2.22715 1.23895 3.66386 0 0 0 109 118 116 255
2.3911 1.23524 3.65272 0 0 0 100 98 98 255
-0.417896 1.3985 4.18722 0 0 0 113 120 126 255
-0.672285 1.36969 3.83628 0 0 0 70 107 143 255
2.14953 1.36708 3.69645 0 0 0 117 120 119 255
2.18655 1.37816 3.6678 0 0 0 119 121 125 255
2.21625 1.39285 3.65498 0 0 0 100 102 104 255
2.49789 -0.000758825 3.95684 0 0 0 138 145 145 255
2.37685 0.313664 3.69376 0 0 0 106 86 56 255
0.610032 0.373839 4.58972 0 0 0 90 60 64 255
-0.723148 0.394189 4.04587 0 0 0 119 120 112 255
-0.507277 0.486351 4.08586 0 0 0 19 83 128 255
2.51086 0.493056 3.70563 0 0 0 68 49 45 255
2.64044 0.90114 3.8885 0 0 0 90 99 99 255
-0.656475 0.938209 4.00878 0 0 0 159 159 164 255
2.39276 1.03344 3.67013 0 0 0 81 82 82 255
-0.689688 1.36365 3.83455 0 0 0 80 126 160 255
-0.511424 1.41913 4.13926 0 0 0 64 114 148 255
2.11386 -0.200431 3.96644 0 0 0 109 98 94 255
2.10802 -0.0118765 3.97414 0 0 0 149 149 147 255
0.677239 0.243156 4.57561 0 0 0 96 99 99 255
2.37962 0.260903 3.70384 0 0 0 155 118 75 255
-0.71033 0.297262 4.04867 0 0 0 143 131 87 255
2.38919 0.319011 3.69149 0 0 0 64 43 28 255
0.885533 0.395304 4.60579 0 0 0 153 144 145 255
1.02697 0.415081 4.69583 0 0 0 131 63 70 255
-0.720868 0.402367 4.0432 0 0 0 145 145 130 255
0.444012 0.427635 4.68286 0 0 0 140 139 139 255
2.34422 0.463408 3.66772 0 0 0 47 44 47 255
-0.464961 0.484342 4.10693 0 0 0 114 121 130 255
2.36985 0.544207 3.66838 0 0 0 41 40 45 255
-0.851635 0.738803 4.03682 0 0 0 93 101 111 255
2.36466 0.729244 3.69118 0 0 0 91 69 44 255
-0.696879 0.791531 4.09564 0 0 0 159 158 161 255
2.36168 0.74895 3.68783 0 0 0 97 71 33 255
-0.562442 0.906668 4.07518 0 0 0 161 161 163 255
0.858242 1.13872 4.62647 0 0 0 152 156 133 255
-0.37481 1.10347 4.20787 0 0 0 9 82 129 255
0.888793 1.17581 4.63652 0 0 0 125 121 72 255
-0.426507 1.38646 4.07749 0 0 0 155 159 162 255
2.45472 1.36503 3.6413 0 0 0 88 84 87 255
2.12925 -0.142701 3.96112 0 0 0 68 46 46 255
2.47448 -0.0657591 3.95597 0 0 0 60 67 75 255
2.20915 0.0156023 3.90728 0 0 0 156 158 160 255
2.47203 0.0397825 3.99627 0 0 0 89 89 89 255
2.12779 0.0425112 3.95969 0 0 0 93 96 95 255
-0.355742 0.31942 4.2013 0 0 0 50 96 131 255
2.28674 0.431576 3.66927 0 0 0 141 142 141 255
2.42217 0.452917 3.67363 0 0 0 35 37 41 255
2.20655 0.483969 3.66588 0 0 0 61 36 28 255
0.792041 0.558163 4.6031 0 0 0 154 159 157 255
0.43997 0.598838 4.69939 0 0 0 86 114 109 255
2.38921 0.537335 3.66181 0 0 0 142 145 146 255
1.95766 0.592178 3.99556 0 0 0 59 59 62 255
2.24067 0.545123 3.67473 0 0 0 132 142 144 255
2.28385 0.555021 3.67316 0 0 0 35 36 40 255
-0.441874 0.642459 4.12196 0 0 0 158 159 161 255
-0.403193 0.664271 4.16672 0 0 0 25 59 107 255
-0.636818 0.664744 4.07533 0 0 0 158 158 162 255
-0.745829 0.675199 4.06889 0 0 0 36 50 91 255
-0.285697 0.763157 4.32286 0 0 0 128 132 139 255
-0.485523 0.896398 4.13047 0 0 0 159 161 160 255
-0.796842 0.972308 3.97272 0 0 0 151 150 152 255
-0.396303 1.07701 4.18444 0 0 0 1 98 145 255
-0.59189 1.09899 4.01057 0 0 0 131 148 162 255
-0.526422 1.12254 4.00518 0 0 0 0 106 149 255
-0.332243 1.16468 4.2609 0 0 0 133 134 139 255
2.40463 -0.220156 3.84902 0 0 0 144 144 144 255
2.21396 0.0216192 3.9092 0 0 0 162 162 162 255
1.08869 0.105351 4.9715 0 0 0 50 93 69 255
1.03158 0.311466 4.7061 0 0 0 143 145 133 255
-0.874692 0.397301 4.11956 0 0 0 151 135 77 255
-0.735406 0.386322 4.04811 0 0 0 129 131 116 255
2.22948 0.490419 3.6751 0 0 0 35 37 41 255
0.780572 0.594129 4.59043 0 0 0 157 162 160 255
1.98364 0.53308 3.94122 0 0 0 127 133 136 255
2.38717 0.540477 3.66073 0 0 0 122 130 132 255
-0.621313 0.637005 4.0908 0 0 0 159 160 161 255
-0.403211 0.641227 4.16239 0 0 0 25 59 105 255
0.772824 0.685744 4.60222 0 0 0 67 110 68 255
-0.304405 0.746655 4.3036 0 0 0 153 156 155 255
0.782927 0.822147 4.61192 0 0 0 158 163 161 255
-0.412553 0.828957 4.15757 0 0 0 158 160 162 255
-0.630711 0.897056 4.08639 0 0 0 100 113 139 255
-0.461018 1.00063 4.15701 0 0 0 134 150 165 255
-0.362395 1.13535 4.2258 0 0 0 128 140 152 255
-0.531916 1.14308 4.10536 0 0 0 1 98 146 255
-0.348527 1.24721 4.23523 0 0 0 155 139 84 255
-0.304729 1.47315 4.65915 0 0 0 87 119 151 255
-0.450851 1.41905 4.07604 0 0 0 36 80 123 255
2.14377 -0.0564847 3.94784 0 0 0 33 41 36 255
1.07434 0.107179 4.91624 0 0 0 48 91 67 255
-0.358058 0.401982 4.20173 0 0 0 97 69 102 255
1.94615 0.474987 3.98215 0 0 0 90 90 87 255
2.13145 0.538514 3.71075 0 0 0 134 142 146 255
-0.397959 0.644796 4.17139 0 0 0 24 59 106 255
-0.696868 0.692986 4.05901 0 0 0 25 58 111 255
0.807962 0.774985 4.59329 0 0 0 77 116 99 255
1.0735 1.39441 5.09039 0 0 0 66 105 77 255
2.21712 -0.208822 3.88103 0 0 0 119 120 121 255
2.10307 -0.185379 3.96423 0 0 0 110 105 104 255
2.10486 -0.129557 3.96495 0 0 0 136 136 133 255
2.10278 -0.107834 3.95817 0 0 0 143 141 139 255
2.12074 -0.0759021 3.95382 0 0 0 72 73 74 255
2.35924 -0.0527629 3.85794 0 0 0 79 83 86 255
0.376061 0.150496 4.80749 0 0 0 28 59 44 255
2.35801 0.249905 3.70329 0 0 0 88 83 82 255
2.28493 0.253951 3.69484 0 0 0 57 56 59 255
2.20317 0.270508 3.71288 0 0 0 62 49 47 255
2.3232 0.277285 3.6968 0 0 0 69 58 57 255
2.3261 0.277616 3.6965 0 0 0 69 58 57 255
-0.456396 0.278171 4.10943 0 0 0 73 55 38 255
-0.442007 0.304077 4.11847 0 0 0 97 82 94 255
-0.764006 0.301069 4.05292 0 0 0 131 109 116 255
-0.45561 0.326951 4.11074 0 0 0 63 100 144 255
-0.466365 0.37218 4.11407 0 0 0 137 137 146 255
