ply
format ascii 1.0
comment VCGLIB generated
element vertex 1035
property float x
property float y
property float z
property float nx
property float ny
property float nz
property uchar red
property uchar green
property uchar blue
property uchar alpha
element face 0
property list uchar int vertex_indices
end_header
-0.589562 0.431056 4.06676 0 0 0 19 93 125 255
2.10139 0.418775 3.73349 0 0 0 58 40 40 255
2.42098 0.409504 3.69486 0 0 0 83 63 45 255
-0.452144 0.440419 4.12337 0 0 0 16 60 108 255
1.97612 0.444063 3.92696 0 0 0 82 76 67 255
2.10254 0.434048 3.73038 0 0 0 58 42 39 255
2.45697 0.42988 3.709 0 0 0 34 38 37 255
-0.610613 0.453923 4.06204 0 0 0 147 154 154 255
2.1406 0.465944 3.70886 0 0 0 91 65 52 255
-0.545831 0.490011 4.07184 0 0 0 104 120 136 255
-0.419487 0.503797 4.14833 0 0 0 78 121 156 255
1.94293 0.497454 4.00327 0 0 0 122 120 119 255
2.10374 0.499848 3.7346 0 0 0 55 39 39 255
1.08313 0.579981 4.76662 0 0 0 126 142 138 255
2.10091 0.527233 3.7347 0 0 0 50 42 47 255
2.21188 0.527432 3.68294 0 0 0 55 39 41 255
2.28041 0.519219 3.6764 0 0 0 46 36 38 255
2.422 0.525926 3.70007 0 0 0 57 40 43 255
2.56595 0.542704 3.78386 0 0 0 104 112 118 255
1.94955 0.574494 4.03124 0 0 0 108 100 94 255
2.49054 0.547105 3.72625 0 0 0 123 130 131 255
2.36319 0.560225 3.67583 0 0 0 108 94 86 255
2.40398 0.549819 3.67595 0 0 0 140 142 143 255
2.42407 0.551119 3.6931 0 0 0 143 143 143 255
-1.03388 0.595252 4.29612 0 0 0 134 137 140 255
-0.91838 0.586246 4.12986 0 0 0 32 55 90 255
2.14672 0.554874 3.70402 0 0 0 107 90 75 255
-0.738563 0.610603 4.0613 0 0 0 155 156 156 255
-0.492292 0.603389 4.07744 0 0 0 88 94 113 255
-0.730773 0.645705 4.06344 0 0 0 154 156 158 255
-0.433678 0.682334 4.13999 0 0 0 151 158 159 255
-0.988451 0.707387 4.16651 0 0 0 133 131 130 255
-0.735492 0.715259 4.06894 0 0 0 156 159 161 255
-0.641588 0.706147 4.07138 0 0 0 137 143 162 255
-0.404086 0.724496 4.17502 0 0 0 155 160 168 255
-0.868952 0.723874 4.08199 0 0 0 109 111 116 255
-0.554114 0.759208 4.08712 0 0 0 158 162 163 255
2.25639 0.722396 3.6847 0 0 0 96 76 55 255
-0.891453 0.773232 4.11283 0 0 0 97 108 118 255
-0.694407 0.760673 4.07843 0 0 0 52 69 110 255
-0.459101 0.774878 4.13556 0 0 0 92 94 101 255
-0.334621 0.785783 4.24508 0 0 0 40 53 83 255
-0.317506 0.810425 4.26837 0 0 0 128 133 152 255
-0.628644 0.810787 4.08253 0 0 0 53 63 89 255
-0.453958 0.834665 4.13669 0 0 0 58 66 93 255
-0.411371 0.884121 4.17001 0 0 0 156 157 159 255
-0.448196 0.896056 4.14064 0 0 0 113 117 126 255
-0.955262 0.913001 4.17034 0 0 0 69 69 80 255
-0.508585 0.911944 4.11546 0 0 0 156 159 158 255
-0.560151 0.928105 4.08454 0 0 0 160 162 163 255
-0.739408 0.931908 4.07509 0 0 0 157 161 163 255
-0.884685 0.945295 4.13384 0 0 0 33 52 93 255
-0.679423 0.961849 4.09144 0 0 0 158 160 161 255
-0.714984 0.965479 4.08181 0 0 0 59 71 96 255
-0.748995 0.975538 4.07961 0 0 0 157 157 157 255
-0.480094 0.997392 4.13342 0 0 0 130 149 169 255
-0.832701 0.999541 4.07094 0 0 0 151 154 153 255
-0.935457 1.02822 4.1828 0 0 0 149 147 151 255
-0.499029 1.03473 4.11987 0 0 0 40 99 138 255
0.955596 1.11554 4.66777 0 0 0 29 77 115 255
0.507322 1.1511 4.70618 0 0 0 69 104 73 255
2.34841 1.06709 3.71201 0 0 0 87 86 87 255
0.800112 1.24758 4.61942 0 0 0 101 120 98 255
-0.625615 1.16193 4.04861 0 0 0 136 140 153 255
-0.867516 1.17011 4.12552 0 0 0 88 116 142 255
-0.725634 1.17479 4.11207 0 0 0 85 131 170 255
-0.778013 1.18648 4.07235 0 0 0 21 85 131 255
-0.828519 1.23751 4.10132 0 0 0 80 84 109 255
-0.904309 1.27197 4.13632 0 0 0 124 142 163 255
-0.62409 1.28716 4.05849 0 0 0 37 76 110 255
-0.857059 1.32244 4.12318 0 0 0 101 111 122 255
-0.724066 1.32635 4.10389 0 0 0 95 108 135 255
-0.836634 1.36047 4.09735 0 0 0 65 104 137 255
2.39948 1.41094 3.78612 0 0 0 98 94 97 255
2.30157 -0.211205 3.91334 0 0 0 45 43 44 255
2.37355 -0.207608 3.87131 0 0 0 45 45 45 255
2.45956 -0.198938 3.91891 0 0 0 47 52 53 255
0.945799 -0.242058 4.71734 0 0 0 211 211 212 255
2.09822 -0.056197 3.97303 0 0 0 93 84 83 255
2.47444 -0.0448447 3.91518 0 0 0 35 39 39 255
2.34426 0.0106081 3.92442 0 0 0 200 205 207 255
2.472 0.0366258 3.92741 0 0 0 84 85 92 255
2.35113 0.0900734 3.9286 0 0 0 248 250 254 255
2.35608 0.115577 3.92092 0 0 0 255 252 253 255
2.06661 0.135693 4.03688 0 0 0 63 63 62 255
2.5347 0.140372 3.94574 0 0 0 50 50 54 255
2.31081 0.25921 3.70159 0 0 0 161 144 114 255
-0.470827 0.263135 4.10881 0 0 0 148 121 89 255
2.21567 0.266581 3.71342 0 0 0 95 75 60 255
2.36186 0.26188 3.70356 0 0 0 125 88 55 255
-0.8351 0.281985 4.07248 0 0 0 139 126 66 255
-0.80397 0.275811 4.06313 0 0 0 75 73 68 255
-0.766723 0.2719 4.05641 0 0 0 114 95 99 255
-0.624729 0.270852 4.05405 0 0 0 133 111 101 255
-0.702352 0.284586 4.05043 0 0 0 113 107 101 255
2.21373 0.297598 3.70255 0 0 0 130 106 77 255
2.37548 0.29819 3.69998 0 0 0 138 101 62 255
-0.96727 0.33442 4.17519 0 0 0 95 110 126 255
0.582654 0.374241 4.60135 0 0 0 118 39 43 255
-0.613296 0.400005 4.06303 0 0 0 149 155 160 255
-0.528681 0.398757 4.0814 0 0 0 152 158 165 255
-0.390913 0.395626 4.17319 0 0 0 148 155 155 255
0.603734 0.403183 4.59379 0 0 0 156 147 148 255
1.98449 0.38606 3.94031 0 0 0 112 121 123 255
2.07228 0.396973 3.74988 0 0 0 127 133 134 255
2.12828 0.405918 3.71492 0 0 0 131 137 139 255
2.15318 0.39439 3.7028 0 0 0 40 39 44 255
2.18313 0.395231 3.69283 0 0 0 135 136 140 255
2.28793 0.394224 3.67134 0 0 0 138 147 149 255
2.4193 0.383394 3.69587 0 0 0 125 129 132 255
2.12953 0.413051 3.71482 0 0 0 123 136 140 255
2.4259 0.417091 3.69272 0 0 0 61 43 33 255
-0.599202 0.45586 4.06413 0 0 0 144 156 158 255
-0.983642 0.483463 4.22878 0 0 0 127 120 122 255
2.14683 0.467671 3.70647 0 0 0 61 40 29 255
-0.348258 0.537696 4.22211 0 0 0 32 80 117 255
2.1066 0.513987 3.73238 0 0 0 47 38 40 255
2.21605 0.520313 3.68274 0 0 0 52 36 38 255
2.42478 0.508171 3.69274 0 0 0 39 38 42 255
1.98136 0.550539 3.8903 0 0 0 130 133 131 255
2.28516 0.524912 3.67666 0 0 0 37 39 43 255
-0.93976 0.588302 4.17818 0 0 0 22 55 94 255
-0.859889 0.574873 4.10838 0 0 0 152 152 152 255
-0.63784 0.575777 4.07197 0 0 0 153 155 167 255
-0.449564 0.569135 4.13151 0 0 0 156 158 162 255
2.11936 0.550374 3.72205 0 0 0 137 139 139 255
2.14784 0.551664 3.70346 0 0 0 107 90 75 255
2.19144 0.556209 3.68915 0 0 0 137 141 142 255
2.23402 0.558686 3.68022 0 0 0 142 141 144 255
2.33184 0.550413 3.67201 0 0 0 141 146 147 255
2.37986 0.552813 3.6727 0 0 0 45 41 45 255
2.42754 0.553085 3.69773 0 0 0 143 143 143 255
-0.803388 0.588457 4.08804 0 0 0 29 51 90 255
-0.739 0.607692 4.06139 0 0 0 156 156 156 255
-0.576184 0.622094 4.11556 0 0 0 104 112 143 255
1.04036 0.645902 4.72567 0 0 0 40 80 74 255
-0.740651 0.621162 4.06347 0 0 0 156 159 158 255
-0.359261 0.657622 4.21707 0 0 0 146 151 161 255
-0.578775 0.667684 4.10794 0 0 0 61 68 87 255
-0.509418 0.660415 4.07964 0 0 0 59 65 84 255
-0.431413 0.665751 4.14253 0 0 0 153 157 159 255
-0.95346 0.686959 4.16268 0 0 0 28 44 82 255
-0.874847 0.676762 4.10831 0 0 0 56 60 71 255
-0.776082 0.676247 4.06389 0 0 0 34 53 94 255
-0.361942 0.681448 4.21372 0 0 0 146 152 161 255
-0.959661 0.700338 4.16381 0 0 0 24 46 91 255
-0.864247 0.704251 4.07897 0 0 0 111 118 126 255
-0.740334 0.709703 4.06954 0 0 0 153 157 160 255
-0.410416 0.727486 4.17084 0 0 0 154 159 171 255
-0.893592 0.764145 4.11849 0 0 0 107 117 124 255
2.27611 0.734646 3.68553 0 0 0 110 80 42 255
-0.683913 0.777049 4.08779 0 0 0 156 158 163 255
-1.00206 0.815222 4.22218 0 0 0 39 52 75 255
-0.383122 0.80199 4.19487 0 0 0 103 118 135 255
-0.286288 0.80538 4.31723 0 0 0 149 153 154 255
-0.621884 0.811997 4.08091 0 0 0 49 59 86 255
-0.335276 0.814544 4.2422 0 0 0 33 58 96 255
-0.808718 0.827216 4.07634 0 0 0 74 80 99 255
-0.617435 0.87781 4.08086 0 0 0 58 75 97 255
-0.408951 0.900661 4.1748 0 0 0 61 73 100 255
-0.742649 0.883414 4.06894 0 0 0 60 75 95 255
-0.499499 0.895063 4.12087 0 0 0 160 162 163 255
-0.863643 0.909737 4.09248 0 0 0 31 51 92 255
-0.561214 0.928498 4.08297 0 0 0 160 162 163 255
-0.863001 0.925282 4.09014 0 0 0 26 52 95 255
-0.667916 0.949518 4.09377 0 0 0 159 162 161 255
-0.617816 0.948999 4.08113 0 0 0 77 85 106 255
-0.798087 0.984755 4.09403 0 0 0 41 55 91 255
1.18612 1.12189 5.06007 0 0 0 168 174 170 255
-0.474841 0.999018 4.13715 0 0 0 137 155 172 255
-0.35987 1.01642 4.22973 0 0 0 122 144 164 255
-0.924794 1.01747 4.16493 0 0 0 148 150 151 255
1.18911 1.22403 5.07266 0 0 0 158 162 161 255
-0.621066 1.07798 4.09626 0 0 0 113 153 184 255
-0.383384 1.14093 4.20987 0 0 0 145 152 158 255
2.12607 1.06335 3.75183 0 0 0 95 95 94 255
2.28525 1.07096 3.71135 0 0 0 86 79 81 255
-0.673322 1.15431 4.07646 0 0 0 23 88 136 255
-0.631618 1.1534 4.07783 0 0 0 142 157 181 255
-0.586182 1.14436 4.07624 0 0 0 9 108 147 255
-0.877444 1.20615 4.1584 0 0 0 142 144 146 255
-0.784738 1.18171 4.10587 0 0 0 19 84 129 255
-0.623831 1.19555 4.06204 0 0 0 46 80 123 255
-0.329329 1.2322 4.25789 0 0 0 162 140 95 255
-0.912405 1.22174 4.14513 0 0 0 82 104 140 255
-0.88736 1.26589 4.10311 0 0 0 124 142 163 255
-0.843078 1.29512 4.07204 0 0 0 124 131 141 255
-0.785154 1.30708 4.07217 0 0 0 29 74 114 255
-0.695734 1.29187 4.06693 0 0 0 111 112 122 255
-0.372174 1.3887 4.21874 0 0 0 152 154 156 255
-0.891585 1.39358 4.16235 0 0 0 84 129 157 255
2.4102 1.41273 3.7808 0 0 0 93 90 94 255
2.39289 1.62949 3.9852 0 0 0 205 206 212 255
2.23953 -0.203178 3.82821 0 0 0 42 41 42 255
2.46387 -0.193388 3.94572 0 0 0 63 43 41 255
2.12346 -0.0509111 3.96941 0 0 0 47 49 51 255
2.47809 0.0500006 3.93164 0 0 0 83 86 92 255
-1.06886 0.133976 4.31259 0 0 0 22 47 84 255
-0.653537 0.273565 4.04923 0 0 0 129 110 99 255
2.28853 0.269257 3.69469 0 0 0 118 95 70 255
-0.362414 0.354771 4.20289 0 0 0 124 141 155 255
1.96147 0.338148 4.02618 0 0 0 59 58 59 255
-0.928623 0.353876 4.09977 0 0 0 96 99 113 255
-0.88227 0.332026 4.09768 0 0 0 8 56 107 255
0.767805 0.388515 4.5779 0 0 0 159 159 159 255
2.39578 0.397326 3.68335 0 0 0 122 130 137 255
-0.43427 0.420064 4.13508 0 0 0 149 150 154 255
2.07285 0.397936 3.74914 0 0 0 124 136 136 255
2.18326 0.413147 3.69362 0 0 0 132 143 146 255
2.2868 0.391054 3.67141 0 0 0 143 143 143 255
2.34207 0.43747 3.66836 0 0 0 40 41 47 255
-0.944541 0.469844 4.17479 0 0 0 145 109 78 255
2.26672 0.489699 3.67432 0 0 0 136 136 137 255
-0.453437 0.587101 4.12747 0 0 0 158 160 160 255
1.97688 0.59688 4.03435 0 0 0 45 46 47 255
-0.638275 0.574716 4.07174 0 0 0 153 155 167 255
-0.735381 0.627542 4.06328 0 0 0 156 159 159 255
-0.361546 0.652808 4.21681 0 0 0 113 126 151 255
-0.959085 0.685537 4.151 0 0 0 22 44 84 255
-0.635127 0.685825 4.07455 0 0 0 154 158 160 255
-0.414661 0.678539 4.16204 0 0 0 32 60 105 255
-0.869053 0.722228 4.07758 0 0 0 122 125 129 255
0.790803 0.75755 4.59864 0 0 0 70 110 74 255
-0.743399 0.730266 4.06415 0 0 0 159 160 160 255
-0.4067 0.876581 4.17175 0 0 0 158 161 161 255
-0.863131 0.905406 4.07908 0 0 0 29 52 93 255
-0.767743 0.941771 4.07993 0 0 0 158 161 160 255
-0.985939 1.068 4.22199 0 0 0 23 53 95 255
-0.396846 1.10163 4.19834 0 0 0 3 94 141 255
-0.350322 1.14233 4.24098 0 0 0 146 150 155 255
-0.571567 1.14182 4.05926 0 0 0 4 108 151 255
-0.864069 1.19056 4.11918 0 0 0 141 143 145 255
-0.784769 1.18757 4.10605 0 0 0 20 85 131 255
-0.705927 1.17102 4.05421 0 0 0 126 144 160 255
-0.65604 1.17649 4.08562 0 0 0 33 87 135 255
-0.33959 1.25146 4.25044 0 0 0 164 148 92 255
0.364074 1.40245 4.92803 0 0 0 67 94 81 255
-0.889385 1.27784 4.14955 0 0 0 138 143 146 255
-0.769834 1.27475 4.10672 0 0 0 157 157 158 255
-0.351287 1.27837 4.24375 0 0 0 168 154 103 255
-0.782022 1.30112 4.08374 0 0 0 36 74 113 255
-0.693818 1.29452 4.01651 0 0 0 132 130 139 255
-0.62052 1.29695 4.04258 0 0 0 28 75 118 255
-0.544579 1.30786 4.07009 0 0 0 166 160 125 255
-0.294996 1.46103 4.65304 0 0 0 45 86 123 255
2.13184 -0.0815316 3.96878 0 0 0 65 66 72 255
-0.342288 0.111229 4.60752 0 0 0 26 61 102 255
2.05345 0.164849 4.02685 0 0 0 55 58 57 255
-0.358207 0.369132 4.20859 0 0 0 138 149 156 255
-0.879097 0.407581 4.06243 0 0 0 143 135 116 255
-0.60299 0.392254 4.06461 0 0 0 135 143 155 255
-0.525333 0.397671 4.08348 0 0 0 153 159 162 255
1.9732 0.415319 3.93505 0 0 0 111 113 111 255
-0.921774 0.449545 4.14334 0 0 0 147 142 134 255
-0.723588 0.456281 4.04576 0 0 0 117 125 105 255
-0.350523 0.462068 4.21446 0 0 0 151 153 161 255
1.08979 0.523338 4.78534 0 0 0 93 113 86 255
1.98179 0.508939 3.93112 0 0 0 121 128 125 255
-0.985485 0.537612 4.22686 0 0 0 12 59 104 255
0.831642 0.594339 4.60328 0 0 0 156 160 161 255
2.07788 0.550846 3.74814 0 0 0 135 139 140 255
2.20173 0.551861 3.68497 0 0 0 143 142 139 255
-0.625105 0.589836 4.08104 0 0 0 157 159 161 255
-0.456648 0.594323 4.12523 0 0 0 157 160 162 255
1.96763 0.605341 4.03505 0 0 0 50 52 52 255
-0.907953 0.631225 4.12854 0 0 0 150 152 151 255
-0.834518 0.603308 4.10319 0 0 0 146 152 155 255
-0.50501 0.644624 4.06806 0 0 0 156 158 158 255
-0.314955 0.687781 4.30949 0 0 0 146 153 154 255
-0.972391 0.698422 4.18587 0 0 0 23 46 87 255
0.946894 0.75198 4.65008 0 0 0 116 146 130 255
1.08908 0.769178 4.76636 0 0 0 48 91 74 255
-0.669021 0.730994 4.07899 0 0 0 27 55 103 255
-1.00769 0.823943 4.22464 0 0 0 23 61 94 255
-0.731478 0.862864 4.07456 0 0 0 37 61 107 255
-0.449437 0.830218 4.1401 0 0 0 107 104 108 255
-0.607362 0.90764 4.08216 0 0 0 158 161 165 255
-0.844061 0.97285 4.10427 0 0 0 152 154 156 255
-0.470693 0.997953 4.14003 0 0 0 137 155 172 255
-0.360785 1.02373 4.22878 0 0 0 127 129 131 255
-0.477249 1.06133 4.13201 0 0 0 148 152 158 255
-0.343525 1.20713 4.25283 0 0 0 140 124 104 255
1.11244 1.40737 5.09938 0 0 0 68 108 88 255
-0.519872 1.31598 4.0885 0 0 0 174 163 107 255
-0.948401 1.41496 4.19433 0 0 0 44 79 117 255
-0.507634 1.43631 4.12306 0 0 0 45 86 124 255
1.99539 1.57706 4.10218 0 0 0 110 112 108 255
2.12583 -0.200946 3.97287 0 0 0 84 67 60 255
2.11909 -0.125799 3.97662 0 0 0 72 57 57 255
1.053 0.111637 4.8269 0 0 0 45 91 64 255
2.04644 0.178733 4.03402 0 0 0 54 54 54 255
2.07778 0.171099 4.01092 0 0 0 40 47 49 255
1.9781 0.270087 4.01769 0 0 0 109 101 98 255
-0.864936 0.425159 4.11453 0 0 0 147 132 77 255
1.95943 0.471225 3.9745 0 0 0 128 132 131 255
-0.403657 0.623639 4.16244 0 0 0 25 57 105 255
-0.843082 0.64992 4.10625 0 0 0 154 153 154 255
-0.689232 0.635419 4.05402 0 0 0 23 56 107 255
1.05617 0.809559 4.74018 0 0 0 50 95 71 255
-0.727509 0.816755 4.06301 0 0 0 73 84 96 255
-0.298452 0.872597 4.27704 0 0 0 18 64 112 255
1.99567 0.904306 4.07842 0 0 0 46 51 52 255
-0.377048 1.21688 4.21501 0 0 0 153 126 99 255
0.382924 1.3857 4.90061 0 0 0 64 93 79 255
-0.8284 1.21307 4.10651 0 0 0 131 129 136 255
-0.453289 1.30957 4.16093 0 0 0 173 160 74 255
-0.335438 1.44315 4.63277 0 0 0 30 78 119 255
-0.873002 1.43288 4.11136 0 0 0 50 80 110 255
2.19966 -0.193198 3.88293 0 0 0 129 93 98 255
2.4987 -0.188299 3.96382 0 0 0 82 87 87 255
2.30599 -0.171553 3.92519 0 0 0 138 103 105 255
2.50546 -0.0970818 3.98965 0 0 0 115 122 124 255
2.50656 -0.0736514 3.96269 0 0 0 81 85 86 255
2.49669 -0.0131955 3.96314 0 0 0 120 127 129 255
2.21277 0.0168454 3.91096 0 0 0 162 162 162 255
2.5463 0.120157 3.98194 0 0 0 113 115 117 255
-0.316061 0.0977913 4.6401 0 0 0 81 87 99 255
2.33929 0.254006 3.70171 0 0 0 155 135 115 255
0.649102 0.248164 4.58293 0 0 0 30 53 50 255
0.920362 0.258259 4.61525 0 0 0 96 101 99 255
0.458041 0.274557 4.67677 0 0 0 121 130 129 255
0.960387 0.268255 4.63211 0 0 0 83 112 100 255
2.34591 0.303261 3.69873 0 0 0 76 50 28 255
-0.735286 0.289614 4.04992 0 0 0 30 47 93 255
2.31951 0.306871 3.69727 0 0 0 153 123 92 255
0.670421 0.318063 4.57739 0 0 0 123 149 104 255
-0.382596 0.320679 4.17746 0 0 0 62 112 157 255
-0.333785 0.409172 4.229 0 0 0 114 88 103 255
2.51447 0.425435 3.724 0 0 0 99 98 98 255
-0.421013 0.44829 4.14137 0 0 0 150 151 157 255
2.27968 0.451884 3.67099 0 0 0 86 81 78 255
-0.510893 0.478468 4.08687 0 0 0 40 83 116 255
2.11531 0.524988 3.72477 0 0 0 38 42 46 255
2.22502 0.537581 3.68001 0 0 0 35 40 52 255
2.06441 0.556438 3.75624 0 0 0 75 86 87 255
0.576297 0.683841 4.6264 0 0 0 145 153 151 255
1.10945 0.736165 4.79371 0 0 0 136 148 146 255
1.08993 0.753365 4.76668 0 0 0 134 142 139 255
1.05291 0.767589 4.74196 0 0 0 144 153 153 255
-0.787217 0.756541 4.02459 0 0 0 86 89 99 255
2.33272 0.715844 3.68232 0 0 0 73 61 49 255
-0.819318 0.876041 3.99471 0 0 0 57 71 86 255
-0.815544 0.878356 3.99229 0 0 0 61 67 88 255
1.88492 1.43576 6.97589 0 0 0 147 145 139 255
1.32216 1.39435 6.59374 0 0 0 133 131 125 255
1.23888 1.37525 6.44469 0 0 0 142 141 133 255
0.906225 1.17854 4.64544 0 0 0 95 89 43 255
2.40126 1.04759 3.71464 0 0 0 99 97 98 255
2.42268 1.04459 3.68887 0 0 0 107 115 115 255
2.16676 1.06761 3.73744 0 0 0 125 133 133 255
2.07656 1.08587 3.78013 0 0 0 90 93 94 255
2.21006 1.08761 3.71141 0 0 0 73 75 74 255
2.30995 1.08559 3.70656 0 0 0 87 89 90 255
2.34021 1.08675 3.70469 0 0 0 87 93 93 255
2.20902 1.16521 3.67357 0 0 0 99 102 104 255
2.22792 1.23983 3.66708 0 0 0 109 118 116 255
2.39212 1.23622 3.65637 0 0 0 100 98 98 255
-0.414887 1.39766 4.18211 0 0 0 113 120 126 255
-0.671821 1.36951 3.83514 0 0 0 70 107 143 255
2.15019 1.36801 3.69945 0 0 0 117 120 119 255
2.18725 1.37912 3.67084 0 0 0 119 121 125 255
2.21698 1.39383 3.65806 0 0 0 100 102 104 255
2.49928 -0.00109774 3.9616 0 0 0 138 145 145 255
2.37784 0.313747 3.69714 0 0 0 106 86 56 255
0.609939 0.373851 4.59045 0 0 0 90 60 64 255
-0.722883 0.393758 4.04481 0 0 0 119 120 112 255
-0.509323 0.486684 4.08798 0 0 0 19 83 128 255
2.51219 0.493315 3.70993 0 0 0 68 49 45 255
2.64201 0.901913 3.89333 0 0 0 90 99 99 255
-0.655999 0.938061 4.00762 0 0 0 159 159 164 255
2.39383 1.03424 3.67394 0 0 0 81 82 82 255
-0.689218 1.36347 3.8334 0 0 0 80 126 160 255
-0.510752 1.41881 4.13754 0 0 0 64 114 148 255
2.11379 -0.200615 3.9746 0 0 0 109 98 94 255
2.10754 -0.0119092 3.98482 0 0 0 149 149 147 255
0.677667 0.242712 4.57529 0 0 0 96 99 99 255
2.38062 0.260924 3.70725 0 0 0 155 118 75 255
-0.710779 0.296814 4.04854 0 0 0 143 131 87 255
2.3902 0.3191 3.69488 0 0 0 64 43 28 255
0.886007 0.39496 4.60552 0 0 0 153 144 145 255
1.02737 0.415098 4.69589 0 0 0 131 63 70 255
-0.721318 0.401993 4.04304 0 0 0 145 145 130 255
0.443669 0.427154 4.68388 0 0 0 140 139 139 255
2.34517 0.463661 3.67099 0 0 0 47 44 47 255
-0.467478 0.484687 4.10979 0 0 0 114 121 130 255
2.37083 0.544575 3.67168 0 0 0 41 40 45 255
-0.851036 0.738673 4.0355 0 0 0 93 101 111 255
2.36563 0.729806 3.6943 0 0 0 91 69 44 255
-0.690801 0.789784 4.08707 0 0 0 159 158 161 255
2.36265 0.749522 3.69093 0 0 0 97 71 33 255
-0.565709 0.908012 4.07869 0 0 0 161 161 163 255
0.858506 1.13886 4.6264 0 0 0 152 156 133 255
-0.377188 1.10481 4.21057 0 0 0 9 82 129 255
0.889449 1.17583 4.63542 0 0 0 125 121 72 255
-0.443092 1.39517 4.11713 0 0 0 155 159 162 255
2.45583 1.36617 3.64505 0 0 0 88 84 87 255
2.129 -0.142915 3.97074 0 0 0 68 46 46 255
2.47582 -0.0661718 3.96068 0 0 0 60 67 75 255
2.20993 0.0153695 3.91056 0 0 0 156 158 160 255
2.47308 0.0396025 3.99962 0 0 0 89 89 89 255
2.12847 0.0423128 3.96287 0 0 0 93 96 95 255
-0.35651 0.319113 4.20197 0 0 0 50 96 131 255
2.28762 0.431789 3.67253 0 0 0 141 142 141 255
2.42334 0.45312 3.67767 0 0 0 35 37 41 255
2.20736 0.484175 3.66927 0 0 0 61 36 28 255
0.794862 0.557285 4.59678 0 0 0 154 159 157 255
0.440425 0.600324 4.69863 0 0 0 86 114 109 255
2.39032 0.537626 3.66574 0 0 0 142 145 146 255
1.95816 0.592455 3.99844 0 0 0 59 59 62 255
2.2415 0.54546 3.67787 0 0 0 132 142 144 255
2.28473 0.555373 3.67634 0 0 0 35 36 40 255
-0.446536 0.643986 4.12778 0 0 0 158 159 161 255
-0.404398 0.664845 4.16782 0 0 0 25 59 107 255
-0.634183 0.663751 4.07118 0 0 0 158 158 162 255
-0.744591 0.674931 4.06651 0 0 0 36 50 91 255
-0.28652 0.763818 4.32355 0 0 0 128 132 139 255
-0.483192 0.895821 4.12654 0 0 0 159 161 160 255
-0.796279 0.972134 3.97145 0 0 0 151 150 152 255
-0.399512 1.07846 4.18828 0 0 0 1 98 145 255
-0.591458 1.09882 4.00947 0 0 0 131 148 162 255
-0.526026 1.12238 4.00414 0 0 0 0 106 149 255
-0.330957 1.16456 4.25828 0 0 0 133 134 139 255
2.40567 -0.220676 3.85264 0 0 0 144 144 144 255
2.21474 0.0213932 3.91248 0 0 0 162 162 162 255
1.08981 0.105138 4.96678 0 0 0 50 93 69 255
1.03265 0.31127 4.70425 0 0 0 143 145 133 255
-0.873933 0.397202 4.1179 0 0 0 151 135 77 255
-0.734372 0.385766 4.04609 0 0 0 129 131 116 255
2.23029 0.490693 3.67827 0 0 0 35 37 41 255
0.780996 0.594067 4.59009 0 0 0 157 162 160 255
1.98471 0.529054 3.93674 0 0 0 127 133 136 255
2.38828 0.54077 3.66465 0 0 0 122 130 132 255
-0.616097 0.635713 4.08327 0 0 0 159 160 161 255
-0.403846 0.64144 4.16269 0 0 0 25 59 105 255
0.77326 0.685849 4.60179 0 0 0 67 110 68 255
-0.306385 0.747848 4.30601 0 0 0 153 156 155 255
0.785445 0.82118 4.60625 0 0 0 158 163 161 255
-0.416729 0.830661 4.16278 0 0 0 158 160 162 255
-0.627898 0.896449 4.08191 0 0 0 100 113 139 255
-0.454822 0.998651 4.14767 0 0 0 134 150 165 255
-0.362726 1.13587 4.22555 0 0 0 128 140 152 255
-0.532684 1.14352 4.10551 0 0 0 1 98 146 255
-0.347888 1.24701 4.23355 0 0 0 155 139 84 255
-0.30397 1.47291 4.65708 0 0 0 87 119 151 255
-0.450545 1.41889 4.07517 0 0 0 36 80 123 255
2.14368 -0.0566801 3.95661 0 0 0 33 41 36 255
1.0713 0.10877 4.93353 0 0 0 48 91 67 255
-0.359465 0.401897 4.20328 0 0 0 97 69 102 255
1.94668 0.475176 3.98545 0 0 0 90 90 87 255
2.13214 0.53883 3.71379 0 0 0 134 142 146 255
-0.39706 0.644205 4.16954 0 0 0 24 59 106 255
-0.697081 0.693226 4.05846 0 0 0 25 58 111 255
0.805855 0.776258 4.59927 0 0 0 77 116 99 255
1.0737 1.39472 5.09029 0 0 0 66 105 77 255
2.21792 -0.209321 3.88442 0 0 0 119 120 121 255
2.10372 -0.185836 3.96751 0 0 0 110 105 104 255
2.10551 -0.129952 3.96819 0 0 0 136 136 133 255
2.10343 -0.108206 3.96141 0 0 0 143 141 139 255
2.12142 -0.0762395 3.95705 0 0 0 72 73 74 255
2.36019 -0.0530938 3.86136 0 0 0 79 83 86 255
0.376221 0.150435 4.80736 0 0 0 28 59 44 255
2.35899 0.249912 3.70666 0 0 0 88 83 82 255
2.28581 0.25396 3.69818 0 0 0 57 56 59 255
2.20394 0.270535 3.71615 0 0 0 62 49 47 255
2.32413 0.277324 3.70014 0 0 0 69 58 57 255
2.32704 0.277655 3.69984 0 0 0 69 58 57 255
-0.457976 0.278015 4.11101 0 0 0 73 55 38 255
-0.444494 0.304127 4.12128 0 0 0 97 82 94 255
-0.764589 0.300623 4.05287 0 0 0 131 109 116 255
-0.458224 0.327121 4.11369 0 0 0 63 100 144 255
-0.46647 0.372013 4.11364 0 0 0 137 137 146 255
-0.492946 0.468301 4.09606 0 0 0 128 145 164 255
-0.701602 0.463354 4.04451 0 0 0 120 127 124 255
1.03943 0.51207 4.72054 0 0 0 122 136 112 255
-0.368009 0.504736 4.19612 0 0 0 73 114 148 255
-0.347552 0.520616 4.22062 0 0 0 32 82 125 255
1.09905 0.709346 4.78112 0 0 0 111 118 117 255
0.46206 0.942832 4.71988 0 0 0 101 113 109 255
1.16378 1.25131 5.4417 0 0 0 140 139 133 255
2.40969 1.07199 3.73738 0 0 0 125 129 128 255
-1.04573 1.2364 4.4128 0 0 0 54 99 133 255
-0.963272 1.2578 4.38303 0 0 0 27 84 124 255
-0.844136 1.25264 4.26463 0 0 0 115 96 111 255
-0.998633 1.28466 4.37335 0 0 0 106 105 114 255
2.16168 1.17992 3.77026 0 0 0 99 100 102 255
2.38713 1.18243 3.75102 0 0 0 106 105 109 255
2.37747 1.22543 3.76078 0 0 0 103 103 103 255
2.28202 1.2641 3.74566 0 0 0 103 107 110 255
-1.14576 1.49505 4.59614 0 0 0 59 110 152 255
-0.368649 1.40999 4.22082 0 0 0 160 157 163 255
-1.21418 1.58849 4.69882 0 0 0 98 112 134 255
2.23229 1.40016 3.75655 0 0 0 113 113 115 255
-0.444923 0.277967 4.12019 0 0 0 140 103 88 255
-0.465137 0.370752 4.11466 0 0 0 119 135 153 255
0.667704 0.403621 4.57767 0 0 0 124 46 49 255
-0.404429 0.486283 4.15402 0 0 0 98 119 145 255
1.10586 0.592569 4.81602 0 0 0 139 146 146 255
-0.472566 0.662923 4.06858 0 0 0 100 107 129 255
-0.72875 0.885251 4.07718 0 0 0 32 62 104 255
-0.793835 1.21134 4.22572 0 0 0 134 145 147 255
-0.968309 1.2583 4.38078 0 0 0 33 90 128 255
2.38596 1.41694 3.78241 0 0 0 95 95 99 255
2.45392 -0.218259 3.95584 0 0 0 74 74 76 255
2.35462 0.285876 3.7016 0 0 0 149 124 96 255
2.38683 0.301125 3.70033 0 0 0 133 97 66 255
2.42026 0.420528 3.69196 0 0 0 61 34 20 255
-0.648234 0.411241 4.04879 0 0 0 23 91 75 255
-0.283989 0.41579 4.30264 0 0 0 67 117 147 255
2.1486 0.509599 3.71052 0 0 0 136 140 137 255
-0.350736 0.491998 4.21467 0 0 0 125 137 153 255
0.779131 0.554351 4.5925 0 0 0 155 159 160 255
-0.503142 0.751593 4.11661 0 0 0 158 159 160 255
-0.371475 0.786761 4.19727 0 0 0 62 75 103 255
-0.817101 1.22799 4.23955 0 0 0 139 138 140 255
-0.804982 1.21515 4.23461 0 0 0 137 144 146 255
2.39835 1.41493 3.79426 0 0 0 98 92 97 255
2.14483 -0.204477 3.9533 0 0 0 47 44 45 255
2.26655 -0.206302 3.85447 0 0 0 42 40 39 255
2.13848 -0.212864 3.96596 0 0 0 56 55 55 255
2.13626 -0.112027 3.95611 0 0 0 39 41 40 255
2.28557 0.284295 3.69308 0 0 0 158 127 80 255
2.40747 0.389886 3.68596 0 0 0 119 136 144 255
2.32925 0.428267 3.67204 0 0 0 56 43 41 255
2.37001 0.442255 3.67204 0 0 0 134 144 147 255
-0.639839 0.420202 4.05096 0 0 0 37 102 91 255
-0.573876 0.440531 4.06905 0 0 0 114 141 165 255
2.41026 0.481526 3.67679 0 0 0 36 40 43 255
1.96791 0.511494 3.90258 0 0 0 109 111 110 255
0.832938 0.566457 4.59973 0 0 0 157 162 160 255
1.08452 0.599496 4.77307 0 0 0 144 149 147 255
-0.5331 0.763748 4.09682 0 0 0 97 117 135 255
0.951716 1.09149 4.66493 0 0 0 29 80 119 255
0.535943 1.23544 4.67351 0 0 0 149 152 151 255
-0.383674 1.42487 4.30353 0 0 0 28 78 122 255
2.3959 1.42117 3.79415 0 0 0 95 95 104 255
2.43897 -0.220071 3.94738 0 0 0 60 61 61 255
-0.305109 0.13339 4.53279 0 0 0 25 66 103 255
0.381218 0.0993972 4.79224 0 0 0 61 83 76 255
2.25435 0.290503 3.70471 0 0 0 140 105 63 255
1.02759 0.282719 4.69847 0 0 0 113 129 108 255
2.11636 0.413368 3.72312 0 0 0 45 49 59 255
-0.417171 0.411746 4.14711 0 0 0 129 141 148 255
-0.323906 0.418785 4.237 0 0 0 149 130 136 255
-0.338945 0.473501 4.22566 0 0 0 147 151 157 255
2.21695 0.554621 3.68321 0 0 0 139 142 142 255
-0.295899 0.738649 4.32049 0 0 0 152 152 152 255
-0.436846 0.876119 4.14385 0 0 0 157 160 159 255
-0.344874 1.17047 4.25047 0 0 0 144 142 144 255
-0.31062 1.44868 4.62297 0 0 0 32 76 114 255
2.41005 -0.190787 3.85708 0 0 0 88 44 45 255
2.41589 -0.119163 3.86541 0 0 0 34 33 35 255
2.39671 -0.0387819 3.83554 0 0 0 35 37 41 255
2.30701 0.00267563 3.88334 0 0 0 128 130 129 255
2.33544 0.0889134 3.92646 0 0 0 186 188 190 255
1.08785 0.146697 4.84546 0 0 0 49 94 67 255
-0.347374 0.168166 4.52988 0 0 0 6 57 103 255
2.07977 0.445565 3.73439 0 0 0 134 137 137 255
1.94526 0.475928 3.88116 0 0 0 133 136 135 255
0.733655 0.690883 4.59724 0 0 0 62 108 73 255
-0.325378 0.705745 4.25316 0 0 0 153 155 157 255
0.807107 0.825677 4.59932 0 0 0 160 162 162 255
2.24426 0.737238 3.68578 0 0 0 54 44 38 255
2.2748 -0.160845 3.83344 0 0 0 140 105 100 255
2.49664 -0.015279 3.97833 0 0 0 108 115 113 255
2.22686 0.0197019 3.90635 0 0 0 169 166 167 255
2.55119 0.130667 4.02825 0 0 0 89 93 94 255
-0.982029 0.13166 4.14929 0 0 0 47 61 76 255
-3.08271 0.162294 6.44786 0 0 0 49 45 43 255
0.55415 0.244091 4.60266 0 0 0 35 59 57 255
0.935869 0.256636 4.62218 0 0 0 54 87 82 255
2.47086 0.279918 3.73428 0 0 0 89 70 78 255
0.939848 0.334474 4.62928 0 0 0 143 146 143 255
2.36355 0.303939 3.69805 0 0 0 157 124 73 255
-0.911294 0.326912 4.09488 0 0 0 91 102 119 255
-0.462579 0.342906 4.1145 0 0 0 6 68 120 255
1.02807 0.37644 4.70014 0 0 0 107 47 57 255
-0.573082 0.384251 4.07403 0 0 0 45 80 108 255
2.55577 0.375252 3.76184 0 0 0 64 72 75 255
2.48818 0.385382 3.72036 0 0 0 119 128 132 255
2.50878 0.384472 3.73332 0 0 0 128 128 131 255
2.51327 0.428223 3.7314 0 0 0 118 118 118 255
2.54467 0.435673 3.7518 0 0 0 75 63 58 255
-0.979768 0.512481 4.18584 0 0 0 40 65 93 255
1.0663 0.580207 4.72986 0 0 0 111 147 136 255
2.51822 0.486155 3.73079 0 0 0 107 100 94 255
1.09983 0.606398 4.80306 0 0 0 113 113 113 255
1.07378 0.612682 4.74839 0 0 0 126 133 130 255
1.10027 0.656745 4.79496 0 0 0 110 117 115 255
2.45523 0.536211 3.71632 0 0 0 87 97 105 255
1.07431 0.667906 4.75671 0 0 0 116 123 123 255
-0.946545 0.676237 4.13863 0 0 0 49 62 78 255
-0.895851 0.680691 4.13862 0 0 0 74 80 86 255
1.1079 0.753116 4.79237 0 0 0 139 146 145 255
-0.895421 0.72489 4.13506 0 0 0 124 128 129 255
0.867473 0.853145 4.61983 0 0 0 152 159 157 255
2.38232 0.765427 3.69643 0 0 0 107 81 51 255
-0.868215 0.944698 4.11247 0 0 0 42 53 93 255
-0.455115 0.951472 4.14101 0 0 0 77 97 137 255
-0.895333 1.01953 4.15131 0 0 0 56 62 84 255
-0.855698 1.00883 4.12736 0 0 0 147 149 152 255
-0.868218 1.00887 4.08229 0 0 0 138 139 146 255
-0.304528 1.0959 4.63339 0 0 0 65 108 139 255
1.24597 1.40746 6.64576 0 0 0 152 148 142 255
1.0889 1.42763 6.37323 0 0 0 141 142 140 255
1.03955 1.17188 4.74746 0 0 0 137 119 47 255
-0.302491 1.20291 4.63526 0 0 0 57 98 126 255
-0.631317 1.20227 4.09286 0 0 0 64 85 114 255
-0.734567 1.20643 3.97007 0 0 0 88 102 117 255
2.47822 1.03923 3.70487 0 0 0 92 91 91 255
2.52593 1.04277 3.7443 0 0 0 79 80 79 255
2.22477 1.05924 3.72692 0 0 0 76 82 80 255
2.29949 1.0532 3.70623 0 0 0 131 136 139 255
2.28746 1.06761 3.75125 0 0 0 92 94 94 255
2.43627 1.04517 3.70113 0 0 0 101 98 99 255
-0.683972 1.25661 3.93813 0 0 0 72 91 109 255
-0.737192 1.26788 3.94875 0 0 0 114 123 134 255
2.39695 1.08358 3.72039 0 0 0 75 73 74 255
2.43854 1.0854 3.71364 0 0 0 76 76 76 255
2.44759 1.08893 3.73201 0 0 0 86 90 91 255
-0.626805 1.34744 3.86975 0 0 0 66 103 130 255
2.50119 -0.0150891 3.97228 0 0 0 139 146 144 255
-0.372245 0.331383 4.19004 0 0 0 72 111 144 255
1.04957 0.352071 4.71362 0 0 0 87 87 87 255
0.746693 0.357498 4.575 0 0 0 89 49 51 255
0.906618 0.370076 4.61332 0 0 0 150 130 132 255
2.55157 0.384678 3.7563 0 0 0 121 133 134 255
2.43819 0.387482 3.70292 0 0 0 139 139 139 255
-0.51892 0.429535 4.08435 0 0 0 146 154 157 255
-0.637925 0.450996 4.04959 0 0 0 42 95 86 255
2.51807 0.423331 3.73882 0 0 0 90 64 61 255
2.15125 0.482176 3.70622 0 0 0 40 40 43 255
2.52091 0.496651 3.74792 0 0 0 104 75 62 255
-0.932983 0.574701 4.14264 0 0 0 17 53 94 255
2.44527 0.537446 3.71377 0 0 0 62 65 69 255
-0.945085 0.681644 4.13483 0 0 0 35 51 66 255
-0.896733 0.73741 4.13527 0 0 0 118 122 123 255
2.33719 0.758636 3.68023 0 0 0 99 76 48 255
-0.875993 1.04142 4.07909 0 0 0 34 55 89 255
1.10125 1.42542 6.3952 0 0 0 142 144 140 255
-0.733764 1.26097 3.9471 0 0 0 121 131 139 255
-0.681524 1.26061 3.94045 0 0 0 53 76 103 255
-0.626199 1.27603 3.94823 0 0 0 129 131 135 255
-0.642459 1.34671 3.87004 0 0 0 97 130 147 255
2.50047 -0.0147481 4.00844 0 0 0 139 146 144 255
2.48591 0.0441854 4.02515 0 0 0 88 88 92 255
2.07717 0.143729 3.91121 0 0 0 50 52 55 255
-0.967634 0.134339 4.14122 0 0 0 32 47 67 255
2.32335 0.263373 3.70157 0 0 0 147 112 61 255
2.473 0.287806 3.73525 0 0 0 81 81 85 255
-0.964517 0.291885 4.13383 0 0 0 39 63 82 255
0.999619 0.3647 4.67937 0 0 0 113 74 78 255
-0.302386 0.356324 4.26409 0 0 0 71 112 142 255
-0.566928 0.367633 4.07397 0 0 0 84 125 160 255
2.43364 0.384426 3.70028 0 0 0 131 133 136 255
2.49885 0.389745 3.72612 0 0 0 135 139 140 255
2.13295 0.427143 3.71156 0 0 0 132 140 142 255
-0.970738 0.524856 4.16584 0 0 0 32 67 94 255
-0.359767 0.510791 4.21146 0 0 0 76 112 141 255
2.39769 0.455977 3.67582 0 0 0 105 81 65 255
2.52627 0.502324 3.74818 0 0 0 40 39 40 255
-0.821414 0.576984 4.10427 0 0 0 30 53 77 255
2.43386 0.554152 3.70208 0 0 0 142 144 146 255
2.41788 0.547978 3.69114 0 0 0 143 146 145 255
-0.952355 0.670669 4.14247 0 0 0 74 78 86 255
-0.416298 0.696679 4.16118 0 0 0 42 59 81 255
-0.496077 0.720548 4.11742 0 0 0 46 55 92 255
0.934775 0.785763 4.6357 0 0 0 153 160 158 255
-0.873653 0.917862 4.12582 0 0 0 31 52 90 255
2.34669 0.74603 3.68288 0 0 0 99 64 32 255
-0.869868 0.940195 4.12138 0 0 0 38 54 91 255
0.872321 1.06777 4.62876 0 0 0 33 95 134 255
1.11064 1.42519 6.37058 0 0 0 142 144 140 255
-0.596223 1.15585 4.12181 0 0 0 4 105 150 255
-0.780327 1.16264 4.01082 0 0 0 141 143 144 255
-0.632173 1.20383 4.09022 0 0 0 60 88 126 255
1.14089 1.39755 5.09002 0 0 0 77 108 91 255
-0.574098 1.26999 3.99695 0 0 0 50 73 95 255
-0.626404 1.27058 3.94843 0 0 0 127 126 132 255
2.28079 -0.205359 3.86507 0 0 0 43 43 43 255
2.38852 -0.204857 3.86967 0 0 0 44 44 44 255
2.13511 -0.193309 3.96988 0 0 0 81 54 55 255
2.48138 -0.0902384 3.91776 0 0 0 49 51 53 255
-1.00846 -0.149398 4.20715 0 0 0 159 161 162 255
2.48457 -0.0493005 4.02183 0 0 0 41 47 46 255
2.19471 0.0276709 3.91403 0 0 0 112 112 112 255
0.379847 0.117582 4.78522 0 0 0 38 68 51 255
-0.672772 0.274495 4.04863 0 0 0 76 71 70 255
0.776196 0.355078 4.57638 0 0 0 150 142 143 255
-0.867167 0.385005 4.11205 0 0 0 137 140 135 255
-0.340507 0.384215 4.22612 0 0 0 116 85 104 255
0.883427 0.413627 4.60395 0 0 0 191 119 128 255
2.19078 0.424369 3.69273 0 0 0 138 140 142 255
2.28262 0.403921 3.67069 0 0 0 140 147 149 255
-0.900893 0.47228 4.15094 0 0 0 156 145 106 255
2.50029 0.434435 3.72101 0 0 0 133 140 142 255
2.41665 0.437322 3.68281 0 0 0 38 39 39 255
2.20468 0.512774 3.68638 0 0 0 94 66 58 255
2.41608 0.496815 3.68401 0 0 0 36 40 43 255
0.546734 0.62926 4.6401 0 0 0 149 153 152 255
2.28352 0.537908 3.67577 0 0 0 35 37 41 255
2.41283 0.548206 3.68854 0 0 0 143 146 145 255
2.48491 0.550383 3.72467 0 0 0 98 114 123 255
-0.463418 0.883003 4.1294 0 0 0 158 161 160 255
2.40589 0.777069 3.69567 0 0 0 90 85 75 255
-0.831585 0.980816 4.11329 0 0 0 152 154 155 255
-0.874534 1.05107 4.08922 0 0 0 26 57 96 255
-0.845828 1.1352 4.05748 0 0 0 32 79 116 255
1.06307 1.19284 4.76056 0 0 0 157 137 70 255
2.47943 1.06725 3.74222 0 0 0 91 91 92 255
-0.624492 1.27172 3.94924 0 0 0 127 126 132 255
-0.573501 1.27774 4.00054 0 0 0 28 74 114 255
-0.292446 1.42927 4.66387 0 0 0 52 86 118 255
0.856629 1.38283 4.64218 0 0 0 56 98 75 255
2.14844 0.0360203 3.94859 0 0 0 88 89 89 255
2.34492 0.113141 3.83959 0 0 0 252 250 252 255
-0.959274 0.103509 4.19907 0 0 0 147 149 148 255
-0.981804 0.162443 4.19012 0 0 0 32 60 98 255
-0.925546 0.293242 4.1174 0 0 0 7 51 91 255
2.40351 0.407401 3.68255 0 0 0 129 136 138 255
2.41386 0.502588 3.68393 0 0 0 36 40 43 255
2.17228 0.52246 3.69919 0 0 0 111 122 127 255
2.40031 0.533352 3.68163 0 0 0 143 145 149 255
0.771077 0.665865 4.58723 0 0 0 65 107 68 255
-0.52837 0.722912 4.10172 0 0 0 65 67 80 255
-0.724079 0.842094 4.07892 0 0 0 35 56 97 255
-0.388933 0.856788 4.18907 0 0 0 143 152 154 255
-0.812032 0.953434 4.10709 0 0 0 154 157 156 255
-0.418936 0.996377 4.16284 0 0 0 125 148 165 255
2.32948 0.831102 3.67857 0 0 0 93 80 63 255
1.11797 1.41787 6.38079 0 0 0 138 137 132 255
-0.676647 1.12101 4.00132 0 0 0 28 91 134 255
1.05609 1.22181 4.76282 0 0 0 152 126 68 255
0.448072 1.32958 4.75365 0 0 0 66 99 77 255
-0.675263 1.30046 3.92665 0 0 0 28 78 123 255
0.817637 1.3725 4.61717 0 0 0 53 92 67 255
-0.697602 1.36191 3.87052 0 0 0 62 87 119 255
2.08727 0.427342 3.73877 0 0 0 125 125 123 255
-0.562501 0.635053 4.10077 0 0 0 154 156 160 255
-0.431653 0.811537 4.15145 0 0 0 157 159 161 255
2.22683 0.736939 3.68596 0 0 0 76 61 41 255
1.11137 1.37239 5.10831 0 0 0 69 105 81 255
2.4727 -0.223041 4.04915 0 0 0 86 88 88 255
-0.865066 -0.152596 4.24327 0 0 0 215 214 221 255
2.35434 0.136316 3.94273 0 0 0 252 252 252 255
2.23569 0.313426 3.69975 0 0 0 78 41 7 255
2.65877 0.439271 4.01762 0 0 0 59 64 67 255
2.44175 0.405668 3.70684 0 0 0 78 66 55 255
-0.913627 0.907527 4.16184 0 0 0 67 64 74 255
1.94213 0.836951 4.05152 0 0 0 132 131 127 255
1.6249 1.19687 5.46247 0 0 0 92 89 81 255
1.94354 0.87294 4.03645 0 0 0 157 162 160 255
1.0616 1.12449 4.74933 0 0 0 87 112 82 255
-0.815262 1.20041 4.13017 0 0 0 37 88 126 255
2.38693 0.951698 3.6959 0 0 0 95 67 41 255
0.371113 0.0945728 4.78004 0 0 0 78 94 87 255
2.10398 0.391037 3.73636 0 0 0 108 108 110 255
2.34361 0.553673 3.67618 0 0 0 144 146 147 255
1.93658 0.824624 4.04488 0 0 0 143 141 135 255
1.2211 1.50113 6.71449 0 0 0 89 85 81 255
1.93761 0.843745 4.01636 0 0 0 112 109 105 255
2.29137 0.748887 3.6842 0 0 0 114 85 48 255
-0.811664 1.19095 4.1281 0 0 0 32 86 129 255
2.34978 -0.143129 3.85929 0 0 0 181 116 121 255
2.53983 0.137855 4.06532 0 0 0 52 47 46 255
-0.52315 0.414777 4.08192 0 0 0 151 153 154 255
2.65356 0.35068 4.05174 0 0 0 47 52 53 255
2.65113 0.398585 3.9789 0 0 0 78 93 100 255
2.14633 0.383466 3.70589 0 0 0 33 38 39 255
2.5135 0.403704 3.73724 0 0 0 104 98 96 255
-0.768329 0.657734 4.06324 0 0 0 145 146 147 255
-0.5629 0.771647 4.08085 0 0 0 159 162 162 255
-0.357676 0.811874 4.21358 0 0 0 160 158 162 255
2.3525 0.760537 3.68629 0 0 0 112 84 54 255
1.93828 0.888739 4.0627 0 0 0 161 164 162 255
-0.71537 1.17728 4.08356 0 0 0 106 139 167 255
2.49555 -0.0676358 4.04364 0 0 0 52 52 52 255
1.06889 0.0880403 5.14555 0 0 0 61 93 78 255
2.35736 0.134325 3.95544 0 0 0 255 252 253 255
2.54054 0.143437 4.04782 0 0 0 43 48 52 255
-0.428814 0.270619 4.13286 0 0 0 26 50 86 255
1.07663 0.353453 4.73092 0 0 0 147 148 148 255
2.64836 0.334231 4.03114 0 0 0 48 51 53 255
0.423472 0.544263 4.70642 0 0 0 79 102 82 255
2.33351 0.412038 3.67426 0 0 0 37 36 43 255
1.08412 0.696786 4.76973 0 0 0 144 151 151 255
2.21419 0.504697 3.68405 0 0 0 44 38 36 255
-0.392509 0.68043 4.17829 0 0 0 29 60 107 255
-0.675929 0.713459 4.0759 0 0 0 34 64 111 255
2.39119 0.676853 3.69963 0 0 0 114 81 42 255
1.98297 0.927817 3.94864 0 0 0 78 74 67 255
-0.584992 1.14937 4.13182 0 0 0 1 105 148 255
-0.838415 1.1869 4.15063 0 0 0 33 85 127 255
1.15393 1.36453 5.02461 0 0 0 70 103 82 255
2.21804 0.00330237 3.9118 0 0 0 113 111 112 255
2.05387 0.170267 4.01894 0 0 0 47 51 54 255
1.06455 0.341886 4.72254 0 0 0 157 107 115 255
-0.54271 0.40936 4.07504 0 0 0 145 151 156 255
2.49715 0.409048 3.72452 0 0 0 135 141 142 255
-0.930917 0.537216 4.14946 0 0 0 16 62 102 255
2.33767 0.420062 3.67319 0 0 0 32 36 40 255
2.42822 0.469743 3.67609 0 0 0 31 35 39 255
-0.826456 0.625977 4.09885 0 0 0 152 152 153 255
2.07245 0.507923 3.74502 0 0 0 119 127 129 255
2.56683 0.521756 3.7839 0 0 0 126 127 130 255
-0.318399 0.67281 4.3071 0 0 0 123 129 133 255
-0.685486 0.72895 4.07629 0 0 0 35 65 109 255
0.805038 0.839906 4.59302 0 0 0 159 166 166 255
-0.429388 0.858078 4.15197 0 0 0 157 160 162 255
1.91906 0.769556 4.02417 0 0 0 171 174 171 255
2.24998 0.678693 3.68335 0 0 0 96 81 57 255
2.22921 0.758155 3.68391 0 0 0 83 66 49 255
2.35787 0.823799 3.67683 0 0 0 100 84 56 255
2.4352 -0.198308 3.93842 0 0 0 42 42 42 255
2.12025 -0.150029 3.96016 0 0 0 102 76 70 255
2.42465 -0.037005 3.85049 0 0 0 34 35 41 255
2.32385 0.0155964 3.9496 0 0 0 164 161 163 255
1.04067 0.161077 5.14306 0 0 0 50 96 67 255
-0.392811 0.120899 4.63343 0 0 0 17 58 99 255
2.04513 0.227892 3.9388 0 0 0 43 44 43 255
-0.347208 0.441002 4.21539 0 0 0 136 123 132 255
2.30779 0.499719 3.67385 0 0 0 143 144 144 255
-0.321774 0.710039 4.27981 0 0 0 154 156 155 255
2.22785 -0.192215 3.86906 0 0 0 130 128 130 255
2.33296 -0.167736 3.89128 0 0 0 150 87 85 255
2.36577 -0.108139 3.91893 0 0 0 112 115 120 255
2.42288 -0.0739792 3.86837 0 0 0 77 85 96 255
-3.26167 0.0925483 6.11373 0 0 0 69 81 81 255
-1.16431 0.0926317 4.30207 0 0 0 27 33 33 255
-3.52996 0.146624 6.22572 0 0 0 66 65 66 255
-1.08942 0.14411 4.27524 0 0 0 39 49 59 255
0.908259 0.281113 4.60885 0 0 0 51 72 59 255
2.39231 0.26323 3.71418 0 0 0 99 61 19 255
2.30665 0.290327 3.69863 0 0 0 84 50 27 255
2.64297 0.421701 3.99763 0 0 0 94 102 106 255
2.45122 0.380911 3.70951 0 0 0 99 101 110 255
2.45669 0.41146 3.71254 0 0 0 114 114 114 255
-2.91419 0.637728 5.43222 0 0 0 87 87 91 255
2.57769 0.54448 3.78962 0 0 0 130 130 129 255
2.51089 0.55367 3.73813 0 0 0 134 134 134 255
-0.484195 0.65327 4.09452 0 0 0 79 78 85 255
-3.00775 1.02201 5.37948 0 0 0 110 137 131 255
-3.01069 1.04888 5.35138 0 0 0 32 29 31 255
-3.00967 1.07138 5.35795 0 0 0 32 29 32 255
-2.99936 1.08444 5.35646 0 0 0 35 40 41 255
-2.99547 1.11113 5.32273 0 0 0 104 105 107 255
-2.98721 1.11545 5.38467 0 0 0 129 136 135 255
2.29893 0.716617 3.68711 0 0 0 65 55 47 255
-3.04348 1.19387 5.41912 0 0 0 72 108 96 255
-2.94802 1.3417 5.92919 0 0 0 61 65 68 255
-2.912 1.2638 5.46143 0 0 0 63 100 82 255
-2.89911 1.41065 5.80762 0 0 0 74 87 91 255
-2.80503 1.38005 5.63348 0 0 0 33 41 38 255
-2.92394 1.45717 5.7263 0 0 0 78 73 74 255
-3.0209 1.49259 5.71701 0 0 0 75 85 86 255
-0.889012 1.03472 4.11773 0 0 0 83 86 94 255
-2.74711 1.39661 5.31601 0 0 0 121 140 133 255
-2.77084 1.39059 5.18038 0 0 0 81 105 98 255
-0.264988 1.18393 4.53032 0 0 0 45 92 126 255
-2.73721 1.42907 5.15773 0 0 0 111 118 118 255
-0.88132 1.1871 4.15033 0 0 0 125 144 153 255
-0.735463 1.20792 4.09149 0 0 0 118 105 116 255
0.976505 1.36361 4.70758 0 0 0 93 117 110 255
2.13343 1.05116 3.73458 0 0 0 77 78 79 255
2.16203 1.04257 3.71647 0 0 0 108 106 105 255
2.21181 1.03816 3.68777 0 0 0 120 119 120 255
2.2889 1.04099 3.67251 0 0 0 80 75 77 255
2.40606 1.03034 3.67534 0 0 0 122 119 121 255
2.41525 1.03606 3.67716 0 0 0 98 91 93 255
2.23031 1.05214 3.68264 0 0 0 78 76 75 255
2.30326 1.0425 3.6709 0 0 0 130 136 139 255
2.3158 1.04334 3.67349 0 0 0 91 96 98 255
2.40938 1.0531 3.67707 0 0 0 133 140 141 255
2.22849 1.06811 3.6832 0 0 0 116 119 118 255
2.28942 1.0752 3.67529 0 0 0 94 89 91 255
2.31596 1.07737 3.67597 0 0 0 107 109 111 255
2.20821 1.1245 3.68964 0 0 0 107 111 110 255
2.32943 1.12104 3.67342 0 0 0 101 100 101 255
2.3879 1.15774 3.66879 0 0 0 105 105 106 255
2.35971 1.16656 3.66675 0 0 0 113 114 117 255
2.27388 1.20503 3.6801 0 0 0 113 111 112 255
2.35012 1.20375 3.66102 0 0 0 108 107 112 255
2.38163 1.19989 3.66497 0 0 0 113 110 111 255
2.28734 1.24546 3.67652 0 0 0 121 117 120 255
2.4196 1.23728 3.66428 0 0 0 122 119 120 255
2.22397 -0.192573 3.86956 0 0 0 130 128 130 255
2.2248 -0.0662808 3.88682 0 0 0 61 65 69 255
-0.304758 0.0848906 4.6075 0 0 0 113 121 121 255
-3.52164 0.143207 6.22391 0 0 0 66 65 66 255
-1.0906 0.143929 4.27605 0 0 0 39 49 59 255
-3.59399 0.237855 6.34635 0 0 0 76 74 74 255
-0.590886 0.288529 4.05537 0 0 0 44 53 76 255
2.64236 0.386916 3.97116 0 0 0 77 83 86 255
0.979713 0.424194 4.6596 0 0 0 150 150 150 255
-0.323481 0.511956 4.24365 0 0 0 91 113 135 255
2.36236 0.532775 3.68012 0 0 0 65 35 24 255
-3.00983 1.06041 5.34819 0 0 0 23 33 32 255
-2.98334 1.11118 5.38012 0 0 0 129 136 135 255
2.36647 0.719799 3.69349 0 0 0 107 86 60 255
2.36298 0.762919 3.69186 0 0 0 120 87 56 255
-2.90832 1.41453 5.79715 0 0 0 97 101 102 255
0.911374 1.08492 4.64533 0 0 0 109 134 94 255
-2.91774 1.45982 5.59067 0 0 0 78 85 86 255
-0.913441 1.17051 4.1604 0 0 0 84 109 121 255
-0.842102 1.3226 4.16138 0 0 0 60 88 115 255
2.39751 1.03828 3.67465 0 0 0 121 122 122 255
-0.711741 1.30666 4.0925 0 0 0 126 129 135 255
2.28559 1.06218 3.67356 0 0 0 118 119 121 255
2.30883 1.05428 3.67219 0 0 0 117 121 124 255
2.35871 1.0705 3.67246 0 0 0 99 102 113 255
2.40375 1.07799 3.67774 0 0 0 87 89 91 255
2.23238 -0.062941 3.88233 0 0 0 80 84 90 255
-1.02984 -0.148052 4.2136 0 0 0 155 156 160 255
-1.18722 0.0772692 4.30999 0 0 0 25 34 33 255
-2.21425 0.14586 5.2219 0 0 0 96 96 96 255
-1.03042 0.101159 4.22804 0 0 0 145 147 148 255
0.977499 0.262053 4.64654 0 0 0 32 68 54 255
-3.59554 0.241537 6.35162 0 0 0 76 74 74 255
-1.09158 0.151884 4.28283 0 0 0 26 42 71 255
2.21218 0.28731 3.70598 0 0 0 152 130 97 255
2.64256 0.383582 3.98559 0 0 0 75 82 85 255
-0.299399 0.378538 4.26396 0 0 0 78 107 133 255
2.64081 0.407526 3.97835 0 0 0 64 74 80 255
-0.291412 0.427835 4.28286 0 0 0 102 124 132 255
2.65617 0.45321 4.01638 0 0 0 60 58 56 255
2.36548 0.422596 3.67229 0 0 0 86 105 114 255
2.55277 0.446916 3.75445 0 0 0 53 38 34 255
-0.519509 0.447495 4.08374 0 0 0 87 125 168 255
-2.88403 0.82507 5.40804 0 0 0 141 145 145 255
-3.04832 1.18895 6.05352 0 0 0 37 34 35 255
-3.00437 1.25618 6.04075 0 0 0 84 78 81 255
-0.515916 0.810617 4.08774 0 0 0 54 66 80 255
2.26668 0.721939 3.68632 0 0 0 110 85 59 255
-2.96042 1.33951 6.02062 0 0 0 38 43 43 255
-2.91312 1.27117 5.4536 0 0 0 81 106 95 255
-2.76699 1.36607 5.60366 0 0 0 44 47 48 255
-0.281848 1.07981 4.56744 0 0 0 23 76 113 255
-2.92288 1.37133 5.53012 0 0 0 15 31 26 255
-0.909737 1.0603 4.15324 0 0 0 45 70 96 255
-2.72351 1.41204 5.27568 0 0 0 126 133 131 255
-0.254571 1.17675 4.50846 0 0 0 45 92 126 255
-0.272275 1.38956 4.65152 0 0 0 55 86 116 255
-0.713752 1.31074 4.09038 0 0 0 126 130 136 255
2.57054 1.04315 3.71436 0 0 0 67 58 70 255
2.48629 1.05045 3.703 0 0 0 80 81 82 255
2.35881 1.07469 3.67224 0 0 0 108 108 111 255
2.46896 -0.20327 4.03942 0 0 0 54 53 54 255
2.34291 -0.0730255 3.88347 0 0 0 69 73 77 255
2.12722 -0.0639908 3.95236 0 0 0 44 44 44 255
2.37615 0.0177496 3.94485 0 0 0 156 157 158 255
-1.20588 0.0729484 4.30467 0 0 0 27 35 33 255
-0.421789 0.286847 4.13941 0 0 0 11 55 108 255
2.384 0.392968 3.67712 0 0 0 53 59 70 255
2.48268 0.427504 3.72231 0 0 0 109 125 137 255
2.55415 0.445926 3.75476 0 0 0 53 38 34 255
1.0857 0.620071 4.77198 0 0 0 121 135 131 255
2.44729 0.497741 3.71735 0 0 0 32 33 37 255
2.51123 0.543846 3.73818 0 0 0 128 127 130 255
1.029 0.697399 4.72196 0 0 0 49 95 75 255
2.09301 0.556006 3.73955 0 0 0 139 142 142 255
0.838212 0.842069 4.61264 0 0 0 158 161 159 255
-2.91053 1.33496 5.98977 0 0 0 43 45 46 255
2.2145 0.76551 3.68607 0 0 0 59 51 45 255
-2.85105 1.42956 5.91787 0 0 0 57 58 64 255
0.496099 1.13879 4.71438 0 0 0 68 102 70 255
-0.860423 1.04397 4.11472 0 0 0 48 69 97 255
-0.645918 1.10776 4.11372 0 0 0 147 159 178 255
-0.845084 1.36172 4.16835 0 0 0 38 83 120 255
-0.704006 1.29423 4.08144 0 0 0 122 116 129 255
-0.633588 1.3037 4.09304 0 0 0 27 77 118 255
-0.560755 1.31129 4.11689 0 0 0 168 158 109 255
-1.03108 -0.12832 4.23762 0 0 0 155 159 162 255
2.41131 0.103476 3.97766 0 0 0 178 176 176 255
0.401642 0.127678 4.78864 0 0 0 39 73 59 255
-0.988316 0.228526 4.205 0 0 0 10 47 91 255
-0.376774 0.380091 4.18397 0 0 0 120 140 154 255
2.34226 0.400545 3.67297 0 0 0 33 34 38 255
2.38186 0.443458 3.67185 0 0 0 139 143 146 255
1.09004 0.643118 4.77589 0 0 0 142 151 147 255
0.78748 0.661332 4.59716 0 0 0 65 108 73 255
1.09772 0.693359 4.7832 0 0 0 141 146 144 255
-0.32075 0.692363 4.29266 0 0 0 146 153 157 255
2.29112 0.561983 3.67507 0 0 0 30 34 39 255
-0.324368 0.79738 4.25701 0 0 0 84 89 124 255
2.37001 0.741806 3.69603 0 0 0 116 89 53 255
-2.9073 1.38744 5.97326 0 0 0 42 44 46 255
2.38979 0.800009 3.68333 0 0 0 67 67 65 255
1.98472 0.916735 3.94968 0 0 0 56 57 50 255
1.05229 0.106501 5.08401 0 0 0 49 91 70 255
-0.402165 0.177556 4.65033 0 0 0 17 58 99 255
2.04269 0.215674 3.95878 0 0 0 44 46 50 255
1.95382 0.372928 3.9224 0 0 0 156 154 150 255
2.21769 0.433486 3.67432 0 0 0 37 40 41 255
2.29651 0.463834 3.67355 0 0 0 134 145 148 255
1.05595 0.667086 4.73172 0 0 0 127 137 134 255
-0.496588 0.586101 4.10085 0 0 0 154 158 157 255
-0.693067 0.653039 4.05741 0 0 0 32 57 93 255
2.22547 0.705151 3.68539 0 0 0 95 83 57 255
0.418833 1.10846 4.83565 0 0 0 77 104 76 255
2.36613 -0.196832 3.90743 0 0 0 130 130 132 255
2.34664 -0.193432 3.90526 0 0 0 80 82 93 255
2.2305 -0.141901 3.84059 0 0 0 122 60 49 255
2.23957 -0.106946 3.89676 0 0 0 72 71 76 255
2.34077 -0.0514669 3.85511 0 0 0 82 82 84 255
0.870295 0.257533 4.59578 0 0 0 57 74 69 255
0.793425 0.270169 4.57425 0 0 0 118 118 118 255
-1.1284 0.106526 4.29494 0 0 0 139 139 139 255
0.985926 0.327196 4.6695 0 0 0 91 89 88 255
2.63074 0.380967 3.94461 0 0 0 70 79 85 255
2.63425 0.422494 3.96279 0 0 0 89 97 100 255
0.481638 0.518833 4.67673 0 0 0 131 143 140 255
2.45702 0.523233 3.7206 0 0 0 105 98 95 255
2.4362 0.532936 3.70655 0 0 0 42 42 44 255
2.36777 0.562443 3.6811 0 0 0 96 85 77 255
0.514892 0.719469 4.69065 0 0 0 105 135 123 255
2.63888 0.729379 3.95649 0 0 0 77 83 91 255
2.64587 0.752693 3.93297 0 0 0 114 127 130 255
-0.276819 0.790066 4.34118 0 0 0 145 151 151 255
-2.96564 0.996407 5.27869 0 0 0 66 76 73 255
0.529557 0.957035 4.70309 0 0 0 126 148 136 255
1.08242 0.995737 4.77117 0 0 0 101 125 98 255
1.03364 0.997282 4.71462 0 0 0 129 142 131 255
-0.311666 0.997514 4.60239 0 0 0 64 98 126 255
1.01512 1.03946 4.7036 0 0 0 79 90 79 255
-2.99938 1.17285 5.33306 0 0 0 60 87 73 255
0.974183 1.11147 4.67895 0 0 0 34 75 109 255
-0.259534 1.07608 4.51242 0 0 0 37 92 131 255
-0.894528 1.03292 4.14856 0 0 0 63 74 91 255
-2.90526 1.39469 5.51299 0 0 0 15 36 29 255
2.56139 1.03031 3.76134 0 0 0 75 77 79 255
2.55606 1.03094 3.75815 0 0 0 85 87 88 255
2.49644 1.03264 3.71377 0 0 0 91 91 91 255
2.57096 1.07152 3.78468 0 0 0 89 90 91 255
2.51538 1.06856 3.74748 0 0 0 96 91 94 255
-2.79826 1.57279 4.97304 0 0 0 90 93 96 255
2.47961 1.08155 3.72821 0 0 0 81 81 82 255
