ply
format ascii 1.0
comment VCGLIB generated
element vertex 1029
property float x
property float y
property float z
property float nx
property float ny
property float nz
property uchar red
property uchar green
property uchar blue
property uchar alpha
element face 0
property list uchar int vertex_indices
end_header
-0.290426 0.785416 4.32498 0 0 0 142 149 153 255
0.756397 0.820698 4.60104 0 0 0 167 172 170 255
0.93511 0.825731 4.63556 0 0 0 154 166 164 255
0.854098 0.840155 4.61674 0 0 0 163 171 168 255
0.744307 0.844585 4.60001 0 0 0 157 174 171 255
0.471286 0.907565 4.69828 0 0 0 140 154 153 255
0.575026 0.921727 4.63956 0 0 0 158 166 166 255
1.88671 1.37688 6.64252 0 0 0 155 151 143 255
1.89743 1.3604 6.5164 0 0 0 139 136 128 255
2.1425 1.36871 6.2847 0 0 0 128 125 118 255
1.73423 1.45025 6.71161 0 0 0 124 123 117 255
1.87709 1.39718 6.34671 0 0 0 82 80 79 255
0.963436 1.10125 4.67279 0 0 0 28 83 125 255
0.452331 1.16879 4.72537 0 0 0 131 138 137 255
0.447616 1.15419 4.74878 0 0 0 113 133 124 255
0.937766 1.11913 4.66206 0 0 0 43 81 106 255
0.572421 1.15173 4.64812 0 0 0 137 154 151 255
0.86524 1.18148 4.62592 0 0 0 102 96 67 255
0.444261 1.26244 4.73937 0 0 0 129 136 135 255
0.573908 1.27072 4.66295 0 0 0 143 146 145 255
0.640623 1.25669 4.6219 0 0 0 91 116 85 255
0.331852 1.40365 4.99478 0 0 0 75 92 82 255
0.919039 1.35693 4.65859 0 0 0 154 161 159 255
0.333357 0.0908408 4.87239 0 0 0 72 99 83 255
1.11533 0.0948983 4.94276 0 0 0 66 101 78 255
0.535335 0.384757 4.61717 0 0 0 164 152 156 255
0.781699 0.374429 4.57779 0 0 0 164 167 166 255
0.835792 0.389808 4.58992 0 0 0 108 74 74 255
1.06666 0.550549 4.73934 0 0 0 65 104 75 255
0.815902 0.574628 4.60105 0 0 0 162 169 169 255
0.92464 0.571084 4.62543 0 0 0 157 167 164 255
0.682876 0.582842 4.58241 0 0 0 154 170 167 255
0.795489 0.579269 4.59492 0 0 0 165 169 168 255
0.553922 0.667962 4.63593 0 0 0 158 163 161 255
-0.319381 0.654769 4.30692 0 0 0 160 162 163 255
0.935576 0.804534 4.63508 0 0 0 160 167 167 255
0.823299 0.827096 4.61015 0 0 0 170 173 172 255
0.748518 0.841358 4.60012 0 0 0 157 174 172 255
0.581286 0.897415 4.63688 0 0 0 160 166 164 255
1.75908 1.46242 6.69799 0 0 0 103 102 100 255
0.443113 1.15871 4.75192 0 0 0 124 135 133 255
0.716418 1.14382 4.61117 0 0 0 140 155 150 255
0.408643 1.23558 4.77695 0 0 0 123 143 132 255
0.716163 1.26695 4.62172 0 0 0 145 150 148 255
0.340183 1.3923 4.99633 0 0 0 79 94 81 255
1.1167 0.0901197 4.93532 0 0 0 64 101 80 255
-0.343979 0.144818 4.56233 0 0 0 17 69 115 255
0.516347 0.245354 4.62715 0 0 0 142 139 140 255
0.781901 0.25034 4.5713 0 0 0 150 155 154 255
0.908364 0.245696 4.60801 0 0 0 139 150 151 255
0.641558 0.365282 4.58466 0 0 0 156 160 153 255
1.07222 0.537074 4.75572 0 0 0 82 110 73 255
0.450403 0.616433 4.68406 0 0 0 141 153 156 255
0.556768 0.643703 4.63443 0 0 0 157 163 162 255
0.767913 0.834101 4.6036 0 0 0 168 173 172 255
0.475782 0.885195 4.69223 0 0 0 142 154 154 255
2.10862 1.38253 6.43098 0 0 0 133 130 122 255
0.940489 1.05693 4.66412 0 0 0 42 93 122 255
0.936627 1.10775 4.6617 0 0 0 47 83 104 255
0.882056 1.16156 4.63443 0 0 0 169 149 74 255
0.420313 1.24155 4.76044 0 0 0 135 141 141 255
0.357998 0.128174 4.87373 0 0 0 59 95 67 255
1.02088 0.112577 4.65244 0 0 0 57 102 74 255
-0.349664 0.130724 4.54809 0 0 0 19 70 118 255
-0.318454 0.583184 4.26704 0 0 0 27 81 121 255
0.465447 1.16448 4.71667 0 0 0 134 142 142 255
2.3204 -0.221393 3.91112 0 0 0 55 55 55 255
2.35847 -0.219698 3.90522 0 0 0 66 57 63 255
2.33782 -0.210865 3.90998 0 0 0 153 157 163 255
2.24666 -0.166562 3.84491 0 0 0 138 84 84 255
2.37853 -0.168729 3.84339 0 0 0 127 62 57 255
2.3322 -0.145402 3.86006 0 0 0 167 64 83 255
2.10003 -0.149697 3.98515 0 0 0 147 143 140 255
2.34207 -0.112119 3.93458 0 0 0 95 96 98 255
2.35646 -0.11373 3.91556 0 0 0 100 98 100 255
2.32476 -0.0790845 3.91593 0 0 0 55 55 62 255
2.13747 -0.0752744 3.96919 0 0 0 70 71 78 255
2.50649 -0.0496705 4.00148 0 0 0 39 44 42 255
2.34445 0.00784615 3.92941 0 0 0 200 205 207 255
2.34993 0.0715749 3.93813 0 0 0 250 252 254 255
2.36099 0.115096 3.92194 0 0 0 253 251 252 255
2.05859 0.132041 3.99516 0 0 0 123 121 117 255
2.55019 0.134617 3.96903 0 0 0 54 53 58 255
-1.04852 0.195338 4.30798 0 0 0 68 78 91 255
2.31084 0.253213 3.70754 0 0 0 122 112 94 255
-0.491632 0.254541 4.09189 0 0 0 20 46 86 255
-0.473938 0.254189 4.10027 0 0 0 99 103 125 255
2.22573 0.257679 3.71963 0 0 0 139 109 74 255
2.26796 0.258846 3.70855 0 0 0 114 99 81 255
2.41045 0.254436 3.71657 0 0 0 91 78 70 255
-0.648949 0.264535 4.04436 0 0 0 123 104 95 255
-0.623418 0.261966 4.04921 0 0 0 129 107 101 255
-0.508822 0.259473 4.08172 0 0 0 125 105 96 255
-0.442441 0.260295 4.1139 0 0 0 83 87 115 255
0.494505 0.251368 4.64136 0 0 0 100 111 110 255
-0.857085 0.263659 4.0763 0 0 0 100 102 114 255
-0.796735 0.267217 4.05231 0 0 0 97 97 97 255
-0.768328 0.259352 4.04841 0 0 0 89 75 84 255
-0.725165 0.265819 4.0446 0 0 0 106 100 99 255
-0.690716 0.267211 4.04385 0 0 0 140 126 102 255
-0.560581 0.265432 4.06286 0 0 0 110 103 101 255
0.885702 0.259534 4.60097 0 0 0 62 76 74 255
2.38735 0.272482 3.71097 0 0 0 100 56 21 255
-0.828908 0.270881 4.05862 0 0 0 120 118 85 255
-0.544982 0.274511 4.06744 0 0 0 134 110 79 255
-0.870176 0.280058 4.08458 0 0 0 126 125 102 255
-0.797165 0.279782 4.05258 0 0 0 128 122 98 255
-0.607067 0.278153 4.05076 0 0 0 122 102 59 255
2.23424 0.283978 3.71032 0 0 0 106 68 33 255
2.27248 0.282195 3.70018 0 0 0 160 122 66 255
2.31368 0.280999 3.70276 0 0 0 87 49 40 255
2.385 0.280922 3.70997 0 0 0 91 51 24 255
-0.776619 0.290051 4.04894 0 0 0 36 44 62 255
-0.490108 0.289306 4.09371 0 0 0 77 63 50 255
0.718112 0.284834 4.56982 0 0 0 76 95 91 255
-0.854727 0.291337 4.07016 0 0 0 78 76 46 255
-0.814525 0.295995 4.0558 0 0 0 38 39 53 255
-0.682192 0.297704 4.04253 0 0 0 38 39 43 255
-0.641789 0.296079 4.04535 0 0 0 89 71 48 255
-0.605529 0.294905 4.04999 0 0 0 59 57 62 255
-0.574826 0.298243 4.05691 0 0 0 23 46 93 255
-0.545926 0.287871 4.0667 0 0 0 65 47 33 255
-0.509211 0.295711 4.08108 0 0 0 140 115 87 255
2.40315 0.296876 3.7036 0 0 0 91 74 60 255
-0.484884 0.306071 4.0959 0 0 0 98 76 83 255
2.20778 0.302841 3.70558 0 0 0 108 89 64 255
2.25941 0.307439 3.6987 0 0 0 153 118 70 255
2.28061 0.308331 3.69144 0 0 0 135 96 61 255
2.30551 0.304412 3.69923 0 0 0 165 133 81 255
-0.849133 0.311753 4.06638 0 0 0 86 93 132 255
-0.781526 0.315432 4.04981 0 0 0 87 84 115 255
-0.727438 0.314642 4.04546 0 0 0 83 94 128 255
-0.654181 0.315884 4.04269 0 0 0 128 111 86 255
-0.62151 0.312686 4.04814 0 0 0 145 116 97 255
-0.540666 0.312481 4.06939 0 0 0 113 106 101 255
-1.01832 0.328941 4.24534 0 0 0 81 104 136 255
0.613019 0.328505 4.58633 0 0 0 138 142 131 255
0.760238 0.323565 4.57413 0 0 0 141 155 125 255
1.99181 0.337596 3.96969 0 0 0 70 75 76 255
0.583689 0.353313 4.60098 0 0 0 178 129 137 255
0.601699 0.350885 4.59377 0 0 0 121 77 78 255
-0.490156 0.353816 4.09512 0 0 0 54 109 155 255
-0.386849 0.35057 4.17178 0 0 0 14 87 133 255
0.820264 0.358436 4.58627 0 0 0 164 123 128 255
1.02966 0.360556 4.69691 0 0 0 172 130 136 255
1.09859 0.361644 4.76762 0 0 0 91 101 86 255
-0.901927 0.357148 4.10122 0 0 0 35 72 108 255
-0.755224 0.357046 4.04464 0 0 0 22 78 129 255
-0.634081 0.359516 4.04718 0 0 0 122 132 142 255
-0.606261 0.358882 4.05463 0 0 0 9 73 123 255
-0.584766 0.360825 4.06324 0 0 0 96 119 159 255
1.94735 0.361147 3.974 0 0 0 86 81 79 255
-0.880495 0.363538 4.09417 0 0 0 76 99 128 255
-0.517189 0.363892 4.0852 0 0 0 7 73 123 255
-0.336443 0.367565 4.228 0 0 0 101 88 100 255
1.05025 0.376753 4.71289 0 0 0 151 125 132 255
-0.489195 0.380469 4.09866 0 0 0 55 87 113 255
0.873881 0.382573 4.60174 0 0 0 157 138 142 255
1.95812 0.375282 3.96704 0 0 0 117 119 118 255
-0.555804 0.383395 4.07042 0 0 0 26 81 117 255
-0.531349 0.386133 4.07962 0 0 0 140 150 161 255
-0.409775 0.38335 4.15185 0 0 0 73 89 111 255
1.98726 0.376852 3.94642 0 0 0 112 117 117 255
-0.636386 0.383224 4.04707 0 0 0 68 97 95 255
-0.478846 0.386384 4.10423 0 0 0 25 65 100 255
-0.438845 0.394297 4.13019 0 0 0 36 61 105 255
-0.365335 0.388211 4.1932 0 0 0 78 80 99 255
2.45032 0.382352 3.70679 0 0 0 103 102 105 255
2.49576 0.386919 3.72359 0 0 0 123 130 133 255
2.56979 0.379113 3.79452 0 0 0 79 84 88 255
-0.500949 0.392293 4.09175 0 0 0 33 72 114 255
0.53083 0.402294 4.61674 0 0 0 121 111 114 255
2.06682 0.385981 3.7605 0 0 0 103 107 108 255
2.17347 0.391677 3.6998 0 0 0 132 134 137 255
2.1918 0.388605 3.69472 0 0 0 81 81 81 255
2.27576 0.38561 3.6775 0 0 0 81 83 84 255
2.29019 0.382152 3.67492 0 0 0 88 87 89 255
2.30192 0.389145 3.67246 0 0 0 137 136 137 255
-0.474612 0.404634 4.10581 0 0 0 121 134 152 255
-0.46698 0.406894 4.11051 0 0 0 139 150 165 255
1.05403 0.411349 4.7215 0 0 0 126 90 88 255
1.97344 0.389762 3.95393 0 0 0 73 68 66 255
2.45718 0.398297 3.71482 0 0 0 138 141 140 255
-0.593627 0.410061 4.06071 0 0 0 25 93 124 255
-0.573398 0.410147 4.06618 0 0 0 147 155 163 255
-0.396006 0.411021 4.16324 0 0 0 141 145 164 255
-0.547185 0.423131 4.07073 0 0 0 42 84 121 255
-0.509296 0.415543 4.08766 0 0 0 153 158 160 255
-0.474513 0.42133 4.10622 0 0 0 152 153 157 255
-0.436676 0.419874 4.13171 0 0 0 149 150 154 255
2.102 0.412403 3.7377 0 0 0 60 39 39 255
2.43594 0.40999 3.70456 0 0 0 61 44 39 255
-0.535599 0.424502 4.07648 0 0 0 81 103 123 255
-0.454385 0.426598 4.11985 0 0 0 63 79 103 255
-0.35628 0.432299 4.20405 0 0 0 103 96 115 255
2.52268 0.411652 3.72748 0 0 0 76 66 67 255
-0.592637 0.429929 4.06157 0 0 0 19 93 125 255
-0.386453 0.438586 4.16927 0 0 0 79 87 98 255
-0.534924 0.4386 4.07641 0 0 0 11 83 127 255
-0.499487 0.439121 4.09256 0 0 0 30 76 115 255
-0.555197 0.444761 4.06812 0 0 0 116 163 192 255
-0.466172 0.44421 4.11151 0 0 0 39 62 90 255
-0.440976 0.447539 4.12851 0 0 0 17 60 109 255
-0.396567 0.446475 4.16151 0 0 0 57 71 108 255
-0.335016 0.451618 4.22753 0 0 0 120 89 112 255
-0.70996 0.449601 4.04128 0 0 0 142 149 136 255
-0.668033 0.449601 4.04603 0 0 0 140 149 148 255
-0.541823 0.460931 4.0737 0 0 0 25 89 126 255
-0.473988 0.459429 4.10652 0 0 0 22 70 125 255
2.10376 0.450671 3.73351 0 0 0 58 39 39 255
-0.66678 0.466832 4.04552 0 0 0 80 95 94 255
-0.626139 0.467932 4.05105 0 0 0 58 94 92 255
-0.57646 0.467477 4.06434 0 0 0 81 103 120 255
-0.423078 0.477796 4.14382 0 0 0 45 84 117 255
2.14111 0.465615 3.71345 0 0 0 91 65 52 255
-1.03552 0.493238 4.29257 0 0 0 110 92 99 255
-0.64834 0.480902 4.04687 0 0 0 84 120 108 255
-0.38568 0.490575 4.17429 0 0 0 73 98 117 255
-0.319346 0.48457 4.2557 0 0 0 31 84 119 255
-0.99573 0.497641 4.25184 0 0 0 108 94 96 255
2.28198 0.471923 3.67438 0 0 0 80 62 54 255
-0.728443 0.493239 4.04408 0 0 0 87 106 123 255
1.96798 0.496753 3.96156 0 0 0 95 96 91 255
2.10386 0.485793 3.73799 0 0 0 67 46 41 255
-0.4274 0.503631 4.1456 0 0 0 60 108 147 255
2.51516 0.48049 3.72572 0 0 0 109 105 106 255
2.12064 0.495059 3.72706 0 0 0 37 43 44 255
2.27095 0.508221 3.68109 0 0 0 87 75 65 255
2.27488 0.506765 3.68023 0 0 0 74 55 41 255
2.29629 0.505654 3.67916 0 0 0 60 51 47 255
1.10631 0.576915 4.81562 0 0 0 106 143 126 255
1.9599 0.548385 3.99183 0 0 0 119 116 115 255
2.42612 0.529611 3.69012 0 0 0 64 53 57 255
-0.437998 0.561149 4.1386 0 0 0 145 149 167 255
2.20813 0.540137 3.6882 0 0 0 81 66 56 255
2.21642 0.532083 3.68653 0 0 0 50 37 39 255
-1.02687 0.57261 4.27148 0 0 0 107 113 138 255
-0.872396 0.562696 4.09925 0 0 0 104 117 151 255
-0.834081 0.566625 4.0987 0 0 0 141 145 147 255
2.45566 0.55126 3.71191 0 0 0 101 103 109 255
2.56005 0.544381 3.76875 0 0 0 131 138 138 255
-0.637743 0.569814 4.06198 0 0 0 138 140 171 255
1.95357 0.571033 4.03354 0 0 0 77 67 61 255
2.49985 0.550847 3.73487 0 0 0 129 138 140 255
2.17175 0.559505 3.70041 0 0 0 114 129 133 255
-0.901856 0.585497 4.11646 0 0 0 24 52 91 255
2.24173 0.558004 3.6834 0 0 0 139 136 137 255
2.32176 0.560001 3.67626 0 0 0 93 103 105 255
2.35756 0.559656 3.6859 0 0 0 140 141 143 255
-0.955757 0.592544 4.16835 0 0 0 33 58 91 255
1.0465 0.626227 4.71668 0 0 0 71 73 73 255
-0.493013 0.603631 4.08526 0 0 0 84 89 109 255
-0.575621 0.613931 4.09198 0 0 0 53 59 75 255
-0.985466 0.652991 4.19675 0 0 0 127 129 132 255
-0.365677 0.640867 4.20763 0 0 0 36 66 115 255
-0.483844 0.651072 4.06826 0 0 0 91 90 94 255
-0.576116 0.665215 4.08935 0 0 0 61 68 87 255
-0.870914 0.678625 4.10339 0 0 0 56 60 71 255
-0.333936 0.679412 4.2294 0 0 0 116 116 118 255
-0.950974 0.687263 4.16518 0 0 0 37 42 54 255
0.54968 0.712314 4.6365 0 0 0 85 123 102 255
-1.01319 0.691184 4.21576 0 0 0 88 95 105 255
-0.433632 0.687323 4.14443 0 0 0 151 158 159 255
1.07225 0.731266 4.75712 0 0 0 127 137 136 255
-0.741227 0.696175 4.063 0 0 0 123 125 141 255
-0.401959 0.719601 4.17798 0 0 0 132 140 162 255
0.837732 0.747372 4.61006 0 0 0 65 109 78 255
-0.87955 0.718616 4.10942 0 0 0 122 125 129 255
-0.642156 0.71715 4.06705 0 0 0 136 142 163 255
-0.334561 0.7329 4.23079 0 0 0 113 116 127 255
-0.551155 0.747834 4.08816 0 0 0 141 150 171 255
-0.513889 0.745543 4.10197 0 0 0 152 152 158 255
2.25671 0.715263 3.68855 0 0 0 79 76 68 255
2.38237 0.7199 3.70541 0 0 0 86 76 66 255
-0.786721 0.75829 4.0586 0 0 0 78 82 95 255
-0.687855 0.766335 4.07238 0 0 0 131 136 162 255
-0.446994 0.772213 4.14134 0 0 0 70 74 90 255
-1.00582 0.78281 4.2191 0 0 0 130 137 137 255
-0.332732 0.785969 4.23962 0 0 0 60 71 94 255
-0.302276 0.819182 4.29568 0 0 0 97 106 117 255
-0.318305 0.81639 4.26571 0 0 0 127 132 153 255
2.25032 0.762405 3.6889 0 0 0 89 76 57 255
-0.827384 0.808196 4.0848 0 0 0 117 120 126 255
-0.60851 0.805218 4.07584 0 0 0 79 86 105 255
2.30455 0.765779 3.68912 0 0 0 98 74 53 255
-0.625749 0.810028 4.07642 0 0 0 53 63 89 255
-0.382127 0.82301 4.19648 0 0 0 56 73 95 255
-0.443162 0.830716 4.13895 0 0 0 90 89 97 255
-0.808501 0.832532 4.08025 0 0 0 74 80 99 255
-0.358864 0.84631 4.21202 0 0 0 155 157 160 255
0.548667 0.900978 4.65278 0 0 0 71 111 93 255
-0.377276 0.864995 4.19934 0 0 0 82 92 100 255
-0.395828 0.878473 4.18703 0 0 0 156 158 157 255
-0.6068 0.86832 4.07651 0 0 0 103 105 107 255
-0.626025 0.878471 4.07668 0 0 0 67 83 105 255
-0.958332 0.897186 4.1758 0 0 0 79 88 101 255
-0.358255 0.904084 4.19975 0 0 0 73 96 127 255
-0.713942 0.90072 4.07241 0 0 0 35 64 104 255
-0.51002 0.912171 4.10677 0 0 0 157 157 163 255
1.07818 1.00266 4.75446 0 0 0 121 139 124 255
-0.546725 0.924699 4.09315 0 0 0 155 159 160 255
-0.424539 0.929273 4.15208 0 0 0 73 92 125 255
-0.721923 0.930133 4.0725 0 0 0 159 160 161 255
-0.602045 0.93878 4.07412 0 0 0 125 125 125 255
-0.584314 0.938344 4.07768 0 0 0 148 150 152 255
-0.886381 0.957558 4.13821 0 0 0 35 51 92 255
-0.70709 0.950182 4.07434 0 0 0 81 91 108 255
-0.68636 0.964359 4.07819 0 0 0 153 149 159 255
-0.572796 0.976178 4.08631 0 0 0 75 92 137 255
-0.744521 0.976709 4.07275 0 0 0 157 157 157 255
-0.606128 0.987421 4.07776 0 0 0 68 89 127 255
-0.356371 1.01202 4.22628 0 0 0 118 140 158 255
1.17936 1.1401 5.06127 0 0 0 172 176 170 255
-0.863217 1.00217 4.07044 0 0 0 40 50 84 255
-0.692636 1.00453 4.07735 0 0 0 66 84 118 255
1.92988 1.37639 6.59494 0 0 0 144 141 136 255
-0.370168 1.03173 4.22155 0 0 0 52 101 130 255
-0.913592 1.02176 4.10555 0 0 0 135 131 139 255
-0.911221 1.02765 4.15936 0 0 0 145 149 150 255
1.20436 1.17638 5.07684 0 0 0 120 118 116 255
-0.992373 1.03957 4.2015 0 0 0 116 120 122 255
-0.497333 1.04392 4.12126 0 0 0 41 99 138 255
-0.496432 1.08327 4.12207 0 0 0 60 110 140 255
-0.366488 1.11256 4.22486 0 0 0 28 73 120 255
-0.333835 1.12114 4.24918 0 0 0 29 75 113 255
2.07185 1.04979 3.79447 0 0 0 107 110 109 255
2.12069 1.05187 3.76285 0 0 0 117 117 118 255
2.17088 1.0513 3.74182 0 0 0 90 86 85 255
2.10894 1.0579 3.77243 0 0 0 99 103 103 255
2.13927 1.05638 3.76502 0 0 0 97 94 95 255
2.21367 1.05264 3.73001 0 0 0 90 92 91 255
-0.392622 1.13903 4.20595 0 0 0 135 146 156 255
-0.312927 1.14537 4.27104 0 0 0 109 132 145 255
2.25431 1.05154 3.71145 0 0 0 80 81 80 255
2.31491 1.05629 3.71014 0 0 0 103 98 100 255
2.34446 1.05422 3.71213 0 0 0 96 94 96 255
2.21451 1.06942 3.7285 0 0 0 121 124 123 255
2.2129 1.0703 3.73113 0 0 0 121 124 123 255
2.22209 1.08403 3.7271 0 0 0 86 84 84 255
-0.326325 1.17989 4.26641 0 0 0 51 76 100 255
2.16654 1.08922 3.73697 0 0 0 84 89 89 255
2.25238 1.08275 3.70409 0 0 0 83 78 76 255
2.2856 1.07799 3.7158 0 0 0 89 81 83 255
2.3612 1.08686 3.71652 0 0 0 78 78 79 255
2.48128 1.08426 3.73857 0 0 0 73 74 76 255
-0.613518 1.15399 4.08045 0 0 0 24 111 147 255
2.22205 1.08434 3.72837 0 0 0 98 105 102 255
2.40255 1.09167 3.72707 0 0 0 87 92 90 255
-0.863444 1.17532 4.12317 0 0 0 88 116 142 255
-0.631367 1.16737 4.05984 0 0 0 148 149 158 255
2.13545 1.13515 3.76716 0 0 0 102 103 105 255
-0.624074 1.19224 4.06789 0 0 0 66 85 118 255
-0.734196 1.209 4.09307 0 0 0 115 99 115 255
-0.835832 1.22344 4.12243 0 0 0 107 103 113 255
-0.68879 1.21125 4.0754 0 0 0 113 103 118 255
2.07883 1.17281 3.79975 0 0 0 103 105 104 255
2.25609 1.1777 3.71761 0 0 0 106 107 111 255
2.07268 1.20844 3.80564 0 0 0 115 113 112 255
-0.894405 1.36475 4.13433 0 0 0 69 106 141 255
-0.370845 1.38324 4.21715 0 0 0 140 152 167 255
-0.845372 1.36352 4.11769 0 0 0 65 104 137 255
-0.388774 1.3941 4.20153 0 0 0 93 102 120 255
-0.459583 1.38783 4.14452 0 0 0 93 128 163 255
-0.815698 1.39123 4.10708 0 0 0 22 83 123 255
-0.456228 1.41699 4.15194 0 0 0 157 159 160 255
-0.893969 1.41729 4.13786 0 0 0 89 108 133 255
2.46126 1.4045 3.79337 0 0 0 84 82 84 255
2.25145 1.41287 3.79984 0 0 0 112 112 112 255
2.1707 1.43021 3.83099 0 0 0 100 100 100 255
2.31051 1.41643 3.77491 0 0 0 106 106 106 255
2.38519 1.63083 3.98878 0 0 0 191 193 199 255
2.39535 1.62889 3.98083 0 0 0 207 207 208 255
2.33354 -0.211703 3.91167 0 0 0 153 157 163 255
2.36612 -0.211885 3.90462 0 0 0 46 45 44 255
2.23514 -0.166234 3.85049 0 0 0 140 73 68 255
0.948995 -0.243898 4.711 0 0 0 211 211 212 255
2.34546 0.0143146 3.92623 0 0 0 200 205 207 255
-1.07622 0.131169 4.32569 0 0 0 22 47 84 255
2.04818 0.136838 4.02313 0 0 0 135 135 134 255
2.2149 0.256247 3.723 0 0 0 121 103 80 255
2.31484 0.249625 3.70815 0 0 0 80 75 76 255
2.40529 0.252903 3.71708 0 0 0 93 77 67 255
-0.719788 0.261101 4.04525 0 0 0 113 104 82 255
-0.858657 0.26906 4.07894 0 0 0 132 125 125 255
-0.561086 0.269029 4.06282 0 0 0 110 103 101 255
-0.478626 0.271035 4.09768 0 0 0 124 109 113 255
2.3845 0.280173 3.7097 0 0 0 91 51 24 255
2.30402 0.305734 3.69861 0 0 0 165 133 81 255
-0.55615 0.31192 4.06415 0 0 0 147 121 91 255
-0.911909 0.326683 4.07858 0 0 0 68 103 139 255
-0.893854 0.357738 4.08514 0 0 0 37 76 112 255
-0.639408 0.354815 4.04624 0 0 0 46 99 143 255
-0.429084 0.348477 4.13722 0 0 0 105 129 149 255
0.410683 0.367044 4.71017 0 0 0 111 87 83 255
0.79902 0.365609 4.58028 0 0 0 144 132 134 255
0.875144 0.374778 4.60243 0 0 0 136 117 121 255
-0.651863 0.390115 4.04567 0 0 0 29 88 75 255
-0.482244 0.388888 4.10166 0 0 0 30 73 108 255
-0.38917 0.397223 4.17025 0 0 0 152 156 156 255
1.9849 0.380326 3.94831 0 0 0 77 84 85 255
2.12041 0.389279 3.72289 0 0 0 89 89 90 255
2.49286 0.387881 3.72557 0 0 0 110 118 121 255
1.93363 0.408018 3.96089 0 0 0 125 120 116 255
-0.587971 0.43085 4.06249 0 0 0 19 93 125 255
2.10244 0.418931 3.73761 0 0 0 58 40 40 255
2.42252 0.409646 3.69953 0 0 0 83 63 45 255
-0.452524 0.441001 4.12211 0 0 0 16 60 108 255
1.97685 0.4443 3.93059 0 0 0 82 76 67 255
2.1036 0.434225 3.73451 0 0 0 58 42 39 255
2.45811 0.429986 3.71212 0 0 0 34 38 37 255
-0.608989 0.453971 4.0577 0 0 0 147 154 154 255
2.14173 0.466169 3.71307 0 0 0 91 65 52 255
-0.547463 0.490486 4.07237 0 0 0 104 120 136 255
-0.421587 0.504467 4.1499 0 0 0 78 121 156 255
1.94288 0.497641 4.00383 0 0 0 122 120 119 255
2.1048 0.500111 3.73873 0 0 0 55 39 39 255
1.08286 0.581321 4.76735 0 0 0 126 142 138 255
2.10197 0.527533 3.73881 0 0 0 50 42 47 255
2.21313 0.527747 3.68729 0 0 0 55 39 41 255
2.28177 0.519527 3.68085 0 0 0 46 36 38 255
2.42355 0.526226 3.70471 0 0 0 57 40 43 255
2.56764 0.542985 3.78854 0 0 0 104 112 118 255
1.94991 0.574828 4.03329 0 0 0 108 100 94 255
2.49171 0.547311 3.7294 0 0 0 123 130 131 255
2.36422 0.560437 3.67883 0 0 0 108 94 86 255
2.40506 0.550026 3.67902 0 0 0 140 142 143 255
2.42517 0.551326 3.69618 0 0 0 143 143 143 255
-1.01322 0.588923 4.24648 0 0 0 134 137 140 255
-0.923184 0.586674 4.13343 0 0 0 32 55 90 255
2.14787 0.55522 3.70824 0 0 0 107 90 75 255
-0.736207 0.610629 4.05577 0 0 0 155 156 156 255
-0.498768 0.60518 4.08559 0 0 0 88 94 113 255
-0.729154 0.645601 4.05901 0 0 0 154 156 158 255
-0.435952 0.683639 4.14167 0 0 0 151 158 159 255
-0.988451 0.707387 4.16651 0 0 0 133 131 130 255
-0.733097 0.714764 4.06346 0 0 0 156 159 161 255
-0.638902 0.705981 4.06558 0 0 0 137 143 162 255
-0.406221 0.72614 4.17659 0 0 0 155 160 168 255
-0.867655 0.723606 4.0786 0 0 0 109 111 116 255
-0.555193 0.759644 4.08685 0 0 0 158 162 163 255
2.25773 0.72298 3.68909 0 0 0 96 76 55 255
-0.892634 0.772765 4.11574 0 0 0 97 108 118 255
-0.690334 0.759255 4.07068 0 0 0 52 69 110 255
-0.460434 0.775485 4.13588 0 0 0 92 94 101 255
-0.332489 0.784941 4.2399 0 0 0 40 53 83 255
-0.317823 0.811188 4.26727 0 0 0 128 133 152 255
-0.625791 0.810045 4.07645 0 0 0 53 63 89 255
-0.452438 0.834132 4.13256 0 0 0 58 66 93 255
-0.41339 0.885752 4.17142 0 0 0 156 157 159 255
-0.444457 0.89472 4.13309 0 0 0 113 117 126 255
-0.955262 0.913001 4.17034 0 0 0 69 69 80 255
-0.505744 0.911344 4.10939 0 0 0 156 159 158 255
-0.563009 0.929398 4.08694 0 0 0 160 162 163 255
-0.736715 0.931453 4.06917 0 0 0 157 161 163 255
-0.883051 0.9446 4.12925 0 0 0 33 52 93 255
-0.674542 0.960675 4.08274 0 0 0 158 160 161 255
-0.711361 0.964451 4.0747 0 0 0 59 71 96 255
-0.74533 0.97422 4.07243 0 0 0 157 157 157 255
-0.477652 0.99587 4.12805 0 0 0 130 149 169 255
-0.847714 1.0066 4.10855 0 0 0 151 154 153 255
-0.931848 1.02497 4.17424 0 0 0 149 147 151 255
-0.500115 1.03546 4.1198 0 0 0 40 99 138 255
0.955011 1.11637 4.66968 0 0 0 29 77 115 255
0.509562 1.15105 4.69939 0 0 0 69 104 73 255
2.34982 1.06801 3.71628 0 0 0 87 86 87 255
0.800598 1.24713 4.61788 0 0 0 101 120 98 255
-0.62469 1.1615 4.04584 0 0 0 136 140 153 255
-0.867516 1.17011 4.12552 0 0 0 88 116 142 255
-0.725715 1.1748 4.11222 0 0 0 85 131 170 255
-0.784607 1.19082 4.08987 0 0 0 21 85 131 255
-0.828519 1.23751 4.10132 0 0 0 80 84 109 255
-0.904309 1.27197 4.13632 0 0 0 124 142 163 255
-0.629485 1.29072 4.07103 0 0 0 37 76 110 255
-0.857059 1.32244 4.12318 0 0 0 101 111 122 255
-0.718982 1.32003 4.0911 0 0 0 95 108 135 255
-0.844023 1.36496 4.11679 0 0 0 65 104 137 255
2.39948 1.41094 3.78612 0 0 0 98 94 97 255
2.3027 -0.21188 3.91751 0 0 0 45 43 44 255
2.37479 -0.208282 3.87541 0 0 0 45 45 45 255
2.46062 -0.199335 3.92193 0 0 0 47 52 53 255
0.943868 -0.242897 4.72312 0 0 0 211 211 212 255
2.09909 -0.0565813 3.97682 0 0 0 93 84 83 255
2.47551 -0.0451237 3.91823 0 0 0 35 39 39 255
2.34549 0.0102145 3.92858 0 0 0 200 205 207 255
2.47306 0.0364131 3.93044 0 0 0 84 85 92 255
2.35235 0.0897665 3.93277 0 0 0 248 250 254 255
2.35722 0.115372 3.92453 0 0 0 255 252 253 255
2.06732 0.135645 4.03993 0 0 0 63 63 62 255
2.53582 0.140238 3.94883 0 0 0 50 50 54 255
2.31217 0.259144 3.70607 0 0 0 161 144 114 255
-0.468102 0.263193 4.10277 0 0 0 148 121 89 255
2.21688 0.266531 3.71774 0 0 0 95 75 60 255
2.3633 0.261813 3.7081 0 0 0 125 88 55 255
-0.826236 0.281358 4.05769 0 0 0 139 126 66 255
-0.796234 0.275434 4.05029 0 0 0 75 73 68 255
-0.762456 0.271789 4.04836 0 0 0 114 95 99 255
-0.622769 0.271296 4.04922 0 0 0 133 111 101 255
-0.6988 0.284057 4.04331 0 0 0 113 107 101 255
2.21495 0.297591 3.70689 0 0 0 130 106 77 255
2.37694 0.298173 3.70454 0 0 0 138 101 62 255
-0.966238 0.334407 4.17279 0 0 0 95 110 126 255
0.582473 0.373894 4.60118 0 0 0 118 39 43 255
-0.610227 0.399344 4.05659 0 0 0 149 155 160 255
-0.529001 0.398817 4.07998 0 0 0 152 158 165 255
-0.389964 0.395385 4.16991 0 0 0 148 155 155 255
0.603885 0.402166 4.59285 0 0 0 156 147 148 255
1.98527 0.386125 3.94388 0 0 0 112 121 123 255
2.07328 0.397098 3.75394 0 0 0 127 133 134 255
2.12938 0.406061 3.71911 0 0 0 131 137 139 255
2.15432 0.394519 3.70704 0 0 0 40 39 44 255
2.18432 0.395362 3.69713 0 0 0 135 136 140 255
2.28929 0.394354 3.67582 0 0 0 138 147 149 255
2.42084 0.383493 3.7005 0 0 0 125 129 132 255
2.13063 0.413203 3.71901 0 0 0 123 136 140 255
2.42701 0.417186 3.6958 0 0 0 61 43 33 255
-0.597884 0.45578 4.06025 0 0 0 144 156 158 255
-0.983642 0.483463 4.22878 0 0 0 127 120 122 255
2.14797 0.467898 3.71068 0 0 0 61 40 29 255
-0.347817 0.539005 4.21956 0 0 0 32 80 117 255
2.10767 0.51427 3.73651 0 0 0 47 38 40 255
2.21731 0.520619 3.68709 0 0 0 52 36 38 255
2.42589 0.508342 3.69583 0 0 0 39 38 42 255
1.98213 0.550961 3.89438 0 0 0 130 133 131 255
2.28653 0.525223 3.68112 0 0 0 37 39 43 255
-0.927003 0.58663 4.14388 0 0 0 22 55 94 255
-0.852671 0.5724 4.09586 0 0 0 152 152 152 255
-0.6327 0.574351 4.06267 0 0 0 153 155 167 255
-0.451527 0.569625 4.13272 0 0 0 156 158 162 255
2.12046 0.550708 3.72621 0 0 0 137 139 139 255
2.14899 0.552007 3.70768 0 0 0 107 90 75 255
2.19266 0.556562 3.69346 0 0 0 137 141 142 255
2.23531 0.559045 3.6846 0 0 0 142 141 144 255
2.33328 0.550761 3.67655 0 0 0 141 146 147 255
2.38092 0.55302 3.67572 0 0 0 45 41 45 255
2.42864 0.553294 3.70081 0 0 0 143 143 143 255
-0.80185 0.587324 4.08366 0 0 0 29 51 90 255
-0.736561 0.607717 4.05575 0 0 0 156 156 156 255
-0.574935 0.621903 4.11181 0 0 0 104 112 143 255
1.04121 0.64635 4.72298 0 0 0 40 80 74 255
-0.73768 0.620877 4.05708 0 0 0 156 159 158 255
-0.357286 0.655809 4.21235 0 0 0 146 151 161 255
-0.57751 0.667488 4.10417 0 0 0 61 68 87 255
-0.512801 0.661196 4.08247 0 0 0 59 65 84 255
-0.432465 0.666985 4.14228 0 0 0 153 157 159 255
-0.95346 0.686959 4.16268 0 0 0 28 44 82 255
-0.88054 0.675714 4.12259 0 0 0 56 60 71 255
-0.774816 0.675589 4.05993 0 0 0 34 53 94 255
-0.360599 0.680044 4.21001 0 0 0 146 152 161 255
-0.959661 0.700338 4.16381 0 0 0 24 46 91 255
-0.862959 0.703996 4.07561 0 0 0 111 118 126 255
-0.737773 0.709146 4.06381 0 0 0 153 157 160 255
-0.413242 0.729326 4.17347 0 0 0 154 159 171 255
-0.88962 0.762423 4.10936 0 0 0 107 117 124 255
2.27748 0.735247 3.68996 0 0 0 110 80 42 255
-0.677267 0.774953 4.07633 0 0 0 156 158 163 255
-1.00206 0.815222 4.22218 0 0 0 39 52 75 255
-0.384043 0.800443 4.19476 0 0 0 103 118 135 255
-0.289553 0.807809 4.32102 0 0 0 149 153 154 255
-0.619862 0.811772 4.07604 0 0 0 49 59 86 255
-0.333997 0.814763 4.2384 0 0 0 33 58 96 255
-0.807151 0.826839 4.07221 0 0 0 74 80 99 255
-0.615352 0.877343 4.07593 0 0 0 58 75 97 255
-0.410395 0.901811 4.1753 0 0 0 61 73 100 255
-0.741519 0.88255 4.06532 0 0 0 60 75 95 255
-0.494854 0.893457 4.11207 0 0 0 160 162 163 255
-0.874833 0.912103 4.11951 0 0 0 31 51 92 255
-0.5644 0.929839 4.08586 0 0 0 160 162 163 255
-0.862199 0.924929 4.08786 0 0 0 26 52 95 255
-0.662846 0.948508 4.08484 0 0 0 159 162 161 255
-0.614025 0.947863 4.07372 0 0 0 77 85 106 255
-0.799073 0.984023 4.09337 0 0 0 41 55 91 255
1.18611 1.12192 5.05997 0 0 0 168 174 170 255
-0.471595 0.99722 4.13051 0 0 0 137 155 172 255
-0.358674 1.01653 4.22604 0 0 0 122 144 164 255
-0.924794 1.01747 4.16493 0 0 0 148 150 151 255
1.1891 1.22406 5.0725 0 0 0 158 162 161 255
-0.615201 1.07528 4.08641 0 0 0 113 153 184 255
-0.386616 1.14215 4.21347 0 0 0 145 152 158 255
2.12714 1.0642 3.7557 0 0 0 95 95 94 255
2.28656 1.07188 3.71552 0 0 0 86 79 81 255
-0.67172 1.15389 4.07218 0 0 0 23 88 136 255
-0.630073 1.15201 4.07402 0 0 0 142 157 181 255
-0.58389 1.14291 4.07119 0 0 0 9 108 147 255
-0.877188 1.20591 4.15797 0 0 0 142 144 146 255
-0.784738 1.18171 4.10587 0 0 0 19 84 129 255
-0.63097 1.19825 4.07997 0 0 0 46 80 123 255
-0.328836 1.23283 4.25532 0 0 0 162 140 95 255
-0.912405 1.22174 4.14513 0 0 0 82 104 140 255
-0.89495 1.26917 4.12352 0 0 0 124 142 163 255
-0.854141 1.30269 4.10005 0 0 0 124 131 141 255
-0.793557 1.31185 4.09519 0 0 0 29 74 114 255
-0.699999 1.29452 4.07892 0 0 0 111 112 122 255
-0.371838 1.38827 4.21651 0 0 0 152 154 156 255
-0.891606 1.39348 4.16271 0 0 0 84 129 157 255
2.4102 1.41273 3.7808 0 0 0 93 90 94 255
2.39289 1.62949 3.9852 0 0 0 205 206 212 255
2.24065 -0.203791 3.83213 0 0 0 42 41 42 255
2.46513 -0.193905 3.94943 0 0 0 63 43 41 255
2.12434 -0.0513107 3.97329 0 0 0 47 49 51 255
2.47915 0.0497983 3.93467 0 0 0 83 86 92 255
-1.06723 0.134124 4.30899 0 0 0 22 47 84 255
-0.651254 0.273474 4.04388 0 0 0 129 110 99 255
2.28987 0.269207 3.69915 0 0 0 118 95 70 255
-0.360745 0.354211 4.19841 0 0 0 124 141 155 255
1.96209 0.338279 4.02927 0 0 0 59 58 59 255
-0.928054 0.353887 4.09844 0 0 0 96 99 113 255
-0.880363 0.331895 4.09286 0 0 0 8 56 107 255
0.767957 0.388179 4.57732 0 0 0 159 159 159 255
2.3973 0.39745 3.68796 0 0 0 122 130 137 255
-0.434413 0.420626 4.1335 0 0 0 149 150 154 255
2.07385 0.398062 3.7532 0 0 0 124 136 136 255
2.18445 0.413302 3.69791 0 0 0 132 143 146 255
2.28816 0.39118 3.67588 0 0 0 143 143 143 255
2.34352 0.437659 3.67292 0 0 0 40 41 47 255
-0.944541 0.469844 4.17479 0 0 0 145 109 78 255
2.26805 0.489963 3.67876 0 0 0 136 136 137 255
-0.456524 0.587737 4.13039 0 0 0 158 160 160 255
1.97748 0.597344 4.03746 0 0 0 45 46 47 255
-0.633115 0.573321 4.06241 0 0 0 153 155 167 255
-0.732853 0.627321 4.05751 0 0 0 156 159 159 255
-0.359296 0.650885 4.21164 0 0 0 113 126 151 255
-0.965961 0.690322 4.16744 0 0 0 22 44 84 255
-0.63151 0.686031 4.06739 0 0 0 154 158 160 255
-0.416738 0.680195 4.16351 0 0 0 32 60 105 255
-0.867758 0.721961 4.0742 0 0 0 122 125 129 255
0.789595 0.758193 4.60192 0 0 0 70 110 74 255
-0.742109 0.729568 4.06024 0 0 0 159 160 160 255
-0.409307 0.878356 4.17409 0 0 0 158 161 161 255
-0.875203 0.907535 4.10936 0 0 0 29 52 93 255
-0.764099 0.940248 4.07272 0 0 0 158 161 160 255
-0.985939 1.068 4.22199 0 0 0 23 53 95 255
-0.399649 1.10283 4.20135 0 0 0 3 94 141 255
-0.351569 1.14281 4.24144 0 0 0 146 150 155 255
-0.570712 1.14142 4.05659 0 0 0 4 108 151 255
-0.869416 1.19146 4.13473 0 0 0 141 143 145 255
-0.784769 1.18757 4.10605 0 0 0 20 85 131 255
-0.712817 1.17463 4.07384 0 0 0 126 144 160 255
-0.654751 1.17595 4.08196 0 0 0 33 87 135 255
-0.338776 1.25128 4.24741 0 0 0 164 148 92 255
0.364262 1.40216 4.92621 0 0 0 67 94 81 255
-0.891011 1.27746 4.15465 0 0 0 138 143 146 255
-0.769834 1.27475 4.10672 0 0 0 157 157 158 255
-0.35027 1.27811 4.2404 0 0 0 168 154 103 255
-0.788034 1.30428 4.1004 0 0 0 36 74 113 255
-0.694044 1.29444 4.01702 0 0 0 132 130 139 255
-0.6196 1.29646 4.03981 0 0 0 28 75 118 255
-0.543757 1.3074 4.06747 0 0 0 166 160 125 255
-0.294996 1.46103 4.65304 0 0 0 45 86 123 255
2.13273 -0.0819681 3.97266 0 0 0 65 66 72 255
-0.341354 0.111134 4.60376 0 0 0 26 61 102 255
2.05418 0.164711 4.02986 0 0 0 55 58 57 255
-0.356506 0.368082 4.20408 0 0 0 138 149 156 255
-0.878027 0.407517 4.05952 0 0 0 143 135 116 255
-0.600483 0.391647 4.05898 0 0 0 135 143 155 255
-0.525373 0.397692 4.08162 0 0 0 153 159 162 255
1.97397 0.415411 3.93858 0 0 0 111 113 111 255
-0.921774 0.449545 4.14334 0 0 0 147 142 134 255
-0.721654 0.456552 4.04092 0 0 0 117 125 105 255
-0.35043 0.462976 4.21254 0 0 0 151 153 161 255
1.08693 0.525152 4.79546 0 0 0 93 113 86 255
1.98231 0.509039 3.9333 0 0 0 121 128 125 255
-0.977964 0.534428 4.20827 0 0 0 12 59 104 255
0.831593 0.594567 4.60304 0 0 0 156 160 161 255
2.0789 0.551172 3.7522 0 0 0 135 139 140 255
2.20297 0.552209 3.6893 0 0 0 143 142 139 255
-0.618563 0.58817 4.06969 0 0 0 157 159 161 255
-0.460353 0.595142 4.12911 0 0 0 157 160 162 255
1.96825 0.60578 4.03807 0 0 0 50 52 52 255
-0.907953 0.631225 4.12854 0 0 0 150 152 151 255
-0.832007 0.601509 4.0976 0 0 0 146 152 155 255
-0.503902 0.644464 4.06462 0 0 0 156 158 158 255
-0.314512 0.689174 4.30668 0 0 0 146 153 154 255
-0.973595 0.701111 4.18747 0 0 0 23 46 87 255
0.946995 0.750768 4.64963 0 0 0 116 146 130 255
1.08652 0.770763 4.77551 0 0 0 48 91 74 255
-0.664681 0.730024 4.07081 0 0 0 27 55 103 255
-1.00769 0.823943 4.22464 0 0 0 23 61 94 255
-0.72871 0.861753 4.06871 0 0 0 37 61 107 255
-0.44723 0.829256 4.13494 0 0 0 107 104 108 255
-0.605354 0.907494 4.07732 0 0 0 158 161 165 255
-0.843922 0.972767 4.10387 0 0 0 152 154 156 255
-0.46685 0.995922 4.13247 0 0 0 137 155 172 255
-0.359835 1.02385 4.2255 0 0 0 127 129 131 255
-0.477029 1.06201 4.12992 0 0 0 148 152 158 255
-0.343696 1.20731 4.25137 0 0 0 140 124 104 255
1.11245 1.40736 5.09848 0 0 0 68 108 88 255
-0.51908 1.31553 4.08593 0 0 0 174 163 107 255
-0.948401 1.41496 4.19433 0 0 0 44 79 117 255
-0.506344 1.43569 4.11922 0 0 0 45 86 124 255
1.99595 1.57775 4.10457 0 0 0 110 112 108 255
2.12672 -0.201558 3.97657 0 0 0 84 67 60 255
2.11995 -0.126285 3.98047 0 0 0 72 57 57 255
1.05258 0.111262 4.83203 0 0 0 45 91 64 255
2.04715 0.178631 4.03671 0 0 0 54 54 54 255
2.07855 0.170965 4.01399 0 0 0 40 47 49 255
1.97875 0.270043 4.02065 0 0 0 109 101 98 255
-0.856174 0.424467 4.10021 0 0 0 147 132 77 255
1.95943 0.471225 3.9745 0 0 0 128 132 131 255
-0.402688 0.621976 4.15927 0 0 0 25 57 105 255
-0.839115 0.648188 4.09862 0 0 0 154 153 154 255
-0.68995 0.636271 4.05297 0 0 0 23 56 107 255
1.05434 0.810611 4.74668 0 0 0 50 95 71 255
-0.727212 0.815456 4.06057 0 0 0 73 84 96 255
-0.302073 0.874498 4.28133 0 0 0 18 64 112 255
1.99617 0.904641 4.08058 0 0 0 46 51 52 255
-0.380067 1.21851 4.21803 0 0 0 153 126 99 255
0.383158 1.38543 4.89852 0 0 0 64 93 79 255
-0.8284 1.21307 4.10651 0 0 0 131 129 136 255
-0.452087 1.30925 4.15732 0 0 0 173 160 74 255
-0.335438 1.44315 4.63277 0 0 0 30 78 119 255
-0.873002 1.43288 4.11136 0 0 0 50 80 110 255
2.20063 -0.193852 3.88735 0 0 0 129 93 98 255
2.50002 -0.18896 3.96817 0 0 0 82 87 87 255
2.30722 -0.172189 3.93001 0 0 0 138 103 105 255
2.50679 -0.0976492 3.99417 0 0 0 115 122 124 255
2.50792 -0.0741611 3.96716 0 0 0 81 85 86 255
2.49845 -0.0136812 3.96918 0 0 0 120 127 129 255
2.21378 0.0164632 3.91524 0 0 0 162 162 162 255
2.54816 0.119869 3.98812 0 0 0 113 115 117 255
-0.295586 0.0979134 4.60142 0 0 0 81 87 99 255
2.34066 0.253951 3.70648 0 0 0 155 135 115 255
0.648339 0.24822 4.58429 0 0 0 30 53 50 255
0.920701 0.257938 4.61427 0 0 0 96 101 99 255
0.461111 0.273968 4.66813 0 0 0 121 130 129 255
0.960041 0.267845 4.63331 0 0 0 83 112 100 255
2.3473 0.303278 3.70351 0 0 0 76 50 28 255
-0.733224 0.289292 4.04497 0 0 0 30 47 93 255
2.32086 0.306896 3.70201 0 0 0 153 123 92 255
0.671277 0.316999 4.57477 0 0 0 123 149 104 255
-0.383527 0.320767 4.17705 0 0 0 62 112 157 255
-0.33412 0.40763 4.22797 0 0 0 114 88 103 255
2.5165 0.425642 3.73054 0 0 0 99 98 98 255
-0.423179 0.448887 4.14283 0 0 0 150 151 157 255
2.281 0.452135 3.6757 0 0 0 86 81 78 255
-0.511039 0.479122 4.08516 0 0 0 40 83 116 255
2.11636 0.525333 3.72916 0 0 0 38 42 46 255
2.22626 0.537958 3.68463 0 0 0 35 40 52 255
2.06533 0.556933 3.76089 0 0 0 75 86 87 255
0.575641 0.683513 4.62787 0 0 0 145 153 151 255
1.1087 0.737475 4.7964 0 0 0 136 148 146 255
1.08778 0.755174 4.77411 0 0 0 134 142 139 255
1.05393 0.768608 4.73833 0 0 0 144 153 153 255
-0.784515 0.755993 4.01845 0 0 0 86 89 99 255
2.33415 0.716482 3.68707 0 0 0 73 61 49 255
-0.816535 0.875343 3.98852 0 0 0 57 71 86 255
-0.812775 0.877657 3.98612 0 0 0 61 67 88 255
1.88447 1.43503 6.97103 0 0 0 147 145 139 255
1.32206 1.39312 6.5864 0 0 0 133 131 125 255
1.23886 1.3746 6.44025 0 0 0 142 141 133 255
0.905994 1.17892 4.64613 0 0 0 95 89 43 255
2.40279 1.0487 3.71988 0 0 0 99 97 98 255
2.42452 1.04583 3.69524 0 0 0 107 115 115 255
2.16792 1.06872 3.74228 0 0 0 125 133 133 255
2.07756 1.08695 3.78472 0 0 0 90 93 94 255
2.21129 1.08876 3.71601 0 0 0 73 75 74 255
2.31137 1.08679 3.71172 0 0 0 87 89 90 255
2.34169 1.08796 3.70991 0 0 0 87 93 93 255
2.2104 1.16654 3.67934 0 0 0 99 102 104 255
2.22934 1.24129 3.6729 0 0 0 109 118 116 255
2.39391 1.23779 3.66267 0 0 0 100 98 98 255
-0.41425 1.39764 4.17934 0 0 0 113 120 126 255
-0.669707 1.36868 3.83016 0 0 0 70 107 143 255
2.15142 1.36959 3.705 0 0 0 117 120 119 255
2.18857 1.38076 3.67652 0 0 0 119 121 125 255
2.21837 1.39553 3.66383 0 0 0 100 102 104 255
2.50105 -0.00156617 3.96766 0 0 0 138 145 145 255
2.37928 0.313778 3.70196 0 0 0 106 86 56 255
0.609827 0.373876 4.59014 0 0 0 90 60 64 255
-0.721332 0.393031 4.04056 0 0 0 119 120 112 255
-0.509233 0.487149 4.08593 0 0 0 19 83 128 255
2.51422 0.49364 3.71647 0 0 0 68 49 45 255
2.64418 0.902902 3.89995 0 0 0 90 99 99 255
-0.653747 0.937392 4.00216 0 0 0 159 159 164 255
2.39561 1.03547 3.68025 0 0 0 81 82 82 255
-0.687053 1.36263 3.82835 0 0 0 80 126 160 255
-0.508949 1.41793 4.13271 0 0 0 64 114 148 255
2.11464 -0.201234 3.97838 0 0 0 109 98 94 255
2.10839 -0.0122737 3.98868 0 0 0 149 149 147 255
0.678525 0.241976 4.57262 0 0 0 96 99 99 255
2.38205 0.260874 3.71206 0 0 0 155 118 75 255
-0.708691 0.29625 4.04357 0 0 0 143 131 87 255
2.39166 0.319138 3.69972 0 0 0 64 43 28 255
0.885954 0.394366 4.60571 0 0 0 153 144 145 255
1.02755 0.415105 4.6955 0 0 0 131 63 70 255
-0.720527 0.401258 4.03981 0 0 0 145 145 130 255
0.445627 0.425134 4.67806 0 0 0 140 139 139 255
2.3466 0.463927 3.6758 0 0 0 47 44 47 255
-0.468586 0.485286 4.10958 0 0 0 114 121 130 255
2.3723 0.544969 3.67653 0 0 0 41 40 45 255
-0.848104 0.738116 4.02904 0 0 0 93 101 111 255
2.36711 0.730477 3.69908 0 0 0 91 69 44 255
-0.684186 0.787317 4.07595 0 0 0 159 158 161 255
2.36412 0.750206 3.69572 0 0 0 97 71 33 255
-0.570637 0.910332 4.08381 0 0 0 161 161 163 255
0.859239 1.13892 4.62368 0 0 0 152 156 133 255
-0.382007 1.10736 4.21651 0 0 0 9 82 129 255
0.889422 1.17609 4.63549 0 0 0 125 121 72 255
-0.44896 1.39896 4.1315 0 0 0 155 159 162 255
2.45777 1.368 3.65151 0 0 0 88 84 87 255
2.12988 -0.143457 3.97456 0 0 0 68 46 46 255
2.47754 -0.066732 3.96664 0 0 0 60 67 75 255
2.21093 0.0149858 3.91484 0 0 0 156 158 160 255
2.47438 0.0392178 4.00407 0 0 0 89 89 89 255
2.12933 0.0419618 3.96702 0 0 0 93 96 95 255
-0.356283 0.318223 4.19991 0 0 0 50 96 131 255
2.28895 0.432008 3.67724 0 0 0 141 142 141 255
2.42519 0.453371 3.68401 0 0 0 35 37 41 255
2.20873 0.48445 3.67497 0 0 0 61 36 28 255
0.7961 0.556596 4.59343 0 0 0 154 159 157 255
0.44095 0.601873 4.69632 0 0 0 86 114 109 255
2.39211 0.538016 3.67202 0 0 0 142 145 146 255
1.95885 0.592773 4.00255 0 0 0 59 59 62 255
2.24277 0.545849 3.68251 0 0 0 132 142 144 255
2.28607 0.555776 3.68104 0 0 0 35 36 40 255
-0.451329 0.646592 4.133 0 0 0 158 159 161 255
-0.405861 0.666095 4.16826 0 0 0 25 59 107 255
-0.630984 0.662031 4.06482 0 0 0 158 158 162 255
-0.742025 0.674592 4.06082 0 0 0 36 50 91 255
-0.289174 0.765767 4.32607 0 0 0 128 132 139 255
-0.481093 0.895334 4.12173 0 0 0 159 161 160 255
-0.793602 0.971346 3.96546 0 0 0 151 150 152 255
-0.405077 1.08092 4.19541 0 0 0 1 98 145 255
-0.58942 1.09804 4.00434 0 0 0 131 148 162 255
-0.524178 1.12163 3.99931 0 0 0 0 106 149 255
-0.332373 1.1651 4.25902 0 0 0 133 134 139 255
2.407 -0.221379 3.85721 0 0 0 144 144 144 255
2.21575 0.0210167 3.91676 0 0 0 162 162 162 255
1.09342 0.105634 4.93872 0 0 0 50 93 69 255
1.03332 0.310989 4.70222 0 0 0 143 145 133 255
-0.871224 0.39704 4.11182 0 0 0 151 135 77 255
-0.73189 0.384875 4.04055 0 0 0 129 131 116 255
2.23154 0.491002 3.6829 0 0 0 35 37 41 255
0.779927 0.594253 4.59317 0 0 0 157 162 160 255
1.98526 0.529438 3.93987 0 0 0 127 133 136 255
2.39006 0.541166 3.67092 0 0 0 122 130 132 255
-0.60975 0.634368 4.07246 0 0 0 159 160 161 255
-0.404425 0.640588 4.16184 0 0 0 25 59 105 255
0.77166 0.686016 4.60648 0 0 0 67 110 68 255
-0.308156 0.75047 4.30695 0 0 0 153 156 155 255
0.786006 0.821025 4.60477 0 0 0 158 163 161 255
-0.421255 0.833038 4.16783 0 0 0 158 160 162 255
-0.625719 0.896434 4.07682 0 0 0 100 113 139 255
-0.449864 0.99644 4.13857 0 0 0 134 150 165 255
-0.36617 1.13745 4.22934 0 0 0 128 140 152 255
-0.534811 1.14425 4.10667 0 0 0 1 98 146 255
-0.346742 1.24675 4.23006 0 0 0 155 139 84 255
-0.302495 1.47217 4.65223 0 0 0 87 119 151 255
-0.448922 1.41797 4.07065 0 0 0 36 80 123 255
2.14456 -0.0570963 3.9607 0 0 0 33 41 36 255
1.07404 0.112922 4.90346 0 0 0 48 91 67 255
-0.358665 0.401078 4.20022 0 0 0 97 69 102 255
1.94742 0.475362 3.98994 0 0 0 90 90 87 255
2.13323 0.539198 3.71821 0 0 0 134 142 146 255
-0.395782 0.642181 4.16587 0 0 0 24 59 106 255
-0.697434 0.69381 4.05687 0 0 0 25 58 111 255
0.803846 0.777302 4.60474 0 0 0 77 116 99 255
1.07374 1.39471 5.08931 0 0 0 66 105 77 255
2.21895 -0.210016 3.88866 0 0 0 119 120 121 255
2.10453 -0.186484 3.97151 0 0 0 110 105 104 255
2.10633 -0.130529 3.9722 0 0 0 136 136 133 255
2.10425 -0.108756 3.96542 0 0 0 143 141 139 255
2.12227 -0.0767514 3.96109 0 0 0 72 73 74 255
2.36144 -0.0536114 3.86587 0 0 0 79 83 86 255
0.376374 0.150264 4.80545 0 0 0 28 59 44 255
2.3604 0.249837 3.71136 0 0 0 88 83 82 255
2.28712 0.2539 3.70278 0 0 0 57 56 59 255
2.20512 0.270503 3.72062 0 0 0 62 49 47 255
2.32549 0.277294 3.7048 0 0 0 69 58 57 255
2.32841 0.277626 3.7045 0 0 0 69 58 57 255
-0.456723 0.278066 4.10723 0 0 0 73 55 38 255
-0.443708 0.304531 4.11825 0 0 0 97 82 94 255
-0.761465 0.300171 4.04653 0 0 0 131 109 116 255
-0.457613 0.327789 4.11087 0 0 0 63 100 144 255
-0.465379 0.372147 4.11009 0 0 0 137 137 146 255
-0.493264 0.468621 4.09454 0 0 0 128 145 164 255
-0.701468 0.463777 4.04207 0 0 0 120 127 124 255
1.03686 0.512251 4.72927 0 0 0 122 136 112 255
-0.369149 0.506074 4.19601 0 0 0 73 114 148 255
-0.348674 0.522537 4.22042 0 0 0 32 82 125 255
1.09889 0.709868 4.78176 0 0 0 111 118 117 255
0.462355 0.942738 4.718 0 0 0 101 113 109 255
1.16395 1.25095 5.43853 0 0 0 140 139 133 255
2.41124 1.07315 3.74226 0 0 0 125 129 128 255
-1.04231 1.23529 4.40528 0 0 0 54 99 133 255
-0.960145 1.25675 4.37593 0 0 0 27 84 124 255
-0.841528 1.25177 4.25847 0 0 0 115 96 111 255
-0.995378 1.28355 4.3661 0 0 0 106 105 114 255
2.16279 1.18117 3.77485 0 0 0 99 100 102 255
2.38862 1.18375 3.75597 0 0 0 106 105 109 255
2.37893 1.2268 3.76571 0 0 0 103 103 103 255
2.28334 1.26552 3.75048 0 0 0 103 107 110 255
-1.14163 1.49338 4.58729 0 0 0 59 110 152 255
-0.367622 1.40988 4.2175 0 0 0 160 157 163 255
-1.20959 1.58652 4.68912 0 0 0 98 112 134 255
2.23352 1.40177 3.76133 0 0 0 113 113 115 255
-0.44353 0.278239 4.11624 0 0 0 140 103 88 255
-0.464024 0.370857 4.11108 0 0 0 119 135 153 255
0.666888 0.403198 4.57929 0 0 0 124 46 49 255
-0.407036 0.486961 4.15597 0 0 0 98 119 145 255
1.10725 0.594193 4.81064 0 0 0 139 146 146 255
-0.471532 0.662808 4.06527 0 0 0 100 107 129 255
-0.724741 0.883997 4.06981 0 0 0 32 62 104 255
-0.791432 1.21056 4.21991 0 0 0 134 145 147 255
-0.965164 1.25724 4.37367 0 0 0 33 90 128 255
2.38743 1.4186 3.78741 0 0 0 95 95 99 255
2.45516 -0.21891 3.9595 0 0 0 74 74 76 255
2.35603 0.285856 3.70629 0 0 0 149 124 96 255
2.3883 0.301125 3.70506 0 0 0 133 97 66 255
2.4218 0.420708 3.69674 0 0 0 61 34 20 255
-0.648372 0.411155 4.04677 0 0 0 23 91 75 255
-0.293184 0.417431 4.31549 0 0 0 67 117 147 255
2.14973 0.509921 3.71489 0 0 0 136 140 137 255
-0.352071 0.494066 4.21488 0 0 0 125 137 153 255
0.780014 0.553887 4.59018 0 0 0 155 159 160 255
-0.497872 0.750069 4.10727 0 0 0 158 159 160 255
-0.373674 0.785152 4.19884 0 0 0 62 75 103 255
-0.814611 1.22717 4.2336 0 0 0 139 138 140 255
-0.802539 1.21436 4.22873 0 0 0 137 144 146 255
2.39985 1.41662 3.79924 0 0 0 98 92 97 255
2.1457 -0.205156 3.95738 0 0 0 47 44 45 255
2.26771 -0.207001 3.8587 0 0 0 42 40 39 255
2.13938 -0.213523 3.96968 0 0 0 56 55 55 255
2.13713 -0.112586 3.96018 0 0 0 39 41 40 255
2.28688 0.284281 3.69768 0 0 0 158 127 80 255
2.40899 0.39002 3.69072 0 0 0 119 136 144 255
2.33066 0.428471 3.67673 0 0 0 56 43 41 255
2.37148 0.442476 3.67677 0 0 0 134 144 147 255
-0.63952 0.420027 4.04834 0 0 0 37 102 91 255
-0.57334 0.440614 4.06625 0 0 0 114 141 165 255
2.41181 0.4818 3.68157 0 0 0 36 40 43 255
1.96866 0.511737 3.9066 0 0 0 109 111 110 255
0.831739 0.567159 4.60254 0 0 0 157 162 160 255
1.08607 0.600058 4.76756 0 0 0 144 149 147 255
-0.532692 0.763515 4.09431 0 0 0 97 117 135 255
0.951272 1.092 4.6663 0 0 0 29 80 119 255
0.535099 1.2354 4.67479 0 0 0 149 152 151 255
-0.382249 1.42426 4.29918 0 0 0 28 78 122 255
2.39739 1.42288 3.79912 0 0 0 95 95 104 255
2.4402 -0.220726 3.95105 0 0 0 60 61 61 255
-0.304166 0.133323 4.52908 0 0 0 25 66 103 255
0.381222 0.0991811 4.79067 0 0 0 61 83 76 255
2.25561 0.290498 3.70926 0 0 0 140 105 63 255
1.02745 0.282208 4.69929 0 0 0 113 129 108 255
2.11742 0.413549 3.72744 0 0 0 45 49 59 255
-0.417689 0.412275 4.14595 0 0 0 129 141 148 255
-0.325338 0.417327 4.2376 0 0 0 149 130 136 255
-0.339933 0.474668 4.22548 0 0 0 147 151 157 255
2.2182 0.555017 3.68772 0 0 0 139 142 142 255
-0.300014 0.742229 4.32509 0 0 0 152 152 152 255
-0.437871 0.877235 4.14351 0 0 0 157 160 159 255
-0.347169 1.17114 4.25228 0 0 0 144 142 144 255
-0.309516 1.44825 4.61896 0 0 0 32 76 114 255
2.41138 -0.191487 3.86145 0 0 0 88 44 45 255
2.41723 -0.119762 3.86978 0 0 0 34 33 35 255
2.39804 -0.0392854 3.84013 0 0 0 35 37 41 255
2.30817 0.00226442 3.88733 0 0 0 128 130 129 255
2.33665 0.088615 3.93059 0 0 0 186 188 190 255
1.08784 0.14655 4.8451 0 0 0 49 94 67 255
-0.346267 0.168127 4.52589 0 0 0 6 57 103 255
2.08068 0.445907 3.73913 0 0 0 134 137 137 255
1.946 0.476147 3.88527 0 0 0 133 136 135 255
0.735357 0.688769 4.59263 0 0 0 62 108 73 255
-0.324941 0.70611 4.25071 0 0 0 153 155 157 255
0.805911 0.826513 4.60252 0 0 0 160 162 162 255
2.24557 0.737902 3.6903 0 0 0 54 44 38 255
2.27592 -0.161504 3.83798 0 0 0 140 105 100 255
2.49796 -0.0157523 3.98261 0 0 0 108 115 113 255
2.22788 0.0193024 3.91071 0 0 0 169 166 167 255
2.55255 0.130364 4.03273 0 0 0 89 93 94 255
-0.979578 0.131535 4.14359 0 0 0 47 61 76 255
-3.06725 0.162157 6.42217 0 0 0 49 45 43 255
0.555201 0.243502 4.59963 0 0 0 35 59 57 255
0.935927 0.256247 4.62211 0 0 0 54 87 82 255
2.47242 0.279875 3.73911 0 0 0 89 70 78 255
0.940162 0.333947 4.62838 0 0 0 143 146 143 255
2.36498 0.303951 3.70278 0 0 0 157 124 73 255
-0.909218 0.326705 4.08976 0 0 0 91 102 119 255
-0.461398 0.343147 4.11084 0 0 0 6 68 120 255
1.0292 0.376065 4.69684 0 0 0 107 47 57 255
-0.570244 0.383766 4.06815 0 0 0 45 80 108 255
2.55744 0.37533 3.76672 0 0 0 64 72 75 255
2.48979 0.385495 3.7252 0 0 0 119 128 132 255
2.51041 0.384578 3.73818 0 0 0 128 128 131 255
2.51492 0.428393 3.73626 0 0 0 118 118 118 255
2.54634 0.435841 3.75666 0 0 0 75 63 58 255
-0.97764 0.512218 4.18051 0 0 0 40 65 93 255
1.06421 0.582094 4.7365 0 0 0 111 147 136 255
2.51989 0.486401 3.7356 0 0 0 107 100 94 255
1.10285 0.60666 4.79292 0 0 0 113 113 113 255
1.07472 0.613784 4.74525 0 0 0 126 133 130 255
1.10105 0.656919 4.79274 0 0 0 110 117 115 255
2.45681 0.536552 3.7211 0 0 0 87 97 105 255
1.07435 0.667899 4.75671 0 0 0 116 123 123 255
-0.944354 0.675924 4.13331 0 0 0 49 62 78 255
-0.890846 0.680033 4.12988 0 0 0 74 80 86 255
1.10593 0.755451 4.79868 0 0 0 139 146 145 255
-0.893499 0.724625 4.13013 0 0 0 124 128 129 255
0.866854 0.854598 4.6212 0 0 0 152 159 157 255
2.38385 0.766117 3.70109 0 0 0 107 81 51 255
-0.8663 0.944376 4.10761 0 0 0 42 53 93 255
-0.453124 0.951213 4.13651 0 0 0 77 97 137 255
-0.893091 1.01907 4.14595 0 0 0 56 62 84 255
-0.853883 1.00854 4.12263 0 0 0 147 149 152 255
-0.865882 1.00834 4.07687 0 0 0 138 139 146 255
-0.303559 1.09568 4.62962 0 0 0 65 108 139 255
1.24595 1.40604 6.6382 0 0 0 152 148 142 255
1.08893 1.42648 6.36729 0 0 0 141 142 140 255
1.04014 1.17252 4.74585 0 0 0 137 119 47 255
-0.301375 1.20246 4.63129 0 0 0 57 98 126 255
-0.629943 1.20212 4.08894 0 0 0 64 85 114 255
-0.73247 1.20591 3.96518 0 0 0 88 102 117 255
2.47991 1.04028 3.7096 0 0 0 92 91 91 255
2.52765 1.04379 3.74905 0 0 0 79 80 79 255
2.22606 1.06049 3.73198 0 0 0 76 82 80 255
2.30092 1.05447 3.71145 0 0 0 131 136 139 255
2.28883 1.0688 3.75602 0 0 0 92 94 94 255
2.43789 1.04625 3.70588 0 0 0 101 98 99 255
-0.682004 1.25612 3.93349 0 0 0 72 91 109 255
-0.735082 1.26733 3.94388 0 0 0 114 123 134 255
2.39853 1.08491 3.72582 0 0 0 75 73 74 255
2.44016 1.08655 3.71837 0 0 0 76 76 76 255
2.44926 1.09028 3.73753 0 0 0 86 90 91 255
-0.624966 1.34699 3.86541 0 0 0 66 103 130 255
2.50252 -0.0155631 3.97659 0 0 0 139 146 144 255
-0.372175 0.331331 4.18797 0 0 0 72 111 144 255
1.04972 0.35212 4.71331 0 0 0 87 87 87 255
0.74676 0.357638 4.57462 0 0 0 89 49 51 255
0.906295 0.369817 4.61424 0 0 0 150 130 132 255
2.55325 0.384771 3.76117 0 0 0 121 133 134 255
