ply
format ascii 1.0
comment VCGLIB generated
element vertex 1031
property float x
property float y
property float z
property float nx
property float ny
property float nz
property uchar red
property uchar green
property uchar blue
property uchar alpha
element face 0
property list uchar int vertex_indices
end_header
2.35601 -0.113512 3.91407 0 0 0 100 98 100 255
2.32432 -0.0788883 3.91445 0 0 0 55 55 62 255
2.13715 -0.0750879 3.96784 0 0 0 70 71 78 255
2.506 -0.0494622 3.99985 0 0 0 39 44 42 255
2.34401 0.00800678 3.92791 0 0 0 200 205 207 255
2.34949 0.0717026 3.93664 0 0 0 250 252 254 255
2.36056 0.115179 3.92059 0 0 0 253 251 252 255
2.05831 0.132137 3.99388 0 0 0 123 121 117 255
2.54975 0.134673 3.96782 0 0 0 54 53 58 255
-1.0468 0.193624 4.30304 0 0 0 68 78 91 255
2.31036 0.253237 3.70594 0 0 0 122 112 94 255
-0.492443 0.254477 4.09395 0 0 0 20 46 86 255
-0.475033 0.254164 4.10281 0 0 0 99 103 125 255
2.2253 0.257699 3.71808 0 0 0 139 109 74 255
2.26749 0.258865 3.70697 0 0 0 114 99 81 255
2.4099 0.254465 3.71491 0 0 0 91 78 70 255
-0.650437 0.264477 4.04742 0 0 0 123 104 95 255
-0.624233 0.261771 4.05124 0 0 0 129 107 101 255
-0.509901 0.2594 4.08421 0 0 0 125 105 96 255
-0.443691 0.26007 4.11671 0 0 0 83 87 115 255
0.494136 0.251731 4.64284 0 0 0 100 111 110 255
-0.8612 0.263497 4.08367 0 0 0 100 102 114 255
-0.799133 0.267141 4.05666 0 0 0 97 97 97 255
-0.770016 0.259233 4.05173 0 0 0 89 75 84 255
-0.726446 0.265848 4.04733 0 0 0 106 100 99 255
-0.692527 0.267318 4.04739 0 0 0 140 126 102 255
-0.561608 0.265213 4.06525 0 0 0 110 103 101 255
0.885986 0.259619 4.60012 0 0 0 62 76 74 255
2.38682 0.272499 3.70932 0 0 0 100 56 21 255
-0.831999 0.270867 4.06419 0 0 0 120 118 85 255
-0.545945 0.274229 4.06973 0 0 0 134 110 79 255
-0.87095 0.280091 4.08655 0 0 0 126 125 102 255
-0.799407 0.27979 4.0567 0 0 0 128 122 98 255
-0.608143 0.277793 4.05321 0 0 0 122 102 59 255
2.23379 0.283983 3.70876 0 0 0 106 68 33 255
2.27201 0.282201 3.69859 0 0 0 160 122 66 255
2.31318 0.281007 3.70115 0 0 0 87 49 40 255
2.38447 0.280933 3.70832 0 0 0 91 51 24 255
-0.778064 0.290053 4.0519 0 0 0 36 44 62 255
-0.49062 0.28925 4.09528 0 0 0 77 63 50 255
0.718458 0.284912 4.569 0 0 0 76 95 91 255
-0.858165 0.29195 4.07638 0 0 0 78 76 46 255
-0.816974 0.296199 4.06021 0 0 0 38 39 53 255
-0.68329 0.297875 4.04498 0 0 0 38 39 43 255
-0.642684 0.296122 4.0475 0 0 0 89 71 48 255
-0.606324 0.294766 4.052 0 0 0 59 57 62 255
-0.575645 0.298146 4.05896 0 0 0 23 46 93 255
-0.54668 0.287734 4.06865 0 0 0 65 47 33 255
-0.50982 0.295682 4.0828 0 0 0 140 115 87 255
2.4026 0.296879 3.70195 0 0 0 91 74 60 255
-0.485241 0.305977 4.09721 0 0 0 98 76 83 255
2.20734 0.302835 3.70404 0 0 0 108 89 64 255
2.25894 0.30743 3.69712 0 0 0 153 118 70 255
2.28014 0.308322 3.68985 0 0 0 135 96 61 255
2.30502 0.304407 3.69763 0 0 0 165 133 81 255
-0.85249 0.312262 4.07232 0 0 0 86 93 132 255
-0.782896 0.315452 4.05265 0 0 0 87 84 115 255
-0.727689 0.314467 4.04664 0 0 0 83 94 128 255
-0.655013 0.315911 4.04474 0 0 0 128 111 86 255
-0.621894 0.312585 4.0495 0 0 0 145 116 97 255
-0.54111 0.312411 4.07084 0 0 0 113 106 101 255
-1.0255 0.330091 4.2647 0 0 0 81 104 136 255
0.612975 0.328417 4.58681 0 0 0 138 142 131 255
0.760106 0.323899 4.57477 0 0 0 141 155 125 255
1.99153 0.337603 3.96847 0 0 0 70 75 76 255
0.583874 0.353345 4.6008 0 0 0 178 129 137 255
0.602067 0.350806 4.59303 0 0 0 121 77 78 255
-0.490875 0.353807 4.09703 0 0 0 54 109 155 255
-0.387464 0.35053 4.17355 0 0 0 14 87 133 255
0.820471 0.358469 4.58575 0 0 0 164 123 128 255
1.02942 0.360485 4.69795 0 0 0 172 130 136 255
1.09928 0.362002 4.76482 0 0 0 91 101 86 255
-0.902781 0.357214 4.10331 0 0 0 35 72 108 255
-0.756738 0.357367 4.04769 0 0 0 22 78 129 255
-0.635064 0.359652 4.04946 0 0 0 122 132 142 255
-0.607665 0.359027 4.05758 0 0 0 9 73 123 255
-0.585927 0.360874 4.06583 0 0 0 96 119 159 255
1.9471 0.361137 3.97272 0 0 0 86 81 79 255
-0.88279 0.364053 4.09855 0 0 0 76 99 128 255
-0.517807 0.363871 4.08693 0 0 0 7 73 123 255
-0.336176 0.368137 4.22819 0 0 0 101 88 100 255
1.05022 0.376846 4.71308 0 0 0 151 125 132 255
-0.490009 0.380405 4.10072 0 0 0 55 87 113 255
0.873983 0.382768 4.60151 0 0 0 157 138 142 255
1.95786 0.375275 3.96587 0 0 0 117 119 118 255
-0.556915 0.383443 4.07294 0 0 0 26 81 117 255
-0.531918 0.386081 4.08127 0 0 0 140 150 161 255
-0.410342 0.383158 4.15353 0 0 0 73 89 111 255
1.98698 0.376833 3.94516 0 0 0 112 117 117 255
-0.637534 0.383508 4.0496 0 0 0 68 97 95 255
-0.479636 0.386287 4.10626 0 0 0 25 65 100 255
-0.439424 0.393996 4.13188 0 0 0 36 61 105 255
-0.366087 0.388398 4.19521 0 0 0 78 80 99 255
2.4499 0.382327 3.70563 0 0 0 103 102 105 255
2.49532 0.386892 3.7224 0 0 0 123 130 133 255
2.56932 0.379089 3.79329 0 0 0 79 84 88 255
-0.501682 0.392349 4.09367 0 0 0 33 72 114 255
0.530558 0.40266 4.61785 0 0 0 121 111 114 255
2.06647 0.385934 3.75907 0 0 0 103 107 108 255
2.17305 0.391621 3.69827 0 0 0 132 134 137 255
2.19137 0.38855 3.69318 0 0 0 81 81 81 255
2.27528 0.385557 3.6759 0 0 0 81 83 84 255
2.2897 0.382101 3.67331 0 0 0 88 87 89 255
2.30142 0.389091 3.67084 0 0 0 137 136 137 255
-0.475391 0.404631 4.10781 0 0 0 121 134 152 255
-0.46775 0.406748 4.11251 0 0 0 139 150 165 255
1.05434 0.411382 4.72029 0 0 0 126 90 88 255
1.97317 0.389737 3.95268 0 0 0 73 68 66 255
2.4566 0.398247 3.71314 0 0 0 138 141 140 255
-0.594625 0.410078 4.06303 0 0 0 25 93 124 255
-0.574349 0.410166 4.06843 0 0 0 147 155 163 255
-0.3964 0.411035 4.16462 0 0 0 141 145 164 255
-0.548146 0.423094 4.073 0 0 0 42 84 121 255
-0.509921 0.415602 4.0894 0 0 0 153 158 160 255
-0.475096 0.421282 4.1079 0 0 0 152 153 157 255
-0.436936 0.419611 4.13287 0 0 0 149 150 154 255
2.10163 0.41234 3.73624 0 0 0 60 39 39 255
2.43552 0.409957 3.70341 0 0 0 61 44 39 255
-0.536054 0.424383 4.07794 0 0 0 81 103 123 255
-0.454924 0.42633 4.12147 0 0 0 63 79 103 255
-0.356814 0.432264 4.20569 0 0 0 103 96 115 255
2.52223 0.411616 3.72627 0 0 0 76 66 67 255
-0.593498 0.42995 4.06367 0 0 0 19 93 125 255
-0.386918 0.438366 4.17077 0 0 0 79 87 98 255
-0.535276 0.438453 4.07771 0 0 0 11 83 127 255
-0.500122 0.43908 4.09432 0 0 0 30 76 115 255
-0.555939 0.444626 4.07005 0 0 0 116 163 192 255
-0.46674 0.444181 4.11317 0 0 0 39 62 90 255
-0.441316 0.447384 4.12979 0 0 0 17 60 109 255
-0.396988 0.446271 4.16293 0 0 0 57 71 108 255
-0.33454 0.451438 4.22736 0 0 0 120 89 112 255
-0.7112 0.449359 4.04394 0 0 0 142 149 136 255
-0.668662 0.449322 4.04777 0 0 0 140 149 148 255
-0.541937 0.460722 4.07462 0 0 0 25 89 126 255
-0.47435 0.459196 4.10783 0 0 0 22 70 125 255
2.10338 0.450588 3.73204 0 0 0 58 39 39 255
-0.66726 0.466665 4.04703 0 0 0 80 95 94 255
-0.627076 0.467875 4.05327 0 0 0 58 94 92 255
-0.576837 0.467372 4.06568 0 0 0 81 103 120 255
-0.422847 0.477693 4.14412 0 0 0 45 84 117 255
2.14071 0.465521 3.71195 0 0 0 91 65 52 255
-1.036 0.49326 4.29372 0 0 0 110 92 99 255
-0.648921 0.480863 4.04853 0 0 0 84 120 108 255
-0.385941 0.490525 4.17543 0 0 0 73 98 117 255
-0.317285 0.483833 4.25268 0 0 0 31 84 119 255
-0.99573 0.497641 4.25184 0 0 0 108 94 96 255
2.28149 0.471822 3.67277 0 0 0 80 62 54 255
-0.728607 0.492839 4.04512 0 0 0 87 106 123 255
1.96782 0.496781 3.96087 0 0 0 95 96 91 255
2.10349 0.485692 3.73653 0 0 0 67 46 41 255
-0.427051 0.503455 4.14571 0 0 0 60 108 147 255
2.51468 0.48042 3.72439 0 0 0 109 105 106 255
2.12025 0.494952 3.72558 0 0 0 37 43 44 255
2.27047 0.508101 3.67949 0 0 0 87 75 65 255
2.27439 0.506646 3.67863 0 0 0 74 55 41 255
2.29579 0.505536 3.67755 0 0 0 60 51 47 255
1.10561 0.576652 4.81873 0 0 0 106 143 126 255
1.95969 0.548368 3.99095 0 0 0 119 116 115 255
2.42554 0.529484 3.68844 0 0 0 64 53 57 255
-0.438397 0.561273 4.13997 0 0 0 145 149 167 255
2.20768 0.540001 3.68664 0 0 0 81 66 56 255
2.21597 0.53195 3.68496 0 0 0 50 37 39 255
-1.02797 0.572828 4.27415 0 0 0 107 113 138 255
-0.875659 0.563684 4.10496 0 0 0 104 117 151 255
-0.836162 0.567489 4.10262 0 0 0 141 145 147 255
2.45507 0.551118 3.71022 0 0 0 101 103 109 255
2.56005 0.544381 3.76875 0 0 0 131 138 138 255
-0.638798 0.570267 4.06435 0 0 0 138 140 171 255
1.95337 0.571011 4.03267 0 0 0 77 67 61 255
2.49925 0.550717 3.73317 0 0 0 129 138 140 255
2.17132 0.55936 3.69888 0 0 0 114 129 133 255
-0.902759 0.585807 4.11862 0 0 0 24 52 91 255
2.24126 0.557857 3.68183 0 0 0 139 136 137 255
2.32124 0.559853 3.67463 0 0 0 93 103 105 255
2.35702 0.55951 3.68426 0 0 0 140 141 143 255
-0.955757 0.592544 4.16835 0 0 0 33 58 91 255
1.04626 0.625696 4.71775 0 0 0 71 73 73 255
-0.4935 0.603707 4.08675 0 0 0 84 89 109 255
-0.578441 0.614492 4.09724 0 0 0 53 59 75 255
-0.985466 0.652991 4.19675 0 0 0 127 129 132 255
-0.366238 0.641589 4.20924 0 0 0 36 66 115 255
-0.484326 0.651144 4.06973 0 0 0 91 90 94 255
-0.577079 0.665109 4.09166 0 0 0 61 68 87 255
-0.871844 0.678784 4.10571 0 0 0 56 60 71 255
-0.334018 0.679979 4.23017 0 0 0 116 116 118 255
-0.95263 0.686313 4.17001 0 0 0 37 42 54 255
0.549799 0.711292 4.63688 0 0 0 85 123 102 255
-1.01603 0.693675 4.22286 0 0 0 88 95 105 255
-0.433905 0.68707 4.14559 0 0 0 151 158 159 255
1.07221 0.731269 4.75727 0 0 0 127 137 136 255
-0.742793 0.696624 4.06612 0 0 0 123 125 141 255
-0.401742 0.719202 4.1783 0 0 0 132 140 162 255
0.83748 0.74748 4.61103 0 0 0 65 109 78 255
-0.879258 0.718957 4.10851 0 0 0 122 125 129 255
-0.642607 0.717101 4.0685 0 0 0 136 142 163 255
-0.334996 0.733162 4.23221 0 0 0 113 116 127 255
-0.551367 0.747877 4.0892 0 0 0 141 150 171 255
-0.514816 0.745925 4.10417 0 0 0 152 152 158 255
2.25622 0.715033 3.68697 0 0 0 79 76 68 255
2.38181 0.71967 3.70376 0 0 0 86 76 66 255
-0.787196 0.757723 4.06012 0 0 0 78 82 95 255
-0.689036 0.767019 4.07491 0 0 0 131 136 162 255
-0.447239 0.772384 4.14242 0 0 0 70 74 90 255
-1.00681 0.783103 4.22154 0 0 0 130 137 137 255
-0.333151 0.7861 4.24102 0 0 0 60 71 94 255
-0.301639 0.818358 4.29521 0 0 0 97 106 117 255
-0.317664 0.81557 4.26524 0 0 0 127 132 153 255
2.24984 0.762149 3.68732 0 0 0 89 76 57 255
-0.828382 0.808661 4.08707 0 0 0 117 120 126 255
-0.608768 0.80549 4.07695 0 0 0 79 86 105 255
2.30403 0.765521 3.68751 0 0 0 98 74 53 255
-0.626539 0.810325 4.07837 0 0 0 53 63 89 255
-0.381878 0.82307 4.19669 0 0 0 56 73 95 255
-0.443424 0.83087 4.14005 0 0 0 90 89 97 255
-0.808682 0.832053 4.0813 0 0 0 74 80 99 255
-0.358979 0.845993 4.2129 0 0 0 155 157 160 255
0.548891 0.900097 4.65251 0 0 0 71 111 93 255
-0.377129 0.86455 4.19977 0 0 0 82 92 100 255
-0.39549 0.87812 4.18712 0 0 0 156 158 157 255
-0.607266 0.868734 4.07793 0 0 0 103 105 107 255
-0.626654 0.878662 4.07838 0 0 0 67 83 105 255
-0.962225 0.900497 4.18611 0 0 0 79 88 101 255
-0.358603 0.904347 4.20099 0 0 0 73 96 127 255
-0.714453 0.900795 4.07395 0 0 0 35 64 104 255
-0.51021 0.912002 4.10778 0 0 0 157 157 163 255
1.07816 1.00262 4.75447 0 0 0 121 139 124 255
-0.546275 0.92426 4.09314 0 0 0 155 159 160 255
-0.425284 0.929769 4.15397 0 0 0 73 92 125 255
-0.722898 0.930141 4.07477 0 0 0 159 160 161 255
-0.603303 0.939308 4.0768 0 0 0 125 125 125 255
-0.584437 0.938476 4.07856 0 0 0 148 150 152 255
-0.887731 0.957842 4.14197 0 0 0 35 51 92 255
-0.708008 0.950404 4.07649 0 0 0 81 91 108 255
-0.687039 0.964586 4.07995 0 0 0 153 149 159 255
-0.572576 0.976345 4.08662 0 0 0 75 92 137 255
-0.745672 0.977044 4.07523 0 0 0 157 157 157 255
-0.60638 0.987933 4.07881 0 0 0 68 89 127 255
-0.356786 1.01203 4.22766 0 0 0 118 140 158 255
1.17936 1.14007 5.06123 0 0 0 172 176 170 255
-0.863712 1.00234 4.07171 0 0 0 40 50 84 255
-0.692851 1.00494 4.07836 0 0 0 66 84 118 255
1.92987 1.37638 6.59489 0 0 0 144 141 136 255
-0.370247 1.03186 4.22231 0 0 0 52 101 130 255
-0.914083 1.02194 4.10675 0 0 0 135 131 139 255
-0.911437 1.0283 4.15935 0 0 0 145 149 150 255
1.20436 1.17635 5.07679 0 0 0 120 118 116 255
-0.992373 1.03957 4.2015 0 0 0 116 120 122 255
-0.49688 1.0435 4.1212 0 0 0 41 99 138 255
-0.495488 1.08291 4.12116 0 0 0 60 110 140 255
-0.365987 1.11231 4.22459 0 0 0 28 73 120 255
-0.333129 1.12083 4.24852 0 0 0 29 75 113 255
2.07146 1.04943 3.79305 0 0 0 107 110 109 255
2.12031 1.05155 3.76147 0 0 0 117 117 118 255
2.17047 1.05097 3.74039 0 0 0 90 86 85 255
2.10853 1.05754 3.77103 0 0 0 99 103 103 255
2.13888 1.05606 3.76363 0 0 0 97 94 95 255
2.21324 1.0523 3.72855 0 0 0 90 92 91 255
-0.391726 1.13898 4.20497 0 0 0 135 146 156 255
-0.310507 1.14438 4.26722 0 0 0 109 132 145 255
2.25381 1.05113 3.70988 0 0 0 80 81 80 255
2.31444 1.05595 3.70872 0 0 0 103 98 100 255
2.34392 1.05382 3.71049 0 0 0 96 94 96 255
2.21408 1.06908 3.72705 0 0 0 121 124 123 255
2.21247 1.06995 3.72968 0 0 0 121 124 123 255
2.22164 1.08367 3.72563 0 0 0 86 84 84 255
-0.325161 1.17984 4.26485 0 0 0 51 76 100 255
2.1661 1.08882 3.73544 0 0 0 84 89 89 255
2.25189 1.08234 3.70249 0 0 0 83 78 76 255
2.28512 1.07763 3.71429 0 0 0 89 81 83 255
2.36065 1.08645 3.71486 0 0 0 78 78 79 255
2.48086 1.08401 3.73743 0 0 0 73 74 76 255
-0.610887 1.15258 4.0721 0 0 0 24 111 147 255
2.22161 1.08399 3.72691 0 0 0 98 105 102 255
2.40202 1.09132 3.72552 0 0 0 87 92 90 255
-0.863444 1.17532 4.12317 0 0 0 88 116 142 255
-0.631825 1.16771 4.06107 0 0 0 148 149 158 255
2.13506 1.13479 3.76577 0 0 0 102 103 105 255
-0.624529 1.19259 4.06911 0 0 0 66 85 118 255
-0.734761 1.20943 4.09447 0 0 0 115 99 115 255
-0.836521 1.22393 4.1241 0 0 0 107 103 113 255
-0.689316 1.2116 4.07675 0 0 0 113 103 118 255
2.07852 1.17251 3.79856 0 0 0 103 105 104 255
2.25567 1.17735 3.71627 0 0 0 106 107 111 255
2.07237 1.20812 3.80446 0 0 0 115 113 112 255
-0.89515 1.36534 4.13609 0 0 0 69 106 141 255
-0.371272 1.38345 4.21849 0 0 0 140 152 167 255
-0.846057 1.36407 4.11933 0 0 0 65 104 137 255
-0.389207 1.39433 4.20288 0 0 0 93 102 120 255
-0.460048 1.38806 4.14588 0 0 0 93 128 163 255
-0.815698 1.39123 4.10708 0 0 0 22 83 123 255
-0.456677 1.41727 4.15324 0 0 0 157 159 160 255
-0.894713 1.4179 4.13962 0 0 0 89 108 133 255
2.46126 1.4045 3.79337 0 0 0 84 82 84 255
2.25145 1.41287 3.79984 0 0 0 112 112 112 255
2.1707 1.43021 3.83099 0 0 0 100 100 100 255
2.31051 1.41643 3.77491 0 0 0 106 106 106 255
2.38519 1.63083 3.98878 0 0 0 191 193 199 255
2.39535 1.62889 3.98083 0 0 0 207 207 208 255
2.33311 -0.211429 3.91017 0 0 0 153 157 163 255
2.36567 -0.211616 3.90311 0 0 0 46 45 44 255
2.23477 -0.165989 3.84894 0 0 0 140 73 68 255
0.949024 -0.24388 4.71118 0 0 0 211 211 212 255
2.34502 0.0144705 3.92474 0 0 0 200 205 207 255
-1.07518 0.131466 4.32229 0 0 0 22 47 84 255
2.04792 0.136904 4.02203 0 0 0 135 135 134 255
2.21448 0.256267 3.72146 0 0 0 121 103 80 255
2.31435 0.249651 3.70654 0 0 0 80 75 76 255
2.40475 0.252932 3.71543 0 0 0 93 77 67 255
-0.720997 0.261105 4.04787 0 0 0 113 104 82 255
-0.862549 0.269074 4.08593 0 0 0 132 125 125 255
-0.562053 0.268712 4.06512 0 0 0 110 103 101 255
-0.479542 0.270931 4.09992 0 0 0 124 109 113 255
2.38397 0.280185 3.70805 0 0 0 91 51 24 255
2.30353 0.305728 3.69701 0 0 0 165 133 81 255
-0.556575 0.311843 4.06557 0 0 0 147 121 91 255
-0.914785 0.327056 4.08652 0 0 0 68 103 139 255
-0.896185 0.357761 4.09167 0 0 0 37 76 112 255
-0.640392 0.354957 4.04852 0 0 0 46 99 143 255
-0.42938 0.34842 4.13843 0 0 0 105 129 149 255
0.409806 0.367136 4.71305 0 0 0 111 87 83 255
0.79937 0.365504 4.57932 0 0 0 144 132 134 255
0.875233 0.374822 4.60225 0 0 0 136 117 121 255
-0.652894 0.390443 4.04802 0 0 0 29 88 75 255
-0.483103 0.388844 4.1038 0 0 0 30 73 108 255
-0.389721 0.397329 4.1719 0 0 0 152 156 156 255
1.98462 0.380306 3.94705 0 0 0 77 84 85 255
2.12002 0.389226 3.72141 0 0 0 89 89 90 255
2.49241 0.387854 3.72439 0 0 0 110 118 121 255
1.93337 0.407998 3.95974 0 0 0 125 120 116 255
-0.588778 0.430858 4.06451 0 0 0 19 93 125 255
2.10207 0.418865 3.73615 0 0 0 58 40 40 255
2.42196 0.409585 3.69785 0 0 0 83 63 45 255
-0.452825 0.440786 4.12333 0 0 0 16 60 108 255
1.97658 0.444275 3.92947 0 0 0 82 76 67 255
2.10322 0.43415 3.73304 0 0 0 58 42 39 255
2.45769 0.429946 3.71096 0 0 0 34 38 37 255
-0.609818 0.453804 4.05976 0 0 0 147 154 154 255
2.14133 0.466075 3.71157 0 0 0 91 65 52 255
-0.547438 0.490388 4.07306 0 0 0 104 120 136 255
-0.421021 0.504187 4.14964 0 0 0 78 121 156 255
1.94271 0.49764 4.00307 0 0 0 122 120 119 255
2.10442 0.500003 3.73726 0 0 0 55 39 39 255
1.0826 0.580868 4.76856 0 0 0 126 142 138 255
2.1016 0.527411 3.73735 0 0 0 50 42 47 255
2.21268 0.527617 3.68573 0 0 0 55 39 41 255
2.28128 0.519398 3.67925 0 0 0 46 36 38 255
2.42298 0.526103 3.70303 0 0 0 57 40 43 255
2.56701 0.542872 3.78684 0 0 0 104 112 118 255
1.94971 0.574807 4.03244 0 0 0 108 100 94 255
2.49127 0.547231 3.72822 0 0 0 123 130 131 255
2.36385 0.560357 3.67773 0 0 0 108 94 86 255
2.40466 0.549947 3.67789 0 0 0 140 142 143 255
2.42476 0.551247 3.69504 0 0 0 143 143 143 255
-1.01433 0.589151 4.24917 0 0 0 134 137 140 255
-0.923889 0.58681 4.13532 0 0 0 32 55 90 255
2.14746 0.555078 3.70674 0 0 0 107 90 75 255
-0.738145 0.610758 4.05947 0 0 0 155 156 156 255
-0.496393 0.604457 4.08246 0 0 0 88 94 113 255
-0.730599 0.645758 4.06196 0 0 0 154 156 158 255
-0.43609 0.683347 4.1426 0 0 0 151 158 159 255
-0.988451 0.707387 4.16651 0 0 0 133 131 130 255
-0.734412 0.71526 4.0662 0 0 0 156 159 161 255
-0.639255 0.705744 4.06689 0 0 0 137 143 162 255
-0.40603 0.725759 4.17695 0 0 0 155 160 168 255
-0.86817 0.723714 4.07995 0 0 0 109 111 116 255
-0.555226 0.759761 4.08759 0 0 0 158 162 163 255
2.25724 0.722745 3.68751 0 0 0 96 76 55 255
-0.892212 0.772216 4.11474 0 0 0 97 108 118 255
-0.691383 0.759841 4.07301 0 0 0 52 69 110 255
-0.460062 0.775401 4.13593 0 0 0 92 94 101 255
-0.332915 0.785051 4.24131 0 0 0 40 53 83 255
-0.317324 0.810403 4.26706 0 0 0 128 133 152 255
-0.62658 0.81034 4.0784 0 0 0 53 63 89 255
-0.452953 0.834358 4.13409 0 0 0 58 66 93 255
-0.413031 0.885325 4.17148 0 0 0 156 157 159 255
-0.445212 0.895096 4.13501 0 0 0 113 117 126 255
-0.955262 0.913001 4.17034 0 0 0 69 69 80 255
-0.505992 0.911228 4.11049 0 0 0 156 159 158 255
-0.562324 0.929038 4.08654 0 0 0 160 162 163 255
-0.737782 0.93157 4.07156 0 0 0 157 161 163 255
-0.884728 0.945536 4.13382 0 0 0 33 52 93 255
-0.67513 0.960743 4.0844 0 0 0 158 160 161 255
-0.712217 0.964731 4.07674 0 0 0 59 71 96 255
-0.74658 0.974588 4.07506 0 0 0 157 157 157 255
-0.47775 0.996364 4.12882 0 0 0 130 149 169 255
-0.844923 1.00482 4.10023 0 0 0 151 154 153 255
-0.933573 1.0264 4.17868 0 0 0 149 147 151 255
-0.499497 1.03506 4.11945 0 0 0 40 99 138 255
0.954936 1.11634 4.66991 0 0 0 29 77 115 255
0.509241 1.15081 4.70071 0 0 0 69 104 73 255
2.3493 1.06765 3.71472 0 0 0 87 86 87 255
0.800509 1.24711 4.61821 0 0 0 101 120 98 255
-0.625065 1.16168 4.04696 0 0 0 136 140 153 255
-0.867516 1.17011 4.12552 0 0 0 88 116 142 255
-0.726035 1.17494 4.11303 0 0 0 85 131 170 255
-0.785226 1.19128 4.09139 0 0 0 21 85 131 255
-0.828519 1.23751 4.10132 0 0 0 80 84 109 255
-0.904309 1.27197 4.13632 0 0 0 124 142 163 255
-0.629947 1.2911 4.07228 0 0 0 37 76 110 255
-0.857059 1.32244 4.12318 0 0 0 101 111 122 255
-0.719552 1.32056 4.09248 0 0 0 95 108 135 255
-0.844532 1.36527 4.11803 0 0 0 65 104 137 255
2.39948 1.41094 3.78612 0 0 0 98 94 97 255
2.3023 -0.21161 3.91603 0 0 0 45 43 44 255
2.37434 -0.20801 3.87392 0 0 0 45 45 45 255
2.46022 -0.199178 3.92078 0 0 0 47 52 53 255
0.943895 -0.24288 4.72333 0 0 0 211 211 212 255
2.09878 -0.0564117 3.97552 0 0 0 93 84 83 255
2.4751 -0.045013 3.91706 0 0 0 35 39 39 255
2.34505 0.0103703 3.92709 0 0 0 200 205 207 255
2.47265 0.036498 3.92928 0 0 0 84 85 92 255
2.35191 0.0898883 3.93127 0 0 0 248 250 254 255
2.3568 0.115455 3.92318 0 0 0 255 252 253 255
2.06705 0.135711 4.03881 0 0 0 63 63 62 255
2.53539 0.140293 3.94763 0 0 0 50 50 54 255
2.31168 0.259165 3.70446 0 0 0 161 144 114 255
-0.469153 0.263073 4.10524 0 0 0 148 121 89 255
2.21644 0.266545 3.7162 0 0 0 95 75 60 255
2.36278 0.261834 3.70647 0 0 0 125 88 55 255
-0.829087 0.281438 4.06289 0 0 0 139 126 66 255
-0.798913 0.275406 4.05506 0 0 0 75 73 68 255
-0.76396 0.271631 4.05141 0 0 0 114 95 99 255
-0.623673 0.27092 4.05141 0 0 0 133 111 101 255
-0.700531 0.284207 4.04671 0 0 0 113 107 101 255
2.21451 0.297588 3.70534 0 0 0 130 106 77 255
2.37641 0.298174 3.7029 0 0 0 138 101 62 255
-0.966648 0.334397 4.17374 0 0 0 95 110 126 255
0.582636 0.374112 4.60105 0 0 0 118 39 43 255
-0.611603 0.399606 4.05948 0 0 0 149 155 160 255
-0.529454 0.39882 4.08144 0 0 0 152 158 165 255
-0.390525 0.395495 4.17158 0 0 0 148 155 155 255
0.604014 0.402509 4.59278 0 0 0 156 147 148 255
1.985 0.386102 3.94263 0 0 0 112 121 123 255
2.07292 0.397045 3.7525 0 0 0 127 133 134 255
2.12899 0.406 3.71762 0 0 0 131 137 139 255
2.15391 0.394462 3.70553 0 0 0 40 39 44 255
2.1839 0.395305 3.69559 0 0 0 135 136 140 255
2.2888 0.394296 3.67421 0 0 0 138 147 149 255
2.42028 0.383449 3.69883 0 0 0 125 129 132 255
2.13024 0.413137 3.71752 0 0 0 123 136 140 255
2.4266 0.41715 3.69466 0 0 0 61 43 33 255
-0.598646 0.455681 4.0622 0 0 0 144 156 158 255
-0.983642 0.483463 4.22878 0 0 0 127 120 122 255
2.14756 0.467803 3.70918 0 0 0 61 40 29 255
-0.348193 0.539058 4.22091 0 0 0 32 80 117 255
2.10729 0.514154 3.73504 0 0 0 47 38 40 255
2.21686 0.520492 3.68553 0 0 0 52 36 38 255
2.42548 0.508277 3.69468 0 0 0 39 38 42 255
1.98184 0.550884 3.89321 0 0 0 130 133 131 255
2.28603 0.525094 3.67952 0 0 0 37 39 43 255
-0.931727 0.587547 4.15739 0 0 0 22 55 94 255
-0.855369 0.573445 4.10076 0 0 0 152 152 152 255
-0.633828 0.574884 4.06516 0 0 0 153 155 167 255
-0.451683 0.569672 4.13367 0 0 0 156 158 162 255
2.12007 0.550572 3.72473 0 0 0 137 139 139 255
2.14858 0.551867 3.70617 0 0 0 107 90 75 255
2.19222 0.556418 3.69192 0 0 0 137 141 142 255
2.23484 0.558898 3.68303 0 0 0 142 141 144 255
2.33276 0.550618 3.67492 0 0 0 141 146 147 255
2.38053 0.552942 3.67462 0 0 0 45 41 45 255
2.42823 0.553215 3.69967 0 0 0 143 143 143 255
-0.803576 0.587999 4.08698 0 0 0 29 51 90 255
-0.738493 0.607858 4.05944 0 0 0 156 156 156 255
-0.57548 0.621976 4.11341 0 0 0 104 112 143 255
1.04122 0.646356 4.723 0 0 0 40 80 74 255
-0.7398 0.62115 4.06105 0 0 0 156 159 158 255
-0.357208 0.656415 4.21283 0 0 0 146 151 161 255
-0.578059 0.667564 4.10577 0 0 0 61 68 87 255
-0.513301 0.66128 4.08398 0 0 0 59 65 84 255
-0.43282 0.666574 4.1436 0 0 0 153 157 159 255
-0.95346 0.686959 4.16268 0 0 0 28 44 82 255
-0.880939 0.676339 4.12303 0 0 0 56 60 71 255
-0.776396 0.676075 4.06305 0 0 0 34 53 94 255
-0.360437 0.680482 4.21035 0 0 0 146 152 161 255
-0.959661 0.700338 4.16381 0 0 0 24 46 91 255
-0.86347 0.704099 4.07694 0 0 0 111 118 126 255
-0.739288 0.709674 4.06684 0 0 0 153 157 160 255
-0.412969 0.728929 4.1737 0 0 0 154 159 171 255
-0.890719 0.763897 4.11174 0 0 0 107 117 124 255
2.27698 0.735006 3.68837 0 0 0 110 80 42 255
-0.678832 0.775705 4.07946 0 0 0 156 158 163 255
-1.00206 0.815222 4.22218 0 0 0 39 52 75 255
-0.383972 0.80104 4.19524 0 0 0 103 118 135 255
-0.28915 0.80704 4.32098 0 0 0 149 153 154 255
-0.620359 0.811809 4.07754 0 0 0 49 59 86 255
-0.334054 0.814386 4.23918 0 0 0 33 58 96 255
-0.807772 0.826985 4.07385 0 0 0 74 80 99 255
-0.615732 0.877478 4.07724 0 0 0 58 75 97 255
-0.410264 0.90161 4.17574 0 0 0 61 73 100 255
-0.742117 0.882917 4.06696 0 0 0 60 75 95 255
-0.495474 0.893612 4.11377 0 0 0 160 162 163 255
-0.87488 0.912652 4.11883 0 0 0 31 51 92 255
-0.563643 0.92948 4.08535 0 0 0 160 162 163 255
-0.862754 0.925101 4.08928 0 0 0 26 52 95 255
-0.662994 0.948211 4.08589 0 0 0 159 162 161 255
-0.61479 0.94812 4.07562 0 0 0 77 85 106 255
-0.798736 0.984304 4.09361 0 0 0 41 55 91 255
1.18611 1.12189 5.05992 0 0 0 168 174 170 255
-0.471884 0.997777 4.13161 0 0 0 137 155 172 255
-0.359029 1.01661 4.2273 0 0 0 122 144 164 255
-0.924794 1.01747 4.16493 0 0 0 148 150 151 255
1.1891 1.22404 5.07248 0 0 0 158 162 161 255
-0.615643 1.07582 4.08765 0 0 0 113 153 184 255
-0.385821 1.14209 4.21266 0 0 0 145 152 158 255
2.12675 1.06388 3.75431 0 0 0 95 95 94 255
2.28608 1.07152 3.71401 0 0 0 86 79 81 255
-0.672383 1.15405 4.07392 0 0 0 23 88 136 255
-0.630632 1.15227 4.07554 0 0 0 142 157 181 255
-0.584391 1.14313 4.0726 0 0 0 9 108 147 255
-0.877564 1.20606 4.15888 0 0 0 142 144 146 255
-0.784738 1.18171 4.10587 0 0 0 19 84 129 255
-0.631393 1.19857 4.08092 0 0 0 46 80 123 255
-0.329239 1.23301 4.25664 0 0 0 162 140 95 255
-0.912405 1.22174 4.14513 0 0 0 82 104 140 255
-0.895689 1.26971 4.12527 0 0 0 124 142 163 255
-0.854668 1.30299 4.10133 0 0 0 124 131 141 255
-0.794172 1.31235 4.09667 0 0 0 29 74 114 255
-0.700523 1.29497 4.08022 0 0 0 111 112 122 255
-0.372265 1.38849 4.21784 0 0 0 152 154 156 255
-0.892048 1.39371 4.16379 0 0 0 84 129 157 255
2.4102 1.41273 3.7808 0 0 0 93 90 94 255
2.39289 1.62949 3.9852 0 0 0 205 206 212 255
2.24025 -0.203553 3.83074 0 0 0 42 41 42 255
2.46465 -0.193696 3.94803 0 0 0 63 43 41 255
2.12403 -0.0511354 3.97195 0 0 0 47 49 51 255
2.47874 0.0498792 3.93351 0 0 0 83 86 92 255
-1.0677 0.134059 4.31008 0 0 0 22 47 84 255
-0.652679 0.273378 4.04685 0 0 0 129 110 99 255
2.28939 0.269221 3.69755 0 0 0 118 95 70 255
-0.361434 0.35451 4.20031 0 0 0 124 141 155 255
1.96186 0.338288 4.02826 0 0 0 59 58 59 255
-0.928507 0.353891 4.0995 0 0 0 96 99 113 255
-0.881171 0.331936 4.09488 0 0 0 8 56 107 255
0.768182 0.388305 4.57679 0 0 0 159 159 159 255
2.39674 0.397396 3.6863 0 0 0 122 130 137 255
-0.434608 0.420381 4.13454 0 0 0 149 150 154 255
2.0735 0.398008 3.75176 0 0 0 124 136 136 255
2.18402 0.413235 3.69638 0 0 0 132 143 146 255
2.28767 0.391124 3.67428 0 0 0 143 143 143 255
2.34299 0.437578 3.67128 0 0 0 40 41 47 255
-0.944541 0.469844 4.17479 0 0 0 145 109 78 255
2.26757 0.489853 3.67716 0 0 0 136 136 137 255
-0.456599 0.587875 4.1312 0 0 0 158 160 160 255
1.97724 0.597292 4.03645 0 0 0 45 46 47 255
-0.634266 0.573839 4.06493 0 0 0 153 155 167 255
-0.734863 0.627613 4.06131 0 0 0 156 159 159 255
-0.359316 0.651519 4.2123 0 0 0 113 126 151 255
-0.96605 0.689547 4.16749 0 0 0 22 44 84 255
-0.631977 0.685514 4.06889 0 0 0 154 158 160 255
-0.416439 0.679638 4.1637 0 0 0 32 60 105 255
-0.868272 0.722069 4.07554 0 0 0 122 125 129 255
0.78981 0.758055 4.60134 0 0 0 70 110 74 255
-0.743159 0.730214 4.06256 0 0 0 159 160 160 255
-0.408897 0.877901 4.17407 0 0 0 158 161 161 255
-0.87424 0.907751 4.10578 0 0 0 29 52 93 255
-0.766006 0.940956 4.0763 0 0 0 158 161 160 255
-0.985939 1.068 4.22199 0 0 0 23 53 95 255
-0.399009 1.10256 4.20075 0 0 0 3 94 141 255
-0.35113 1.14283 4.24124 0 0 0 146 150 155 255
-0.57106 1.14159 4.05768 0 0 0 4 108 151 255
-0.870135 1.19195 4.13645 0 0 0 141 143 145 255
-0.784769 1.18757 4.10605 0 0 0 20 85 131 255
-0.713346 1.17503 4.07515 0 0 0 126 144 160 255
-0.65525 1.17616 4.08337 0 0 0 33 87 135 255
-0.339188 1.25138 4.24876 0 0 0 164 148 92 255
0.364204 1.40225 4.92679 0 0 0 67 94 81 255
-0.891778 1.27802 4.1565 0 0 0 138 143 146 255
-0.769834 1.27475 4.10672 0 0 0 157 157 158 255
-0.350703 1.27822 4.24178 0 0 0 168 154 103 255
-0.78865 1.30477 4.10189 0 0 0 36 74 113 255
-0.694493 1.2947 4.01824 0 0 0 132 130 139 255
-0.619972 1.29666 4.04093 0 0 0 28 75 118 255
-0.544091 1.30759 4.06853 0 0 0 166 160 125 255
-0.294996 1.46103 4.65304 0 0 0 45 86 123 255
2.13242 -0.081779 3.97131 0 0 0 65 66 72 255
-0.341731 0.111176 4.60533 0 0 0 26 61 102 255
2.05391 0.164767 4.02878 0 0 0 55 58 57 255
-0.357278 0.368579 4.20611 0 0 0 138 149 156 255
-0.878641 0.407553 4.06106 0 0 0 143 135 116 255
-0.601686 0.391849 4.06162 0 0 0 135 143 155 255
-0.526036 0.397708 4.08342 0 0 0 153 159 162 255
1.9737 0.415378 3.93734 0 0 0 111 113 111 255
-0.921774 0.449545 4.14334 0 0 0 147 142 134 255
-0.722811 0.456248 4.04346 0 0 0 117 125 105 255
-0.350616 0.462534 4.21358 0 0 0 151 153 161 255
1.08687 0.525169 4.79573 0 0 0 93 113 86 255
1.98212 0.509004 3.93253 0 0 0 121 128 125 255
-0.981445 0.536053 4.21762 0 0 0 12 59 104 255
0.831277 0.594657 4.60425 0 0 0 156 160 161 255
2.07854 0.55104 3.75075 0 0 0 135 139 140 255
2.20252 0.552067 3.68774 0 0 0 143 142 139 255
-0.619868 0.588741 4.07245 0 0 0 157 159 161 255
-0.460246 0.595244 4.12961 0 0 0 157 160 162 255
1.96801 0.605732 4.03709 0 0 0 50 52 52 255
-0.907953 0.631225 4.12854 0 0 0 150 152 151 255
-0.833586 0.602442 4.10066 0 0 0 146 152 155 255
-0.504389 0.644525 4.0661 0 0 0 156 158 158 255
-0.315878 0.689162 4.30988 0 0 0 146 153 154 255
-0.975662 0.701271 4.19313 0 0 0 23 46 87 255
0.946407 0.751568 4.65178 0 0 0 116 146 130 255
1.08647 0.770743 4.77571 0 0 0 48 91 74 255
-0.665662 0.730231 4.07307 0 0 0 27 55 103 255
-1.00769 0.823943 4.22464 0 0 0 23 61 94 255
-0.729432 0.861939 4.07056 0 0 0 37 61 107 255
-0.44775 0.8296 4.13647 0 0 0 107 104 108 255
-0.605737 0.907419 4.07864 0 0 0 158 161 165 255
-0.844251 0.972863 4.10465 0 0 0 152 154 156 255
-0.467258 0.99653 4.13376 0 0 0 137 155 172 255
-0.360108 1.02397 4.22662 0 0 0 127 129 131 255
-0.476779 1.06165 4.13018 0 0 0 148 152 158 255
-0.344103 1.20749 4.25271 0 0 0 140 124 104 255
1.11244 1.40735 5.09869 0 0 0 68 108 88 255
-0.519402 1.31572 4.08697 0 0 0 174 163 107 255
-0.948401 1.41496 4.19433 0 0 0 44 79 117 255
-0.506831 1.43592 4.12067 0 0 0 45 86 124 255
1.99572 1.57749 4.10362 0 0 0 110 112 108 255
2.12641 -0.20131 3.97526 0 0 0 84 67 60 255
2.11965 -0.126078 3.97913 0 0 0 72 57 57 255
1.05259 0.111134 4.83257 0 0 0 45 91 64 255
2.04689 0.178684 4.03563 0 0 0 54 54 54 255
2.07827 0.171019 4.01288 0 0 0 40 47 49 255
1.97852 0.270062 4.01959 0 0 0 109 101 98 255
-0.856976 0.424558 4.10224 0 0 0 147 132 77 255
1.95943 0.471225 3.9745 0 0 0 128 132 131 255
-0.403087 0.62203 4.16062 0 0 0 25 57 105 255
-0.841138 0.648959 4.10236 0 0 0 154 153 154 255
-0.690266 0.636052 4.05423 0 0 0 23 56 107 255
1.05428 0.810587 4.74688 0 0 0 50 95 71 255
-0.727868 0.815583 4.06232 0 0 0 73 84 96 255
-0.302392 0.874581 4.28255 0 0 0 18 64 112 255
1.99599 0.904515 4.07979 0 0 0 46 51 52 255
-0.380492 1.2187 4.21939 0 0 0 153 126 99 255
0.383086 1.38551 4.89919 0 0 0 64 93 79 255
-0.8284 1.21307 4.10651 0 0 0 131 129 136 255
-0.45259 1.30938 4.15879 0 0 0 173 160 74 255
-0.335438 1.44315 4.63277 0 0 0 30 78 119 255
-0.873002 1.43288 4.11136 0 0 0 50 80 110 255
2.20028 -0.193593 3.88584 0 0 0 129 93 98 255
2.49953 -0.188686 3.96658 0 0 0 82 87 87 255
2.30677 -0.171938 3.92824 0 0 0 138 103 105 255
2.5063 -0.0974193 3.99254 0 0 0 115 122 124 255
2.50742 -0.0739503 3.96551 0 0 0 81 85 86 255
2.49777 -0.0134887 3.96686 0 0 0 120 127 129 255
2.21342 0.0166168 3.91373 0 0 0 162 162 162 255
2.54743 0.119985 3.98572 0 0 0 113 115 117 255
-0.296166 0.0978997 4.60344 0 0 0 81 87 99 255
2.34016 0.253968 3.70477 0 0 0 155 135 115 255
0.648504 0.248255 4.58415 0 0 0 30 53 50 255
0.920865 0.258093 4.61384 0 0 0 96 101 99 255
0.460111 0.274278 4.67126 0 0 0 121 130 129 255
0.960316 0.268001 4.63245 0 0 0 83 112 100 255
2.34679 0.303267 3.70179 0 0 0 76 50 28 255
-0.734261 0.289329 4.0473 0 0 0 30 47 93 255
2.32037 0.306882 3.70031 0 0 0 153 123 92 255
0.671416 0.3173 4.57465 0 0 0 123 149 104 255
-0.38399 0.320805 4.17854 0 0 0 62 112 157 255
-0.333332 0.408108 4.22731 0 0 0 114 88 103 255
2.51573 0.425563 3.72808 0 0 0 99 98 98 255
-0.423182 0.448689 4.14355 0 0 0 150 151 157 255
2.28052 0.45203 3.67401 0 0 0 86 81 78 255
-0.511476 0.478935 4.08659 0 0 0 40 83 116 255
2.11598 0.525192 3.72759 0 0 0 38 42 46 255
2.22581 0.537804 3.68297 0 0 0 35 40 52 255
2.06497 0.556814 3.75949 0 0 0 75 86 87 255
0.576063 0.683083 4.62682 0 0 0 145 153 151 255
1.10864 0.737461 4.79663 0 0 0 136 148 146 255
1.08773 0.755158 4.77432 0 0 0 134 142 139 255
1.05344 0.768206 4.7403 0 0 0 144 153 153 255
-0.785606 0.756217 4.02093 0 0 0 86 89 99 255
2.33362 0.716226 3.68536 0 0 0 73 61 49 255
-0.817655 0.875627 3.99101 0 0 0 57 71 86 255
-0.81389 0.877942 3.98861 0 0 0 61 67 88 255
1.88451 1.4351 6.9714 0 0 0 147 145 139 255
1.32204 1.39356 6.58874 0 0 0 133 131 125 255
1.23886 1.37471 6.44098 0 0 0 142 141 133 255
0.905904 1.17888 4.6464 0 0 0 95 89 43 255
2.40223 1.04828 3.71798 0 0 0 99 97 98 255
2.42384 1.04536 3.69287 0 0 0 107 115 115 255
2.1675 1.0683 3.74054 0 0 0 125 133 133 255
2.0772 1.08654 3.78308 0 0 0 90 93 94 255
2.21084 1.0883 3.71433 0 0 0 73 75 74 255
2.31085 1.08633 3.70985 0 0 0 87 89 90 255
2.34114 1.0875 3.70801 0 0 0 87 93 93 255
2.20991 1.16605 3.67727 0 0 0 99 102 104 255
2.22883 1.24075 3.67081 0 0 0 109 118 116 255
2.39326 1.2372 3.66035 0 0 0 100 98 98 255
-0.414718 1.39779 4.18074 0 0 0 113 120 126 255
-0.670574 1.36903 3.83221 0 0 0 70 107 143 255
2.15099 1.36901 3.70302 0 0 0 117 120 119 255
2.1881 1.38016 3.6745 0 0 0 119 121 125 255
2.21788 1.3949 3.66177 0 0 0 100 102 104 255
2.50037 -0.00138046 3.96533 0 0 0 138 145 145 255
2.37876 0.313761 3.70023 0 0 0 106 86 56 255
0.610049 0.373844 4.58985 0 0 0 90 60 64 255
-0.722445 0.393478 4.04298 0 0 0 119 120 112 255
-0.509746 0.487058 4.08747 0 0 0 19 83 128 255
2.51346 0.493516 3.71402 0 0 0 68 49 45 255
2.64333 0.90251 3.89736 0 0 0 90 99 99 255
-0.65467 0.93767 4.00439 0 0 0 159 159 164 255
2.39495 1.03501 3.67792 0 0 0 81 82 82 255
-0.687938 1.36299 3.83042 0 0 0 80 126 160 255
-0.509625 1.41826 4.13454 0 0 0 64 114 148 255
2.11435 -0.200981 3.97704 0 0 0 109 98 94 255
2.1081 -0.0121121 3.9873 0 0 0 149 149 147 255
0.678604 0.242159 4.57269 0 0 0 96 99 99 255
2.38153 0.26089 3.71033 0 0 0 155 118 75 255
-0.7098 0.296458 4.046 0 0 0 143 131 87 255
2.39113 0.319119 3.69798 0 0 0 64 43 28 255
0.886146 0.394563 4.60519 0 0 0 153 144 145 255
1.02768 0.415013 4.69505 0 0 0 131 63 70 255
-0.721566 0.401776 4.04212 0 0 0 145 145 130 255
0.445049 0.42595 4.68004 0 0 0 140 139 139 255
2.34608 0.463816 3.67407 0 0 0 47 44 47 255
-0.468635 0.485137 4.11038 0 0 0 114 121 130 255
2.37176 0.544806 3.67477 0 0 0 41 40 45 255
-0.84928 0.738342 4.03163 0 0 0 93 101 111 255
2.36656 0.730207 3.69737 0 0 0 91 69 44 255
-0.685524 0.788241 4.07867 0 0 0 159 158 161 255
2.36358 0.749933 3.694 0 0 0 97 71 33 255
-0.569906 0.909789 4.08342 0 0 0 161 161 163 255
0.858178 1.13909 4.62731 0 0 0 152 156 133 255
-0.381121 1.1068 4.21553 0 0 0 9 82 129 255
0.889333 1.17606 4.63577 0 0 0 125 121 72 255
-0.449354 1.39923 4.13269 0 0 0 155 159 162 255
2.45705 1.36731 3.64912 0 0 0 88 84 87 255
2.12958 -0.143231 3.97319 0 0 0 68 46 46 255
2.47688 -0.0665111 3.96436 0 0 0 60 67 75 255
2.21058 0.0151399 3.91332 0 0 0 156 158 160 255
2.4739 0.0393785 4.00248 0 0 0 89 89 89 255
2.12903 0.0421062 3.96555 0 0 0 93 96 95 255
-0.356177 0.318714 4.20044 0 0 0 50 96 131 255
2.28847 0.431916 3.67555 0 0 0 141 142 141 255
2.42451 0.453276 3.68167 0 0 0 35 37 41 255
2.20825 0.484349 3.67294 0 0 0 61 36 28 255
0.796457 0.556673 4.59246 0 0 0 154 159 157 255
0.440934 0.602178 4.69681 0 0 0 86 114 109 255
2.39145 0.537869 3.66971 0 0 0 142 145 146 255
1.9586 0.592654 4.00106 0 0 0 59 59 62 255
2.24231 0.54569 3.68085 0 0 0 132 142 144 255
2.28558 0.555612 3.67935 0 0 0 35 36 40 255
-0.451347 0.646022 4.13376 0 0 0 158 159 161 255
-0.405787 0.66571 4.16884 0 0 0 25 59 107 255
-0.631391 0.662684 4.06617 0 0 0 158 158 162 255
-0.743762 0.674908 4.06413 0 0 0 36 50 91 255
-0.289539 0.765845 4.3274 0 0 0 128 132 139 255
-0.480814 0.895086 4.12198 0 0 0 159 161 160 255
-0.794681 0.971667 3.96787 0 0 0 151 150 152 255
-0.404151 1.08045 4.19436 0 0 0 1 98 145 255
-0.590259 1.09837 4.00646 0 0 0 131 148 162 255
-0.524947 1.12195 4.00132 0 0 0 0 106 149 255
-0.331476 1.16505 4.25804 0 0 0 133 134 139 255
2.40652 -0.221099 3.85556 0 0 0 144 144 144 255
2.21539 0.0211681 3.91525 0 0 0 162 162 162 255
1.0934 0.10552 4.93932 0 0 0 50 93 69 255
1.03337 0.31106 4.70214 0 0 0 143 145 133 255
-0.872325 0.3971 4.11428 0 0 0 151 135 77 255
-0.733448 0.385361 4.04361 0 0 0 129 131 116 255
2.23109 0.490874 3.68124 0 0 0 35 37 41 255
0.780722 0.594012 4.59085 0 0 0 157 162 160 255
1.98502 0.529433 3.93888 0 0 0 127 133 136 255
2.38941 0.541017 3.66862 0 0 0 122 130 132 255
-0.610544 0.634492 4.07442 0 0 0 159 160 161 255
-0.404613 0.641335 4.16281 0 0 0 25 59 105 255
0.772468 0.685975 4.60409 0 0 0 67 110 68 255
-0.308708 0.749845 4.30866 0 0 0 153 156 155 255
0.786445 0.820607 4.60352 0 0 0 158 163 161 255
-0.4209 0.832609 4.16794 0 0 0 158 160 162 255
-0.62635 0.89636 4.07853 0 0 0 100 113 139 255
-0.450181 0.996939 4.13972 0 0 0 134 150 165 255
-0.36536 1.13726 4.22857 0 0 0 128 140 152 255
-0.535338 1.14446 4.10817 0 0 0 1 98 146 255
-0.347237 1.24686 4.23152 0 0 0 155 139 84 255
-0.303037 1.47244 4.654 0 0 0 87 119 151 255
-0.449592 1.41836 4.07252 0 0 0 36 80 123 255
2.14425 -0.0569121 3.95929 0 0 0 33 41 36 255
1.0734 0.111866 4.91345 0 0 0 48 91 67 255
-0.359418 0.401444 4.2022 0 0 0 97 69 102 255
1.94715 0.475294 3.98833 0 0 0 90 90 87 255
2.13284 0.539048 3.71663 0 0 0 134 142 146 255
-0.396281 0.64299 4.16736 0 0 0 24 59 106 255
-0.697661 0.693722 4.05799 0 0 0 25 58 111 255
0.804176 0.777195 4.6038 0 0 0 77 116 99 255
1.07372 1.39472 5.08959 0 0 0 66 105 77 255
2.21859 -0.209738 3.88717 0 0 0 119 120 121 255
2.10425 -0.186222 3.97011 0 0 0 110 105 104 255
2.10604 -0.130295 3.9708 0 0 0 136 136 133 255
2.10397 -0.108533 3.96402 0 0 0 143 141 139 255
2.12197 -0.0765435 3.95968 0 0 0 72 73 74 255
2.36099 -0.0534026 3.86428 0 0 0 79 83 86 255
0.376274 0.150362 4.80637 0 0 0 28 59 44 255
2.35988 0.249862 3.70968 0 0 0 88 83 82 255
2.28665 0.253918 3.70113 0 0 0 57 56 59 255
2.2047 0.27051 3.71902 0 0 0 62 49 47 255
2.325 0.2773 3.70313 0 0 0 69 58 57 255
2.32791 0.277632 3.70283 0 0 0 69 58 57 255
-0.457554 0.277926 4.10929 0 0 0 73 55 38 255
-0.444064 0.304269 4.11957 0 0 0 97 82 94 255
-0.76262 0.300205 4.04901 0 0 0 131 109 116 255
-0.458222 0.327387 4.11258 0 0 0 63 100 144 255
-0.466201 0.372104 4.11213 0 0 0 137 137 146 255
-0.493593 0.468494 4.09581 0 0 0 128 145 164 255
-0.702518 0.463561 4.0444 0 0 0 120 127 124 255
1.03801 0.51199 4.72517 0 0 0 122 136 112 255
-0.368947 0.50549 4.19642 0 0 0 73 114 148 255
-0.349053 0.522598 4.22178 0 0 0 32 82 125 255
1.09889 0.709858 4.78179 0 0 0 111 118 117 255
0.462281 0.942736 4.7186 0 0 0 101 113 109 255
1.1639 1.25106 5.43928 0 0 0 140 139 133 255
2.41067 1.07271 3.74055 0 0 0 125 129 128 255
-1.04352 1.23568 4.40796 0 0 0 54 99 133 255
-0.961255 1.25712 4.37847 0 0 0 27 84 124 255
-0.842453 1.25207 4.26069 0 0 0 115 96 111 255
-0.996525 1.28393 4.36868 0 0 0 106 105 114 255
2.16239 1.18068 3.77316 0 0 0 99 100 102 255
2.38806 1.18322 3.75412 0 0 0 106 105 109 255
2.37839 1.22625 3.76385 0 0 0 103 103 103 255
2.28285 1.26496 3.74868 0 0 0 103 107 110 255
-1.14302 1.49394 4.59031 0 0 0 59 110 152 255
-0.368097 1.40995 4.21891 0 0 0 160 157 163 255
-1.21114 1.58718 4.69241 0 0 0 98 112 134 255
2.23306 1.40113 3.75953 0 0 0 113 113 115 255
-0.444207 0.278018 4.11806 0 0 0 140 103 88 255
-0.464854 0.370845 4.11313 0 0 0 119 135 153 255
0.667374 0.403344 4.57824 0 0 0 124 46 49 255
-0.406949 0.486866 4.15658 0 0 0 98 119 145 255
1.1059 0.594293 4.81588 0 0 0 139 146 146 255
-0.472011 0.662854 4.06672 0 0 0 100 107 129 255
-0.725458 0.88428 4.07163 0 0 0 32 62 104 255
-0.792298 1.21083 4.22203 0 0 0 134 145 147 255
-0.966281 1.25761 4.37621 0 0 0 33 90 128 255
2.38687 1.41793 3.78548 0 0 0 95 95 99 255
2.4547 -0.218635 3.95814 0 0 0 74 74 76 255
2.35552 0.285859 3.70461 0 0 0 149 124 96 255
2.38776 0.30112 3.70337 0 0 0 133 97 66 255
2.42123 0.420631 3.69503 0 0 0 61 34 20 255
-0.649322 0.411361 4.04896 0 0 0 23 91 75 255
-0.291394 0.417153 4.31316 0 0 0 67 117 147 255
2.14932 0.509787 3.71332 0 0 0 136 140 137 255
-0.351911 0.493257 4.21535 0 0 0 125 137 153 255
0.780364 0.553961 4.58931 0 0 0 155 159 160 255
-0.498595 0.750469 4.10911 0 0 0 158 159 160 255
-0.373455 0.785836 4.19915 0 0 0 62 75 103 255
-0.815501 1.22746 4.23576 0 0 0 139 138 140 255
-0.803417 1.21464 4.23087 0 0 0 137 144 146 255
2.39927 1.41593 3.79732 0 0 0 98 92 97 255
2.1454 -0.204881 3.95596 0 0 0 47 44 45 255
2.26729 -0.206725 3.85722 0 0 0 42 40 39 255
2.13907 -0.213251 3.96835 0 0 0 56 55 55 255
2.13683 -0.112359 3.95876 0 0 0 39 41 40 255
2.28641 0.28428 3.69603 0 0 0 158 127 80 255
2.40843 0.389962 3.68902 0 0 0 119 136 144 255
2.33014 0.428383 3.67505 0 0 0 56 43 41 255
2.37094 0.442382 3.67507 0 0 0 134 144 147 255
-0.640491 0.420122 4.05056 0 0 0 37 102 91 255
-0.573988 0.440527 4.068 0 0 0 114 141 165 255
2.41124 0.481686 3.67985 0 0 0 36 40 43 255
1.9684 0.511643 3.90514 0 0 0 109 111 110 255
0.831369 0.567307 4.60382 0 0 0 157 162 160 255
1.08495 0.600306 4.7718 0 0 0 144 149 147 255
-0.532981 0.763948 4.09548 0 0 0 97 117 135 255
0.951183 1.09196 4.66655 0 0 0 29 80 119 255
0.535263 1.23496 4.67467 0 0 0 149 152 151 255
-0.382721 1.42445 4.30069 0 0 0 28 78 122 255
2.39682 1.42218 3.7972 0 0 0 95 95 104 255
2.43975 -0.220451 3.94969 0 0 0 60 61 61 255
-0.304576 0.133356 4.53065 0 0 0 25 66 103 255
0.381173 0.0993001 4.79148 0 0 0 61 83 76 255
2.25516 0.290494 3.70763 0 0 0 140 105 63 255
1.02808 0.282409 4.69714 0 0 0 113 129 108 255
2.11704 0.41347 3.7259 0 0 0 45 49 59 255
-0.418059 0.41205 4.14729 0 0 0 129 141 148 255
-0.32414 0.417786 4.23633 0 0 0 149 130 136 255
-0.33897 0.473827 4.22462 0 0 0 147 151 157 255
2.21774 0.554853 3.6861 0 0 0 139 142 142 255
-0.299893 0.741287 4.32564 0 0 0 152 152 152 255
-0.437558 0.87685 4.14374 0 0 0 157 160 159 255
-0.346901 1.17156 4.25244 0 0 0 144 142 144 255
-0.30998 1.44844 4.62054 0 0 0 32 76 114 255
2.4109 -0.191204 3.8599 0 0 0 88 44 45 255
2.41674 -0.119521 3.86823 0 0 0 34 33 35 255
2.39756 -0.039083 3.8385 0 0 0 35 37 41 255
2.30775 0.00243141 3.88589 0 0 0 128 130 129 255
2.3362 0.0887389 3.92905 0 0 0 186 188 190 255
1.08785 0.146642 4.84528 0 0 0 49 94 67 255
-0.346757 0.168145 4.5276 0 0 0 6 57 103 255
2.0803 0.445841 3.73776 0 0 0 134 137 137 255
1.94574 0.476059 3.88375 0 0 0 133 136 135 255
0.735024 0.689529 4.59372 0 0 0 62 108 73 255
-0.325055 0.706051 4.25161 0 0 0 153 155 157 255
0.806231 0.82608 4.60167 0 0 0 160 162 162 255
2.24509 0.737633 3.68867 0 0 0 54 44 38 255
2.27553 -0.16124 3.83637 0 0 0 140 105 100 255
2.49747 -0.0155475 3.98115 0 0 0 108 115 113 255
2.22752 0.0194659 3.90918 0 0 0 169 166 167 255
2.55204 0.130503 4.03118 0 0 0 89 93 94 255
-0.980706 0.131558 4.14609 0 0 0 47 61 76 255
-3.073 0.162282 6.43157 0 0 0 49 45 43 255
0.555439 0.243632 4.59946 0 0 0 35 59 57 255
0.936233 0.256442 4.62129 0 0 0 54 87 82 255
2.47184 0.279891 3.7374 0 0 0 89 70 78 255
0.940114 0.334098 4.62865 0 0 0 143 146 143 255
2.36446 0.303941 3.70109 0 0 0 157 124 73 255
-0.910139 0.326771 4.09195 0 0 0 91 102 119 255
-0.462188 0.342938 4.11281 0 0 0 6 68 120 255
1.02889 0.376213 4.69794 0 0 0 107 47 57 255
-0.571153 0.383807 4.07028 0 0 0 45 80 108 255
2.55682 0.375302 3.76499 0 0 0 64 72 75 255
2.4892 0.385449 3.72348 0 0 0 119 128 132 255
2.5098 0.384536 3.73645 0 0 0 128 128 131 255
2.51431 0.428326 3.73453 0 0 0 118 118 118 255
2.54572 0.435777 3.75494 0 0 0 75 63 58 255
-0.978612 0.51232 4.1828 0 0 0 40 65 93 255
1.06458 0.581454 4.73522 0 0 0 111 147 136 255
2.51927 0.4863 3.73388 0 0 0 107 100 94 255
1.10111 0.607233 4.79924 0 0 0 113 113 113 255
1.07371 0.61397 4.7488 0 0 0 126 133 130 255
1.10105 0.656918 4.79278 0 0 0 110 117 115 255
2.45622 0.536415 3.7194 0 0 0 87 97 105 255
1.07434 0.667919 4.75675 0 0 0 116 123 123 255
-0.945337 0.676049 4.13556 0 0 0 49 62 78 255
-0.892469 0.680324 4.13297 0 0 0 74 80 86 255
1.10586 0.755435 4.79892 0 0 0 139 146 145 255
-0.894394 0.724738 4.13226 0 0 0 124 128 129 255
0.866422 0.854094 4.62258 0 0 0 152 159 157 255
2.38328 0.76584 3.69942 0 0 0 107 81 51 255
-0.867178 0.944514 4.10967 0 0 0 42 53 93 255
-0.452532 0.950942 4.13634 0 0 0 77 97 137 255
-0.894056 1.01925 4.14815 0 0 0 56 62 84 255
-0.854746 1.00868 4.12467 0 0 0 147 149 152 255
-0.866846 1.00853 4.07904 0 0 0 138 139 146 255
-0.304075 1.09583 4.63131 0 0 0 65 108 139 255
1.24574 1.40679 6.64155 0 0 0 152 148 142 255
1.08875 1.42713 6.36993 0 0 0 141 142 140 255
1.04003 1.17249 4.74614 0 0 0 137 119 47 255
-0.301743 1.20256 4.63273 0 0 0 57 98 126 255
-0.630612 1.20221 4.09065 0 0 0 64 85 114 255
-0.733333 1.2061 3.96713 0 0 0 88 102 117 255
2.47928 1.03987 3.70789 0 0 0 92 91 91 255
2.527 1.04339 3.74735 0 0 0 79 80 79 255
2.22559 1.06 3.73016 0 0 0 76 82 80 255
2.30039 1.05397 3.70957 0 0 0 131 136 139 255
2.28832 1.06834 3.75437 0 0 0 92 94 94 255
2.43729 1.04582 3.70414 0 0 0 101 98 99 255
-0.682815 1.2563 3.93535 0 0 0 72 91 109 255
-0.735947 1.26753 3.94582 0 0 0 114 123 134 255
2.39794 1.08439 3.72385 0 0 0 75 73 74 255
2.43955 1.0861 3.71667 0 0 0 76 76 76 255
2.44863 1.08975 3.73552 0 0 0 86 90 91 255
-0.625724 1.34715 3.86715 0 0 0 66 103 130 255
2.50202 -0.0153583 3.97512 0 0 0 139 146 144 255
-0.3727 0.331427 4.18957 0 0 0 72 111 144 255
1.0497 0.352074 4.71347 0 0 0 87 87 87 255
0.747071 0.357513 4.574 0 0 0 89 49 51 255
0.906539 0.369894 4.61362 0 0 0 150 130 132 255
2.55262 0.384737 3.75944 0 0 0 121 133 134 255
2.43917 0.387555 3.70601 0 0 0 139 139 139 255
-0.520113 0.429768 4.08473 0 0 0 146 154 157 255
-0.638993 0.451334 4.04965 0 0 0 42 95 86 255
2.51911 0.423428 3.74195 0 0 0 90 64 61 255
2.15198 0.482341 3.70902 0 0 0 40 40 43 255
2.52195 0.496804 3.75099 0 0 0 104 75 62 255
-0.93172 0.574365 4.13954 0 0 0 17 53 94 255
2.44626 0.537652 3.71684 0 0 0 62 65 69 255
-0.943879 0.681455 4.13177 0 0 0 35 51 66 255
-0.895705 0.737258 4.13246 0 0 0 118 122 123 255
2.33811 0.759047 3.68319 0 0 0 99 76 48 255
-0.874599 1.04107 4.07581 0 0 0 34 55 89 255
1.10105 1.42496 6.39199 0 0 0 142 144 140 255
-0.732529 1.26063 3.94419 0 0 0 121 131 139 255
-0.680369 1.2603 3.93767 0 0 0 53 76 103 255
-0.625119 1.27574 3.94557 0 0 0 129 131 135 255
-0.641354 1.34641 3.8674 0 0 0 97 130 147 255
2.50129 -0.0150242 4.0114 0 0 0 139 146 144 255
2.48672 0.043959 4.02805 0 0 0 88 88 92 255
2.07773 0.143595 3.91381 0 0 0 50 52 55 255
-0.966375 0.134238 4.13812 0 0 0 32 47 67 255
2.32422 0.263341 3.70458 0 0 0 147 112 61 255
2.47398 0.287786 3.73836 0 0 0 81 81 85 255
-0.963217 0.291733 4.13067 0 0 0 39 63 82 255
0.999918 0.364613 4.67867 0 0 0 113 74 78 255
-0.306313 0.355495 4.26885 0 0 0 71 112 142 255
-0.564829 0.367306 4.07001 0 0 0 84 125 160 255
2.43461 0.384497 3.70336 0 0 0 131 133 136 255
2.49987 0.389815 3.72925 0 0 0 135 139 140 255
2.13365 0.427261 3.71435 0 0 0 132 140 142 255
-0.969517 0.524673 4.16277 0 0 0 32 67 94 255
-0.360961 0.512406 4.21209 0 0 0 76 112 141 255
2.39866 0.456116 3.67888 0 0 0 105 81 65 255
2.52731 0.502479 3.75128 0 0 0 40 39 40 255
-0.814634 0.574854 4.09464 0 0 0 30 53 77 255
2.43485 0.554375 3.70515 0 0 0 142 144 146 255
2.41886 0.548198 3.6942 0 0 0 143 146 145 255
-0.951139 0.67048 4.13939 0 0 0 74 78 86 255
-0.419789 0.698424 4.16491 0 0 0 42 59 81 255
-0.495948 0.720536 4.11605 0 0 0 46 55 92 255
0.934768 0.785852 4.63583 0 0 0 153 160 158 255
-0.872542 0.917666 4.12292 0 0 0 31 52 90 255
2.34762 0.74643 3.68585 0 0 0 99 64 32 255
-0.868761 0.939998 4.11848 0 0 0 38 54 91 255
0.871833 1.06781 4.63004 0 0 0 33 95 134 255
1.11032 1.42485 6.36784 0 0 0 142 144 140 255
-0.595556 1.1558 4.11965 0 0 0 4 105 150 255
-0.779035 1.16229 4.00776 0 0 0 141 143 144 255
-0.631242 1.20363 4.08767 0 0 0 60 88 126 255
1.14084 1.3977 5.08973 0 0 0 77 108 91 255
-0.573092 1.26973 3.99437 0 0 0 50 73 95 255
-0.625327 1.2703 3.94577 0 0 0 127 126 132 255
2.28151 -0.205784 3.86796 0 0 0 43 43 43 255
2.38931 -0.205292 3.87262 0 0 0 44 44 44 255
2.13568 -0.193681 3.97225 0 0 0 81 54 55 255
2.48221 -0.0905512 3.92015 0 0 0 49 51 53 255
-1.00735 -0.149483 4.20415 0 0 0 159 161 162 255
2.48537 -0.049608 4.02478 0 0 0 41 47 46 255
2.19536 0.0274439 3.91663 0 0 0 112 112 112 255
0.379773 0.117492 4.78453 0 0 0 38 68 51 255
-0.671454 0.274081 4.04566 0 0 0 76 71 70 255
0.776808 0.354993 4.57484 0 0 0 150 142 143 255
-0.860851 0.383237 4.10251 0 0 0 137 140 135 255
-0.340004 0.382662 4.22424 0 0 0 116 85 104 255
0.88319 0.413249 4.6046 0 0 0 191 119 128 255
2.19154 0.424485 3.69559 0 0 0 138 140 142 255
2.28348 0.404019 3.67365 0 0 0 140 147 149 255
-0.899944 0.472115 4.14821 0 0 0 156 145 106 255
2.50132 0.434543 3.72414 0 0 0 133 140 142 255
2.41762 0.437442 3.68588 0 0 0 38 39 39 255
2.20547 0.512969 3.68924 0 0 0 94 66 58 255
2.41706 0.49699 3.68707 0 0 0 36 40 43 255
0.54785 0.627868 4.63713 0 0 0 149 153 152 255
2.28438 0.538126 3.67871 0 0 0 35 37 41 255
2.4138 0.548427 3.69159 0 0 0 143 146 145 255
2.48593 0.550597 3.72777 0 0 0 98 114 123 255
