ply
format ascii 1.0
comment VCGLIB generated
element vertex 89
property float x
property float y
property float z
property float nx
property float ny
property float nz
property uchar red
property uchar green
property uchar blue
property uchar alpha
element face 0
property list uchar int vertex_indices
end_header
2.38718 -0.206006 3.86935 0 0 0 0 128 0 255
2.37788 -0.215198 3.87546 0 0 0 0 128 0 255
2.37717 -0.218983 3.87654 0 0 0 0 128 0 255
2.37467 -0.207226 3.87537 0 0 0 0 128 0 255
2.35715 -0.214934 3.88497 0 0 0 0 128 0 255
2.35483 -0.202235 3.88352 0 0 0 0 128 0 255
2.35107 -0.222099 3.8892 0 0 0 0 128 0 255
2.34785 -0.224131 3.89109 0 0 0 0 128 0 255
2.34304 -0.189668 3.88648 0 0 0 0 128 0 255
2.3309 -0.168993 3.888 0 0 0 0 128 0 255
2.32571 -0.176425 3.89185 0 0 0 0 128 0 255
2.33511 -0.0771909 3.86804 0 0 0 0 128 0 255
2.31625 -0.166552 3.89429 0 0 0 0 128 0 255
2.29855 -0.195196 3.90814 0 0 0 0 128 0 255
2.38979 0.291145 3.77281 0 0 0 0 128 0 255
2.30902 -0.0852966 3.88168 0 0 0 0 128 0 255
2.37866 0.282481 3.77953 0 0 0 0 128 0 255
2.28445 -0.184914 3.91264 0 0 0 0 128 0 255
2.2616 -0.185969 3.92345 0 0 0 0 128 0 255
2.28846 6.4373e-05 3.87461 0 0 0 0 128 0 255
2.24463 -0.205822 3.93526 0 0 0 0 128 0 255
2.24107 -0.199732 3.93571 0 0 0 0 128 0 255
2.24685 -0.10443 3.91423 0 0 0 0 128 0 255
2.22537 -0.182947 3.93968 0 0 0 0 128 0 255
2.23597 -0.102111 3.91883 0 0 0 0 128 0 255
2.23514 -0.0618067 3.91135 0 0 0 0 128 0 255
2.19878 -0.208846 3.9572 0 0 0 0 128 0 255
2.22388 0.0177574 3.90116 0 0 0 0 128 0 255
2.21528 0.00235033 3.90813 0 0 0 0 128 0 255
2.26606 0.276642 3.83256 0 0 0 0 128 0 255
2.21748 0.0287304 3.90202 0 0 0 0 128 0 255
2.21103 0.0196762 3.90676 0 0 0 0 128 0 255
2.21031 0.0158944 3.90782 0 0 0 0 128 0 255
2.20817 0.0145435 3.90909 0 0 0 0 128 0 255
2.17367 -0.147141 3.9567 0 0 0 0 128 0 255
2.19981 0.0251184 3.91094 0 0 0 0 128 0 255
2.30213 0.558994 3.7644 0 0 0 0 128 0 255
2.1551 -0.200499 3.97593 0 0 0 0 128 0 255
2.19357 0.0270295 3.91348 0 0 0 0 128 0 255
2.14565 -0.210611 3.98236 0 0 0 0 128 0 255
2.13977 -0.1918 3.98137 0 0 0 0 128 0 255
2.13335 -0.225849 3.99115 0 0 0 0 128 0 255
2.16291 -0.0497384 3.94263 0 0 0 0 128 0 255
2.19529 0.12474 3.89398 0 0 0 0 128 0 255
2.19567 0.131645 3.89249 0 0 0 0 128 0 255
2.14659 -0.125839 3.96515 0 0 0 0 128 0 255
2.13193 -0.1984 3.98635 0 0 0 0 128 0 255
2.19407 0.133132 3.89295 0 0 0 0 128 0 255
2.19249 0.139639 3.89246 0 0 0 0 128 0 255
2.13051 -0.170954 3.98157 0 0 0 0 128 0 255
2.12801 -0.184192 3.98536 0 0 0 0 128 0 255
2.14001 -0.110811 3.96527 0 0 0 0 128 0 255
2.13125 -0.142154 3.97554 0 0 0 0 128 0 255
2.1207 -0.197959 3.99152 0 0 0 0 128 0 255
2.14686 -0.0548272 3.95113 0 0 0 0 128 0 255
2.13215 -0.132417 3.97321 0 0 0 0 128 0 255
2.1275 -0.147006 3.97825 0 0 0 0 128 0 255
2.125 -0.155248 3.98105 0 0 0 0 128 0 255
2.14169 -0.0572481 3.95401 0 0 0 0 128 0 255
2.13435 -0.0760298 3.96111 0 0 0 0 128 0 255
2.11626 -0.17158 3.98837 0 0 0 0 128 0 255
2.11429 -0.181987 3.99136 0 0 0 0 128 0 255
2.13744 -0.0399237 3.95263 0 0 0 0 128 0 255
2.12935 -0.0825033 3.96471 0 0 0 0 128 0 255
2.11914 -0.12643 3.97811 0 0 0 0 128 0 255
2.13028 -0.0627561 3.96043 0 0 0 0 128 0 255
2.12022 -0.115746 3.9755 0 0 0 0 128 0 255
2.11916 -0.116414 3.97614 0 0 0 0 128 0 255
2.12509 -0.0751834 3.96528 0 0 0 0 128 0 255
2.11201 -0.129241 3.98201 0 0 0 0 128 0 255
2.14188 0.0328588 3.93646 0 0 0 0 128 0 255
2.11418 -0.10288 3.97581 0 0 0 0 128 0 255
2.11079 -0.105839 3.97798 0 0 0 0 128 0 255
2.10273 -0.148412 3.99013 0 0 0 0 128 0 255
2.11996 -0.052577 3.96327 0 0 0 0 128 0 255
2.12953 0.0126042 3.94614 0 0 0 0 128 0 255
2.11104 -0.0548444 3.96788 0 0 0 0 128 0 255
2.09079 -0.161755 3.99837 0 0 0 0 128 0 255
2.10584 -0.0772762 3.97471 0 0 0 0 128 0 255
2.10801 -0.0559144 3.96951 0 0 0 0 128 0 255
2.11944 0.0387607 3.94582 0 0 0 0 128 0 255
2.09962 -0.0653553 3.97528 0 0 0 0 128 0 255
2.09443 -0.0877886 3.98211 0 0 0 0 128 0 255
2.32133 1.08004 3.66592 0 0 0 0 128 0 255
2.09839 -0.0569601 3.97423 0 0 0 0 128 0 255
2.11047 0.0164609 3.95432 0 0 0 0 128 0 255
2.09865 -0.015965 3.96614 0 0 0 0 128 0 255
2.08019 -0.0784025 3.98695 0 0 0 0 128 0 255
2.08117 -0.0286145 3.97679 0 0 0 0 128 0 255
