ply
format ascii 1.0
comment VCGLIB generated
element vertex 1131
property float x
property float y
property float z
property float nx
property float ny
property float nz
property uchar red
property uchar green
property uchar blue
property uchar alpha
element face 0
property list uchar int vertex_indices
end_header
4.00641 0.856727 3.46827 0 0 0 0 128 0 255
4.01991 1.18645 3.46972 0 0 0 0 128 0 255
4.01755 1.27165 3.47625 0 0 0 0 128 0 255
4.02319 1.50363 3.48132 0 0 0 0 128 0 255
4.02337 1.50762 3.48132 0 0 0 0 128 0 255
4.02369 1.51462 3.48132 0 0 0 0 128 0 255
4.01396 1.57412 3.49436 0 0 0 0 128 0 255
4.01055 1.59029 3.49871 0 0 0 0 128 0 255
4.00917 1.59035 3.50016 0 0 0 0 128 0 255
4.00652 1.57745 3.50233 0 0 0 0 128 0 255
3.98007 1.02208 3.50378 0 0 0 0 128 0 255
3.97888 1.01112 3.50451 0 0 0 0 128 0 255
3.97896 1.02814 3.50523 0 0 0 0 128 0 255
3.97636 1.01624 3.5074 0 0 0 0 128 0 255
3.97748 1.04122 3.5074 0 0 0 0 128 0 255
3.99465 1.49791 3.51103 0 0 0 0 128 0 255
3.96713 1.01065 3.51682 0 0 0 0 128 0 255
3.9707 1.08957 3.51682 0 0 0 0 128 0 255
3.98129 1.32433 3.51682 0 0 0 0 128 0 255
3.98212 1.43441 3.52117 0 0 0 0 128 0 255
3.96399 1.09388 3.52407 0 0 0 0 128 0 255
3.97955 1.43853 3.52407 0 0 0 0 128 0 255
3.96364 1.13194 3.52624 0 0 0 0 128 0 255
3.9602 1.13209 3.52987 0 0 0 0 128 0 255
3.95666 1.0842 3.53132 0 0 0 0 128 0 255
3.95266 1.02632 3.53277 0 0 0 0 128 0 255
3.9518 1.02236 3.53349 0 0 0 0 128 0 255
3.95184 1.02336 3.53349 0 0 0 0 128 0 255
3.95437 1.0793 3.53349 0 0 0 0 128 0 255
3.95611 1.13328 3.53421 0 0 0 0 128 0 255
3.94515 1.01265 3.54001 0 0 0 0 128 0 255
3.94301 0.995727 3.54146 0 0 0 0 128 0 255
3.96109 1.39632 3.54146 0 0 0 0 128 0 255
3.92079 0.534259 3.54291 0 0 0 0 128 0 255
3.95953 1.39239 3.54291 0 0 0 0 128 0 255
3.9408 0.992823 3.54363 0 0 0 0 128 0 255
3.94508 1.10274 3.54436 0 0 0 0 128 0 255
3.97551 1.83812 3.54726 0 0 0 0 128 0 255
3.94108 1.10593 3.54871 0 0 0 0 128 0 255
3.95641 1.44558 3.54871 0 0 0 0 128 0 255
3.97246 1.81623 3.54943 0 0 0 0 128 0 255
3.94002 1.11298 3.55016 0 0 0 0 128 0 255
3.93755 1.10408 3.55233 0 0 0 0 128 0 255
3.97745 2.0032 3.55305 0 0 0 0 128 0 255
3.92978 1.00834 3.55595 0 0 0 0 128 0 255
3.90749 0.529855 3.55668 0 0 0 0 128 0 255
3.93196 1.08732 3.5574 0 0 0 0 128 0 255
3.96654 1.86855 3.55813 0 0 0 0 128 0 255
3.92594 0.984485 3.55885 0 0 0 0 128 0 255
3.927 1.03849 3.5603 0 0 0 0 128 0 255
3.96407 1.85966 3.5603 0 0 0 0 128 0 255
3.96659 1.9156 3.5603 0 0 0 0 128 0 255
3.96158 1.81973 3.56103 0 0 0 0 128 0 255
3.9419 1.39919 3.56175 0 0 0 0 128 0 255
3.92313 0.998626 3.56247 0 0 0 0 128 0 255
3.96455 1.94672 3.56392 0 0 0 0 128 0 255
3.92711 1.13258 3.56465 0 0 0 0 128 0 255
3.92005 1.00677 3.5661 0 0 0 0 128 0 255
3.91864 0.990821 3.56682 0 0 0 0 128 0 255
3.91954 1.0108 3.56682 0 0 0 0 128 0 255
3.92464 1.12369 3.56682 0 0 0 0 128 0 255
3.91935 1.02182 3.56755 0 0 0 0 128 0 255
3.91417 1.01405 3.57262 0 0 0 0 128 0 255
3.91465 1.10111 3.57624 0 0 0 0 128 0 255
3.94634 1.81841 3.57697 0 0 0 0 128 0 255
3.95459 2.00123 3.57697 0 0 0 0 128 0 255
3.91042 1.11432 3.58131 0 0 0 0 128 0 255
3.9478 2.00354 3.58421 0 0 0 0 128 0 255
3.90035 0.967622 3.58494 0 0 0 0 128 0 255
3.89815 1.01077 3.58929 0 0 0 0 128 0 255
3.89758 1.04382 3.59146 0 0 0 0 128 0 255
3.90135 1.14276 3.59218 0 0 0 0 128 0 255
3.89295 0.97196 3.59291 0 0 0 0 128 0 255
3.893 0.972959 3.59291 0 0 0 0 128 0 255
3.8999 1.1258 3.59291 0 0 0 0 128 0 255
3.88764 0.961189 3.59798 0 0 0 0 128 0 255
3.88782 0.965185 3.59798 0 0 0 0 128 0 255
3.89024 1.03415 3.59871 0 0 0 0 128 0 255
3.88318 0.969398 3.60305 0 0 0 0 128 0 255
3.88889 1.11128 3.60378 0 0 0 0 128 0 255
3.86525 0.602834 3.6045 0 0 0 0 128 0 255
3.93749 2.2032 3.6045 0 0 0 0 128 0 255
3.87942 0.962561 3.60668 0 0 0 0 128 0 255
3.92397 1.94956 3.60668 0 0 0 0 128 0 255
3.88077 1.05359 3.60957 0 0 0 0 128 0 255
3.87454 0.976795 3.61247 0 0 0 0 128 0 255
3.87459 0.977794 3.61247 0 0 0 0 128 0 255
3.87674 1.04076 3.6132 0 0 0 0 128 0 255
3.87175 0.97592 3.61537 0 0 0 0 128 0 255
3.87683 1.10382 3.6161 0 0 0 0 128 0 255
3.87225 1.03296 3.61754 0 0 0 0 128 0 255
3.875 1.09389 3.61754 0 0 0 0 128 0 255
3.87559 1.10688 3.61754 0 0 0 0 128 0 255
3.93033 2.31965 3.61754 0 0 0 0 128 0 255
3.87235 1.081 3.61972 0 0 0 0 128 0 255
3.90382 1.83935 3.62262 0 0 0 0 128 0 255
3.91868 2.19905 3.62407 0 0 0 0 128 0 255
3.90198 1.84444 3.62479 0 0 0 0 128 0 255
3.92118 2.34609 3.62841 0 0 0 0 128 0 255
3.85975 1.1076 3.63421 0 0 0 0 128 0 255
3.8436 0.764975 3.63494 0 0 0 0 128 0 255
3.84214 0.748024 3.63566 0 0 0 0 128 0 255
3.8567 1.08571 3.63638 0 0 0 0 128 0 255
3.85737 1.1007 3.63638 0 0 0 0 128 0 255
3.88864 1.82402 3.63783 0 0 0 0 128 0 255
3.89372 1.96694 3.63928 0 0 0 0 128 0 255
3.84553 0.991118 3.64363 0 0 0 0 128 0 255
3.89038 2.00012 3.64436 0 0 0 0 128 0 255
3.83346 0.754421 3.64508 0 0 0 0 128 0 255
3.88578 1.95929 3.64725 0 0 0 0 128 0 255
3.8347 0.873487 3.64943 0 0 0 0 128 0 255
3.83715 0.958463 3.65088 0 0 0 0 128 0 255
3.82916 0.796658 3.6516 0 0 0 0 128 0 255
3.90325 2.43799 3.6516 0 0 0 0 128 0 255
3.83175 0.884631 3.65305 0 0 0 0 128 0 255
3.83066 0.875671 3.65378 0 0 0 0 128 0 255
3.83625 0.999545 3.65378 0 0 0 0 128 0 255
3.82469 0.758821 3.6545 0 0 0 0 128 0 255
3.82644 0.812798 3.65522 0 0 0 0 128 0 255
3.82281 0.762911 3.65667 0 0 0 0 128 0 255
3.82601 0.833838 3.65667 0 0 0 0 128 0 255
3.83399 1.01066 3.65667 0 0 0 0 128 0 255
3.84229 1.19447 3.65667 0 0 0 0 128 0 255
3.82212 0.762942 3.6574 0 0 0 0 128 0 255
3.82465 0.818885 3.6574 0 0 0 0 128 0 255
3.84088 1.17852 3.6574 0 0 0 0 128 0 255
3.82134 0.760975 3.65812 0 0 0 0 128 0 255
3.84033 1.18155 3.65812 0 0 0 0 128 0 255
3.83959 1.18058 3.65885 0 0 0 0 128 0 255
3.87412 1.96082 3.65957 0 0 0 0 128 0 255
3.8278 0.949876 3.6603 0 0 0 0 128 0 255
3.89125 2.35544 3.6603 0 0 0 0 128 0 255
3.83888 1.21064 3.66102 0 0 0 0 128 0 255
3.82312 0.892028 3.66247 0 0 0 0 128 0 255
3.82527 0.954995 3.6632 0 0 0 0 128 0 255
3.81665 0.779205 3.66392 0 0 0 0 128 0 255
3.87022 1.966 3.66392 0 0 0 0 128 0 255
3.81487 0.755261 3.66464 0 0 0 0 128 0 255
3.88969 2.41257 3.66464 0 0 0 0 128 0 255
3.82041 0.893151 3.66537 0 0 0 0 128 0 255
3.83385 1.19085 3.66537 0 0 0 0 128 0 255
3.81637 0.834273 3.66682 0 0 0 0 128 0 255
3.83292 1.2009 3.66682 0 0 0 0 128 0 255
3.81807 0.887251 3.66754 0 0 0 0 128 0 255
3.82311 1.01415 3.66827 0 0 0 0 128 0 255
3.81214 0.786416 3.66899 0 0 0 0 128 0 255
3.81246 0.793408 3.66899 0 0 0 0 128 0 255
3.81954 0.950249 3.66899 0 0 0 0 128 0 255
3.81976 0.955244 3.66899 0 0 0 0 128 0 255
3.83072 1.198 3.66899 0 0 0 0 128 0 255
3.81527 0.886376 3.67044 0 0 0 0 128 0 255
3.82817 1.17209 3.67044 0 0 0 0 128 0 255
3.81968 0.999292 3.67117 0 0 0 0 128 0 255
3.82341 1.09722 3.67189 0 0 0 0 128 0 255
3.80784 0.76759 3.67262 0 0 0 0 128 0 255
3.81731 0.977377 3.67262 0 0 0 0 128 0 255
3.80498 0.734686 3.67406 0 0 0 0 128 0 255
3.80899 0.823595 3.67406 0 0 0 0 128 0 255
3.82477 1.17324 3.67406 0 0 0 0 128 0 255
3.81132 0.890558 3.67479 0 0 0 0 128 0 255
3.80775 0.826655 3.67551 0 0 0 0 128 0 255
3.8087 0.847633 3.67551 0 0 0 0 128 0 255
3.81247 0.946564 3.67624 0 0 0 0 128 0 255
3.81319 0.962547 3.67624 0 0 0 0 128 0 255
3.81842 1.07843 3.67624 0 0 0 0 128 0 255
3.8187 1.08442 3.67624 0 0 0 0 128 0 255
3.82402 1.2023 3.67624 0 0 0 0 128 0 255
3.80601 0.818725 3.67696 0 0 0 0 128 0 255
3.82062 1.1424 3.67696 0 0 0 0 128 0 255
3.80546 0.821753 3.67769 0 0 0 0 128 0 255
3.85723 1.96859 3.67769 0 0 0 0 128 0 255
3.80261 0.773833 3.67841 0 0 0 0 128 0 255
3.80755 0.898737 3.67914 0 0 0 0 128 0 255
3.80994 0.951683 3.67914 0 0 0 0 128 0 255
3.79796 0.732 3.68131 0 0 0 0 128 0 255
3.79809 0.734997 3.68131 0 0 0 0 128 0 255
3.81672 1.14758 3.68131 0 0 0 0 128 0 255
3.81848 1.18654 3.68131 0 0 0 0 128 0 255
3.79768 0.741022 3.68204 0 0 0 0 128 0 255
3.80354 0.870889 3.68204 0 0 0 0 128 0 255
3.8575 2.08169 3.68276 0 0 0 0 128 0 255
3.87275 2.41934 3.68276 0 0 0 0 128 0 255
3.81686 1.19662 3.68348 0 0 0 0 128 0 255
3.817 1.19962 3.68348 0 0 0 0 128 0 255
3.86065 2.16663 3.68348 0 0 0 0 128 0 255
3.81514 1.17367 3.68421 0 0 0 0 128 0 255
3.85604 2.07975 3.68421 0 0 0 0 128 0 255
3.8587 2.13869 3.68421 0 0 0 0 128 0 255
3.797 0.787099 3.68493 0 0 0 0 128 0 255
3.80074 0.870015 3.68493 0 0 0 0 128 0 255
3.80547 0.974908 3.68493 0 0 0 0 128 0 255
3.79676 0.79712 3.68566 0 0 0 0 128 0 255
3.79987 0.86605 3.68566 0 0 0 0 128 0 255
3.82499 1.42248 3.68566 0 0 0 0 128 0 255
3.7944 0.760189 3.68638 0 0 0 0 128 0 255
3.79876 0.872106 3.68711 0 0 0 0 128 0 255
3.80165 0.936041 3.68711 0 0 0 0 128 0 255
3.80224 0.949028 3.68711 0 0 0 0 128 0 255
3.80377 0.982993 3.68711 0 0 0 0 128 0 255
3.79307 0.76125 3.68783 0 0 0 0 128 0 255
3.79645 0.836174 3.68783 0 0 0 0 128 0 255
3.80624 1.05295 3.68783 0 0 0 0 128 0 255
3.80726 1.09095 3.68856 0 0 0 0 128 0 255
3.8074 1.09394 3.68856 0 0 0 0 128 0 255
3.81236 1.20383 3.68856 0 0 0 0 128 0 255
3.79931 0.93014 3.68928 0 0 0 0 128 0 255
3.80062 0.959111 3.68928 0 0 0 0 128 0 255
3.81108 1.19087 3.68928 0 0 0 0 128 0 255
3.82446 1.50259 3.69001 0 0 0 0 128 0 255
3.79874 0.9632 3.69146 0 0 0 0 128 0 255
3.79312 0.869358 3.6929 0 0 0 0 128 0 255
3.79339 0.875352 3.6929 0 0 0 0 128 0 255
3.80218 1.07015 3.6929 0 0 0 0 128 0 255
3.79144 0.847411 3.69363 0 0 0 0 128 0 255
3.79385 0.931388 3.69508 0 0 0 0 128 0 255
3.80368 1.14917 3.69508 0 0 0 0 128 0 255
3.79898 1.06029 3.6958 0 0 0 0 128 0 255
3.7894 0.878535 3.69725 0 0 0 0 128 0 255
3.78207 0.746731 3.6987 0 0 0 0 128 0 255
3.78216 0.748729 3.6987 0 0 0 0 128 0 255
3.80231 1.19527 3.6987 0 0 0 0 128 0 255
3.80211 1.22131 3.70015 0 0 0 0 128 0 255
3.78816 0.927641 3.70088 0 0 0 0 128 0 255
3.78449 0.876755 3.70232 0 0 0 0 128 0 255
3.79296 1.06456 3.70232 0 0 0 0 128 0 255
3.79941 1.20742 3.70232 0 0 0 0 128 0 255
3.79977 1.21541 3.70232 0 0 0 0 128 0 255
3.79151 1.04761 3.70305 0 0 0 0 128 0 255
3.79241 1.06759 3.70305 0 0 0 0 128 0 255
3.79381 1.09856 3.70305 0 0 0 0 128 0 255
3.78306 0.875818 3.70377 0 0 0 0 128 0 255
3.77584 0.730996 3.7045 0 0 0 0 128 0 255
3.78508 0.935788 3.7045 0 0 0 0 128 0 255
3.78678 0.988765 3.70522 0 0 0 0 128 0 255
3.78113 0.878908 3.70595 0 0 0 0 128 0 255
3.78398 0.941844 3.70595 0 0 0 0 128 0 255
3.79074 1.09169 3.70595 0 0 0 0 128 0 255
3.78428 0.963853 3.70667 0 0 0 0 128 0 255
3.77971 0.877971 3.7074 0 0 0 0 128 0 255
3.79522 1.22162 3.7074 0 0 0 0 128 0 255
3.79242 1.1747 3.70812 0 0 0 0 128 0 255
3.77743 0.858054 3.70885 0 0 0 0 128 0 255
3.7716 0.744201 3.70957 0 0 0 0 128 0 255
3.77228 0.759185 3.70957 0 0 0 0 128 0 255
3.78076 0.946994 3.70957 0 0 0 0 128 0 255
3.78993 1.18082 3.71102 0 0 0 0 128 0 255
3.80978 1.62037 3.71102 0 0 0 0 128 0 255
3.78833 1.17589 3.71247 0 0 0 0 128 0 255
3.80831 1.61843 3.71247 0 0 0 0 128 0 255
3.78286 1.07002 3.71319 0 0 0 0 128 0 255
3.78864 1.19789 3.71319 0 0 0 0 128 0 255
3.80762 1.61847 3.71319 0 0 0 0 128 0 255
3.76734 0.74139 3.71392 0 0 0 0 128 0 255
3.78614 1.15797 3.71392 0 0 0 0 128 0 255
3.80089 1.48463 3.71392 0 0 0 0 128 0 255
3.77305 0.883277 3.71464 0 0 0 0 128 0 255
3.78622 1.17498 3.71464 0 0 0 0 128 0 255
3.80624 1.61853 3.71464 0 0 0 0 128 0 255
3.76907 0.810382 3.71537 0 0 0 0 128 0 255
3.78446 1.19708 3.71754 0 0 0 0 128 0 255
3.77671 1.0713 3.71972 0 0 0 0 128 0 255
3.78145 1.1762 3.71972 0 0 0 0 128 0 255
3.77048 0.948459 3.72044 0 0 0 0 128 0 255
3.79641 1.52287 3.72044 0 0 0 0 128 0 255
3.76793 0.922548 3.72189 0 0 0 0 128 0 255
3.77301 1.05045 3.72261 0 0 0 0 128 0 255
3.77838 1.16933 3.72261 0 0 0 0 128 0 255
3.76651 0.921611 3.72334 0 0 0 0 128 0 255
3.75797 0.747819 3.72406 0 0 0 0 128 0 255
3.77249 1.06949 3.72406 0 0 0 0 128 0 255
3.7788 1.20935 3.72406 0 0 0 0 128 0 255
3.75791 0.761836 3.72479 0 0 0 0 128 0 255
3.75655 0.746882 3.72551 0 0 0 0 128 0 255
3.76507 0.93569 3.72551 0 0 0 0 128 0 255
3.78694 1.4202 3.72551 0 0 0 0 128 0 255
3.75875 0.810848 3.72624 0 0 0 0 128 0 255
3.7707 1.07558 3.72624 0 0 0 0 128 0 255
3.76269 0.92879 3.72769 0 0 0 0 128 0 255
3.77374 1.17354 3.72769 0 0 0 0 128 0 255
3.75848 0.850901 3.72841 0 0 0 0 128 0 255
3.75233 0.745071 3.72986 0 0 0 0 128 0 255
3.75484 0.81603 3.73058 0 0 0 0 128 0 255
3.75498 0.819027 3.73058 0 0 0 0 128 0 255
3.76925 1.16574 3.73203 0 0 0 0 128 0 255
3.7525 0.810129 3.73276 0 0 0 0 128 0 255
3.7682 1.15777 3.73276 0 0 0 0 128 0 255
3.75718 0.929039 3.73348 0 0 0 0 128 0 255
3.75808 0.949019 3.73348 0 0 0 0 128 0 255
3.76282 1.05391 3.73348 0 0 0 0 128 0 255
3.75112 0.825207 3.73493 0 0 0 0 128 0 255
3.77817 1.4246 3.73493 0 0 0 0 128 0 255
3.7408 0.642486 3.73711 0 0 0 0 128 0 255
3.75054 0.858267 3.73711 0 0 0 0 128 0 255
3.74745 0.820367 3.73856 0 0 0 0 128 0 255
3.74907 0.856331 3.73856 0 0 0 0 128 0 255
3.75254 0.933253 3.73856 0 0 0 0 128 0 255
3.74748 0.836382 3.73928 0 0 0 0 128 0 255
3.73727 0.640644 3.74073 0 0 0 0 128 0 255
3.74502 0.812469 3.74073 0 0 0 0 128 0 255
3.7502 0.942368 3.74145 0 0 0 0 128 0 255
3.73873 0.703642 3.74218 0 0 0 0 128 0 255
3.74094 0.752592 3.74218 0 0 0 0 128 0 255
3.7592 1.15718 3.74218 0 0 0 0 128 0 255
3.73564 0.665743 3.74363 0 0 0 0 128 0 255
3.73803 0.718689 3.74363 0 0 0 0 128 0 255
3.74322 0.833572 3.74363 0 0 0 0 128 0 255
3.74531 0.910556 3.74508 0 0 0 0 128 0 255
3.75713 1.17229 3.74508 0 0 0 0 128 0 255
3.73303 0.653848 3.7458 0 0 0 0 128 0 255
3.7444 0.905592 3.7458 0 0 0 0 128 0 255
3.7488 1.01851 3.74653 0 0 0 0 128 0 255
3.75052 1.05647 3.74653 0 0 0 0 128 0 255
3.75543 1.16536 3.74653 0 0 0 0 128 0 255
3.74104 0.861699 3.74725 0 0 0 0 128 0 255
3.80723 2.32821 3.74725 0 0 0 0 128 0 255
3.80628 2.32224 3.74798 0 0 0 0 128 0 255
3.74854 1.05856 3.7487 0 0 0 0 128 0 255
3.73143 0.709978 3.75015 0 0 0 0 128 0 255
3.74708 1.05662 3.75015 0 0 0 0 128 0 255
3.7519 1.16352 3.75015 0 0 0 0 128 0 255
3.73597 0.825891 3.75087 0 0 0 0 128 0 255
3.74093 0.935779 3.75087 0 0 0 0 128 0 255
3.73889 0.90584 3.7516 0 0 0 0 128 0 255
3.7397 0.923822 3.7516 0 0 0 0 128 0 255
3.74205 0.975769 3.7516 0 0 0 0 128 0 255
3.74971 1.1456 3.7516 0 0 0 0 128 0 255
3.73166 0.761019 3.75232 0 0 0 0 128 0 255
3.74291 1.0408 3.75377 0 0 0 0 128 0 255
3.77281 1.70312 3.75377 0 0 0 0 128 0 255
3.72455 0.649226 3.7545 0 0 0 0 128 0 255
3.72513 0.662213 3.7545 0 0 0 0 128 0 255
3.73744 0.934935 3.7545 0 0 0 0 128 0 255
3.73238 0.838065 3.75522 0 0 0 0 128 0 255
3.7419 1.04885 3.75522 0 0 0 0 128 0 255
3.74744 1.17173 3.75522 0 0 0 0 128 0 255
3.75768 1.39849 3.75522 0 0 0 0 128 0 255
3.72357 0.658279 3.75595 0 0 0 0 128 0 255
3.79979 2.34656 3.75595 0 0 0 0 128 0 255
3.72194 0.637332 3.75667 0 0 0 0 128 0 255
3.73343 0.907088 3.7574 0 0 0 0 128 0 255
3.73496 0.941053 3.7574 0 0 0 0 128 0 255
3.73906 1.03196 3.7574 0 0 0 0 128 0 255
3.75823 1.45653 3.7574 0 0 0 0 128 0 255
3.79728 2.32165 3.7574 0 0 0 0 128 0 255
3.73066 0.861166 3.75812 0 0 0 0 128 0 255
3.73468 0.950075 3.75812 0 0 0 0 128 0 255
3.7293 0.846212 3.75884 0 0 0 0 128 0 255
3.71982 0.651442 3.75957 0 0 0 0 128 0 255
3.72715 0.829292 3.76029 0 0 0 0 128 0 255
3.7327 0.952166 3.76029 0 0 0 0 128 0 255
3.7409 1.149 3.76102 0 0 0 0 128 0 255
3.7199 0.714502 3.76247 0 0 0 0 128 0 255
3.735 1.06418 3.76319 0 0 0 0 128 0 255
3.79227 2.33288 3.76319 0 0 0 0 128 0 255
3.72926 0.952322 3.76392 0 0 0 0 128 0 255
3.73327 1.04123 3.76392 0 0 0 0 128 0 255
3.71387 0.626685 3.76464 0 0 0 0 128 0 255
3.72311 0.831476 3.76464 0 0 0 0 128 0 255
3.73709 1.14116 3.76464 0 0 0 0 128 0 255
3.73754 1.15115 3.76464 0 0 0 0 128 0 255
3.72098 0.79954 3.76537 0 0 0 0 128 0 255
3.73672 1.14818 3.76537 0 0 0 0 128 0 255
3.73722 1.15917 3.76537 0 0 0 0 128 0 255
3.78857 2.31203 3.76609 0 0 0 0 128 0 255
3.72033 0.815586 3.76681 0 0 0 0 128 0 255
3.71166 0.638797 3.76754 0 0 0 0 128 0 255
3.73461 1.14728 3.76754 0 0 0 0 128 0 255
3.72558 0.962498 3.76826 0 0 0 0 128 0 255
3.71091 0.652845 3.76899 0 0 0 0 128 0 255
3.72429 0.964558 3.76971 0 0 0 0 128 0 255
3.72867 1.06146 3.76971 0 0 0 0 128 0 255
3.78552 2.33619 3.77044 0 0 0 0 128 0 255
3.70709 0.613978 3.77116 0 0 0 0 128 0 255
3.78465 2.33223 3.77116 0 0 0 0 128 0 255
3.70756 0.654998 3.77261 0 0 0 0 128 0 255
3.70806 0.665987 3.77261 0 0 0 0 128 0 255
3.71987 0.92772 3.77261 0 0 0 0 128 0 255
3.72596 1.06258 3.77261 0 0 0 0 128 0 255
3.70501 0.629087 3.77406 0 0 0 0 128 0 255
3.70659 0.664051 3.77406 0 0 0 0 128 0 255
3.76318 1.91777 3.77406 0 0 0 0 128 0 255
3.70405 0.623124 3.77479 0 0 0 0 128 0 255
3.70973 0.748996 3.77479 0 0 0 0 128 0 255
3.69628 0.466315 3.77551 0 0 0 0 128 0 255
3.71269 0.84496 3.77624 0 0 0 0 128 0 255
3.7172 0.944858 3.77624 0 0 0 0 128 0 255
3.7032 0.65019 3.77696 0 0 0 0 128 0 255
3.71615 0.936898 3.77696 0 0 0 0 128 0 255
3.70844 0.812118 3.77913 0 0 0 0 128 0 255
3.71255 0.903025 3.77913 0 0 0 0 128 0 255
3.72445 1.16676 3.77913 0 0 0 0 128 0 255
3.72231 1.14984 3.78058 0 0 0 0 128 0 255
3.7112 0.919102 3.78131 0 0 0 0 128 0 255
3.75819 1.96004 3.78131 0 0 0 0 128 0 255
3.70596 0.818236 3.78203 0 0 0 0 128 0 255
3.72066 1.1439 3.78203 0 0 0 0 128 0 255
3.75629 1.9331 3.78203 0 0 0 0 128 0 255
3.69562 0.604485 3.78276 0 0 0 0 128 0 255
3.71199 0.967116 3.78276 0 0 0 0 128 0 255
3.70699 0.902275 3.78493 0 0 0 0 128 0 255
3.70767 0.91726 3.78493 0 0 0 0 128 0 255
3.69349 0.633611 3.78638 0 0 0 0 128 0 255
3.75098 1.90731 3.78638 0 0 0 0 128 0 255
3.7015 0.826446 3.7871 0 0 0 0 128 0 255
3.70515 0.907363 3.7871 0 0 0 0 128 0 255
3.70579 0.921349 3.7871 0 0 0 0 128 0 255
3.75075 1.91733 3.7871 0 0 0 0 128 0 255
3.69063 0.646753 3.79 0 0 0 0 128 0 255
3.68719 0.585846 3.79073 0 0 0 0 128 0 255
3.68581 0.585908 3.79218 0 0 0 0 128 0 255
3.67958 0.463064 3.7929 0 0 0 0 128 0 255
3.68643 0.61491 3.7929 0 0 0 0 128 0 255
3.68797 0.648875 3.7929 0 0 0 0 128 0 255
3.68687 0.639916 3.79363 0 0 0 0 128 0 255
3.68764 0.656898 3.79363 0 0 0 0 128 0 255
3.69828 0.892658 3.79363 0 0 0 0 128 0 255
3.7023 0.981568 3.79363 0 0 0 0 128 0 255
3.70924 1.13541 3.79363 0 0 0 0 128 0 255
3.70858 1.15146 3.79507 0 0 0 0 128 0 255
3.74295 1.91268 3.79507 0 0 0 0 128 0 255
3.70312 1.0456 3.7958 0 0 0 0 128 0 255
3.70689 1.14453 3.79652 0 0 0 0 128 0 255
3.70712 1.14952 3.79652 0 0 0 0 128 0 255
3.69547 0.906799 3.79725 0 0 0 0 128 0 255
3.67413 0.449296 3.79797 0 0 0 0 128 0 255
3.68196 0.638135 3.7987 0 0 0 0 128 0 255
3.68019 0.614191 3.79942 0 0 0 0 128 0 255
3.68146 0.642162 3.79942 0 0 0 0 128 0 255
3.68965 0.838993 3.80015 0 0 0 0 128 0 255
3.68003 0.641225 3.80087 0 0 0 0 128 0 255
3.69635 1.01787 3.8016 0 0 0 0 128 0 255
3.7003 1.1208 3.80232 0 0 0 0 128 0 255
3.69028 0.914041 3.80305 0 0 0 0 128 0 255
3.6747 0.599423 3.80449 0 0 0 0 128 0 255
3.67401 0.599454 3.80522 0 0 0 0 128 0 255
3.68365 0.828253 3.80594 0 0 0 0 128 0 255
3.68698 0.902177 3.80594 0 0 0 0 128 0 255
3.683 0.829283 3.80667 0 0 0 0 128 0 255
3.68411 0.884289 3.80812 0 0 0 0 128 0 255
3.68424 0.887286 3.80812 0 0 0 0 128 0 255
3.72677 1.82933 3.80812 0 0 0 0 128 0 255
3.67435 0.683524 3.80884 0 0 0 0 128 0 255
3.68455 0.909294 3.80884 0 0 0 0 128 0 255
3.68608 0.94326 3.80884 0 0 0 0 128 0 255
3.68287 0.887348 3.80957 0 0 0 0 128 0 255
3.68765 0.99324 3.80957 0 0 0 0 128 0 255
3.66919 0.599672 3.81029 0 0 0 0 128 0 255
3.67045 0.627644 3.81029 0 0 0 0 128 0 255
3.67347 0.694575 3.81029 0 0 0 0 128 0 255
3.6737 0.69957 3.81029 0 0 0 0 128 0 255
3.67309 0.716615 3.81174 0 0 0 0 128 0 255
3.6669 0.59477 3.81247 0 0 0 0 128 0 255
3.69066 1.12123 3.81247 0 0 0 0 128 0 255
3.67694 0.832559 3.81319 0 0 0 0 128 0 255
3.67621 0.831591 3.81391 0 0 0 0 128 0 255
3.67991 0.913508 3.81391 0 0 0 0 128 0 255
3.68094 0.936485 3.81391 0 0 0 0 128 0 255
3.68374 0.998421 3.81391 0 0 0 0 128 0 255
3.68401 1.00442 3.81391 0 0 0 0 128 0 255
3.68455 1.0164 3.81391 0 0 0 0 128 0 255
3.68545 1.03638 3.81391 0 0 0 0 128 0 255
3.68983 1.13328 3.81391 0 0 0 0 128 0 255
3.68992 1.13528 3.81391 0 0 0 0 128 0 255
3.68791 1.12136 3.81536 0 0 0 0 128 0 255
3.66589 0.648871 3.81609 0 0 0 0 128 0 255
3.6818 1.01653 3.81681 0 0 0 0 128 0 255
3.68284 1.0395 3.81681 0 0 0 0 128 0 255
3.67313 0.839739 3.81754 0 0 0 0 128 0 255
3.67235 0.837772 3.81826 0 0 0 0 128 0 255
3.67153 0.834806 3.81899 0 0 0 0 128 0 255
3.66624 0.732941 3.81971 0 0 0 0 128 0 255
3.67421 0.924776 3.82044 0 0 0 0 128 0 255
3.65841 0.590148 3.82116 0 0 0 0 128 0 255
3.66603 0.758976 3.82116 0 0 0 0 128 0 255
3.66752 0.791943 3.82116 0 0 0 0 128 0 255
3.66282 0.703064 3.82189 0 0 0 0 128 0 255
3.67612 0.997764 3.82189 0 0 0 0 128 0 255
3.68347 1.1606 3.82189 0 0 0 0 128 0 255
3.65771 0.605195 3.82261 0 0 0 0 128 0 255
3.66285 0.719079 3.82261 0 0 0 0 128 0 255
3.67172 0.930895 3.82333 0 0 0 0 128 0 255
3.65588 0.595268 3.82406 0 0 0 0 128 0 255
3.67095 0.928928 3.82406 0 0 0 0 128 0 255
3.67523 1.02383 3.82406 0 0 0 0 128 0 255
3.65614 0.616277 3.82478 0 0 0 0 128 0 255
3.67712 1.12685 3.82696 0 0 0 0 128 0 255
3.66178 0.802212 3.82768 0 0 0 0 128 0 255
3.65874 0.750296 3.82841 0 0 0 0 128 0 255
3.65901 0.75629 3.82841 0 0 0 0 128 0 255
3.67435 1.09594 3.82841 0 0 0 0 128 0 255
3.66013 0.796281 3.82913 0 0 0 0 128 0 255
3.67248 1.07 3.82913 0 0 0 0 128 0 255
3.6737 1.09697 3.82913 0 0 0 0 128 0 255
3.67735 1.17789 3.82913 0 0 0 0 128 0 255
3.66959 1.02108 3.82986 0 0 0 0 128 0 255
3.67453 1.14599 3.83058 0 0 0 0 128 0 255
3.66451 0.939228 3.83131 0 0 0 0 128 0 255
3.70465 1.82832 3.83131 0 0 0 0 128 0 255
3.6558 0.761441 3.83203 0 0 0 0 128 0 255
3.66214 0.917313 3.83275 0 0 0 0 128 0 255
3.64671 0.590677 3.83348 0 0 0 0 128 0 255
3.64842 0.628638 3.83348 0 0 0 0 128 0 255
3.64615 0.593705 3.8342 0 0 0 0 128 0 255
3.64465 0.575754 3.83493 0 0 0 0 128 0 255
3.64605 0.606723 3.83493 0 0 0 0 128 0 255
3.64677 0.622706 3.83493 0 0 0 0 128 0 255
3.69972 1.79551 3.83493 0 0 0 0 128 0 255
3.64604 0.621738 3.83565 0 0 0 0 128 0 255
3.66754 1.11327 3.83638 0 0 0 0 128 0 255
3.6613 0.990425 3.8371 0 0 0 0 128 0 255
3.66139 0.992423 3.8371 0 0 0 0 128 0 255
3.65538 0.874574 3.83783 0 0 0 0 128 0 255
3.6562 0.892556 3.83783 0 0 0 0 128 0 255
3.64996 0.769712 3.83855 0 0 0 0 128 0 255
3.66015 0.995482 3.83855 0 0 0 0 128 0 255
3.64088 0.583932 3.83928 0 0 0 0 128 0 255
3.6646 1.1094 3.83928 0 0 0 0 128 0 255
3.65792 0.976564 3.84 0 0 0 0 128 0 255
3.66247 1.07746 3.84 0 0 0 0 128 0 255
3.64797 0.786819 3.84145 0 0 0 0 128 0 255
3.65731 0.993609 3.84145 0 0 0 0 128 0 255
3.66114 1.07852 3.84145 0 0 0 0 128 0 255
3.66195 1.0965 3.84145 0 0 0 0 128 0 255
3.69543 1.86878 3.8429 0 0 0 0 128 0 255
3.64663 0.802896 3.84362 0 0 0 0 128 0 255
3.65006 0.878819 3.84362 0 0 0 0 128 0 255
3.69387 1.87986 3.84507 0 0 0 0 128 0 255
3.64438 0.798993 3.8458 0 0 0 0 128 0 255
3.64748 0.882939 3.84652 0 0 0 0 128 0 255
3.65285 1.00182 3.84652 0 0 0 0 128 0 255
3.63318 0.581277 3.84725 0 0 0 0 128 0 255
3.63285 0.5893 3.84797 0 0 0 0 128 0 255
3.6457 0.87401 3.84797 0 0 0 0 128 0 255
3.69048 1.866 3.84797 0 0 0 0 128 0 255
3.63199 0.631382 3.85087 0 0 0 0 128 0 255
3.64304 0.876133 3.85087 0 0 0 0 128 0 255
3.65427 1.12488 3.85087 0 0 0 0 128 0 255
3.63148 0.635409 3.85159 0 0 0 0 128 0 255
3.62867 0.588488 3.85232 0 0 0 0 128 0 255
3.63791 0.808295 3.85304 0 0 0 0 128 0 255
3.64332 0.928173 3.85304 0 0 0 0 128 0 255
3.64683 1.00609 3.85304 0 0 0 0 128 0 255
3.64792 1.03007 3.85304 0 0 0 0 128 0 255
3.65207 1.12198 3.85304 0 0 0 0 128 0 255
3.62743 0.591547 3.85377 0 0 0 0 128 0 255
3.62562 0.566603 3.85449 0 0 0 0 128 0 255
3.62425 0.55165 3.85522 0 0 0 0 128 0 255
3.64558 1.02417 3.85522 0 0 0 0 128 0 255
3.64114 0.9563 3.85667 0 0 0 0 128 0 255
3.68479 1.92332 3.85667 0 0 0 0 128 0 255
3.646 1.07921 3.85739 0 0 0 0 128 0 255
3.62204 0.563762 3.85812 0 0 0 0 128 0 255
3.63381 0.824496 3.85812 0 0 0 0 128 0 255
3.66497 1.51479 3.85812 0 0 0 0 128 0 255
3.68071 1.86344 3.85812 0 0 0 0 128 0 255
3.63289 0.819532 3.85884 0 0 0 0 128 0 255
3.62265 0.607779 3.85957 0 0 0 0 128 0 255
3.63748 0.936444 3.85957 0 0 0 0 128 0 255
3.64745 1.15722 3.85957 0 0 0 0 128 0 255
3.6216 0.599818 3.86029 0 0 0 0 128 0 255
3.66244 1.51991 3.86101 0 0 0 0 128 0 255
3.63898 1.01546 3.86174 0 0 0 0 128 0 255
3.63261 0.889617 3.86246 0 0 0 0 128 0 255
3.63482 0.938567 3.86246 0 0 0 0 128 0 255
3.63829 1.01549 3.86246 0 0 0 0 128 0 255
3.6358 0.97556 3.86319 0 0 0 0 128 0 255
3.61076 0.436141 3.86391 0 0 0 0 128 0 255
3.61652 0.579026 3.86464 0 0 0 0 128 0 255
3.62725 0.816784 3.86464 0 0 0 0 128 0 255
3.62679 0.82181 3.86536 0 0 0 0 128 0 255
3.62985 0.889741 3.86536 0 0 0 0 128 0 255
3.62537 0.820873 3.86681 0 0 0 0 128 0 255
3.62812 0.881811 3.86681 0 0 0 0 128 0 255
3.62847 0.904819 3.86754 0 0 0 0 128 0 255
3.63654 1.08364 3.86754 0 0 0 0 128 0 255
3.62755 0.899855 3.86826 0 0 0 0 128 0 255
3.62836 0.917837 3.86826 0 0 0 0 128 0 255
3.63621 1.09166 3.86826 0 0 0 0 128 0 255
3.61618 0.663127 3.86899 0 0 0 0 128 0 255
3.63439 1.06672 3.86899 0 0 0 0 128 0 255
3.62667 0.910906 3.86971 0 0 0 0 128 0 255
3.62499 0.888959 3.87043 0 0 0 0 128 0 255
3.62642 0.935943 3.87116 0 0 0 0 128 0 255
3.62267 0.868043 3.87188 0 0 0 0 128 0 255
3.62641 0.950959 3.87188 0 0 0 0 128 0 255
3.63394 1.11779 3.87188 0 0 0 0 128 0 255
3.63412 1.12178 3.87188 0 0 0 0 128 0 255
3.6559 1.60429 3.87188 0 0 0 0 128 0 255
3.68746 2.3186 3.87261 0 0 0 0 128 0 255
3.63169 1.11389 3.87406 0 0 0 0 128 0 255
3.62351 0.963102 3.87551 0 0 0 0 128 0 255
3.62824 1.06799 3.87551 0 0 0 0 128 0 255
3.61461 0.781318 3.87623 0 0 0 0 128 0 255
3.67346 2.08499 3.87623 0 0 0 0 128 0 255
3.62048 0.957232 3.87841 0 0 0 0 128 0 255
3.61578 0.868354 3.87913 0 0 0 0 128 0 255
3.6144 0.868416 3.88058 0 0 0 0 128 0 255
3.62292 1.07224 3.8813 0 0 0 0 128 0 255
3.62454 1.1082 3.8813 0 0 0 0 128 0 255
3.61766 0.986389 3.88275 0 0 0 0 128 0 255
3.61793 0.992383 3.88275 0 0 0 0 128 0 255
3.60822 0.792617 3.88348 0 0 0 0 128 0 255
3.64448 1.5958 3.88348 0 0 0 0 128 0 255
3.61272 0.907532 3.8842 0 0 0 0 128 0 255
3.61908 1.04839 3.8842 0 0 0 0 128 0 255
3.62156 1.10333 3.8842 0 0 0 0 128 0 255
3.66634 2.09532 3.8842 0 0 0 0 128 0 255
3.60991 0.86061 3.88493 0 0 0 0 128 0 255
3.6016 0.691814 3.88565 0 0 0 0 128 0 255
3.66442 2.0834 3.88565 0 0 0 0 128 0 255
3.61885 1.10446 3.8871 0 0 0 0 128 0 255
3.64021 1.59299 3.88783 0 0 0 0 128 0 255
3.64048 1.59898 3.88783 0 0 0 0 128 0 255
3.6117 0.976648 3.88855 0 0 0 0 128 0 255
3.60326 0.804854 3.88927 0 0 0 0 128 0 255
3.61214 1.00165 3.88927 0 0 0 0 128 0 255
3.59719 0.701022 3.89072 0 0 0 0 128 0 255
3.59587 0.687067 3.89145 0 0 0 0 128 0 255
3.60137 0.808943 3.89145 0 0 0 0 128 0 255
3.61449 1.09965 3.89145 0 0 0 0 128 0 255
3.6613 2.13659 3.89145 0 0 0 0 128 0 255
3.61331 1.08869 3.89217 0 0 0 0 128 0 255
3.61385 1.10068 3.89217 0 0 0 0 128 0 255
3.60279 0.870942 3.8929 0 0 0 0 128 0 255
3.61294 1.09571 3.8929 0 0 0 0 128 0 255
3.60233 0.875968 3.89362 0 0 0 0 128 0 255
3.59334 0.692186 3.89435 0 0 0 0 128 0 255
3.59497 0.72815 3.89435 0 0 0 0 128 0 255
3.64243 1.81011 3.8958 0 0 0 0 128 0 255
3.60825 1.09893 3.89797 0 0 0 0 128 0 255
3.59304 0.777286 3.89869 0 0 0 0 128 0 255
3.63187 1.63741 3.89869 0 0 0 0 128 0 255
3.59266 0.799326 3.90014 0 0 0 0 128 0 255
3.58897 0.763456 3.90232 0 0 0 0 128 0 255
3.59447 0.885332 3.90232 0 0 0 0 128 0 255
3.59961 0.999216 3.90232 0 0 0 0 128 0 255
3.59975 1.00221 3.90232 0 0 0 0 128 0 255
3.58522 0.695556 3.90304 0 0 0 0 128 0 255
3.59243 0.855394 3.90304 0 0 0 0 128 0 255
3.64966 2.1231 3.90304 0 0 0 0 128 0 255
3.60302 1.10517 3.90377 0 0 0 0 128 0 255
3.62669 1.62964 3.90377 0 0 0 0 128 0 255
3.59118 0.873468 3.90522 0 0 0 0 128 0 255
3.58449 0.740635 3.90594 0 0 0 0 128 0 255
3.58819 0.822551 3.90594 0 0 0 0 128 0 255
3.60055 1.09627 3.90594 0 0 0 0 128 0 255
3.58958 0.868536 3.90667 0 0 0 0 128 0 255
3.60102 1.13729 3.90739 0 0 0 0 128 0 255
3.58793 0.862604 3.90811 0 0 0 0 128 0 255
3.59386 1.0245 3.90956 0 0 0 0 128 0 255
3.5971 1.09643 3.90956 0 0 0 0 128 0 255
3.59263 1.01254 3.91029 0 0 0 0 128 0 255
3.578 0.70389 3.91101 0 0 0 0 128 0 255
3.59216 1.01757 3.91101 0 0 0 0 128 0 255
3.59712 1.12746 3.91101 0 0 0 0 128 0 255
3.64217 2.12544 3.91101 0 0 0 0 128 0 255
3.57646 0.68494 3.91174 0 0 0 0 128 0 255
3.57438 0.70005 3.91464 0 0 0 0 128 0 255
3.59251 1.10164 3.91464 0 0 0 0 128 0 255
3.57757 0.785993 3.91536 0 0 0 0 128 0 255
3.60756 1.45032 3.91536 0 0 0 0 128 0 255
3.58617 0.991815 3.91609 0 0 0 0 128 0 255
3.6089 1.4953 3.91609 0 0 0 0 128 0 255
3.57223 0.698145 3.91681 0 0 0 0 128 0 255
3.58445 0.968869 3.91681 0 0 0 0 128 0 255
3.58538 1.00486 3.91753 0 0 0 0 128 0 255
3.5722 0.728176 3.91826 0 0 0 0 128 0 255
3.60638 1.48541 3.91826 0 0 0 0 128 0 255
3.57183 0.7352 3.91898 0 0 0 0 128 0 255
3.5799 0.97508 3.92188 0 0 0 0 128 0 255
3.60231 1.47157 3.92188 0 0 0 0 128 0 255
3.57394 0.904277 3.92478 0 0 0 0 128 0 255
3.63383 2.23093 3.92478 0 0 0 0 128 0 255
3.58124 1.08113 3.92551 0 0 0 0 128 0 255
3.56422 0.719527 3.92623 0 0 0 0 128 0 255
3.58073 1.08516 3.92623 0 0 0 0 128 0 255
3.57503 0.974299 3.92695 0 0 0 0 128 0 255
3.57936 1.0702 3.92695 0 0 0 0 128 0 255
3.58058 1.09717 3.92695 0 0 0 0 128 0 255
3.56733 0.849519 3.92913 0 0 0 0 128 0 255
3.5754 1.02834 3.92913 0 0 0 0 128 0 255
3.5698 0.919479 3.92985 0 0 0 0 128 0 255
3.59318 1.46798 3.9313 0 0 0 0 128 0 255
3.56101 0.770724 3.93203 0 0 0 0 128 0 255
3.56377 0.831662 3.93203 0 0 0 0 128 0 255
3.57269 1.02946 3.93203 0 0 0 0 128 0 255
3.6067 1.78269 3.93203 0 0 0 0 128 0 255
3.56087 0.782743 3.93275 0 0 0 0 128 0 255
3.56361 0.858697 3.93348 0 0 0 0 128 0 255
3.5611 0.833784 3.93493 0 0 0 0 128 0 255
3.56182 0.849768 3.93493 0 0 0 0 128 0 255
3.56259 0.866751 3.93493 0 0 0 0 128 0 255
3.56367 0.890726 3.93493 0 0 0 0 128 0 255
3.56521 0.924692 3.93493 0 0 0 0 128 0 255
3.61882 2.11248 3.93493 0 0 0 0 128 0 255
3.55284 0.665986 3.93565 0 0 0 0 128 0 255
3.61683 2.08354 3.93565 0 0 0 0 128 0 255
3.56072 0.855824 3.93637 0 0 0 0 128 0 255
3.57104 1.08459 3.93637 0 0 0 0 128 0 255
3.59481 1.61106 3.93637 0 0 0 0 128 0 255
3.6225 2.22443 3.93637 0 0 0 0 128 0 255
3.56224 0.904805 3.9371 0 0 0 0 128 0 255
3.61653 2.10758 3.9371 0 0 0 0 128 0 255
3.56507 0.982757 3.93782 0 0 0 0 128 0 255
3.56538 0.98975 3.93782 0 0 0 0 128 0 255
3.5885 1.51724 3.93855 0 0 0 0 128 0 255
3.61385 2.07867 3.93855 0 0 0 0 128 0 255
3.54813 0.63817 3.93927 0 0 0 0 128 0 255
3.54854 0.647161 3.93927 0 0 0 0 128 0 255
3.5641 0.99181 3.93927 0 0 0 0 128 0 255
3.54978 0.705164 3.94072 0 0 0 0 128 0 255
3.58399 1.47841 3.94145 0 0 0 0 128 0 255
3.58665 1.53735 3.94145 0 0 0 0 128 0 255
3.5654 1.08184 3.94217 0 0 0 0 128 0 255
3.59429 1.73721 3.9429 0 0 0 0 128 0 255
3.54405 0.639356 3.94362 0 0 0 0 128 0 255
3.5587 0.964025 3.94362 0 0 0 0 128 0 255
3.57967 1.42855 3.94362 0 0 0 0 128 0 255
3.60542 1.99897 3.94362 0 0 0 0 128 0 255
3.56301 1.08996 3.94507 0 0 0 0 128 0 255
3.5574 0.981101 3.94579 0 0 0 0 128 0 255
3.59398 1.79128 3.94579 0 0 0 0 128 0 255
3.58053 1.50859 3.94652 0 0 0 0 128 0 255
3.60658 2.10102 3.94724 0 0 0 0 128 0 255
3.55597 0.99518 3.94797 0 0 0 0 128 0 255
3.54431 0.767474 3.94942 0 0 0 0 128 0 255
3.57543 1.45677 3.94942 0 0 0 0 128 0 255
3.57635 1.50778 3.95087 0 0 0 0 128 0 255
3.57679 1.53279 3.95159 0 0 0 0 128 0 255
3.53938 0.734663 3.95304 0 0 0 0 128 0 255
3.5548 1.07632 3.95304 0 0 0 0 128 0 255
3.57103 1.45096 3.95376 0 0 0 0 128 0 255
3.60787 2.26713 3.95376 0 0 0 0 128 0 255
3.54328 0.851606 3.95449 0 0 0 0 128 0 255
3.55146 1.06345 3.95594 0 0 0 0 128 0 255
3.5519 1.08846 3.95666 0 0 0 0 128 0 255
3.59605 2.06646 3.95666 0 0 0 0 128 0 255
3.59689 2.10046 3.95739 0 0 0 0 128 0 255
3.53595 0.780865 3.95884 0 0 0 0 128 0 255
3.54979 1.08755 3.95884 0 0 0 0 128 0 255
3.56679 1.46417 3.95884 0 0 0 0 128 0 255
3.57419 1.628 3.95884 0 0 0 0 128 0 255
3.58112 1.79686 3.95956 0 0 0 0 128 0 255
3.54175 0.985812 3.96246 0 0 0 0 128 0 255
3.5623 1.45636 3.96318 0 0 0 0 128 0 255
3.59666 2.21759 3.96318 0 0 0 0 128 0 255
3.59628 2.23963 3.96463 0 0 0 0 128 0 255
3.5311 0.811114 3.96536 0 0 0 0 128 0 255
3.53358 0.866058 3.96536 0 0 0 0 128 0 255
3.55848 1.4175 3.96536 0 0 0 0 128 0 255
3.52888 0.77718 3.96608 0 0 0 0 128 0 255
3.53402 0.891064 3.96608 0 0 0 0 128 0 255
3.53804 0.979973 3.96608 0 0 0 0 128 0 255
3.56379 1.55039 3.96608 0 0 0 0 128 0 255
3.52932 0.802185 3.96681 0 0 0 0 128 0 255
3.55895 1.45852 3.96681 0 0 0 0 128 0 255
3.52704 0.782268 3.96826 0 0 0 0 128 0 255
3.53466 0.951096 3.96826 0 0 0 0 128 0 255
3.56099 1.54952 3.96898 0 0 0 0 128 0 255
3.56822 1.74039 3.97043 0 0 0 0 128 0 255
3.58283 2.06406 3.97043 0 0 0 0 128 0 255
3.56871 1.76639 3.97116 0 0 0 0 128 0 255
3.51661 0.627581 3.97188 0 0 0 0 128 0 255
3.56536 1.70748 3.97188 0 0 0 0 128 0 255
3.5276 0.886348 3.9726 0 0 0 0 128 0 255
3.58857 2.23697 3.9726 0 0 0 0 128 0 255
3.5774 2.03527 3.97478 0 0 0 0 128 0 255
3.56349 1.7426 3.9755 0 0 0 0 128 0 255
3.52157 0.859594 3.97768 0 0 0 0 128 0 255
3.56021 1.71572 3.97768 0 0 0 0 128 0 255
3.50913 0.629921 3.97985 0 0 0 0 128 0 255
3.51517 0.763784 3.97985 0 0 0 0 128 0 255
3.558 1.72783 3.98058 0 0 0 0 128 0 255
3.55871 1.75883 3.9813 0 0 0 0 128 0 255
3.50633 0.629046 3.98275 0 0 0 0 128 0 255
3.51152 0.743929 3.98275 0 0 0 0 128 0 255
3.52779 1.10456 3.98275 0 0 0 0 128 0 255
3.57938 2.2474 3.98275 0 0 0 0 128 0 255
3.5161 0.860841 3.98347 0 0 0 0 128 0 255
3.52061 0.960739 3.98347 0 0 0 0 128 0 255
3.55398 1.69999 3.98347 0 0 0 0 128 0 255
3.50558 0.643094 3.9842 0 0 0 0 128 0 255
3.50572 0.646091 3.9842 0 0 0 0 128 0 255
3.50995 0.755011 3.98492 0 0 0 0 128 0 255
3.56762 2.03271 3.98492 0 0 0 0 128 0 255
3.51162 0.83802 3.9871 0 0 0 0 128 0 255
3.51573 0.928927 3.9871 0 0 0 0 128 0 255
3.5215 1.0568 3.9871 0 0 0 0 128 0 255
3.514 0.905982 3.98782 0 0 0 0 128 0 255
3.51954 1.04387 3.98855 0 0 0 0 128 0 255
3.5208 1.07184 3.98855 0 0 0 0 128 0 255
3.54984 1.71519 3.98855 0 0 0 0 128 0 255
3.49872 0.613373 3.99 0 0 0 0 128 0 255
3.509 0.841141 3.99 0 0 0 0 128 0 255
3.5376 1.4745 3.99 0 0 0 0 128 0 255
3.51256 0.935077 3.99072 0 0 0 0 128 0 255
3.51845 1.08096 3.99144 0 0 0 0 128 0 255
3.5059 0.818258 3.99217 0 0 0 0 128 0 255
3.51028 0.915159 3.99217 0 0 0 0 128 0 255
3.51384 0.994079 3.99217 0 0 0 0 128 0 255
3.5585 2.0141 3.99362 0 0 0 0 128 0 255
3.50397 0.821348 3.99434 0 0 0 0 128 0 255
3.53707 1.5546 3.99434 0 0 0 0 128 0 255
3.49863 0.7335 3.99579 0 0 0 0 128 0 255
3.5127 1.04518 3.99579 0 0 0 0 128 0 255
3.54458 1.75146 3.99579 0 0 0 0 128 0 255
3.49943 0.766497 3.99652 0 0 0 0 128 0 255
3.5011 0.80346 3.99652 0 0 0 0 128 0 255
3.5562 2.02422 3.99652 0 0 0 0 128 0 255
3.49811 0.752542 3.99724 0 0 0 0 128 0 255
3.50081 0.812481 3.99724 0 0 0 0 128 0 255
3.506 0.927364 3.99724 0 0 0 0 128 0 255
3.55772 2.0732 3.99724 0 0 0 0 128 0 255
3.55777 2.0742 3.99724 0 0 0 0 128 0 255
3.49977 0.850567 4.00014 0 0 0 0 128 0 255
3.52895 1.49691 4.00014 0 0 0 0 128 0 255
3.53119 1.56187 4.00086 0 0 0 0 128 0 255
3.53684 1.73279 4.00304 0 0 0 0 128 0 255
3.53352 1.6899 4.00449 0 0 0 0 128 0 255
3.55021 2.05952 4.00449 0 0 0 0 128 0 255
3.49098 0.762874 4.00521 0 0 0 0 128 0 255
3.50352 1.04059 4.00521 0 0 0 0 128 0 255
3.53315 1.69692 4.00521 0 0 0 0 128 0 255
3.49021 0.760907 4.00594 0 0 0 0 128 0 255
3.49269 0.815851 4.00594 0 0 0 0 128 0 255
3.49708 0.943783 4.00739 0 0 0 0 128 0 255
3.50203 1.06869 4.00811 0 0 0 0 128 0 255
3.50101 1.07674 4.00956 0 0 0 0 128 0 255
3.494 0.951931 4.01101 0 0 0 0 128 0 255
3.54139 2.00186 4.01101 0 0 0 0 128 0 255
3.49438 0.990953 4.01246 0 0 0 0 128 0 255
3.49432 1.00497 4.01318 0 0 0 0 128 0 255
3.49437 1.00597 4.01318 0 0 0 0 128 0 255
3.49481 1.03097 4.01391 0 0 0 0 128 0 255
3.49239 1.00806 4.01536 0 0 0 0 128 0 255
3.51354 1.47658 4.01536 0 0 0 0 128 0 255
3.48257 0.836328 4.01753 0 0 0 0 128 0 255
3.492 1.04512 4.01753 0 0 0 0 128 0 255
3.53542 2.00714 4.01753 0 0 0 0 128 0 255
3.49153 1.05014 4.01826 0 0 0 0 128 0 255
3.5213 1.70947 4.01826 0 0 0 0 128 0 255
3.52037 1.71952 4.0197 0 0 0 0 128 0 255
3.49199 1.10618 4.02043 0 0 0 0 128 0 255
3.47769 0.804516 4.02115 0 0 0 0 128 0 255
3.4891 1.05726 4.02115 0 0 0 0 128 0 255
3.51913 1.72258 4.02115 0 0 0 0 128 0 255
3.4825 0.926423 4.02188 0 0 0 0 128 0 255
3.54076 2.21711 4.02188 0 0 0 0 128 0 255
3.47636 0.805577 4.0226 0 0 0 0 128 0 255
3.48028 0.892489 4.0226 0 0 0 0 128 0 255
3.48438 0.983396 4.0226 0 0 0 0 128 0 255
3.47962 0.908535 4.02405 0 0 0 0 128 0 255
3.51538 1.70073 4.02405 0 0 0 0 128 0 255
3.52729 1.96446 4.02405 0 0 0 0 128 0 255
3.52733 1.96546 4.02405 0 0 0 0 128 0 255
3.48297 1.02851 4.02623 0 0 0 0 128 0 255
3.52361 1.97464 4.0284 0 0 0 0 128 0 255
3.47508 0.914746 4.02912 0 0 0 0 128 0 255
3.47922 1.00665 4.02912 0 0 0 0 128 0 255
3.48058 1.03662 4.02912 0 0 0 0 128 0 255
3.51111 1.71293 4.02912 0 0 0 0 128 0 255
3.47876 1.01168 4.02985 0 0 0 0 128 0 255
3.47984 1.03565 4.02985 0 0 0 0 128 0 255
3.49618 1.44333 4.03202 0 0 0 0 128 0 255
3.47817 1.05975 4.03275 0 0 0 0 128 0 255
3.46552 0.81007 4.0342 0 0 0 0 128 0 255
3.52043 2.04185 4.03492 0 0 0 0 128 0 255
3.46374 0.801142 4.03565 0 0 0 0 128 0 255
3.49499 1.49344 4.03565 0 0 0 0 128 0 255
3.47311 1.02395 4.03637 0 0 0 0 128 0 255
3.47269 1.02997 4.0371 0 0 0 0 128 0 255
3.4717 1.05404 4.03927 0 0 0 0 128 0 255
3.52519 2.23883 4.03927 0 0 0 0 128 0 255
3.45916 0.791338 4.03999 0 0 0 0 128 0 255
3.43894 0.35881 4.04072 0 0 0 0 128 0 255
3.49364 1.57058 4.04072 0 0 0 0 128 0 255
3.45787 0.793398 4.04144 0 0 0 0 128 0 255
3.46577 1.01427 4.04362 0 0 0 0 128 0 255
3.49138 1.58169 4.04362 0 0 0 0 128 0 255
3.4571 0.837478 4.04434 0 0 0 0 128 0 255
3.52181 2.27102 4.04434 0 0 0 0 128 0 255
3.4657 1.0433 4.04507 0 0 0 0 128 0 255
3.45473 0.815563 4.04579 0 0 0 0 128 0 255
3.46501 1.04333 4.04579 0 0 0 0 128 0 255
3.45467 0.829579 4.04652 0 0 0 0 128 0 255
3.45854 0.930508 4.04724 0 0 0 0 128 0 255
3.45967 0.955482 4.04724 0 0 0 0 128 0 255
3.48575 1.56393 4.04869 0 0 0 0 128 0 255
3.4759 1.43724 4.05304 0 0 0 0 128 0 255
3.47228 1.37234 4.05376 0 0 0 0 128 0 255
3.47417 1.4143 4.05376 0 0 0 0 128 0 255
3.47028 1.3434 4.05449 0 0 0 0 128 0 255
3.44961 0.90088 4.05521 0 0 0 0 128 0 255
3.44969 0.917894 4.05594 0 0 0 0 128 0 255
3.45344 1.00081 4.05594 0 0 0 0 128 0 255
3.46818 1.32748 4.05594 0 0 0 0 128 0 255
3.44684 0.869974 4.05666 0 0 0 0 128 0 255
3.46749 1.32751 4.05666 0 0 0 0 128 0 255
3.44516 0.848027 4.05738 0 0 0 0 128 0 255
3.4491 0.965969 4.05883 0 0 0 0 128 0 255
3.47684 1.58034 4.05883 0 0 0 0 128 0 255
3.47688 1.58134 4.05883 0 0 0 0 128 0 255
3.43946 0.798234 4.06101 0 0 0 0 128 0 255
3.44415 0.902128 4.06101 0 0 0 0 128 0 255
3.44671 0.974086 4.06173 0 0 0 0 128 0 255
3.46502 1.37967 4.06173 0 0 0 0 128 0 255
3.44732 1.0181 4.06318 0 0 0 0 128 0 255
3.44654 1.01614 4.06391 0 0 0 0 128 0 255
3.50295 2.26586 4.06391 0 0 0 0 128 0 255
3.43569 0.806412 4.06536 0 0 0 0 128 0 255
3.46155 1.40986 4.0668 0 0 0 0 128 0 255
3.44093 0.96834 4.06753 0 0 0 0 128 0 255
3.43943 0.95039 4.06825 0 0 0 0 128 0 255
3.44313 1.03231 4.06825 0 0 0 0 128 0 255
3.49801 2.24807 4.06825 0 0 0 0 128 0 255
3.44136 1.00836 4.06898 0 0 0 0 128 0 255
3.45184 1.27116 4.07043 0 0 0 0 128 0 255
3.43127 0.830636 4.07115 0 0 0 0 128 0 255
3.43312 0.871594 4.07115 0 0 0 0 128 0 255
3.43812 0.982481 4.07115 0 0 0 0 128 0 255
3.43355 0.8966 4.07188 0 0 0 0 128 0 255
3.42809 0.790739 4.0726 0 0 0 0 128 0 255
3.42825 0.809751 4.07333 0 0 0 0 128 0 255
3.45414 1.38317 4.07333 0 0 0 0 128 0 255
3.42751 0.823799 4.07478 0 0 0 0 128 0 255
3.428 0.834787 4.07478 0 0 0 0 128 0 255
3.43103 0.901719 4.07478 0 0 0 0 128 0 255
3.43762 1.09362 4.07695 0 0 0 0 128 0 255
3.42286 0.781966 4.07767 0 0 0 0 128 0 255
3.42569 0.859917 4.0784 0 0 0 0 128 0 255
3.42582 0.862914 4.0784 0 0 0 0 128 0 255
3.43155 0.989785 4.0784 0 0 0 0 128 0 255
3.4339 1.04173 4.0784 0 0 0 0 128 0 255
3.44426 1.28651 4.07912 0 0 0 0 128 0 255
3.45878 1.60819 4.07912 0 0 0 0 128 0 255
3.48601 2.21157 4.07912 0 0 0 0 128 0 255
3.42467 0.867971 4.07985 0 0 0 0 128 0 255
3.44334 1.28155 4.07985 0 0 0 0 128 0 255
3.42692 0.932936 4.08057 0 0 0 0 128 0 255
3.43084 1.01985 4.08057 0 0 0 0 128 0 255
3.44825 1.40546 4.08057 0 0 0 0 128 0 255
3.45707 1.61627 4.0813 0 0 0 0 128 0 255
3.47439 1.99988 4.0813 0 0 0 0 128 0 255
3.42811 0.989941 4.08202 0 0 0 0 128 0 255
3.44163 1.30465 4.08275 0 0 0 0 128 0 255
3.45561 1.61434 4.08275 0 0 0 0 128 0 255
3.41726 0.780216 4.08347 0 0 0 0 128 0 255
3.42132 0.870125 4.08347 0 0 0 0 128 0 255
3.42285 0.90409 4.08347 0 0 0 0 128 0 255
3.47314 2.01796 4.08347 0 0 0 0 128 0 255
3.45281 1.61346 4.08564 0 0 0 0 128 0 255
3.41482 0.787333 4.08637 0 0 0 0 128 0 255
3.42118 0.92819 4.08637 0 0 0 0 128 0 255
3.44468 1.44866 4.08637 0 0 0 0 128 0 255
3.42536 1.03611 4.08709 0 0 0 0 128 0 255
3.43551 1.26088 4.08709 0 0 0 0 128 0 255
3.42202 0.977202 4.08782 0 0 0 0 128 0 255
3.44267 1.43474 4.08782 0 0 0 0 128 0 255
3.47717 2.19896 4.08782 0 0 0 0 128 0 255
3.45032 1.61958 4.08854 0 0 0 0 128 0 255
3.4675 2.00019 4.08854 0 0 0 0 128 0 255
3.46641 1.99123 4.08927 0 0 0 0 128 0 255
3.41355 0.83544 4.08999 0 0 0 0 128 0 255
3.4406 1.43483 4.08999 0 0 0 0 128 0 255
3.41137 0.802505 4.09072 0 0 0 0 128 0 255
3.4401 1.43886 4.09072 0 0 0 0 128 0 255
3.44122 1.46383 4.09072 0 0 0 0 128 0 255
3.43228 1.28105 4.09144 0 0 0 0 128 0 255
3.44694 1.60572 4.09144 0 0 0 0 128 0 255
3.4089 0.793607 4.09289 0 0 0 0 128 0 255
3.47258 2.25022 4.09506 0 0 0 0 128 0 255
3.40691 0.810714 4.09579 0 0 0 0 128 0 255
3.43167 1.35916 4.09579 0 0 0 0 128 0 255
3.4355 1.44407 4.09579 0 0 0 0 128 0 255
3.40464 0.775781 4.09651 0 0 0 0 128 0 255
3.41236 0.946607 4.09651 0 0 0 0 128 0 255
3.46128 2.0305 4.09651 0 0 0 0 128 0 255
3.40526 0.804782 4.09724 0 0 0 0 128 0 255
3.43503 1.46411 4.09724 0 0 0 0 128 0 255
3.4041 0.824855 4.09941 0 0 0 0 128 0 255
3.41411 1.04663 4.09941 0 0 0 0 128 0 255
3.40364 0.829881 4.10014 0 0 0 0 128 0 255
3.46862 2.26942 4.10014 0 0 0 0 128 0 255
3.4246 1.30942 4.10086 0 0 0 0 128 0 255
3.43148 1.47728 4.10159 0 0 0 0 128 0 255
3.42857 1.44338 4.10303 0 0 0 0 128 0 255
3.46316 2.2096 4.10303 0 0 0 0 128 0 255
3.39785 0.77809 4.10376 0 0 0 0 128 0 255
3.46405 2.2446 4.10376 0 0 0 0 128 0 255
3.46311 2.26966 4.10593 0 0 0 0 128 0 255
3.39916 0.868122 4.10666 0 0 0 0 128 0 255
3.44948 1.98299 4.10666 0 0 0 0 128 0 255
3.3991 0.882139 4.10738 0 0 0 0 128 0 255
3.44901 2.00303 4.10811 0 0 0 0 128 0 255
3.46141 2.27775 4.10811 0 0 0 0 128 0 255
3.40309 1.00108 4.10883 0 0 0 0 128 0 255
3.42901 1.59051 4.10956 0 0 0 0 128 0 255
3.39616 0.878267 4.11028 0 0 0 0 128 0 255
3.44685 2.00112 4.11028 0 0 0 0 128 0 255
3.45603 2.23495 4.11173 0 0 0 0 128 0 255
3.38941 0.774467 4.11245 0 0 0 0 128 0 255
3.39072 0.803437 4.11245 0 0 0 0 128 0 255
3.45534 2.23498 4.11245 0 0 0 0 128 0 255
3.41175 1.29999 4.1139 0 0 0 0 128 0 255
3.3881 0.806558 4.11535 0 0 0 0 128 0 255
3.39106 0.887507 4.11608 0 0 0 0 128 0 255
3.44179 2.01136 4.11608 0 0 0 0 128 0 255
3.45153 2.22714 4.11608 0 0 0 0 128 0 255
3.44055 2.01442 4.11753 0 0 0 0 128 0 255
3.39247 0.964522 4.11825 0 0 0 0 128 0 255
3.40474 1.23625 4.11825 0 0 0 0 128 0 255
3.38362 0.783737 4.11898 0 0 0 0 128 0 255
3.38366 0.784736 4.11898 0 0 0 0 128 0 255
3.38962 0.916602 4.11898 0 0 0 0 128 0 255
3.43774 2.02856 4.12115 0 0 0 0 128 0 255
3.40107 1.23141 4.12187 0 0 0 0 128 0 255
3.363 0.40328 4.1226 0 0 0 0 128 0 255
3.39867 1.23952 4.12477 0 0 0 0 128 0 255
3.43232 1.98476 4.12477 0 0 0 0 128 0 255
3.39018 1.06673 4.1255 0 0 0 0 128 0 255
3.40677 1.44937 4.12622 0 0 0 0 128 0 255
3.40195 1.38853 4.1284 0 0 0 0 128 0 255
3.37948 0.906048 4.12912 0 0 0 0 128 0 255
3.39436 1.23571 4.12912 0 0 0 0 128 0 255
3.37464 0.814173 4.12985 0 0 0 0 128 0 255
3.43793 2.24678 4.1313 0 0 0 0 128 0 255
3.4218 1.99625 4.13637 0 0 0 0 128 0 255
3.36744 0.807491 4.13709 0 0 0 0 128 0 255
3.36412 0.779612 4.13927 0 0 0 0 128 0 255
3.36292 0.78367 4.14072 0 0 0 0 128 0 255
3.3595 0.753794 4.14289 0 0 0 0 128 0 255
3.34235 0.389197 4.14361 0 0 0 0 128 0 255
3.38826 1.40616 4.14361 0 0 0 0 128 0 255
3.42307 2.17738 4.14361 0 0 0 0 128 0 255
3.36588 0.925681 4.14434 0 0 0 0 128 0 255
3.35807 0.767873 4.14506 0 0 0 0 128 0 255
3.35996 0.80983 4.14506 0 0 0 0 128 0 255
3.39279 1.53709 4.14506 0 0 0 0 128 0 255
3.41381 2.00262 4.14506 0 0 0 0 128 0 255
3.35935 0.826875 4.14651 0 0 0 0 128 0 255
3.41108 1.97271 4.14651 0 0 0 0 128 0 255
3.41198 1.99269 4.14651 0 0 0 0 128 0 255
3.36313 0.925806 4.14724 0 0 0 0 128 0 255
3.37699 1.26352 4.14869 0 0 0 0 128 0 255
3.36084 0.920904 4.14941 0 0 0 0 128 0 255
3.39073 1.58323 4.14941 0 0 0 0 128 0 255
3.33679 0.403462 4.15014 0 0 0 0 128 0 255
3.37566 1.26459 4.15014 0 0 0 0 128 0 255
3.37589 1.26958 4.15014 0 0 0 0 128 0 255
3.35375 0.825126 4.15231 0 0 0 0 128 0 255
3.35118 0.829246 4.15521 0 0 0 0 128 0 255
3.41355 2.21084 4.15521 0 0 0 0 128 0 255
3.35153 0.852254 4.15593 0 0 0 0 128 0 255
3.41212 2.2099 4.15666 0 0 0 0 128 0 255
3.34966 0.841327 4.15738 0 0 0 0 128 0 255
3.34517 0.77246 4.15883 0 0 0 0 128 0 255
3.34602 0.79144 4.15883 0 0 0 0 128 0 255
3.39766 1.93528 4.15883 0 0 0 0 128 0 255
3.34433 0.784509 4.16028 0 0 0 0 128 0 255
3.32885 0.456874 4.161 0 0 0 0 128 0 255
3.39573 1.93837 4.161 0 0 0 0 128 0 255
3.39735 1.97433 4.161 0 0 0 0 128 0 255
3.34565 0.859526 4.16245 0 0 0 0 128 0 255
3.39674 1.99137 4.16245 0 0 0 0 128 0 255
3.34059 0.762656 4.16318 0 0 0 0 128 0 255
3.32518 0.452035 4.16463 0 0 0 0 128 0 255
3.34142 0.811668 4.16463 0 0 0 0 128 0 255
3.39303 1.98554 4.16608 0 0 0 0 128 0 255
3.33532 0.752884 4.16825 0 0 0 0 128 0 255
3.37356 1.60002 4.16825 0 0 0 0 128 0 255
3.33616 0.847943 4.17187 0 0 0 0 128 0 255
3.32952 0.716108 4.1726 0 0 0 0 128 0 255
3.32878 0.71514 4.17332 0 0 0 0 128 0 255
3.33474 0.847006 4.17332 0 0 0 0 128 0 255
3.3294 0.744142 4.17405 0 0 0 0 128 0 255
3.33376 0.856059 4.17477 0 0 0 0 128 0 255
3.32424 0.660289 4.1755 0 0 0 0 128 0 255
3.32861 0.757191 4.1755 0 0 0 0 128 0 255
3.38349 1.97295 4.1755 0 0 0 0 128 0 255
3.33042 0.843196 4.17767 0 0 0 0 128 0 255
3.32919 0.83124 4.17839 0 0 0 0 128 0 255
3.3237 0.75541 4.18057 0 0 0 0 128 0 255
3.30818 0.426776 4.18129 0 0 0 0 128 0 255
3.3287 0.881313 4.18129 0 0 0 0 128 0 255
3.32805 0.882343 4.18202 0 0 0 0 128 0 255
3.32763 0.888368 4.18274 0 0 0 0 128 0 255
3.37571 1.95328 4.18274 0 0 0 0 128 0 255
3.32639 0.891427 4.18419 0 0 0 0 128 0 255
3.30234 0.373985 4.18492 0 0 0 0 128 0 255
3.30336 0.426993 4.18637 0 0 0 0 128 0 255
3.32361 0.875537 4.18637 0 0 0 0 128 0 255
3.37203 1.96346 4.18709 0 0 0 0 128 0 255
3.3173 0.781726 4.18854 0 0 0 0 128 0 255
3.36172 1.76572 4.18854 0 0 0 0 128 0 255
3.32117 0.882654 4.18926 0 0 0 0 128 0 255
3.36906 1.94357 4.18926 0 0 0 0 128 0 255
3.29653 0.352225 4.18999 0 0 0 0 128 0 255
3.37517 2.10947 4.19071 0 0 0 0 128 0 255
3.31703 0.836794 4.19144 0 0 0 0 128 0 255
3.31828 0.879781 4.19216 0 0 0 0 128 0 255
3.31664 0.858834 4.19289 0 0 0 0 128 0 255
3.31768 0.88181 4.19289 0 0 0 0 128 0 255
3.34949 1.61712 4.19434 0 0 0 0 128 0 255
3.35508 1.741 4.19434 0 0 0 0 128 0 255
3.29968 0.544278 4.19579 0 0 0 0 128 0 255
3.34512 1.58128 4.19723 0 0 0 0 128 0 255
3.37276 2.19366 4.19723 0 0 0 0 128 0 255
3.34608 1.63329 4.19868 0 0 0 0 128 0 255
3.29624 0.544434 4.19941 0 0 0 0 128 0 255
3.31029 0.886148 4.20086 0 0 0 0 128 0 255
3.30679 0.839258 4.20231 0 0 0 0 128 0 255
3.30382 0.880434 4.20738 0 0 0 0 128 0 255
3.28102 0.405979 4.20883 0 0 0 0 128 0 255
3.33672 1.63972 4.20883 0 0 0 0 128 0 255
3.34903 1.91245 4.20883 0 0 0 0 128 0 255
3.34861 1.91847 4.20955 0 0 0 0 128 0 255
3.34923 1.94747 4.21028 0 0 0 0 128 0 255
3.34696 1.91254 4.211 0 0 0 0 128 0 255
3.3465 1.91756 4.21173 0 0 0 0 128 0 255
3.34754 1.94054 4.21173 0 0 0 0 128 0 255
3.35609 2.14536 4.21245 0 0 0 0 128 0 255
3.33203 1.64294 4.2139 0 0 0 0 128 0 255
3.2692 0.327433 4.21752 0 0 0 0 128 0 255
3.35511 2.23049 4.21752 0 0 0 0 128 0 255
3.27082 0.424458 4.22042 0 0 0 0 128 0 255
3.33977 1.9519 4.22042 0 0 0 0 128 0 255
3.32961 1.74215 4.22115 0 0 0 0 128 0 255
3.33811 1.96099 4.2226 0 0 0 0 128 0 255
3.33865 1.97297 4.2226 0 0 0 0 128 0 255
3.34904 2.23377 4.22405 0 0 0 0 128 0 255
3.32549 1.72732 4.22477 0 0 0 0 128 0 255
