ply
format ascii 1.0
comment VCGLIB generated
element vertex 262
property float x
property float y
property float z
property float nx
property float ny
property float nz
property uchar red
property uchar green
property uchar blue
property uchar alpha
element face 0
property list uchar int vertex_indices
end_header
-0.45844 -0.347479 3.77869 0 0 0 255 255 255 255
-0.459081 -0.351397 3.7778 0 0 0 255 255 255 255
-0.461757 -0.352584 3.77449 0 0 0 255 255 255 255
-0.442981 -0.336316 3.78678 0 0 0 255 255 255 255
-0.728669 -0.502914 3.57281 0 0 0 255 255 255 255
-0.45849 -0.347395 3.77847 0 0 0 255 255 255 255
-2.70478 -1.52916 5.20584 0 0 0 255 255 255 255
-2.69922 -1.55238 5.21984 0 0 0 255 255 255 255
-2.70331 -1.54699 5.19821 0 0 0 255 255 255 255
-2.63687 -1.55989 5.27794 0 0 0 255 255 255 255
-2.44582 1.23942 4.60058 0 0 0 255 255 255 255
-2.35208 1.20764 4.45049 0 0 0 255 255 255 255
-2.31218 1.28906 4.54972 0 0 0 255 255 255 255
-2.51378 0.365176 4.64938 0 0 0 255 255 255 255
-0.617033 0.132105 3.71121 0 0 0 255 255 255 255
0.00166968 0.305688 4.34857 0 0 0 255 255 255 255
0.0329884 0.342752 4.32357 0 0 0 255 255 255 255
0.00551369 0.369829 4.31693 0 0 0 255 255 255 255
0.0154888 0.350846 4.32127 0 0 0 255 255 255 255
-0.0141086 0.436935 4.31676 0 0 0 255 255 255 255
-0.002455 0.389502 4.3276 0 0 0 255 255 255 255
0.0298461 0.364514 4.3133 0 0 0 255 255 255 255
-2.88342 0.303355 5.29846 0 0 0 255 255 255 255
-2.84359 0.287362 5.19623 0 0 0 255 255 255 255
-2.90237 0.308653 5.3717 0 0 0 255 255 255 255
-2.84893 0.288836 5.20791 0 0 0 255 255 255 255
-2.81335 0.332118 5.13914 0 0 0 255 255 255 255
-2.90206 0.313618 5.37337 0 0 0 255 255 255 255
-2.88812 0.314111 5.27462 0 0 0 255 255 255 255
-2.93407 0.373307 5.60624 0 0 0 255 255 255 255
-2.73385 0.371996 5.60679 0 0 0 255 255 255 255
-2.90427 0.403186 5.88017 0 0 0 255 255 255 255
-3.01554 0.384468 5.68681 0 0 0 255 255 255 255
-2.62476 0.901597 4.90779 0 0 0 255 255 255 255
-2.7097 1.11826 5.276 0 0 0 255 255 255 255
-2.6906 1.24012 5.21598 0 0 0 255 255 255 255
-2.64966 1.27613 5.12154 0 0 0 255 255 255 255
-2.67219 1.16581 5.24545 0 0 0 255 255 255 255
-2.69116 1.23995 5.21681 0 0 0 255 255 255 255
-2.56649 0.726476 4.8033 0 0 0 255 255 255 255
-2.59584 1.09616 4.74009 0 0 0 255 255 255 255
-2.56873 1.22233 4.88122 0 0 0 255 255 255 255
-2.59586 0.997558 4.7181 0 0 0 255 255 255 255
-2.56219 1.26259 4.95212 0 0 0 255 255 255 255
-2.58805 0.984218 4.73525 0 0 0 255 255 255 255
-2.52856 1.28006 4.84481 0 0 0 255 255 255 255
-2.50591 1.15601 4.73878 0 0 0 255 255 255 255
-2.54718 1.26434 4.97518 0 0 0 255 255 255 255
-2.5124 1.22159 4.74547 0 0 0 255 255 255 255
-2.54179 1.28269 4.91588 0 0 0 255 255 255 255
-2.58899 0.97885 4.72483 0 0 0 255 255 255 255
-2.5379 1.2883 4.91812 0 0 0 255 255 255 255
-2.59677 1.06096 4.77491 0 0 0 255 255 255 255
-2.60048 1.02505 4.73652 0 0 0 255 255 255 255
-2.60476 1.04242 4.71931 0 0 0 255 255 255 255
-2.5985 1.00438 4.72052 0 0 0 255 255 255 255
-2.53961 1.2386 5.11992 0 0 0 255 255 255 255
-0.0945332 1.21427 5.01352 0 0 0 255 255 255 255
1.59717 -1.76218 5.87702 0 0 0 255 255 255 255
1.64258 -1.62397 5.84898 0 0 0 255 255 255 255
2.04812 -1.57624 5.87007 0 0 0 255 255 255 255
2.04588 -1.35584 5.8681 0 0 0 255 255 255 255
2.04634 -1.6727 5.86836 0 0 0 255 255 255 255
1.8049 -1.64269 5.85882 0 0 0 255 255 255 255
2.04734 -1.36655 5.86552 0 0 0 255 255 255 255
2.02878 -1.78235 5.82601 0 0 0 255 255 255 255
2.03135 -1.88565 5.83878 0 0 0 255 255 255 255
2.02563 -1.81636 5.83548 0 0 0 255 255 255 255
1.94184 -1.7831 5.89966 0 0 0 255 255 255 255
2.08491 -1.43104 5.95574 0 0 0 255 255 255 255
2.02772 -1.79233 5.83908 0 0 0 255 255 255 255
2.04581 -1.66927 5.86496 0 0 0 255 255 255 255
1.6654 -1.64912 5.83402 0 0 0 255 255 255 255
2.04853 -1.45314 5.87296 0 0 0 255 255 255 255
1.59696 -1.78499 5.8705 0 0 0 255 255 255 255
2.0465 -1.58002 5.87197 0 0 0 255 255 255 255
2.04932 -1.59008 5.87229 0 0 0 255 255 255 255
2.04684 -1.44036 5.87102 0 0 0 255 255 255 255
0.193779 0.292697 4.26636 0 0 0 255 255 255 255
0.227136 0.29858 4.26261 0 0 0 255 255 255 255
0.216945 0.289639 4.26396 0 0 0 255 255 255 255
0.223905 0.278334 4.26277 0 0 0 255 255 255 255
0.227272 0.31588 4.26314 0 0 0 255 255 255 255
0.933659 0.88196 3.62748 0 0 0 255 255 255 255
0.85527 0.857813 3.87007 0 0 0 255 255 255 255
0.8636 0.857793 3.86185 0 0 0 255 255 255 255
0.942999 1.09213 3.46932 0 0 0 255 255 255 255
0.838491 0.925037 3.85452 0 0 0 255 255 255 255
0.888295 1.09235 3.67916 0 0 0 255 255 255 255
0.858721 1.09503 3.70661 0 0 0 255 255 255 255
0.827589 0.9455 3.8251 0 0 0 255 255 255 255
0.887879 1.08894 3.66736 0 0 0 255 255 255 255
0.86675 0.955665 3.61408 0 0 0 255 255 255 255
0.863359 1.09946 3.72572 0 0 0 255 255 255 255
0.839174 0.92493 3.85442 0 0 0 255 255 255 255
0.941556 1.14482 3.66856 0 0 0 255 255 255 255
0.863699 0.966789 3.62245 0 0 0 255 255 255 255
0.906508 1.13618 3.8285 0 0 0 255 255 255 255
0.344324 0.828658 4.23366 0 0 0 255 255 255 255
0.204677 0.885748 4.14388 0 0 0 255 255 255 255
0.353009 0.842156 4.23167 0 0 0 255 255 255 255
0.391278 0.82181 4.26269 0 0 0 255 255 255 255
0.401384 0.840303 4.25422 0 0 0 255 255 255 255
0.4461 0.905815 4.26603 0 0 0 255 255 255 255
0.362678 0.875531 4.23174 0 0 0 255 255 255 255
0.38598 0.837821 4.25147 0 0 0 255 255 255 255
0.460221 0.896395 4.27235 0 0 0 255 255 255 255
0.292979 0.956266 4.12993 0 0 0 255 255 255 255
0.327161 0.94371 4.14331 0 0 0 255 255 255 255
0.269874 1.18094 4.12778 0 0 0 255 255 255 255
0.284365 0.917669 4.1282 0 0 0 255 255 255 255
0.270273 1.17175 4.10523 0 0 0 255 255 255 255
0.231707 1.18115 4.10702 0 0 0 255 255 255 255
0.293104 0.946549 4.13037 0 0 0 255 255 255 255
0.444472 1.02316 4.23682 0 0 0 255 255 255 255
0.413102 1.30618 4.28601 0 0 0 255 255 255 255
0.526863 0.930727 4.5151 0 0 0 255 255 255 255
0.42357 1.29771 4.36157 0 0 0 255 255 255 255
0.514239 1.04841 4.63965 0 0 0 255 255 255 255
0.50686 1.06266 4.45178 0 0 0 255 255 255 255
0.413085 1.30526 4.28588 0 0 0 255 255 255 255
0.517891 1.04825 4.65962 0 0 0 255 255 255 255
0.454448 0.996051 4.30563 0 0 0 255 255 255 255
0.465445 1.03199 4.36623 0 0 0 255 255 255 255
0.497931 0.995538 4.38924 0 0 0 255 255 255 255
0.464763 0.983261 4.33318 0 0 0 255 255 255 255
0.46396 1.00523 4.4448 0 0 0 255 255 255 255
0.455754 1.01071 4.41478 0 0 0 255 255 255 255
0.872507 0.869896 4.01011 0 0 0 255 255 255 255
0.858684 0.888428 3.96298 0 0 0 255 255 255 255
0.849593 0.900866 3.91563 0 0 0 255 255 255 255
0.85761 0.902305 3.89917 0 0 0 255 255 255 255
0.855532 0.849919 3.89031 0 0 0 255 255 255 255
0.860298 0.875308 3.8835 0 0 0 255 255 255 255
0.8744 0.868578 4.02374 0 0 0 255 255 255 255
0.882247 0.864412 4.06793 0 0 0 255 255 255 255
1.06896 0.675201 3.34622 0 0 0 255 255 255 255
1.03939 0.756138 3.21515 0 0 0 255 255 255 255
1.30477 0.633667 3.46696 0 0 0 255 255 255 255
1.29748 0.608238 3.39163 0 0 0 255 255 255 255
1.3153 0.635506 3.46075 0 0 0 255 255 255 255
1.28358 0.603743 3.37839 0 0 0 255 255 255 255
1.3033 0.631287 3.47013 0 0 0 255 255 255 255
1.30671 0.629812 3.46701 0 0 0 255 255 255 255
1.29219 0.627195 3.44245 0 0 0 255 255 255 255
1.27653 0.615654 3.43318 0 0 0 255 255 255 255
1.34543 0.619381 3.44031 0 0 0 255 255 255 255
1.30868 0.802572 3.42136 0 0 0 255 255 255 255
0.993416 0.678738 3.71309 0 0 0 255 255 255 255
1.06074 0.578196 3.80675 0 0 0 255 255 255 255
1.07265 0.577335 3.79771 0 0 0 255 255 255 255
0.97794 0.686918 3.78705 0 0 0 255 255 255 255
0.954225 0.908751 3.60618 0 0 0 255 255 255 255
0.961709 0.750586 3.68534 0 0 0 255 255 255 255
1.18209 0.612533 3.50647 0 0 0 255 255 255 255
1.20538 0.595255 3.50798 0 0 0 255 255 255 255
1.21476 0.60151 3.51148 0 0 0 255 255 255 255
1.21591 0.624104 3.56347 0 0 0 255 255 255 255
1.15383 0.643027 3.48021 0 0 0 255 255 255 255
1.22161 0.620038 3.55937 0 0 0 255 255 255 255
1.15032 0.681605 3.49387 0 0 0 255 255 255 255
1.24642 0.615912 3.60443 0 0 0 255 255 255 255
1.3137 0.546359 3.67426 0 0 0 255 255 255 255
1.33221 0.683366 3.4925 0 0 0 255 255 255 255
1.32183 0.622576 3.51785 0 0 0 255 255 255 255
1.2544 0.624488 3.61689 0 0 0 255 255 255 255
1.26021 0.663712 3.66512 0 0 0 255 255 255 255
1.25843 0.66167 3.6628 0 0 0 255 255 255 255
1.26015 0.649015 3.6511 0 0 0 255 255 255 255
1.2631 0.695585 3.65694 0 0 0 255 255 255 255
1.10707 0.9701 3.45632 0 0 0 255 255 255 255
1.10586 0.966237 3.36926 0 0 0 255 255 255 255
1.16876 0.971998 3.34552 0 0 0 255 255 255 255
1.15164 0.976113 3.43488 0 0 0 255 255 255 255
1.21383 0.980856 3.42449 0 0 0 255 255 255 255
1.22012 0.995141 3.42594 0 0 0 255 255 255 255
1.1637 1.01526 3.44275 0 0 0 255 255 255 255
1.27521 0.943806 3.41496 0 0 0 255 255 255 255
1.25349 1.09928 3.34505 0 0 0 255 255 255 255
1.29523 1.07803 3.34102 0 0 0 255 255 255 255
1.25038 1.07528 3.3471 0 0 0 255 255 255 255
1.27297 1.08854 3.34307 0 0 0 255 255 255 255
1.27834 1.07208 3.34279 0 0 0 255 255 255 255
1.25585 1.10104 3.34518 0 0 0 255 255 255 255
1.29628 1.07342 3.33894 0 0 0 255 255 255 255
1.29578 1.06769 3.3371 0 0 0 255 255 255 255
1.34549 1.07884 3.45658 0 0 0 255 255 255 255
1.34509 1.05055 3.44127 0 0 0 255 255 255 255
1.30931 1.11508 3.35049 0 0 0 255 255 255 255
1.31781 1.19578 3.42407 0 0 0 255 255 255 255
1.25277 1.10843 3.34498 0 0 0 255 255 255 255
1.33467 1.14195 3.36296 0 0 0 255 255 255 255
1.33595 1.19992 3.42653 0 0 0 255 255 255 255
1.31992 1.20829 3.43035 0 0 0 255 255 255 255
1.32927 1.14171 3.36355 0 0 0 255 255 255 255
1.31705 1.1997 3.42663 0 0 0 255 255 255 255
1.33372 1.17805 3.40497 0 0 0 255 255 255 255
0.949887 1.13106 3.606 0 0 0 255 255 255 255
1.33942 1.12876 3.49382 0 0 0 255 255 255 255
0.973135 1.15429 3.60288 0 0 0 255 255 255 255
0.960756 1.09523 3.53889 0 0 0 255 255 255 255
1.35149 0.903054 3.42291 0 0 0 255 255 255 255
1.38135 0.808991 3.47324 0 0 0 255 255 255 255
1.41956 0.82385 3.48901 0 0 0 255 255 255 255
1.43457 0.830318 3.48989 0 0 0 255 255 255 255
1.34667 0.658864 3.5013 0 0 0 255 255 255 255
1.35395 0.571508 3.77852 0 0 0 255 255 255 255
1.40214 0.787447 3.4973 0 0 0 255 255 255 255
1.34819 0.646268 3.51756 0 0 0 255 255 255 255
1.39371 0.780294 3.49179 0 0 0 255 255 255 255
1.35583 1.08825 3.4447 0 0 0 255 255 255 255
1.34716 1.10872 3.47064 0 0 0 255 255 255 255
1.3629 1.13132 3.45705 0 0 0 255 255 255 255
1.34884 1.09533 3.46905 0 0 0 255 255 255 255
1.42452 1.24437 3.58244 0 0 0 255 255 255 255
1.46362 1.12129 3.49995 0 0 0 255 255 255 255
1.41968 1.27849 3.62157 0 0 0 255 255 255 255
1.39196 1.16406 3.48691 0 0 0 255 255 255 255
1.50431 0.96454 3.49683 0 0 0 255 255 255 255
1.4146 1.243 3.58944 0 0 0 255 255 255 255
1.35156 1.13083 3.48846 0 0 0 255 255 255 255
1.50998 0.968628 3.49313 0 0 0 255 255 255 255
0.253203 1.3239 4.24449 0 0 0 255 255 255 255
0.269681 1.32654 4.2629 0 0 0 255 255 255 255
1.92163 0.756505 4.0599 0 0 0 255 255 255 255
1.87821 0.748759 4.01741 0 0 0 255 255 255 255
0.768086 1.11341 4.87493 0 0 0 255 255 255 255
0.46826 1.08918 4.86494 0 0 0 255 255 255 255
0.771642 1.0935 4.99732 0 0 0 255 255 255 255
0.759422 1.14828 5.26168 0 0 0 255 255 255 255
0.880568 1.23905 5.4321 0 0 0 255 255 255 255
0.770084 1.10679 5.05678 0 0 0 255 255 255 255
0.812497 1.16012 5.34153 0 0 0 255 255 255 255
0.767767 1.11481 4.86562 0 0 0 255 255 255 255
0.468546 1.11452 4.77564 0 0 0 255 255 255 255
0.712151 1.28812 5.66367 0 0 0 255 255 255 255
0.88924 1.24442 5.7107 0 0 0 255 255 255 255
0.829365 1.21988 5.61268 0 0 0 255 255 255 255
0.73006 1.29624 5.69319 0 0 0 255 255 255 255
0.866668 1.24757 5.49067 0 0 0 255 255 255 255
0.739386 1.29949 5.69077 0 0 0 255 255 255 255
0.715501 1.29282 5.67515 0 0 0 255 255 255 255
0.709766 1.28011 5.65306 0 0 0 255 255 255 255
1.03348 1.21982 5.39417 0 0 0 255 255 255 255
1.02598 1.22351 5.43729 0 0 0 255 255 255 255
0.983244 1.21744 5.42334 0 0 0 255 255 255 255
0.983404 1.18562 5.38469 0 0 0 255 255 255 255
0.984544 1.24634 5.51802 0 0 0 255 255 255 255
1.02095 1.24795 5.61548 0 0 0 255 255 255 255
1.01731 1.25484 5.62441 0 0 0 255 255 255 255
2.0778 0.713553 5.96426 0 0 0 255 255 255 255
1.95373 0.79724 5.59936 0 0 0 255 255 255 255
2.06466 0.737397 5.94919 0 0 0 255 255 255 255
2.05598 0.785466 5.92139 0 0 0 255 255 255 255
2.13411 0.710571 6.11987 0 0 0 255 255 255 255
2.13049 0.718854 6.11759 0 0 0 255 255 255 255
2.12915 0.815459 6.10818 0 0 0 255 255 255 255
2.07875 0.695048 5.96165 0 0 0 255 255 255 255
2.07738 0.705246 5.96351 0 0 0 255 255 255 255
2.05349 0.766855 5.91874 0 0 0 255 255 255 255
2.13348 0.766738 6.11187 0 0 0 255 255 255 255
3.32907 0.878075 5.89428 0 0 0 255 255 255 255
