ply
format ascii 1.0
comment VCGLIB generated
element vertex 130
property float x
property float y
property float z
property float nx
property float ny
property float nz
property uchar red
property uchar green
property uchar blue
property uchar alpha
element face 0
property list uchar int vertex_indices
end_header
0.439488 0.560162 4.33192 0 0 0 0 128 0 255
0.434138 0.458078 4.2947 0 0 0 0 128 0 255
0.437836 0.486227 4.28409 0 0 0 0 128 0 255
0.429707 0.441591 4.29716 0 0 0 0 128 0 255
0.430868 0.446546 4.2941 0 0 0 0 128 0 255
0.435897 0.483754 4.27573 0 0 0 0 128 0 255
0.410646 0.410166 4.26623 0 0 0 0 128 0 255
0.35843 0.332164 4.3107 0 0 0 0 128 0 255
0.346014 0.322043 4.31152 0 0 0 0 128 0 255
0.344435 0.320697 4.31394 0 0 0 0 128 0 255
0.364749 0.346201 4.26956 0 0 0 0 128 0 255
0.353866 0.330668 4.29241 0 0 0 0 128 0 255
0.343808 0.582493 4.13971 0 0 0 0 128 0 255
0.342277 0.579687 4.13757 0 0 0 0 128 0 255
0.342373 0.482592 4.13052 0 0 0 0 128 0 255
0.341133 0.519618 4.12662 0 0 0 0 128 0 255
0.332972 0.414554 4.14852 0 0 0 0 128 0 255
0.287686 0.289123 4.31552 0 0 0 0 128 0 255
0.287719 0.289183 4.31453 0 0 0 0 128 0 255
0.331078 0.561712 4.12466 0 0 0 0 128 0 255
0.329233 0.482147 4.12155 0 0 0 0 128 0 255
0.324416 0.543212 4.11725 0 0 0 0 128 0 255
0.32337 0.570787 4.12195 0 0 0 0 128 0 255
0.322625 0.501334 4.11514 0 0 0 0 128 0 255
0.321749 0.560098 4.11846 0 0 0 0 128 0 255
0.320121 0.523427 4.1132 0 0 0 0 128 0 255
0.31398 0.514629 4.10971 0 0 0 0 128 0 255
0.310353 0.564397 4.113 0 0 0 0 128 0 255
0.309396 0.485819 4.10956 0 0 0 0 128 0 255
0.307765 0.545745 4.10837 0 0 0 0 128 0 255
0.303888 0.590661 4.11719 0 0 0 0 128 0 255
0.303121 0.576295 4.11229 0 0 0 0 128 0 255
0.300282 0.591716 4.11578 0 0 0 0 128 0 255
0.29881 0.426993 4.1212 0 0 0 0 128 0 255
0.284997 0.413532 4.12125 0 0 0 0 128 0 255
0.283944 0.543388 4.09765 0 0 0 0 128 0 255
0.281099 0.558293 4.09881 0 0 0 0 128 0 255
0.272536 0.487736 4.09405 0 0 0 0 128 0 255
0.270557 0.59147 4.10371 0 0 0 0 128 0 255
0.266785 0.48189 4.09309 0 0 0 0 128 0 255
0.260041 0.480024 4.0915 0 0 0 0 128 0 255
0.259155 0.533897 4.08896 0 0 0 0 128 0 255
0.259129 0.501917 4.08884 0 0 0 0 128 0 255
0.255207 0.578293 4.09538 0 0 0 0 128 0 255
0.255253 0.556786 4.09072 0 0 0 0 128 0 255
0.253205 0.595555 4.10017 0 0 0 0 128 0 255
0.250347 0.574483 4.09326 0 0 0 0 128 0 255
0.247422 0.570626 4.09171 0 0 0 0 128 0 255
0.245005 0.397364 4.11708 0 0 0 0 128 0 255
0.238604 0.552049 4.08657 0 0 0 0 128 0 255
0.23861 0.518171 4.08403 0 0 0 0 128 0 255
0.23857 0.488234 4.08575 0 0 0 0 128 0 255
0.237609 0.503187 4.08426 0 0 0 0 128 0 255
0.235377 0.423598 4.10227 0 0 0 0 128 0 255
0.232095 0.28381 4.25867 0 0 0 0 128 0 255
0.228959 0.281163 4.26693 0 0 0 0 128 0 255
0.23165 0.575655 4.09014 0 0 0 0 128 0 255
0.228379 0.409072 4.10784 0 0 0 0 128 0 255
0.223319 0.278932 4.27364 0 0 0 0 128 0 255
0.223718 0.491338 4.08337 0 0 0 0 128 0 255
0.217208 0.279136 4.27024 0 0 0 0 128 0 255
0.218507 0.420043 4.10163 0 0 0 0 128 0 255
0.217697 0.593048 4.09357 0 0 0 0 128 0 255
0.215782 0.525332 4.08145 0 0 0 0 128 0 255
0.21542 0.402033 4.11005 0 0 0 0 128 0 255
0.213737 0.580606 4.08957 0 0 0 0 128 0 255
0.212782 0.513345 4.08115 0 0 0 0 128 0 255
0.19973 0.588327 4.09128 0 0 0 0 128 0 255
0.19578 0.502379 4.08114 0 0 0 0 128 0 255
0.193887 0.281445 4.25858 0 0 0 0 128 0 255
0.193797 0.524367 4.08084 0 0 0 0 128 0 255
0.192721 0.59214 4.09254 0 0 0 0 128 0 255
0.188774 0.567007 4.08602 0 0 0 0 128 0 255
0.184504 0.411874 4.10485 0 0 0 0 128 0 255
0.183331 0.295459 4.22224 0 0 0 0 128 0 255
0.17781 0.556151 4.0847 0 0 0 0 128 0 255
0.170468 0.392366 4.11664 0 0 0 0 128 0 255
0.164875 0.493269 4.08415 0 0 0 0 128 0 255
0.157937 0.58236 4.09302 0 0 0 0 128 0 255
0.157966 0.50118 4.08456 0 0 0 0 128 0 255
0.156966 0.573637 4.09092 0 0 0 0 128 0 255
0.155024 0.544083 4.08606 0 0 0 0 128 0 255
0.15401 0.486205 4.08672 0 0 0 0 128 0 255
0.145983 0.394666 4.12001 0 0 0 0 128 0 255
0.142291 0.555812 4.09035 0 0 0 0 128 0 255
0.140618 0.302814 4.22175 0 0 0 0 128 0 255
0.133549 0.596346 4.10309 0 0 0 0 128 0 255
0.132594 0.586816 4.1002 0 0 0 0 128 0 255
0.132573 0.40144 4.11994 0 0 0 0 128 0 255
0.125934 0.414782 4.11516 0 0 0 0 128 0 255
0.119407 0.407393 4.12131 0 0 0 0 128 0 255
0.117389 0.599798 4.10973 0 0 0 0 128 0 255
0.117364 0.576894 4.10232 0 0 0 0 128 0 255
0.115484 0.577821 4.10326 0 0 0 0 128 0 255
0.115778 0.39753 4.12839 0 0 0 0 128 0 255
0.114826 0.40192 4.1262 0 0 0 0 128 0 255
0.112652 0.552308 4.09887 0 0 0 0 128 0 255
0.108284 0.41986 4.1196 0 0 0 0 128 0 255
0.106449 0.421659 4.11957 0 0 0 0 128 0 255
0.0952896 0.594526 4.11732 0 0 0 0 128 0 255
0.0888657 0.497825 4.10734 0 0 0 0 128 0 255
0.0888831 0.492838 4.10783 0 0 0 0 128 0 255
0.0818586 0.575933 4.11832 0 0 0 0 128 0 255
0.0756143 0.521396 4.11367 0 0 0 0 128 0 255
0.0731114 0.497304 4.11602 0 0 0 0 128 0 255
0.0713338 0.51224 4.11621 0 0 0 0 128 0 255
0.0679213 0.543053 4.11989 0 0 0 0 128 0 255
0.0679141 0.540073 4.11955 0 0 0 0 128 0 255
0.0617148 0.591449 4.13637 0 0 0 0 128 0 255
0.0555789 0.499608 4.12732 0 0 0 0 128 0 255
0.0478225 0.573601 4.14079 0 0 0 0 128 0 255
0.0461848 0.568675 4.14069 0 0 0 0 128 0 255
0.0429517 0.498021 4.1372 0 0 0 0 128 0 255
0.0420982 0.505984 4.13727 0 0 0 0 128 0 255
0.0414085 0.557694 4.14195 0 0 0 0 128 0 255
0.0412434 0.519956 4.13767 0 0 0 0 128 0 255
0.0168865 0.588037 4.17708 0 0 0 0 128 0 255
0.0169869 0.600167 4.18338 0 0 0 0 128 0 255
0.0222882 0.665321 4.24153 0 0 0 0 128 0 255
0.00860345 0.497933 4.17182 0 0 0 0 128 0 255
0.0389234 0.331337 4.3136 0 0 0 0 128 0 255
0.0366614 0.333334 4.31313 0 0 0 0 128 0 255
0.0329305 0.336598 4.31445 0 0 0 0 128 0 255
0.0292899 0.34011 4.31288 0 0 0 0 128 0 255
0.0176626 0.352699 4.30582 0 0 0 0 128 0 255
0.000532687 0.374839 4.29924 0 0 0 0 128 0 255
-0.0222888 0.614044 4.28119 0 0 0 0 128 0 255
-0.0243441 0.611026 4.28513 0 0 0 0 128 0 255
-0.0247436 0.424558 4.28406 0 0 0 0 128 0 255
-0.0366804 0.471054 4.27368 0 0 0 0 128 0 255
