ply
format ascii 1.0
comment VCGLIB generated
element vertex 226
property float x
property float y
property float z
property float nx
property float ny
property float nz
property uchar red
property uchar green
property uchar blue
property uchar alpha
element face 0
property list uchar int vertex_indices
end_header
-2.66601 -0.662118 5.69831 0 0 0 255 255 255 255
-2.65641 -0.607221 5.6923 0 0 0 255 255 255 255
-2.6638 -0.689039 5.71753 0 0 0 255 255 255 255
-2.67898 -0.731076 5.74528 0 0 0 255 255 255 255
-2.64811 -0.70994 5.74948 0 0 0 255 255 255 255
-2.89221 -1.01585 6.39628 0 0 0 255 255 255 255
-2.89351 -1.03496 6.42171 0 0 0 255 255 255 255
-2.33999 -0.763357 5.63123 0 0 0 255 255 255 255
-2.62562 -0.779493 5.62026 0 0 0 255 255 255 255
-2.6388 -0.782894 5.62338 0 0 0 255 255 255 255
-2.29247 -0.796712 5.61133 0 0 0 255 255 255 255
-2.28414 -0.79093 5.61338 0 0 0 255 255 255 255
-2.6198 -0.802574 5.67807 0 0 0 255 255 255 255
-2.35643 -0.764583 5.61631 0 0 0 255 255 255 255
-2.34864 -0.80508 5.65484 0 0 0 255 255 255 255
-2.32056 -0.78897 5.60532 0 0 0 255 255 255 255
-1.41892 -0.642755 5.87549 0 0 0 255 255 255 255
-1.41694 -0.627988 5.86809 0 0 0 255 255 255 255
-3.42691 -2.72439 9.08847 0 0 0 255 255 255 255
-2.66801 -0.162684 5.81139 0 0 0 255 255 255 255
-2.66915 -0.182613 5.84208 0 0 0 255 255 255 255
-2.65094 -0.453884 5.72255 0 0 0 255 255 255 255
-2.65458 -0.595587 5.69214 0 0 0 255 255 255 255
-2.6486 -0.482076 5.75813 0 0 0 255 255 255 255
-2.64507 -0.409066 5.71853 0 0 0 255 255 255 255
-2.64588 -0.384093 5.71552 0 0 0 255 255 255 255
-2.61955 -0.421094 5.77296 0 0 0 255 255 255 255
-2.64217 -0.402084 5.73098 0 0 0 255 255 255 255
-2.29873 0.168827 5.79305 0 0 0 255 255 255 255
-2.28433 0.0699736 5.78355 0 0 0 255 255 255 255
-2.31061 0.0494269 5.77088 0 0 0 255 255 255 255
-2.32627 0.0175982 5.77476 0 0 0 255 255 255 255
-2.58846 0.0874429 5.87163 0 0 0 255 255 255 255
-2.32413 0.0378791 5.77188 0 0 0 255 255 255 255
-2.30544 0.167747 5.78918 0 0 0 255 255 255 255
-2.59742 0.072286 5.87641 0 0 0 255 255 255 255
-2.64405 -0.17663 5.85707 0 0 0 255 255 255 255
-2.32849 0.167009 5.77217 0 0 0 255 255 255 255
-2.59181 0.0754186 5.87492 0 0 0 255 255 255 255
-2.21393 0.0364178 5.68546 0 0 0 255 255 255 255
-2.20591 0.106042 5.68225 0 0 0 255 255 255 255
-2.33461 0.0749594 6.03482 0 0 0 255 255 255 255
-2.31485 -0.023946 5.96144 0 0 0 255 255 255 255
-1.89873 -0.115175 5.92203 0 0 0 255 255 255 255
-2.08996 0.412202 5.82952 0 0 0 255 255 255 255
-2.16554 0.597652 5.76271 0 0 0 255 255 255 255
-2.11622 0.594311 5.74857 0 0 0 255 255 255 255
-2.11238 0.608618 5.76447 0 0 0 255 255 255 255
-2.14705 0.579682 5.79989 0 0 0 255 255 255 255
-2.61484 0.507675 5.98501 0 0 0 255 255 255 255
-2.62355 0.481364 6.01848 0 0 0 255 255 255 255
-2.64057 0.430297 6.08497 0 0 0 255 255 255 255
-2.61669 0.505303 5.99813 0 0 0 255 255 255 255
-2.6233 0.482712 6.01799 0 0 0 255 255 255 255
-2.13766 0.496527 6.04829 0 0 0 255 255 255 255
-2.059 0.878189 5.92408 0 0 0 255 255 255 255
-2.71785 1.45365 6.10588 0 0 0 255 255 255 255
-2.70189 1.41246 6.1427 0 0 0 255 255 255 255
-2.70489 1.40875 6.14121 0 0 0 255 255 255 255
-2.71522 1.44477 6.15651 0 0 0 255 255 255 255
-1.9761 1.05444 5.76306 0 0 0 255 255 255 255
-2.07473 1.1064 5.858 0 0 0 255 255 255 255
-2.07966 1.10752 5.85903 0 0 0 255 255 255 255
-1.9899 1.09658 5.72075 0 0 0 255 255 255 255
-2.14873 1.14527 5.88398 0 0 0 255 255 255 255
-1.87634 1.0851 5.84365 0 0 0 255 255 255 255
-1.97574 1.05804 5.76775 0 0 0 255 255 255 255
-2.10905 1.25814 5.73176 0 0 0 255 255 255 255
-2.20117 1.3408 6.18914 0 0 0 255 255 255 255
-2.59005 1.2337 6.08158 0 0 0 255 255 255 255
-2.30846 1.30528 6.21163 0 0 0 255 255 255 255
-2.61342 1.13083 6.12397 0 0 0 255 255 255 255
-2.60959 1.13631 6.11594 0 0 0 255 255 255 255
-2.4188 1.17612 6.19548 0 0 0 255 255 255 255
-0.614639 -0.527823 4.27349 0 0 0 255 255 255 255
-0.615537 -0.513474 4.26032 0 0 0 255 255 255 255
-0.581519 -0.483429 4.27032 0 0 0 255 255 255 255
-0.607727 -0.522402 4.26983 0 0 0 255 255 255 255
-0.600198 -0.48196 4.25658 0 0 0 255 255 255 255
-0.599774 -0.506659 4.26429 0 0 0 255 255 255 255
-0.752831 0.0648465 4.95342 0 0 0 255 255 255 255
-0.852486 -0.485357 5.02246 0 0 0 255 255 255 255
-0.649714 0.0486881 4.53938 0 0 0 255 255 255 255
-0.639053 0.0391291 4.44951 0 0 0 255 255 255 255
-0.709628 0.0174908 4.64633 0 0 0 255 255 255 255
-0.629038 0.0510831 4.48776 0 0 0 255 255 255 255
-0.633625 0.144077 4.63917 0 0 0 255 255 255 255
-0.870032 -0.471045 5.1085 0 0 0 255 255 255 255
-0.40395 0.243694 4.45981 0 0 0 255 255 255 255
-0.591458 0.468681 4.56324 0 0 0 255 255 255 255
-0.578883 0.463266 4.52583 0 0 0 255 255 255 255
-0.570339 0.470464 4.51923 0 0 0 255 255 255 255
-0.571569 0.759758 4.67864 0 0 0 255 255 255 255
-0.536442 0.830256 4.43443 0 0 0 255 255 255 255
-0.581315 0.869958 4.70536 0 0 0 255 255 255 255
-0.586144 0.889488 4.7477 0 0 0 255 255 255 255
-0.709359 0.936197 4.89724 0 0 0 255 255 255 255
-0.895921 0.902606 5.05785 0 0 0 255 255 255 255
-0.637141 0.484699 4.71755 0 0 0 255 255 255 255
-0.413814 0.253544 4.46853 0 0 0 255 255 255 255
-0.629147 0.533272 4.6786 0 0 0 255 255 255 255
-0.532282 0.800483 4.425 0 0 0 255 255 255 255
-0.581836 0.943387 4.55286 0 0 0 255 255 255 255
-1.30587 -0.104873 5.74964 0 0 0 255 255 255 255
-1.31159 -0.120668 5.86554 0 0 0 255 255 255 255
-1.33538 -0.0980485 5.78844 0 0 0 255 255 255 255
-1.29572 -0.13336 5.79835 0 0 0 255 255 255 255
-1.30889 -0.102047 5.83713 0 0 0 255 255 255 255
-1.22821 -0.0993683 5.75655 0 0 0 255 255 255 255
-1.27782 -0.100273 5.84263 0 0 0 255 255 255 255
-1.71002 -0.420816 5.9124 0 0 0 255 255 255 255
-1.11136 -0.172367 5.93244 0 0 0 255 255 255 255
-1.17164 -0.159669 5.93584 0 0 0 255 255 255 255
-1.63046 0.674701 6.03528 0 0 0 255 255 255 255
-1.0473 -0.16632 5.78645 0 0 0 255 255 255 255
-1.03317 -0.162972 5.84154 0 0 0 255 255 255 255
-1.0411 -0.140457 5.77322 0 0 0 255 255 255 255
-1.04074 -0.125869 5.77375 0 0 0 255 255 255 255
-1.02732 -0.127931 5.84058 0 0 0 255 255 255 255
-1.0185 -0.127182 5.85159 0 0 0 255 255 255 255
-1.05405 -0.546535 5.68369 0 0 0 255 255 255 255
-1.04288 -0.110118 5.78187 0 0 0 255 255 255 255
-1.00959 0.00855322 5.79327 0 0 0 255 255 255 255
-1.03718 -0.597076 5.62636 0 0 0 255 255 255 255
-0.856302 -0.0686672 6.0276 0 0 0 255 255 255 255
-1.02826 -0.164485 5.93991 0 0 0 255 255 255 255
-0.874182 -0.07747 6.05175 0 0 0 255 255 255 255
-0.870308 -0.0734653 6.05131 0 0 0 255 255 255 255
-0.948632 0.932999 5.8053 0 0 0 255 255 255 255
-0.982794 0.702403 5.85124 0 0 0 255 255 255 255
-0.973 0.544549 5.78125 0 0 0 255 255 255 255
-0.801953 0.521407 5.89796 0 0 0 255 255 255 255
-0.53486 0.96419 4.5828 0 0 0 255 255 255 255
-0.560067 0.985041 4.82228 0 0 0 255 255 255 255
-0.51917 0.970569 4.47682 0 0 0 255 255 255 255
-0.602615 1.01466 4.63126 0 0 0 255 255 255 255
-0.649139 1.14516 5.08531 0 0 0 255 255 255 255
-0.542831 1.19642 4.48285 0 0 0 255 255 255 255
-0.62763 1.12993 5.01472 0 0 0 255 255 255 255
-0.548949 1.2035 4.4526 0 0 0 255 255 255 255
-0.541797 1.19502 4.49287 0 0 0 255 255 255 255
-0.529842 0.966916 4.48294 0 0 0 255 255 255 255
-0.627652 0.971151 4.77724 0 0 0 255 255 255 255
-1.46933 1.54842 5.88897 0 0 0 255 255 255 255
-1.75135 1.41189 5.77914 0 0 0 255 255 255 255
-1.54415 1.58003 5.99807 0 0 0 255 255 255 255
-1.56879 1.58837 6.13812 0 0 0 255 255 255 255
-1.67838 1.67887 6.62453 0 0 0 255 255 255 255
-1.31985 1.3342 6.05348 0 0 0 255 255 255 255
-1.32577 1.3397 6.00834 0 0 0 255 255 255 255
-1.32796 1.33773 6.01009 0 0 0 255 255 255 255
-1.19121 1.30455 6.4484 0 0 0 255 255 255 255
-1.44688 1.49444 6.02671 0 0 0 255 255 255 255
-1.12905 1.49089 5.96831 0 0 0 255 255 255 255
-1.27156 1.66818 6.66808 0 0 0 255 255 255 255
-0.948013 0.961431 5.22371 0 0 0 255 255 255 255
-0.713338 1.00123 5.1205 0 0 0 255 255 255 255
-0.758136 1.10066 5.84911 0 0 0 255 255 255 255
-0.786898 1.3504 5.37646 0 0 0 255 255 255 255
-0.904814 1.22255 5.55322 0 0 0 255 255 255 255
-0.959598 1.15236 5.85777 0 0 0 255 255 255 255
-1.02402 1.2447 5.55949 0 0 0 255 255 255 255
-0.678313 1.31638 5.18865 0 0 0 255 255 255 255
-0.753162 1.5563 6.15339 0 0 0 255 255 255 255
-0.74855 1.55339 6.15369 0 0 0 255 255 255 255
-0.762511 1.56471 6.15715 0 0 0 255 255 255 255
-0.750133 1.54287 6.15171 0 0 0 255 255 255 255
-3.03742 1.08778 6.7252 0 0 0 255 255 255 255
-1.30113 1.67206 6.80435 0 0 0 255 255 255 255
-1.29475 1.66942 6.80868 0 0 0 255 255 255 255
-3.02788 1.09804 6.71503 0 0 0 255 255 255 255
0.714541 -0.719284 4.56127 0 0 0 255 255 255 255
1.27352 -0.678643 4.45868 0 0 0 255 255 255 255
1.29372 -0.643708 4.46423 0 0 0 255 255 255 255
1.26695 -0.670857 4.45475 0 0 0 255 255 255 255
1.26766 -0.686103 4.45292 0 0 0 255 255 255 255
2.77328 -2.61416 9.41829 0 0 0 255 255 255 255
2.76597 -2.79675 9.42804 0 0 0 255 255 255 255
2.77202 -2.59894 9.41457 0 0 0 255 255 255 255
2.73211 -2.89519 9.31512 0 0 0 255 255 255 255
2.80626 -2.53524 9.52888 0 0 0 255 255 255 255
2.80528 -2.50779 9.52535 0 0 0 255 255 255 255
0.356668 0.185398 4.60846 0 0 0 255 255 255 255
0.791855 -0.0604758 4.29208 0 0 0 255 255 255 255
0.645217 0.606637 4.53673 0 0 0 255 255 255 255
0.411506 1.362 4.50038 0 0 0 255 255 255 255
0.734682 1.34929 4.4989 0 0 0 255 255 255 255
0.737624 1.35474 4.5114 0 0 0 255 255 255 255
0.598465 1.19342 3.81573 0 0 0 255 255 255 255
0.706128 1.36097 4.49813 0 0 0 255 255 255 255
0.720856 1.36328 4.5053 0 0 0 255 255 255 255
0.721099 1.36161 4.50495 0 0 0 255 255 255 255
0.704736 1.35849 4.51102 0 0 0 255 255 255 255
1.37568 -0.308349 4.67565 0 0 0 255 255 255 255
1.26975 0.320933 4.87366 0 0 0 255 255 255 255
1.38006 -0.306212 4.68756 0 0 0 255 255 255 255
1.37832 -0.308386 4.68145 0 0 0 255 255 255 255
1.26731 0.337978 4.91696 0 0 0 255 255 255 255
1.42113 -0.195025 4.78833 0 0 0 255 255 255 255
1.39914 -0.18338 4.74121 0 0 0 255 255 255 255
1.38717 0.78503 4.61179 0 0 0 255 255 255 255
1.76803 -0.477688 5.65309 0 0 0 255 255 255 255
2.00921 -0.56587 6.31643 0 0 0 255 255 255 255
1.39719 0.304396 5.27609 0 0 0 255 255 255 255
1.71836 -0.281804 5.66267 0 0 0 255 255 255 255
1.73267 -0.429005 5.65904 0 0 0 255 255 255 255
1.99249 0.219843 6.37917 0 0 0 255 255 255 255
1.92412 -0.404509 6.26941 0 0 0 255 255 255 255
1.71632 -0.5122 5.62173 0 0 0 255 255 255 255
2.04474 0.861976 6.31683 0 0 0 255 255 255 255
1.73334 -0.31075 5.70355 0 0 0 255 255 255 255
2.01938 0.314893 6.36727 0 0 0 255 255 255 255
1.73171 -0.473 5.65706 0 0 0 255 255 255 255
1.9976 -0.493626 6.3407 0 0 0 255 255 255 255
1.54668 -0.223388 5.15915 0 0 0 255 255 255 255
2.03669 0.940143 6.30734 0 0 0 255 255 255 255
1.96996 0.9346 6.26066 0 0 0 255 255 255 255
1.99435 0.41234 6.3736 0 0 0 255 255 255 255
1.9887 0.284771 6.36171 0 0 0 255 255 255 255
2.08413 0.141654 6.38194 0 0 0 255 255 255 255
1.99745 -0.489183 6.34499 0 0 0 255 255 255 255
2.02927 0.961414 6.30232 0 0 0 255 255 255 255
2.42583 -0.469058 7.53759 0 0 0 255 255 255 255
2.41286 -0.568086 7.50054 0 0 0 255 255 255 255
2.43301 -0.464388 7.55046 0 0 0 255 255 255 255
2.44005 -0.477689 7.56453 0 0 0 255 255 255 255
