ply
format ascii 1.0
comment VCGLIB generated
element vertex 741
property float x
property float y
property float z
property float nx
property float ny
property float nz
property uchar red
property uchar green
property uchar blue
property uchar alpha
element face 0
property list uchar int vertex_indices
end_header
3.65799 0.642721 3.76562 0 0 0 0 255 255 255
3.62854 0.600293 3.771 0 0 0 0 255 255 255
3.68794 0.785163 3.77446 0 0 0 0 255 255 255
3.623 0.643915 3.77945 0 0 0 0 255 255 255
3.60152 0.617733 3.78406 0 0 0 0 255 255 255
3.61849 0.68502 3.78714 0 0 0 0 255 255 255
3.61953 0.709155 3.79021 0 0 0 0 255 255 255
3.61104 0.710157 3.79367 0 0 0 0 255 255 255
3.56757 0.60042 3.79482 0 0 0 0 255 255 255
3.58073 0.636068 3.79482 0 0 0 0 255 255 255
3.55978 0.581978 3.7952 0 0 0 0 255 255 255
3.57657 0.630141 3.79559 0 0 0 0 255 255 255
3.57623 0.634533 3.79636 0 0 0 0 255 255 255
3.67096 0.915088 3.79981 0 0 0 0 255 255 255
3.58246 0.683399 3.80097 0 0 0 0 255 255 255
3.6242 0.799105 3.80135 0 0 0 0 255 255 255
3.71287 1.03926 3.80135 0 0 0 0 255 255 255
3.65277 0.916474 3.80711 0 0 0 0 255 255 255
3.57155 0.699155 3.8075 0 0 0 0 255 255 255
3.60393 0.789532 3.80788 0 0 0 0 255 255 255
3.60324 0.792986 3.80865 0 0 0 0 255 255 255
3.5667 0.702012 3.8098 0 0 0 0 255 255 255
3.60947 0.895153 3.82094 0 0 0 0 255 255 255
3.5802 0.818549 3.82133 0 0 0 0 255 255 255
3.55907 0.782645 3.8244 0 0 0 0 255 255 255
3.60444 0.921526 3.8267 0 0 0 0 255 255 255
3.6661 1.09384 3.82747 0 0 0 0 255 255 255
3.58712 0.890611 3.82901 0 0 0 0 255 255 255
3.58504 0.900973 3.83131 0 0 0 0 255 255 255
3.63267 1.03263 3.8317 0 0 0 0 255 255 255
3.59595 0.938518 3.83247 0 0 0 0 255 255 255
3.48563 0.647729 3.83362 0 0 0 0 255 255 255
3.59595 0.959838 3.83554 0 0 0 0 255 255 255
3.5821 0.927645 3.83631 0 0 0 0 255 255 255
3.61378 1.06945 3.84437 0 0 0 0 255 255 255
3.62452 1.10919 3.84591 0 0 0 0 255 255 255
3.43852 0.621419 3.84822 0 0 0 0 255 255 255
3.44406 0.636429 3.84822 0 0 0 0 255 255 255
3.5071 0.865793 3.85667 0 0 0 0 255 255 255
3.50727 0.868927 3.85705 0 0 0 0 255 255 255
3.5826 1.08629 3.85897 0 0 0 0 255 255 255
3.57308 1.06316 3.85936 0 0 0 0 255 255 255
3.43245 0.724929 3.8655 0 0 0 0 255 255 255
3.46882 0.84475 3.86858 0 0 0 0 255 255 255
3.51281 0.969218 3.86934 0 0 0 0 255 255 255
3.5561 1.09181 3.87011 0 0 0 0 255 255 255
3.42742 0.751302 3.87127 0 0 0 0 255 255 255
3.53965 1.06591 3.8728 0 0 0 0 255 255 255
3.42864 0.767911 3.87319 0 0 0 0 255 255 255
3.45392 0.847052 3.87472 0 0 0 0 255 255 255
3.46604 0.885216 3.87549 0 0 0 0 255 255 255
3.47072 0.927195 3.87972 0 0 0 0 255 255 255
3.50743 1.04262 3.88202 0 0 0 0 255 255 255
3.41685 0.821297 3.88548 0 0 0 0 255 255 255
3.45634 0.93357 3.88625 0 0 0 0 255 255 255
3.41425 0.838246 3.88894 0 0 0 0 255 255 255
3.50362 1.08028 3.88894 0 0 0 0 255 255 255
3.44802 0.937706 3.89009 0 0 0 0 255 255 255
3.45287 0.961499 3.89163 0 0 0 0 255 255 255
3.443 0.942759 3.89278 0 0 0 0 255 255 255
3.40802 0.874661 3.89662 0 0 0 0 255 255 255
3.47209 1.05887 3.89816 0 0 0 0 255 255 255
3.41373 0.914125 3.90008 0 0 0 0 255 255 255
3.40888 0.922312 3.90315 0 0 0 0 255 255 255
3.41199 0.936085 3.90392 0 0 0 0 255 255 255
3.43641 1.0422 3.90968 0 0 0 0 255 255 255
3.32557 0.789976 3.9166 0 0 0 0 255 255 255
3.31258 0.789443 3.92159 0 0 0 0 255 255 255
3.34894 0.935914 3.9285 0 0 0 0 255 255 255
3.34583 0.932801 3.92927 0 0 0 0 255 255 255
3.26252 0.773814 3.93888 0 0 0 0 255 255 255
3.30633 0.911139 3.94157 0 0 0 0 255 255 255
3.25438 0.781084 3.9431 0 0 0 0 255 255 255
3.30114 0.913058 3.94387 0 0 0 0 255 255 255
3.3001 0.920904 3.94541 0 0 0 0 255 255 255
3.29525 0.92376 3.94771 0 0 0 0 255 255 255
3.25126 0.809952 3.94848 0 0 0 0 255 255 255
3.25247 0.82656 3.9504 0 0 0 0 255 255 255
3.18718 0.673714 3.95386 0 0 0 0 255 255 255
3.17384 0.704223 3.96346 0 0 0 0 255 255 255
3.16102 0.685504 3.96577 0 0 0 0 255 255 255
3.15634 0.696825 3.96923 0 0 0 0 255 255 255
3.1598 0.748847 3.97537 0 0 0 0 255 255 255
3.14732 0.832337 3.99227 0 0 0 0 255 255 255
3.14126 0.845236 3.9965 0 0 0 0 255 255 255
3.14316 0.86372 3.99842 0 0 0 0 255 255 255
3.15719 0.904378 3.99881 0 0 0 0 255 255 255
3.14039 0.914846 4.00687 0 0 0 0 255 255 255
3.13848 0.928342 4.00956 0 0 0 0 255 255 255
3.13381 0.923673 4.01071 0 0 0 0 255 255 255
3.01915 0.773065 4.03376 0 0 0 0 255 255 255
3.01464 0.77686 4.03607 0 0 0 0 255 255 255
3.13293 1.09989 4.03645 0 0 0 0 255 255 255
3.12046 1.09809 4.04106 0 0 0 0 255 255 255
3.01221 0.812933 4.04221 0 0 0 0 255 255 255
3.14106 1.16191 4.04221 0 0 0 0 255 255 255
3.12236 1.11658 4.04298 0 0 0 0 255 255 255
3.12461 1.13067 4.04414 0 0 0 0 255 255 255
3.00148 0.799843 4.04452 0 0 0 0 255 255 255
3.13206 1.15884 4.04529 0 0 0 0 255 255 255
2.98953 0.775473 4.04567 0 0 0 0 255 255 255
3.00321 0.815193 4.04606 0 0 0 0 255 255 255
2.99957 0.808008 4.04644 0 0 0 0 255 255 255
2.99212 0.790504 4.04682 0 0 0 0 255 255 255
3.12703 1.15856 4.04721 0 0 0 0 255 255 255
3.11647 1.13261 4.04759 0 0 0 0 255 255 255
3.11785 1.13636 4.04759 0 0 0 0 255 255 255
2.98502 0.784598 4.04875 0 0 0 0 255 255 255
2.98104 0.776475 4.04913 0 0 0 0 255 255 255
3.12201 1.15828 4.04913 0 0 0 0 255 255 255
2.98623 0.801207 4.05067 0 0 0 0 255 255 255
2.99385 0.821845 4.05067 0 0 0 0 255 255 255
2.97428 0.776838 4.05182 0 0 0 0 255 255 255
2.98329 0.811888 4.05335 0 0 0 0 255 255 255
3.11144 1.15898 4.05335 0 0 0 0 255 255 255
2.98606 0.824723 4.05412 0 0 0 0 255 255 255
3.11491 1.1737 4.05412 0 0 0 0 255 255 255
3.11733 1.18026 4.05412 0 0 0 0 255 255 255
3.10746 1.15619 4.05451 0 0 0 0 255 255 255
2.95835 0.765666 4.05643 0 0 0 0 255 255 255
3.00528 0.900773 4.05758 0 0 0 0 255 255 255
2.96545 0.803552 4.05912 0 0 0 0 255 255 255
3.00164 0.904248 4.0595 0 0 0 0 255 255 255
3.00614 0.916443 4.0595 0 0 0 0 255 255 255
2.96597 0.812954 4.06027 0 0 0 0 255 255 255
3.08789 1.14849 4.06104 0 0 0 0 255 255 255
2.96077 0.809543 4.06181 0 0 0 0 255 255 255
3.11438 1.23358 4.06296 0 0 0 0 255 255 255
3.09395 1.18357 4.06373 0 0 0 0 255 255 255
2.99419 0.918725 4.0645 0 0 0 0 255 255 255
3.09516 1.19485 4.06488 0 0 0 0 255 255 255
2.99436 0.927189 4.06565 0 0 0 0 255 255 255
3.10728 1.23301 4.06565 0 0 0 0 255 255 255
2.93167 0.768053 4.06718 0 0 0 0 255 255 255
3.07715 1.16738 4.06795 0 0 0 0 255 255 255
2.98311 0.920686 4.06911 0 0 0 0 255 255 255
3.1007 1.2525 4.07103 0 0 0 0 255 255 255
2.98155 0.94578 4.07333 0 0 0 0 255 255 255
2.96094 0.892628 4.07372 0 0 0 0 255 255 255
2.91729 0.785088 4.07525 0 0 0 0 255 255 255
2.967 0.92237 4.07564 0 0 0 0 255 255 255
2.96197 0.911433 4.07602 0 0 0 0 255 255 255
2.91331 0.782295 4.0764 0 0 0 0 255 255 255
2.91989 0.800119 4.0764 0 0 0 0 255 255 255
2.97323 0.944586 4.0764 0 0 0 0 255 255 255
3.10018 1.29106 4.07679 0 0 0 0 255 255 255
2.97167 0.948359 4.07756 0 0 0 0 255 255 255
2.96163 0.926485 4.07832 0 0 0 0 255 255 255
3.09602 1.29047 4.07832 0 0 0 0 255 255 255
2.91088 0.797048 4.07948 0 0 0 0 255 255 255
2.90984 0.799564 4.08025 0 0 0 0 255 255 255
2.87607 0.716095 4.0814 0 0 0 0 255 255 255
2.89893 0.783339 4.08217 0 0 0 0 255 255 255
2.9637 0.958764 4.08217 0 0 0 0 255 255 255
2.92612 0.880965 4.08562 0 0 0 0 255 255 255
2.95729 0.965394 4.08562 0 0 0 0 255 255 255
2.87538 0.751529 4.08678 0 0 0 0 255 255 255
2.94881 0.961066 4.08831 0 0 0 0 255 255 255
3.05809 1.2597 4.0887 0 0 0 0 255 255 255
2.94881 0.966396 4.08908 0 0 0 0 255 255 255
3.07125 1.30601 4.09023 0 0 0 0 255 255 255
2.95123 0.983623 4.09062 0 0 0 0 255 255 255
2.87399 0.785087 4.09215 0 0 0 0 255 255 255
2.94863 0.989912 4.09254 0 0 0 0 255 255 255
3.05843 1.28729 4.09254 0 0 0 0 255 255 255
2.8487 0.721936 4.09292 0 0 0 0 255 255 255
2.91417 0.899237 4.09292 0 0 0 0 255 255 255
2.93668 0.960213 4.09292 0 0 0 0 255 255 255
2.85199 0.733513 4.09331 0 0 0 0 255 255 255
2.8707 0.78417 4.09331 0 0 0 0 255 255 255
2.91209 0.898938 4.09369 0 0 0 0 255 255 255
2.94569 0.989934 4.09369 0 0 0 0 255 255 255
2.9036 0.87862 4.09408 0 0 0 0 255 255 255
2.94621 0.994006 4.09408 0 0 0 0 255 255 255
2.86411 0.798327 4.09792 0 0 0 0 255 255 255
2.89771 0.889323 4.09792 0 0 0 0 255 255 255
2.89442 0.888406 4.09907 0 0 0 0 255 255 255
2.93529 0.999101 4.09907 0 0 0 0 255 255 255
2.89563 0.894354 4.09945 0 0 0 0 255 255 255
3.0366 1.28149 4.10022 0 0 0 0 255 255 255
2.85563 0.804659 4.10214 0 0 0 0 255 255 255
2.8241 0.740612 4.10522 0 0 0 0 255 255 255
2.89338 0.938892 4.10675 0 0 0 0 255 255 255
2.89355 0.942026 4.10714 0 0 0 0 255 255 255
2.86515 0.870432 4.1079 0 0 0 0 255 255 255
2.80124 0.705348 4.10906 0 0 0 0 255 255 255
3.02015 1.29823 4.10906 0 0 0 0 255 255 255
2.88766 0.942069 4.10944 0 0 0 0 255 255 255
2.80869 0.733513 4.11021 0 0 0 0 255 255 255
2.80609 0.729142 4.11059 0 0 0 0 255 255 255
2.8861 0.945843 4.11059 0 0 0 0 255 255 255
2.80089 0.7204 4.11136 0 0 0 0 255 255 255
2.88437 0.946482 4.11136 0 0 0 0 255 255 255
2.81873 0.771378 4.11175 0 0 0 0 255 255 255
2.82289 0.782635 4.11175 0 0 0 0 255 255 255
2.85441 0.868002 4.11175 0 0 0 0 255 255 255
3.00958 1.28827 4.11175 0 0 0 0 255 255 255
2.84644 0.851755 4.11251 0 0 0 0 255 255 255
3.06604 1.44651 4.11251 0 0 0 0 255 255 255
2.79552 0.724515 4.11405 0 0 0 0 255 255 255
2.80609 0.761122 4.1152 0 0 0 0 255 255 255
2.81405 0.782699 4.1152 0 0 0 0 255 255 255
2.84765 0.873694 4.1152 0 0 0 0 255 255 255
2.80869 0.770823 4.11559 0 0 0 0 255 255 255
3.01166 1.33121 4.11712 0 0 0 0 255 255 255
2.83657 0.859665 4.11751 0 0 0 0 255 255 255
2.84176 0.873737 4.11751 0 0 0 0 255 255 255
3.02153 1.36061 4.11751 0 0 0 0 255 255 255
2.85648 0.916271 4.11789 0 0 0 0 255 255 255
3.00404 1.3159 4.11789 0 0 0 0 255 255 255
3.05842 1.46318 4.11789 0 0 0 0 255 255 255
2.83847 0.87282 4.11866 0 0 0 0 255 255 255
3.05201 1.45915 4.11981 0 0 0 0 255 255 255
2.85873 0.941024 4.12058 0 0 0 0 255 255 255
2.95433 1.20527 4.12135 0 0 0 0 255 255 255
3.00559 1.35477 4.12289 0 0 0 0 255 255 255
3.04958 1.47924 4.12366 0 0 0 0 255 255 255
2.82219 0.87137 4.12481 0 0 0 0 255 255 255
2.98914 1.32353 4.12481 0 0 0 0 255 255 255
3.02066 1.4089 4.12481 0 0 0 0 255 255 255
2.84228 0.93111 4.12558 0 0 0 0 255 255 255
2.84384 0.937996 4.12596 0 0 0 0 255 255 255
3.0378 1.46333 4.12596 0 0 0 0 255 255 255
2.98464 1.33266 4.12788 0 0 0 0 255 255 255
3.01685 1.4199 4.12788 0 0 0 0 255 255 255
2.93684 1.20853 4.12865 0 0 0 0 255 255 255
2.98602 1.34174 4.12865 0 0 0 0 255 255 255
2.98862 1.35144 4.12903 0 0 0 0 255 255 255
2.83223 0.935885 4.13019 0 0 0 0 255 255 255
2.98723 1.35835 4.13057 0 0 0 0 255 255 255
2.80608 0.883714 4.13287 0 0 0 0 255 255 255
2.79707 0.864653 4.13364 0 0 0 0 255 255 255
2.74581 0.731145 4.13441 0 0 0 0 255 255 255
2.80261 0.884993 4.13441 0 0 0 0 255 255 255
2.92315 1.21145 4.13441 0 0 0 0 255 255 255
3.05443 1.56699 4.13441 0 0 0 0 255 255 255
2.74269 0.728032 4.13518 0 0 0 0 255 255 255
2.79967 0.885014 4.13556 0 0 0 0 255 255 255
2.7446 0.741187 4.13633 0 0 0 0 255 255 255
2.78616 0.853759 4.13633 0 0 0 0 255 255 255
2.91345 1.20117 4.13672 0 0 0 0 255 255 255
2.91016 1.19493 4.1371 0 0 0 0 255 255 255
2.94982 1.30501 4.13749 0 0 0 0 255 255 255
2.93926 1.28439 4.13864 0 0 0 0 255 255 255
3.04784 1.58115 4.13902 0 0 0 0 255 255 255
2.73559 0.738117 4.13941 0 0 0 0 255 255 255
2.77611 0.853204 4.14017 0 0 0 0 255 255 255
2.77958 0.867915 4.14094 0 0 0 0 255 255 255
2.96592 1.37261 4.14094 0 0 0 0 255 255 255
3.01095 1.49456 4.14094 0 0 0 0 255 255 255
3.04074 1.57524 4.14094 0 0 0 0 255 255 255
3.04109 1.58151 4.14171 0 0 0 0 255 255 255
3.04871 1.60215 4.14171 0 0 0 0 255 255 255
2.88643 1.16531 4.14209 0 0 0 0 255 255 255
3.03987 1.58089 4.14209 0 0 0 0 255 255 255
2.93406 1.29697 4.14248 0 0 0 0 255 255 255
2.93233 1.29761 4.14325 0 0 0 0 255 255 255
2.90548 1.22757 4.14363 0 0 0 0 255 255 255
2.72866 0.751335 4.14402 0 0 0 0 255 255 255
2.97701 1.42395 4.14402 0 0 0 0 255 255 255
2.7917 0.927399 4.14478 0 0 0 0 255 255 255
2.71671 0.732296 4.14594 0 0 0 0 255 255 255
3.03312 1.59191 4.14632 0 0 0 0 255 255 255
2.73091 0.776088 4.1467 0 0 0 0 255 255 255
2.73039 0.777346 4.14709 0 0 0 0 255 255 255
2.93579 1.33364 4.14709 0 0 0 0 255 255 255
2.96783 1.42308 4.14747 0 0 0 0 255 255 255
2.7148 0.745792 4.14863 0 0 0 0 255 255 255
2.71584 0.748606 4.14863 0 0 0 0 255 255 255
2.78408 0.933411 4.14863 0 0 0 0 255 255 255
2.68761 0.674816 4.14901 0 0 0 0 255 255 255
2.76832 0.898723 4.14978 0 0 0 0 255 255 255
2.94098 1.36903 4.15016 0 0 0 0 255 255 255
2.76901 0.905929 4.15055 0 0 0 0 255 255 255
2.77316 0.922516 4.15131 0 0 0 0 255 255 255
2.77594 0.930021 4.15131 0 0 0 0 255 255 255
2.75931 0.890323 4.15208 0 0 0 0 255 255 255
2.68397 0.688951 4.15247 0 0 0 0 255 255 255
2.77074 0.92661 4.15285 0 0 0 0 255 255 255
2.75844 0.895972 4.15323 0 0 0 0 255 255 255
2.7723 0.933496 4.15323 0 0 0 0 255 255 255
2.93994 1.38754 4.15323 0 0 0 0 255 255 255
2.68207 0.691787 4.15362 0 0 0 0 255 255 255
2.68449 0.698354 4.15362 0 0 0 0 255 255 255
2.68311 0.699931 4.15439 0 0 0 0 255 255 255
2.93007 1.37413 4.15516 0 0 0 0 255 255 255
3.03588 1.67404 4.15708 0 0 0 0 255 255 255
2.75342 0.911685 4.15746 0 0 0 0 255 255 255
2.75463 0.917634 4.15785 0 0 0 0 255 255 255
2.79446 1.02552 4.15785 0 0 0 0 255 255 255
2.91933 1.37169 4.159 0 0 0 0 255 255 255
2.98687 1.55462 4.159 0 0 0 0 255 255 255
2.92123 1.37952 4.15938 0 0 0 0 255 255 255
2.74476 0.904223 4.15977 0 0 0 0 255 255 255
3.00263 1.6053 4.16015 0 0 0 0 255 255 255
3.0293 1.68287 4.16092 0 0 0 0 255 255 255
2.68639 0.759479 4.16169 0 0 0 0 255 255 255
2.68172 0.74948 4.16207 0 0 0 0 255 255 255
3.02029 1.66914 4.16246 0 0 0 0 255 255 255
3.0248 1.68133 4.16246 0 0 0 0 255 255 255
3.02601 1.68728 4.16284 0 0 0 0 255 255 255
3.0054 1.63413 4.16322 0 0 0 0 255 255 255
2.71012 0.842394 4.16438 0 0 0 0 255 255 255
2.71757 0.865228 4.16476 0 0 0 0 255 255 255
2.99137 1.60946 4.16514 0 0 0 0 255 255 255
3.00955 1.67203 4.16706 0 0 0 0 255 255 255
2.70717 0.863736 4.1686 0 0 0 0 255 255 255
2.71843 0.896889 4.16899 0 0 0 0 255 255 255
2.64292 0.697713 4.16975 0 0 0 0 255 255 255
2.72068 0.910981 4.17014 0 0 0 0 255 255 255
2.98392 1.62394 4.17014 0 0 0 0 255 255 255
2.99085 1.6427 4.17014 0 0 0 0 255 255 255
2.69938 0.855954 4.17052 0 0 0 0 255 255 255
2.71358 0.905076 4.17206 0 0 0 0 255 255 255
2.98028 1.63274 4.17283 0 0 0 0 255 255 255
2.6973 0.871645 4.1736 0 0 0 0 255 255 255
2.71063 0.910427 4.17398 0 0 0 0 255 255 255
2.69141 0.866358 4.17513 0 0 0 0 255 255 255
2.63599 0.721592 4.1759 0 0 0 0 255 255 255
2.62421 0.700357 4.17744 0 0 0 0 255 255 255
2.63443 0.730696 4.17782 0 0 0 0 255 255 255
2.8213 1.23946 4.17821 0 0 0 0 255 255 255
2.82095 1.24386 4.17897 0 0 0 0 255 255 255
2.61815 0.702595 4.18013 0 0 0 0 255 255 255
2.8161 1.24138 4.18051 0 0 0 0 255 255 255
2.85524 1.35805 4.18205 0 0 0 0 255 255 255
2.82199 1.27332 4.18282 0 0 0 0 255 255 255
2.94772 1.61385 4.18282 0 0 0 0 255 255 255
2.67443 0.884352 4.18435 0 0 0 0 255 255 255
2.59044 0.664858 4.1855 0 0 0 0 255 255 255
2.62611 0.761482 4.1855 0 0 0 0 255 255 255
2.84121 1.34937 4.18627 0 0 0 0 255 255 255
2.6533 0.848448 4.18743 0 0 0 0 255 255 255
2.92261 1.58048 4.18781 0 0 0 0 255 255 255
2.6152 0.750587 4.18819 0 0 0 0 255 255 255
2.66664 0.89789 4.18935 0 0 0 0 255 255 255
2.61347 0.756557 4.18973 0 0 0 0 255 255 255
2.66716 0.901962 4.18973 0 0 0 0 255 255 255
2.59009 0.701231 4.19088 0 0 0 0 255 255 255
2.66404 0.90418 4.19127 0 0 0 0 255 255 255
2.66508 0.906994 4.19127 0 0 0 0 255 255 255
2.64655 0.859471 4.19165 0 0 0 0 255 255 255
2.64655 0.864801 4.19242 0 0 0 0 255 255 255
2.83359 1.37137 4.19242 0 0 0 0 255 255 255
2.64256 0.856678 4.1928 0 0 0 0 255 255 255
2.60533 0.763827 4.19396 0 0 0 0 255 255 255
2.6081 0.771332 4.19396 0 0 0 0 255 255 255
2.60931 0.77728 4.19434 0 0 0 0 255 255 255
2.78405 1.25322 4.19472 0 0 0 0 255 255 255
2.82267 1.36048 4.19511 0 0 0 0 255 255 255
2.91637 1.6169 4.19549 0 0 0 0 255 255 255
2.91273 1.60971 4.19588 0 0 0 0 255 255 255
2.62438 0.831413 4.19626 0 0 0 0 255 255 255
3.01075 1.88053 4.19664 0 0 0 0 255 255 255
2.78319 1.26953 4.19741 0 0 0 0 255 255 255
3.05751 2.0125 4.19741 0 0 0 0 255 255 255
2.5835 0.731377 4.1978 0 0 0 0 255 255 255
2.62178 0.837702 4.19818 0 0 0 0 255 255 255
3.03759 1.97188 4.19933 0 0 0 0 255 255 255
2.78457 1.28927 4.19972 0 0 0 0 255 255 255
2.90667 1.62261 4.2001 0 0 0 0 255 255 255
3.04712 2.00568 4.20049 0 0 0 0 255 255 255
2.90008 1.61545 4.20164 0 0 0 0 255 255 255
2.54973 0.679888 4.20356 0 0 0 0 255 255 255
2.56081 0.709908 4.20356 0 0 0 0 255 255 255
2.89956 1.62737 4.20356 0 0 0 0 255 255 255
2.8987 1.62769 4.20394 0 0 0 0 255 255 255
3.02841 1.98167 4.20433 0 0 0 0 255 255 255
2.54869 0.687734 4.2051 0 0 0 0 255 255 255
2.62108 0.883797 4.2051 0 0 0 0 255 255 255
2.61987 0.883178 4.20548 0 0 0 0 255 255 255
2.54886 0.696198 4.20625 0 0 0 0 255 255 255
2.89835 1.64274 4.20625 0 0 0 0 255 255 255
2.61433 0.878829 4.20702 0 0 0 0 255 255 255
2.61658 0.887592 4.2074 0 0 0 0 255 255 255
2.61485 0.888231 4.20817 0 0 0 0 255 255 255
2.61866 0.89855 4.20817 0 0 0 0 255 255 255
2.89437 1.64528 4.20817 0 0 0 0 255 255 255
2.55458 0.730332 4.20894 0 0 0 0 255 255 255
2.76344 1.29601 4.20894 0 0 0 0 255 255 255
3.03049 2.01928 4.20894 0 0 0 0 255 255 255
3.01992 1.99866 4.21009 0 0 0 0 255 255 255
2.55146 0.73255 4.21047 0 0 0 0 255 255 255
2.76603 1.31637 4.21086 0 0 0 0 255 255 255
3.02304 2.01243 4.21086 0 0 0 0 255 255 255
2.52236 0.659079 4.21124 0 0 0 0 255 255 255
3.02287 2.01463 4.21124 0 0 0 0 255 255 255
2.77036 1.33609 4.21201 0 0 0 0 255 255 255
2.57657 0.813887 4.2124 0 0 0 0 255 255 255
2.51544 0.650977 4.21278 0 0 0 0 255 255 255
2.51803 0.660678 4.21316 0 0 0 0 255 255 255
2.76396 1.32673 4.21316 0 0 0 0 255 255 255
3.05491 2.11473 4.21316 0 0 0 0 255 255 255
2.54765 0.743551 4.21355 0 0 0 0 255 255 255
2.7617 1.3233 4.21355 0 0 0 0 255 255 255
2.51699 0.663194 4.21393 0 0 0 0 255 255 255
2.75374 1.30705 4.21432 0 0 0 0 255 255 255
3.03395 2.06597 4.21432 0 0 0 0 255 255 255
2.76136 1.33835 4.21585 0 0 0 0 255 255 255
3.0343 2.07757 4.21585 0 0 0 0 255 255 255
2.75287 1.31803 4.21624 0 0 0 0 255 255 255
2.77989 1.3912 4.21624 0 0 0 0 255 255 255
3.02217 2.05007 4.21662 0 0 0 0 255 255 255
3.02564 2.05945 4.21662 0 0 0 0 255 255 255
2.78543 1.41154 4.217 0 0 0 0 255 255 255
3.03481 2.0923 4.21777 0 0 0 0 255 255 255
2.752 1.32901 4.21816 0 0 0 0 255 255 255
2.74559 1.31432 4.21854 0 0 0 0 255 255 255
2.73884 1.29869 4.21893 0 0 0 0 255 255 255
2.7307 1.27931 4.21931 0 0 0 0 255 255 255
2.56375 0.832478 4.22008 0 0 0 0 255 255 255
3.02408 2.07921 4.22008 0 0 0 0 255 255 255
2.6758 1.13862 4.22046 0 0 0 0 255 255 255
2.67961 1.14894 4.22046 0 0 0 0 255 255 255
2.67736 1.1455 4.22085 0 0 0 0 255 255 255
2.56011 0.830623 4.22123 0 0 0 0 255 255 255
2.77452 1.41131 4.22123 0 0 0 0 255 255 255
2.77313 1.41821 4.22277 0 0 0 0 255 255 255
2.51075 0.715599 4.22392 0 0 0 0 255 255 255
2.51422 0.72498 4.22392 0 0 0 0 255 255 255
2.5589 0.845995 4.22392 0 0 0 0 255 255 255
2.51404 0.727176 4.2243 0 0 0 0 255 255 255
2.76395 1.41201 4.22546 0 0 0 0 255 255 255
2.55318 0.849172 4.22661 0 0 0 0 255 255 255
2.66056 1.13998 4.22661 0 0 0 0 255 255 255
2.66281 1.14874 4.22699 0 0 0 0 255 255 255
2.68602 1.2116 4.22699 0 0 0 0 255 255 255
2.55249 0.852625 4.22738 0 0 0 0 255 255 255
2.76343 1.42393 4.22738 0 0 0 0 255 255 255
2.5537 0.858574 4.22776 0 0 0 0 255 255 255
2.70801 1.27916 4.22815 0 0 0 0 255 255 255
2.75858 1.41612 4.22815 0 0 0 0 255 255 255
2.55474 0.872048 4.2293 0 0 0 0 255 255 255
2.55734 0.881749 4.22968 0 0 0 0 255 255 255
2.48148 0.681636 4.23045 0 0 0 0 255 255 255
2.48391 0.688202 4.23045 0 0 0 0 255 255 255
2.55612 0.886461 4.23083 0 0 0 0 255 255 255
2.91825 1.86991 4.23122 0 0 0 0 255 255 255
2.54539 0.86271 4.2316 0 0 0 0 255 255 255
2.54746 0.868338 4.2316 0 0 0 0 255 255 255
2.54833 0.878679 4.23276 0 0 0 0 255 255 255
2.91375 1.86837 4.23276 0 0 0 0 255 255 255
2.91583 1.874 4.23276 0 0 0 0 255 255 255
2.5317 0.83898 4.23352 0 0 0 0 255 255 255
2.71095 1.32711 4.23391 0 0 0 0 255 255 255
2.48009 0.709864 4.23506 0 0 0 0 255 255 255
2.53447 0.857145 4.23506 0 0 0 0 255 255 255
2.66852 1.22019 4.23506 0 0 0 0 255 255 255
2.70281 1.31306 4.23506 0 0 0 0 255 255 255
2.90682 1.87093 4.23583 0 0 0 0 255 255 255
2.90405 1.87409 4.23737 0 0 0 0 255 255 255
2.53413 0.877527 4.23813 0 0 0 0 255 255 255
2.67094 1.24808 4.23813 0 0 0 0 255 255 255
2.57777 1.00639 4.23967 0 0 0 0 255 255 255
2.46433 0.701826 4.24005 0 0 0 0 255 255 255
2.52218 0.858488 4.24005 0 0 0 0 255 255 255
2.53187 0.884755 4.24005 0 0 0 0 255 255 255
2.57673 1.0089 4.24044 0 0 0 0 255 255 255
2.69501 1.33193 4.24082 0 0 0 0 255 255 255
2.46104 0.700909 4.24121 0 0 0 0 255 255 255
2.46468 0.713424 4.24159 0 0 0 0 255 255 255
2.88985 1.8676 4.24197 0 0 0 0 255 255 255
2.6964 1.34634 4.24236 0 0 0 0 255 255 255
2.8921 1.87637 4.24236 0 0 0 0 255 255 255
2.50157 0.821327 4.24274 0 0 0 0 255 255 255
2.4477 0.678117 4.24313 0 0 0 0 255 255 255
2.49187 0.80039 4.24351 0 0 0 0 255 255 255
2.44736 0.687839 4.24466 0 0 0 0 255 255 255
2.48858 0.799473 4.24466 0 0 0 0 255 255 255
2.68964 1.3467 4.24505 0 0 0 0 255 255 255
2.4981 0.833266 4.24582 0 0 0 0 255 255 255
2.69034 1.35391 4.24582 0 0 0 0 255 255 255
2.75926 1.54059 4.24582 0 0 0 0 255 255 255
2.67423 1.31295 4.2462 0 0 0 0 255 255 255
2.69189 1.3608 4.2462 0 0 0 0 255 255 255
2.87356 1.86082 4.24735 0 0 0 0 255 255 255
2.4484 0.711974 4.24774 0 0 0 0 255 255 255
2.67838 1.33487 4.24774 0 0 0 0 255 255 255
2.48459 0.81267 4.24812 0 0 0 0 255 255 255
2.47714 0.795166 4.24851 0 0 0 0 255 255 255
2.7009 1.40651 4.24927 0 0 0 0 255 255 255
2.47939 0.814589 4.25043 0 0 0 0 255 255 255
2.66505 1.31741 4.25043 0 0 0 0 255 255 255
2.68687 1.37651 4.25043 0 0 0 0 255 255 255
2.44285 0.723615 4.25158 0 0 0 0 255 255 255
2.41653 0.657649 4.25235 0 0 0 0 255 255 255
2.47835 0.827765 4.25273 0 0 0 0 255 255 255
2.65812 1.31997 4.2535 0 0 0 0 255 255 255
2.49013 0.875651 4.25504 0 0 0 0 255 255 255
2.65621 1.33346 4.25619 0 0 0 0 255 255 255
2.63145 1.26905 4.25657 0 0 0 0 255 255 255
2.48511 0.875373 4.25696 0 0 0 0 255 255 255
2.69985 1.46765 4.25849 0 0 0 0 255 255 255
2.48008 0.875096 4.25888 0 0 0 0 255 255 255
2.60737 1.22251 4.25926 0 0 0 0 255 255 255
2.46675 0.846974 4.26003 0 0 0 0 255 255 255
2.46917 0.853541 4.26003 0 0 0 0 255 255 255
2.39903 0.666241 4.26041 0 0 0 0 255 255 255
2.41289 0.703765 4.26041 0 0 0 0 255 255 255
2.59265 1.19064 4.26041 0 0 0 0 255 255 255
2.65829 1.37107 4.2608 0 0 0 0 255 255 255
2.41375 0.714106 4.26157 0 0 0 0 255 255 255
2.64028 1.33295 4.26234 0 0 0 0 255 255 255
2.47142 0.878294 4.26272 0 0 0 0 255 255 255
2.44873 0.819514 4.2631 0 0 0 0 255 255 255
2.46207 0.863626 4.26426 0 0 0 0 255 255 255
2.6472 1.3677 4.26464 0 0 0 0 255 255 255
2.41912 0.757961 4.26579 0 0 0 0 255 255 255
2.65222 1.3893 4.26579 0 0 0 0 255 255 255
2.41375 0.756746 4.26771 0 0 0 0 255 255 255
2.41409 0.757684 4.26771 0 0 0 0 255 255 255
2.6207 1.32525 4.26887 0 0 0 0 255 255 255
2.65084 1.4122 4.26963 0 0 0 0 255 255 255
2.64062 1.38719 4.27002 0 0 0 0 255 255 255
2.61135 1.31059 4.2704 0 0 0 0 255 255 255
2.57706 1.22304 4.27117 0 0 0 0 255 255 255
2.58693 1.25778 4.27232 0 0 0 0 255 255 255
2.58208 1.24997 4.27309 0 0 0 0 255 255 255
2.61464 1.33815 4.27309 0 0 0 0 255 255 255
2.61187 1.33598 4.27386 0 0 0 0 255 255 255
2.59559 1.30255 4.2754 0 0 0 0 255 255 255
2.63213 1.41484 4.27732 0 0 0 0 255 255 255
2.58779 1.3001 4.27809 0 0 0 0 255 255 255
2.59247 1.31543 4.27847 0 0 0 0 255 255 255
2.41288 0.837017 4.27962 0 0 0 0 255 255 255
2.65637 1.4965 4.27962 0 0 0 0 255 255 255
2.58364 1.30483 4.28039 0 0 0 0 255 255 255
2.54831 1.21447 4.28116 0 0 0 0 255 255 255
2.5774 1.2986 4.28193 0 0 0 0 255 255 255
2.41287 0.863667 4.28346 0 0 0 0 255 255 255
2.57134 1.30084 4.28462 0 0 0 0 255 255 255
2.58294 1.35092 4.28731 0 0 0 0 255 255 255
2.53064 1.2146 4.28807 0 0 0 0 255 255 255
2.53999 1.25592 4.29038 0 0 0 0 255 255 255
2.55471 1.29845 4.29076 0 0 0 0 255 255 255
2.6626 1.59867 4.29191 0 0 0 0 255 255 255
2.53791 1.26628 4.29268 0 0 0 0 255 255 255
2.63489 1.53428 4.29345 0 0 0 0 255 255 255
2.56371 1.3495 4.2946 0 0 0 0 255 255 255
2.47902 1.12813 4.29576 0 0 0 0 255 255 255
2.62796 1.53151 4.29576 0 0 0 0 255 255 255
2.51903 1.23914 4.29614 0 0 0 0 255 255 255
2.54864 1.32734 4.29729 0 0 0 0 255 255 255
2.53583 1.30329 4.29883 0 0 0 0 255 255 255
2.62415 1.54251 4.29883 0 0 0 0 255 255 255
2.54414 1.33114 4.2996 0 0 0 0 255 255 255
2.55418 1.36367 4.30037 0 0 0 0 255 255 255
2.62329 1.55349 4.30075 0 0 0 0 255 255 255
2.72443 1.82741 4.30075 0 0 0 0 255 255 255
2.51591 1.26801 4.30152 0 0 0 0 255 255 255
2.33978 0.798981 4.30267 0 0 0 0 255 255 255
2.53894 1.33839 4.30267 0 0 0 0 255 255 255
2.46465 1.15049 4.30459 0 0 0 0 255 255 255
2.53825 1.3525 4.30498 0 0 0 0 255 255 255
2.49513 1.25436 4.30767 0 0 0 0 255 255 255
2.70399 1.82004 4.30767 0 0 0 0 255 255 255
2.70433 1.82097 4.30767 0 0 0 0 255 255 255
2.71022 1.83692 4.30767 0 0 0 0 255 255 255
2.49443 1.27381 4.31074 0 0 0 0 255 255 255
2.51071 1.3179 4.31074 0 0 0 0 255 255 255
2.49287 1.27758 4.31189 0 0 0 0 255 255 255
2.70537 1.85577 4.31228 0 0 0 0 255 255 255
2.7 1.84389 4.31266 0 0 0 0 255 255 255
2.33787 0.865777 4.31304 0 0 0 0 255 255 255
2.44819 1.17789 4.31496 0 0 0 0 255 255 255
2.48646 1.28421 4.31535 0 0 0 0 255 255 255
2.58396 1.55095 4.31573 0 0 0 0 255 255 255
2.69532 1.8712 4.31842 0 0 0 0 255 255 255
2.48923 1.3237 4.31996 0 0 0 0 255 255 255
2.48213 1.32845 4.32342 0 0 0 0 255 255 255
2.39415 1.10083 4.32495 0 0 0 0 255 255 255
2.66137 1.83257 4.3261 0 0 0 0 255 255 255
2.66397 1.84227 4.32649 0 0 0 0 255 255 255
2.65445 1.82447 4.32764 0 0 0 0 255 255 255
2.49061 1.39141 4.32918 0 0 0 0 255 255 255
2.65063 1.83014 4.32995 0 0 0 0 255 255 255
2.49373 1.42117 4.33225 0 0 0 0 255 255 255
2.6392 1.8205 4.33302 0 0 0 0 255 255 255
2.52039 1.61067 4.34915 0 0 0 0 255 255 255
2.35811 1.17383 4.34954 0 0 0 0 255 255 255
2.52299 1.62037 4.34954 0 0 0 0 255 255 255
2.53078 1.64947 4.35069 0 0 0 0 255 255 255
2.58499 1.80961 4.35261 0 0 0 0 255 255 255
2.41336 1.35811 4.35453 0 0 0 0 255 255 255
2.42167 1.38595 4.3553 0 0 0 0 255 255 255
2.45804 1.48978 4.35607 0 0 0 0 255 255 255
2.51415 1.64708 4.35684 0 0 0 0 255 255 255
2.46202 1.52455 4.35953 0 0 0 0 255 255 255
2.41162 1.39073 4.35991 0 0 0 0 255 255 255
2.45994 1.52426 4.36029 0 0 0 0 255 255 255
2.41214 1.42145 4.36414 0 0 0 0 255 255 255
2.50185 1.69107 4.36798 0 0 0 0 255 255 255
2.54497 1.81053 4.36836 0 0 0 0 255 255 255
2.44747 1.54912 4.36875 0 0 0 0 255 255 255
2.44764 1.56291 4.37067 0 0 0 0 255 255 255
2.44677 1.56323 4.37105 0 0 0 0 255 255 255
2.444 1.56105 4.37182 0 0 0 0 255 255 255
2.5202 1.79942 4.37643 0 0 0 0 255 255 255
2.5112 1.78569 4.37797 0 0 0 0 255 255 255
2.48175 1.71128 4.37873 0 0 0 0 255 255 255
2.4776 1.70535 4.3795 0 0 0 0 255 255 255
2.45283 1.66226 4.38296 0 0 0 0 255 255 255
2.37645 1.47407 4.38565 0 0 0 0 255 255 255
2.37247 1.47127 4.3868 0 0 0 0 255 255 255
2.43932 1.65233 4.3868 0 0 0 0 255 255 255
2.44486 1.67267 4.38757 0 0 0 0 255 255 255
2.42217 1.61922 4.38872 0 0 0 0 255 255 255
2.48158 1.7881 4.38987 0 0 0 0 255 255 255
2.4407 1.68273 4.39064 0 0 0 0 255 255 255
2.40312 1.58894 4.3918 0 0 0 0 255 255 255
2.42858 1.66056 4.39218 0 0 0 0 255 255 255
2.38944 1.57587 4.39525 0 0 0 0 255 255 255
2.23859 1.17 4.39564 0 0 0 0 255 255 255
2.41559 1.64936 4.39564 0 0 0 0 255 255 255
2.24136 1.18283 4.39641 0 0 0 0 255 255 255
2.42442 1.68128 4.39679 0 0 0 0 255 255 255
2.2431 1.19285 4.39717 0 0 0 0 255 255 255
2.37021 1.54246 4.39794 0 0 0 0 255 255 255
2.19166 1.06154 4.39833 0 0 0 0 255 255 255
2.18542 1.0713 4.40217 0 0 0 0 255 255 255
2.2256 1.18545 4.40294 0 0 0 0 255 255 255
2.18092 1.06977 4.4037 0 0 0 0 255 255 255
2.18577 1.09356 4.40524 0 0 0 0 255 255 255
2.35099 1.54103 4.40524 0 0 0 0 255 255 255
2.34371 1.54798 4.40908 0 0 0 0 255 255 255
2.41506 1.76788 4.41292 0 0 0 0 255 255 255
2.37713 1.75844 4.42637 0 0 0 0 255 255 255
2.29902 1.54956 4.42675 0 0 0 0 255 255 255
2.3773 1.77756 4.42906 0 0 0 0 255 255 255
2.35513 1.76016 4.4352 0 0 0 0 255 255 255
2.15804 1.25837 4.43981 0 0 0 0 255 255 255
2.157 1.2822 4.44366 0 0 0 0 255 255 255
1.94017 0.753584 4.45211 0 0 0 0 255 255 255
1.95125 0.783603 4.45211 0 0 0 0 255 255 255
1.94606 0.774862 4.45288 0 0 0 0 255 255 255
2.30386 1.75458 4.45441 0 0 0 0 255 255 255
2.12045 1.2925 4.45941 0 0 0 0 255 255 255
1.92891 0.800382 4.46325 0 0 0 0 255 255 255
1.91834 0.795755 4.46671 0 0 0 0 255 255 255
2.00528 1.03655 4.46747 0 0 0 0 255 255 255
1.94068 0.890908 4.4717 0 0 0 0 255 255 255
1.90015 0.786481 4.47247 0 0 0 0 255 255 255
1.90898 0.813067 4.47285 0 0 0 0 255 255 255
1.94449 0.917217 4.474 0 0 0 0 255 255 255
1.97653 1.01199 4.47516 0 0 0 0 255 255 255
1.94431 0.946064 4.47823 0 0 0 0 255 255 255
1.9121 0.874811 4.48054 0 0 0 0 255 255 255
2.23284 1.74349 4.48054 0 0 0 0 255 255 255
1.92335 0.913294 4.48169 0 0 0 0 255 255 255
1.90067 0.854514 4.48207 0 0 0 0 255 255 255
1.91262 0.900203 4.48399 0 0 0 0 255 255 255
1.88698 0.846774 4.4863 0 0 0 0 255 255 255
1.8823 0.900736 4.4959 0 0 0 0 255 255 255
1.90412 0.959836 4.4959 0 0 0 0 255 255 255
1.88628 0.94084 4.50013 0 0 0 0 255 255 255
1.9559 1.16671 4.50551 0 0 0 0 255 255 255
1.87121 0.940008 4.50589 0 0 0 0 255 255 255
1.95469 1.18208 4.50819 0 0 0 0 255 255 255
1.95486 1.18521 4.50858 0 0 0 0 255 255 255
1.9514 1.18116 4.50935 0 0 0 0 255 255 255
1.91659 1.10021 4.51127 0 0 0 0 255 255 255
1.93633 1.18566 4.51588 0 0 0 0 255 255 255
1.91399 1.13315 4.51703 0 0 0 0 255 255 255
1.9216 1.15912 4.5178 0 0 0 0 255 255 255
1.93217 1.19572 4.51895 0 0 0 0 255 255 255
1.91623 1.16323 4.52049 0 0 0 0 255 255 255
1.92922 1.20108 4.52087 0 0 0 0 255 255 255
1.89008 1.11639 4.52394 0 0 0 0 255 255 255
1.89528 1.13046 4.52394 0 0 0 0 255 255 255
1.89961 1.15018 4.5251 0 0 0 0 255 255 255
1.94619 1.28435 4.52625 0 0 0 0 255 255 255
1.94134 1.28188 4.52779 0 0 0 0 255 255 255
1.89406 1.16715 4.52971 0 0 0 0 255 255 255
1.89441 1.16809 4.52971 0 0 0 0 255 255 255
1.72642 0.723775 4.53124 0 0 0 0 255 255 255
1.95173 1.35799 4.5347 0 0 0 0 255 255 255
1.68451 0.636916 4.53508 0 0 0 0 255 255 255
1.95104 1.36145 4.53547 0 0 0 0 255 255 255
1.92974 1.30642 4.53585 0 0 0 0 255 255 255
1.6755 0.633846 4.53816 0 0 0 0 255 255 255
1.71446 0.758037 4.54085 0 0 0 0 255 255 255
1.63376 0.56611 4.54469 0 0 0 0 255 255 255
1.90064 1.29158 4.54507 0 0 0 0 255 255 255
1.91553 1.33725 4.54584 0 0 0 0 255 255 255
1.63099 0.569266 4.54623 0 0 0 0 255 255 255
1.89821 1.30633 4.54815 0 0 0 0 255 255 255
1.67532 0.721323 4.55084 0 0 0 0 255 255 255
2.04386 1.72479 4.5516 0 0 0 0 255 255 255
1.67618 0.736993 4.55276 0 0 0 0 255 255 255
1.63722 0.634122 4.55314 0 0 0 0 255 255 255
1.63635 0.634442 4.55352 0 0 0 0 255 255 255
1.67324 0.747675 4.55545 0 0 0 0 255 255 255
1.87448 1.29271 4.55545 0 0 0 0 255 255 255
1.89699 1.35902 4.55621 0 0 0 0 255 255 255
1.92782 1.44251 4.55621 0 0 0 0 255 255 255
1.7032 0.842145 4.55737 0 0 0 0 255 255 255
2.03433 1.73897 4.55737 0 0 0 0 255 255 255
1.72208 0.901267 4.55852 0 0 0 0 255 255 255
1.71775 0.897536 4.55967 0 0 0 0 255 255 255
1.89751 1.40573 4.56274 0 0 0 0 255 255 255
1.89716 1.41012 4.56351 0 0 0 0 255 255 255
1.90946 1.44609 4.5639 0 0 0 0 255 255 255
1.95102 1.55866 4.5639 0 0 0 0 255 255 255
1.85854 1.31352 4.56466 0 0 0 0 255 255 255
1.85923 1.31539 4.56466 0 0 0 0 255 255 255
1.62283 0.725778 4.57196 0 0 0 0 255 255 255
1.62578 0.752407 4.57465 0 0 0 0 255 255 255
1.60621 0.7074 4.57581 0 0 0 0 255 255 255
1.47926 0.403562 4.58157 0 0 0 0 255 255 255
1.93924 1.64936 4.58157 0 0 0 0 255 255 255
1.55096 0.603079 4.58234 0 0 0 0 255 255 255
1.55477 0.613398 4.58234 0 0 0 0 255 255 255
1.54663 0.620668 4.58656 0 0 0 0 255 255 255
1.90096 1.59633 4.58887 0 0 0 0 255 255 255
1.53675 0.623248 4.59079 0 0 0 0 255 255 255
1.87047 1.59373 4.60039 0 0 0 0 255 255 255
1.8826 1.63189 4.60116 0 0 0 0 255 255 255
1.5293 0.707015 4.60577 0 0 0 0 255 255 255
1.48132 0.611734 4.61076 0 0 0 0 255 255 255
1.87757 1.70091 4.61307 0 0 0 0 255 255 255
1.88623 1.75101 4.61691 0 0 0 0 255 255 255
1.89523 1.78073 4.61768 0 0 0 0 255 255 255
1.86284 1.71167 4.62037 0 0 0 0 255 255 255
1.87704 1.75014 4.62037 0 0 0 0 255 255 255
1.85782 1.7114 4.62229 0 0 0 0 255 255 255
1.88657 1.8319 4.62843 0 0 0 0 255 255 255
1.85245 1.74749 4.62959 0 0 0 0 255 255 255
1.8566 1.79606 4.63496 0 0 0 0 255 255 255
1.85833 1.80075 4.63496 0 0 0 0 255 255 255
1.85712 1.80013 4.63535 0 0 0 0 255 255 255
1.83738 1.75199 4.63612 0 0 0 0 255 255 255
1.83495 1.75608 4.63765 0 0 0 0 255 255 255
1.83443 1.75734 4.63804 0 0 0 0 255 255 255
1.44251 0.7252 4.64226 0 0 0 0 255 255 255
1.80672 1.7356 4.64572 0 0 0 0 255 255 255
1.88673 1.97362 4.64879 0 0 0 0 255 255 255
1.87149 1.96965 4.65417 0 0 0 0 255 255 255
1.80464 1.80459 4.65648 0 0 0 0 255 255 255
1.25512 0.345611 4.6607 0 0 0 0 255 255 255
1.80393 2.00525 4.68567 0 0 0 0 255 255 255
1.79163 2.0066 4.69067 0 0 0 0 255 255 255
