ply
format ascii 1.0
comment VCGLIB generated
element vertex 1025
property float x
property float y
property float z
property float nx
property float ny
property float nz
property uchar red
property uchar green
property uchar blue
property uchar alpha
element face 0
property list uchar int vertex_indices
end_header
1.48825 0.350026 4.35523 0 0 0 255 255 255 255
1.2789 0.625618 4.29799 0 0 0 255 255 255 255
1.40422 0.626508 4.31719 0 0 0 255 255 255 255
1.41208 0.402406 4.22315 0 0 0 255 255 255 255
1.30693 0.613506 4.53692 0 0 0 255 255 255 255
1.33654 0.562605 4.4519 0 0 0 255 255 255 255
1.33844 0.560382 4.45774 0 0 0 255 255 255 255
1.29691 0.616235 4.52854 0 0 0 255 255 255 255
1.3399 0.624444 4.49375 0 0 0 255 255 255 255
1.50783 0.424968 4.35144 0 0 0 255 255 255 255
1.35082 0.435559 4.32281 0 0 0 255 255 255 255
1.33881 0.599298 4.49077 0 0 0 255 255 255 255
1.33274 0.607152 4.50363 0 0 0 255 255 255 255
1.64312 0.362439 4.14399 0 0 0 255 255 255 255
1.54758 0.338558 4.30846 0 0 0 255 255 255 255
1.58555 0.361936 4.19042 0 0 0 255 255 255 255
1.70171 0.362546 4.37112 0 0 0 255 255 255 255
1.57248 0.377531 4.23716 0 0 0 255 255 255 255
1.61695 0.434286 4.34198 0 0 0 255 255 255 255
1.56268 0.548842 4.39717 0 0 0 255 255 255 255
1.5477 0.580694 4.35216 0 0 0 255 255 255 255
1.54169 0.571774 4.39406 0 0 0 255 255 255 255
1.56507 0.568368 4.38931 0 0 0 255 255 255 255
1.53417 0.553951 4.3971 0 0 0 255 255 255 255
1.33693 1.11816 3.69101 0 0 0 255 255 255 255
1.59094 1.15256 3.71227 0 0 0 255 255 255 255
1.56207 1.12718 3.64901 0 0 0 255 255 255 255
1.64403 0.924029 4.01486 0 0 0 255 255 255 255
1.74123 0.949059 3.88235 0 0 0 255 255 255 255
1.34335 0.906 4.04297 0 0 0 255 255 255 255
1.64763 1.10203 3.79037 0 0 0 255 255 255 255
1.59591 1.14407 3.68117 0 0 0 255 255 255 255
1.59711 1.14256 3.62991 0 0 0 255 255 255 255
1.6149 1.15044 3.69326 0 0 0 255 255 255 255
1.73421 0.946613 3.96406 0 0 0 255 255 255 255
1.76988 1.01836 3.85449 0 0 0 255 255 255 255
1.78906 1.0264 3.84115 0 0 0 255 255 255 255
1.43056 0.912518 4.15044 0 0 0 255 255 255 255
1.43892 0.900191 4.12493 0 0 0 255 255 255 255
1.70207 1.01383 4.11036 0 0 0 255 255 255 255
2.09312 0.177603 4.55984 0 0 0 255 255 255 255
2.08586 0.188117 4.58624 0 0 0 255 255 255 255
2.06149 0.186292 4.45628 0 0 0 255 255 255 255
2.06007 0.189476 4.49042 0 0 0 255 255 255 255
1.93172 0.126712 4.57237 0 0 0 255 255 255 255
2.26478 1.18201 4.37282 0 0 0 255 255 255 255
1.97216 1.0566 4.05559 0 0 0 255 255 255 255
2.25419 1.18273 4.34759 0 0 0 255 255 255 255
1.98389 1.02759 4.53849 0 0 0 255 255 255 255
2.09044 1.11459 4.12294 0 0 0 255 255 255 255
1.95498 0.834539 4.51989 0 0 0 255 255 255 255
1.83425 0.960365 4.18356 0 0 0 255 255 255 255
2.25941 1.18206 4.37551 0 0 0 255 255 255 255
1.95656 1.00549 4.5205 0 0 0 255 255 255 255
1.71925 0.112413 4.65538 0 0 0 255 255 255 255
1.75506 0.118067 4.63503 0 0 0 255 255 255 255
1.71266 0.114879 4.64076 0 0 0 255 255 255 255
1.74056 0.102855 4.64925 0 0 0 255 255 255 255
1.44507 0.734737 5.00269 0 0 0 255 255 255 255
1.31055 0.737647 5.16001 0 0 0 255 255 255 255
1.70069 0.871146 5.23589 0 0 0 255 255 255 255
2.03447 0.116852 4.80909 0 0 0 255 255 255 255
1.94201 0.131612 4.61524 0 0 0 255 255 255 255
2.03803 0.108538 4.84769 0 0 0 255 255 255 255
1.9458 0.137127 4.60836 0 0 0 255 255 255 255
2.14885 0.16847 4.65829 0 0 0 255 255 255 255
2.26569 0.118926 4.95796 0 0 0 255 255 255 255
1.94211 1.01465 4.75306 0 0 0 255 255 255 255
1.93991 1.02501 4.71088 0 0 0 255 255 255 255
1.9233 1.09363 4.72795 0 0 0 255 255 255 255
1.92021 1.04425 4.79965 0 0 0 255 255 255 255
1.95276 1.02853 4.76968 0 0 0 255 255 255 255
1.93428 1.05707 4.65608 0 0 0 255 255 255 255
1.94209 1.02157 4.78128 0 0 0 255 255 255 255
1.91428 1.04287 4.8524 0 0 0 255 255 255 255
1.94055 0.919205 4.63985 0 0 0 255 255 255 255
2.00677 0.881893 4.63771 0 0 0 255 255 255 255
1.94419 1.02896 4.7009 0 0 0 255 255 255 255
2.69636 0.0920499 5.57713 0 0 0 255 255 255 255
2.7803 0.675749 4.51542 0 0 0 255 255 255 255
2.57301 0.666188 4.37415 0 0 0 255 255 255 255
2.50568 1.16273 4.35626 0 0 0 255 255 255 255
3.19218 0.443341 3.91845 0 0 0 255 255 255 255
3.0952 0.343941 4.00714 0 0 0 255 255 255 255
3.1925 0.441766 3.94847 0 0 0 255 255 255 255
3.18796 0.413136 3.91872 0 0 0 255 255 255 255
3.18868 0.430536 3.98586 0 0 0 255 255 255 255
3.18222 0.62801 4.01104 0 0 0 255 255 255 255
3.22465 0.530962 4.02424 0 0 0 255 255 255 255
3.19727 0.45578 4.0865 0 0 0 255 255 255 255
3.28344 0.333354 4.40003 0 0 0 255 255 255 255
3.28538 0.32425 4.3704 0 0 0 255 255 255 255
3.43629 0.267861 4.29092 0 0 0 255 255 255 255
3.39693 0.281155 4.37958 0 0 0 255 255 255 255
3.12316 0.331167 4.04869 0 0 0 255 255 255 255
3.43737 0.302575 4.38234 0 0 0 255 255 255 255
3.34264 0.354567 4.39101 0 0 0 255 255 255 255
3.4307 0.831253 3.7671 0 0 0 255 255 255 255
3.43445 0.87593 3.76871 0 0 0 255 255 255 255
3.16825 0.883871 4.08696 0 0 0 255 255 255 255
3.32187 0.816372 4.07874 0 0 0 255 255 255 255
3.29075 0.764854 4.11521 0 0 0 255 255 255 255
3.33381 0.789327 4.09423 0 0 0 255 255 255 255
3.26453 0.76478 4.13156 0 0 0 255 255 255 255
3.26436 0.850321 4.10629 0 0 0 255 255 255 255
3.17532 0.95485 4.12973 0 0 0 255 255 255 255
3.21109 1.18329 4.37279 0 0 0 255 255 255 255
2.78961 0.0989912 5.64503 0 0 0 255 255 255 255
2.72817 -0.0473589 6.3235 0 0 0 255 255 255 255
3.19718 -0.157748 7.92065 0 0 0 255 255 255 255
3.38178 -0.38601 8.20343 0 0 0 255 255 255 255
3.18724 -0.102296 7.98302 0 0 0 255 255 255 255
3.37137 -0.404752 8.23921 0 0 0 255 255 255 255
3.28899 -0.314255 7.92777 0 0 0 255 255 255 255
3.40622 -0.383577 8.21599 0 0 0 255 255 255 255
3.33528 -0.33634 8.12309 0 0 0 255 255 255 255
2.23083 -0.0592682 6.1991 0 0 0 255 255 255 255
3.31781 -0.313655 8.08105 0 0 0 255 255 255 255
2.51585 -0.0769642 6.63353 0 0 0 255 255 255 255
0.465348 1.69573 2.90546 0 0 0 255 255 255 255
0.466681 1.69397 2.89526 0 0 0 255 255 255 255
0.465476 1.68234 2.97215 0 0 0 255 255 255 255
0.493404 1.69911 3.0624 0 0 0 255 255 255 255
0.269292 1.60338 3.22568 0 0 0 255 255 255 255
0.286041 1.6526 3.3106 0 0 0 255 255 255 255
0.280967 1.61622 3.2554 0 0 0 255 255 255 255
0.347852 1.63487 3.12753 0 0 0 255 255 255 255
0.466787 1.71851 3.01734 0 0 0 255 255 255 255
0.465611 1.69427 2.9717 0 0 0 255 255 255 255
0.448678 1.59604 3.11258 0 0 0 255 255 255 255
0.44039 1.6098 3.33937 0 0 0 255 255 255 255
0.488827 1.92525 2.75933 0 0 0 255 255 255 255
0.689583 2.28302 2.69094 0 0 0 255 255 255 255
0.495491 1.78968 2.89476 0 0 0 255 255 255 255
0.495539 1.93963 2.94193 0 0 0 255 255 255 255
0.380245 1.92062 3.11852 0 0 0 255 255 255 255
0.441321 2.06811 3.0496 0 0 0 255 255 255 255
0.442116 2.06776 3.04397 0 0 0 255 255 255 255
0.509978 1.77359 3.06027 0 0 0 255 255 255 255
0.393036 2.27991 2.97868 0 0 0 255 255 255 255
0.410189 2.27819 2.99426 0 0 0 255 255 255 255
0.475151 1.79512 3.2198 0 0 0 255 255 255 255
0.494095 1.93665 2.95279 0 0 0 255 255 255 255
0.452089 1.9097 3.34798 0 0 0 255 255 255 255
0.485 1.78433 3.09799 0 0 0 255 255 255 255
0.723052 2.24525 2.74399 0 0 0 255 255 255 255
0.873543 2.25311 3.32734 0 0 0 255 255 255 255
0.829441 2.13871 3.23482 0 0 0 255 255 255 255
0.906498 2.24406 3.10021 0 0 0 255 255 255 255
0.727961 2.2623 3.2047 0 0 0 255 255 255 255
0.901658 2.27512 3.13445 0 0 0 255 255 255 255
0.859879 2.23784 3.32995 0 0 0 255 255 255 255
0.886033 2.26079 3.33243 0 0 0 255 255 255 255
0.899512 2.20956 3.31999 0 0 0 255 255 255 255
1.09539 2.22369 3.02493 0 0 0 255 255 255 255
1.12664 2.21807 3.24731 0 0 0 255 255 255 255
1.11322 2.2775 3.28797 0 0 0 255 255 255 255
1.21958 2.58374 2.31812 0 0 0 255 255 255 255
1.15281 2.39191 2.37772 0 0 0 255 255 255 255
0.369272 2.3479 2.86687 0 0 0 255 255 255 255
0.670471 2.32006 2.94618 0 0 0 255 255 255 255
0.560505 2.69846 2.62456 0 0 0 255 255 255 255
0.348206 2.32326 2.86601 0 0 0 255 255 255 255
0.381302 2.31833 2.87629 0 0 0 255 255 255 255
0.403896 2.35843 2.49397 0 0 0 255 255 255 255
0.274072 2.34882 2.92091 0 0 0 255 255 255 255
0.647833 2.29612 3.16342 0 0 0 255 255 255 255
0.483577 2.4484 3.02506 0 0 0 255 255 255 255
0.201095 2.61927 3.19889 0 0 0 255 255 255 255
1.05471 2.5161 2.85591 0 0 0 255 255 255 255
1.05213 2.33685 2.61223 0 0 0 255 255 255 255
0.941897 2.52884 2.74507 0 0 0 255 255 255 255
1.1519 2.40448 2.66817 0 0 0 255 255 255 255
1.01027 2.34764 2.6702 0 0 0 255 255 255 255
0.986607 2.57233 2.56211 0 0 0 255 255 255 255
0.961682 2.41416 3.42072 0 0 0 255 255 255 255
1.0085 2.30365 2.98572 0 0 0 255 255 255 255
1.1308 2.55052 3.38464 0 0 0 255 255 255 255
1.06771 2.45935 3.29902 0 0 0 255 255 255 255
1.24942 2.31754 3.31671 0 0 0 255 255 255 255
0.707914 2.3819 3.31257 0 0 0 255 255 255 255
-0.873252 1.75774 4.47972 0 0 0 255 255 255 255
-0.869339 1.75543 4.47915 0 0 0 255 255 255 255
-0.102255 1.55816 4.01358 0 0 0 255 255 255 255
-0.111392 1.55251 4.04528 0 0 0 255 255 255 255
0.149732 1.44559 4.5692 0 0 0 255 255 255 255
0.131417 1.43991 4.58217 0 0 0 255 255 255 255
0.0986035 1.21958 4.54593 0 0 0 255 255 255 255
-0.216895 1.25967 4.34109 0 0 0 255 255 255 255
0.0224743 1.42489 4.0962 0 0 0 255 255 255 255
-0.151754 1.35001 4.33607 0 0 0 255 255 255 255
0.0472231 1.43223 4.24991 0 0 0 255 255 255 255
-0.0306656 1.762 4.03747 0 0 0 255 255 255 255
-0.930243 1.56686 4.77043 0 0 0 255 255 255 255
-0.94348 1.56988 4.78512 0 0 0 255 255 255 255
0.0241873 1.51161 4.97601 0 0 0 255 255 255 255
-0.446254 1.21681 5.16862 0 0 0 255 255 255 255
-0.341032 1.19948 4.94887 0 0 0 255 255 255 255
0.118039 1.44733 4.71675 0 0 0 255 255 255 255
0.421969 1.47959 4.02265 0 0 0 255 255 255 255
0.591836 1.55135 4.00456 0 0 0 255 255 255 255
0.499819 1.64722 3.75543 0 0 0 255 255 255 255
0.51982 1.58598 3.97648 0 0 0 255 255 255 255
0.446448 1.47469 3.93128 0 0 0 255 255 255 255
0.395969 1.51497 4.13291 0 0 0 255 255 255 255
0.346923 1.61881 4.32185 0 0 0 255 255 255 255
0.517202 1.59832 4.06242 0 0 0 255 255 255 255
0.441118 1.61056 4.2681 0 0 0 255 255 255 255
0.43577 1.51892 4.10226 0 0 0 255 255 255 255
0.435397 1.61904 4.35206 0 0 0 255 255 255 255
0.479985 1.53324 4.07114 0 0 0 255 255 255 255
0.314261 1.60144 4.18667 0 0 0 255 255 255 255
0.2867 1.28566 4.59145 0 0 0 255 255 255 255
0.409373 1.59097 4.34788 0 0 0 255 255 255 255
0.392555 1.61911 4.3477 0 0 0 255 255 255 255
0.588049 1.54654 4.37745 0 0 0 255 255 255 255
0.390167 1.62551 4.31167 0 0 0 255 255 255 255
0.295494 1.56526 4.21945 0 0 0 255 255 255 255
1.24111 1.496 3.75615 0 0 0 255 255 255 255
0.911275 1.22225 4.40112 0 0 0 255 255 255 255
0.983142 1.4183 4.47757 0 0 0 255 255 255 255
1.00319 1.26226 4.43946 0 0 0 255 255 255 255
0.985923 1.40958 4.45908 0 0 0 255 255 255 255
0.980104 1.46695 4.44843 0 0 0 255 255 255 255
0.973748 1.44073 4.47429 0 0 0 255 255 255 255
0.999608 1.42894 4.38114 0 0 0 255 255 255 255
1.00278 1.42101 4.43598 0 0 0 255 255 255 255
1.00939 1.44651 4.38039 0 0 0 255 255 255 255
0.977585 1.23093 4.44531 0 0 0 255 255 255 255
0.774865 1.5234 4.54151 0 0 0 255 255 255 255
0.796733 1.53411 4.31311 0 0 0 255 255 255 255
0.959979 1.45177 4.46173 0 0 0 255 255 255 255
1.08133 2.25073 3.81332 0 0 0 255 255 255 255
1.11 2.18546 3.64003 0 0 0 255 255 255 255
1.10412 2.20988 3.62767 0 0 0 255 255 255 255
1.14689 2.20055 3.65908 0 0 0 255 255 255 255
1.04304 1.78445 3.94783 0 0 0 255 255 255 255
0.766354 1.78692 3.91398 0 0 0 255 255 255 255
0.993148 1.77204 4.18721 0 0 0 255 255 255 255
1.21558 1.79778 4.49843 0 0 0 255 255 255 255
1.02304 1.86333 4.0771 0 0 0 255 255 255 255
0.351057 1.87393 4.67824 0 0 0 255 255 255 255
0.405077 1.58596 4.60615 0 0 0 255 255 255 255
0.283274 1.87565 4.82542 0 0 0 255 255 255 255
0.991297 2.4187 3.67987 0 0 0 255 255 255 255
1.22839 2.40344 3.55434 0 0 0 255 255 255 255
1.46181 2.14849 3.33437 0 0 0 255 255 255 255
1.47573 1.71224 3.48475 0 0 0 255 255 255 255
1.73486 2.45209 2.38089 0 0 0 255 255 255 255
1.29872 2.51782 2.33764 0 0 0 255 255 255 255
1.55771 2.77722 2.35167 0 0 0 255 255 255 255
1.5577 2.45715 1.97562 0 0 0 255 255 255 255
1.40106 2.48889 2.15418 0 0 0 255 255 255 255
1.32512 2.65387 1.93279 0 0 0 255 255 255 255
1.65363 2.53391 2.28165 0 0 0 255 255 255 255
1.76122 2.5009 2.37016 0 0 0 255 255 255 255
1.66401 2.4601 2.32075 0 0 0 255 255 255 255
1.69588 2.51283 2.3874 0 0 0 255 255 255 255
1.53913 2.48438 2.60291 0 0 0 255 255 255 255
1.5263 2.49271 2.49172 0 0 0 255 255 255 255
1.29982 2.67357 2.64252 0 0 0 255 255 255 255
1.35311 2.37788 2.42181 0 0 0 255 255 255 255
1.73025 2.65392 2.66416 0 0 0 255 255 255 255
1.619 2.77176 2.4015 0 0 0 255 255 255 255
1.78396 2.69501 2.73596 0 0 0 255 255 255 255
1.61542 2.60437 2.79484 0 0 0 255 255 255 255
1.51917 2.48919 3.33217 0 0 0 255 255 255 255
1.30621 2.40148 3.40781 0 0 0 255 255 255 255
1.44975 2.54804 3.36629 0 0 0 255 255 255 255
1.33415 2.49709 3.23407 0 0 0 255 255 255 255
1.57231 2.45345 3.14372 0 0 0 255 255 255 255
1.55585 2.63316 3.48439 0 0 0 255 255 255 255
1.41749 2.53894 3.31919 0 0 0 255 255 255 255
1.49917 2.46341 3.33847 0 0 0 255 255 255 255
1.27953 2.55004 3.20827 0 0 0 255 255 255 255
1.75404 2.34779 3.35606 0 0 0 255 255 255 255
1.75272 2.85488 2.60381 0 0 0 255 255 255 255
1.34224 3.04788 2.66896 0 0 0 255 255 255 255
1.79879 2.62596 2.6827 0 0 0 255 255 255 255
1.9353 2.64233 2.57378 0 0 0 255 255 255 255
1.97113 2.65317 2.61812 0 0 0 255 255 255 255
2.49232 1.60721 2.62974 0 0 0 255 255 255 255
2.72965 2.71898 2.80422 0 0 0 255 255 255 255
2.67617 2.71639 2.72625 0 0 0 255 255 255 255
2.52976 2.44673 3.26723 0 0 0 255 255 255 255
2.54345 2.4679 3.27799 0 0 0 255 255 255 255
2.55573 2.46418 3.27017 0 0 0 255 255 255 255
2.5513 2.43728 3.25984 0 0 0 255 255 255 255
2.59744 2.40385 3.25553 0 0 0 255 255 255 255
1.46589 1.26567 3.6108 0 0 0 255 255 255 255
1.26842 1.49948 3.74121 0 0 0 255 255 255 255
1.45992 1.27357 3.59248 0 0 0 255 255 255 255
1.33102 1.68482 3.9713 0 0 0 255 255 255 255
1.5335 1.2098 3.6764 0 0 0 255 255 255 255
1.64748 1.23577 3.7649 0 0 0 255 255 255 255
1.61525 1.21723 3.71961 0 0 0 255 255 255 255
1.53169 1.22115 3.66913 0 0 0 255 255 255 255
1.41045 1.32404 4.42708 0 0 0 255 255 255 255
1.26069 1.91266 3.70787 0 0 0 255 255 255 255
1.42845 2.25776 3.68781 0 0 0 255 255 255 255
1.39034 1.90096 3.6591 0 0 0 255 255 255 255
1.7395 1.99 3.52974 0 0 0 255 255 255 255
1.42745 2.24729 3.65769 0 0 0 255 255 255 255
1.4211 2.05462 3.64358 0 0 0 255 255 255 255
1.76773 1.88422 4.17862 0 0 0 255 255 255 255
1.78863 1.88466 4.35749 0 0 0 255 255 255 255
1.74697 1.86715 4.2356 0 0 0 255 255 255 255
1.77107 1.89669 4.18989 0 0 0 255 255 255 255
1.74434 1.88709 4.17876 0 0 0 255 255 255 255
1.92672 1.50766 4.03142 0 0 0 255 255 255 255
1.95167 1.40972 4.22728 0 0 0 255 255 255 255
2.2024 1.5285 4.43029 0 0 0 255 255 255 255
1.98221 1.44982 4.27204 0 0 0 255 255 255 255
1.83995 1.26895 4.31937 0 0 0 255 255 255 255
1.86672 1.25342 4.30798 0 0 0 255 255 255 255
1.857 1.28084 4.46902 0 0 0 255 255 255 255
1.88681 1.30515 4.43801 0 0 0 255 255 255 255
1.8972 1.23181 4.32628 0 0 0 255 255 255 255
1.81711 1.67616 4.32949 0 0 0 255 255 255 255
1.84215 1.29344 4.28623 0 0 0 255 255 255 255
2.25535 1.20027 4.35937 0 0 0 255 255 255 255
2.29721 1.5507 4.34829 0 0 0 255 255 255 255
2.09125 1.30066 4.3544 0 0 0 255 255 255 255
1.85057 1.28683 4.46724 0 0 0 255 255 255 255
2.01184 1.4556 4.30063 0 0 0 255 255 255 255
1.83158 2.13792 3.76298 0 0 0 255 255 255 255
1.93977 2.09011 3.74294 0 0 0 255 255 255 255
2.23634 2.27275 3.69754 0 0 0 255 255 255 255
2.20989 2.15539 4.03224 0 0 0 255 255 255 255
2.12862 2.27628 3.98847 0 0 0 255 255 255 255
1.97379 2.21777 3.7865 0 0 0 255 255 255 255
2.06401 2.19549 3.83075 0 0 0 255 255 255 255
2.27372 2.24998 3.89453 0 0 0 255 255 255 255
2.19127 2.24673 3.81465 0 0 0 255 255 255 255
2.1875 2.25123 3.77911 0 0 0 255 255 255 255
2.01608 2.22299 3.83249 0 0 0 255 255 255 255
1.80344 1.88683 4.12066 0 0 0 255 255 255 255
1.91551 1.8949 4.18547 0 0 0 255 255 255 255
1.88384 1.826 4.08193 0 0 0 255 255 255 255
1.87964 1.85412 4.20203 0 0 0 255 255 255 255
1.82575 1.76829 4.12643 0 0 0 255 255 255 255
2.29631 2.08853 4.12608 0 0 0 255 255 255 255
1.91483 1.89009 4.14037 0 0 0 255 255 255 255
1.83822 1.9183 4.30718 0 0 0 255 255 255 255
1.95535 1.87015 4.16973 0 0 0 255 255 255 255
2.16626 2.17914 4.36834 0 0 0 255 255 255 255
1.97024 1.95331 4.11083 0 0 0 255 255 255 255
1.8764 1.88088 4.33977 0 0 0 255 255 255 255
1.98374 1.34534 4.82126 0 0 0 255 255 255 255
1.90586 1.35377 4.68283 0 0 0 255 255 255 255
1.82258 1.79748 4.82281 0 0 0 255 255 255 255
1.97388 1.36044 4.69128 0 0 0 255 255 255 255
1.92007 1.24568 4.66375 0 0 0 255 255 255 255
2.27773 2.34632 3.7121 0 0 0 255 255 255 255
1.27739 2.34963 3.67725 0 0 0 255 255 255 255
2.87337 1.23597 3.82762 0 0 0 255 255 255 255
2.61447 1.55763 4.28048 0 0 0 255 255 255 255
2.61967 1.57808 4.23882 0 0 0 255 255 255 255
2.57464 1.52809 4.31183 0 0 0 255 255 255 255
2.61221 1.56009 4.28188 0 0 0 255 255 255 255
2.60571 1.52677 4.25648 0 0 0 255 255 255 255
2.70538 1.26726 4.2251 0 0 0 255 255 255 255
2.69627 1.21576 4.20978 0 0 0 255 255 255 255
2.67451 1.23263 4.21867 0 0 0 255 255 255 255
2.63434 1.55845 4.26726 0 0 0 255 255 255 255
2.85939 1.62125 4.12654 0 0 0 255 255 255 255
2.64262 1.54994 4.2835 0 0 0 255 255 255 255
2.64093 1.61273 4.29923 0 0 0 255 255 255 255
2.64274 1.4922 4.26403 0 0 0 255 255 255 255
2.62465 1.5236 4.29974 0 0 0 255 255 255 255
2.62276 1.5397 4.32833 0 0 0 255 255 255 255
2.84223 2.25996 3.74238 0 0 0 255 255 255 255
2.88227 2.24406 3.7674 0 0 0 255 255 255 255
2.44645 2.24841 4.02646 0 0 0 255 255 255 255
2.86208 2.22814 3.73661 0 0 0 255 255 255 255
2.38916 2.16953 3.97317 0 0 0 255 255 255 255
2.69163 2.24992 4.2395 0 0 0 255 255 255 255
2.41369 2.20816 4.39242 0 0 0 255 255 255 255
2.45916 1.77135 4.34039 0 0 0 255 255 255 255
2.43178 2.23237 4.0977 0 0 0 255 255 255 255
2.71107 2.23851 4.40842 0 0 0 255 255 255 255
3.14001 1.27475 4.18982 0 0 0 255 255 255 255
3.14967 1.27287 4.16507 0 0 0 255 255 255 255
3.04153 1.32163 4.19322 0 0 0 255 255 255 255
3.00122 1.34863 4.24923 0 0 0 255 255 255 255
3.11713 1.29975 4.07743 0 0 0 255 255 255 255
3.18575 1.29614 4.3275 0 0 0 255 255 255 255
3.13598 1.31298 4.18356 0 0 0 255 255 255 255
3.09125 1.31956 4.20967 0 0 0 255 255 255 255
3.11662 1.29702 4.07773 0 0 0 255 255 255 255
3.16261 1.2978 4.17675 0 0 0 255 255 255 255
3.09975 1.27483 4.12774 0 0 0 255 255 255 255
3.1338 1.21009 4.2544 0 0 0 255 255 255 255
3.09828 1.95477 4.25661 0 0 0 255 255 255 255
3.43791 1.99177 4.13651 0 0 0 255 255 255 255
3.35444 1.93928 4.26008 0 0 0 255 255 255 255
3.09039 2.01024 4.30046 0 0 0 255 255 255 255
3.40961 1.96145 4.22158 0 0 0 255 255 255 255
3.0796 1.99677 4.29959 0 0 0 255 255 255 255
2.84167 2.3119 3.72875 0 0 0 255 255 255 255
3.00751 2.32838 3.75099 0 0 0 255 255 255 255
2.97623 2.29509 3.77685 0 0 0 255 255 255 255
3.29824 2.47634 3.74371 0 0 0 255 255 255 255
3.85645 1.01189 3.48548 0 0 0 255 255 255 255
3.82692 1.12829 3.48852 0 0 0 255 255 255 255
3.75198 1.09914 3.19974 0 0 0 255 255 255 255
3.66301 1.17042 3.35417 0 0 0 255 255 255 255
3.99076 0.434871 3.99064 0 0 0 255 255 255 255
3.74718 0.454043 3.95047 0 0 0 255 255 255 255
3.77716 0.422731 3.91883 0 0 0 255 255 255 255
3.77894 0.389063 3.97598 0 0 0 255 255 255 255
3.75664 0.376379 4.02061 0 0 0 255 255 255 255
3.76709 0.40049 4.002 0 0 0 255 255 255 255
3.99009 0.468499 3.98237 0 0 0 255 255 255 255
3.66846 0.37468 4.2618 0 0 0 255 255 255 255
3.47375 0.289498 4.42002 0 0 0 255 255 255 255
3.65187 0.350887 4.1717 0 0 0 255 255 255 255
3.76669 0.386025 4.10417 0 0 0 255 255 255 255
3.45912 0.314346 4.30886 0 0 0 255 255 255 255
3.5584 0.332308 4.10596 0 0 0 255 255 255 255
3.75517 0.381553 4.06015 0 0 0 255 255 255 255
3.64904 0.380057 4.31086 0 0 0 255 255 255 255
3.78289 0.388212 4.08047 0 0 0 255 255 255 255
3.56275 0.332751 4.09619 0 0 0 255 255 255 255
3.71773 0.87493 3.57661 0 0 0 255 255 255 255
3.66626 0.832572 3.70155 0 0 0 255 255 255 255
3.67344 0.815676 3.6048 0 0 0 255 255 255 255
3.57591 0.797749 3.69782 0 0 0 255 255 255 255
3.67211 0.855102 3.61709 0 0 0 255 255 255 255
3.57057 0.796113 3.85748 0 0 0 255 255 255 255
3.53248 0.836388 3.9204 0 0 0 255 255 255 255
3.60043 0.868574 3.86436 0 0 0 255 255 255 255
3.59569 0.807725 4.02648 0 0 0 255 255 255 255
3.56062 0.802899 3.82027 0 0 0 255 255 255 255
3.67698 0.910298 3.80344 0 0 0 255 255 255 255
3.66997 0.93437 3.65101 0 0 0 255 255 255 255
3.67086 0.985231 3.64274 0 0 0 255 255 255 255
3.68422 0.945119 3.61977 0 0 0 255 255 255 255
3.65906 0.968899 3.63965 0 0 0 255 255 255 255
3.46196 0.927076 3.93135 0 0 0 255 255 255 255
3.61817 1.03349 3.95294 0 0 0 255 255 255 255
3.72872 0.789499 3.58432 0 0 0 255 255 255 255
3.72002 0.870459 3.59413 0 0 0 255 255 255 255
3.74099 0.890943 3.59321 0 0 0 255 255 255 255
3.72296 0.798118 3.57044 0 0 0 255 255 255 255
3.78305 1.03055 3.52618 0 0 0 255 255 255 255
3.58497 0.658155 4.13171 0 0 0 255 255 255 255
3.57476 0.654659 4.12905 0 0 0 255 255 255 255
3.53567 0.77972 4.10228 0 0 0 255 255 255 255
3.5035 1.0751 4.15954 0 0 0 255 255 255 255
3.61395 1.09747 4.09315 0 0 0 255 255 255 255
3.5186 1.01922 4.21791 0 0 0 255 255 255 255
3.62468 1.11964 4.07222 0 0 0 255 255 255 255
3.63495 1.10001 4.08833 0 0 0 255 255 255 255
3.50871 1.09012 4.14503 0 0 0 255 255 255 255
3.56479 1.10297 4.09032 0 0 0 255 255 255 255
3.92472 1.18626 4.42755 0 0 0 255 255 255 255
3.52351 -0.0488657 7.49147 0 0 0 255 255 255 255
3.51508 -0.0404884 7.46181 0 0 0 255 255 255 255
3.48577 -0.0529335 7.21604 0 0 0 255 255 255 255
3.57941 -0.0742504 7.46645 0 0 0 255 255 255 255
3.87217 -0.459128 8.6814 0 0 0 255 255 255 255
3.56534 -0.0629443 7.93415 0 0 0 255 255 255 255
3.65957 -0.0366692 8.04504 0 0 0 255 255 255 255
3.75398 -0.0799479 8.42443 0 0 0 255 255 255 255
3.73098 -0.180096 8.19704 0 0 0 255 255 255 255
3.54687 -0.389283 7.97557 0 0 0 255 255 255 255
3.81691 -0.1818 8.87438 0 0 0 255 255 255 255
3.98661 -0.272975 8.81876 0 0 0 255 255 255 255
4.21826 -0.583594 8.67167 0 0 0 255 255 255 255
4.20144 -0.588699 8.66705 0 0 0 255 255 255 255
4.16576 -0.658899 8.73188 0 0 0 255 255 255 255
4.1508 -0.493859 8.58536 0 0 0 255 255 255 255
4.29021 -0.588969 8.67596 0 0 0 255 255 255 255
4.11701 -0.473798 8.58115 0 0 0 255 255 255 255
4.23758 -0.502772 8.61116 0 0 0 255 255 255 255
4.07839 -0.390715 8.31989 0 0 0 255 255 255 255
4.11643 -0.433321 8.44117 0 0 0 255 255 255 255
4.10259 -0.313371 8.62786 0 0 0 255 255 255 255
4.30106 -0.348395 8.80035 0 0 0 255 255 255 255
4.22043 -0.296863 8.5837 0 0 0 255 255 255 255
4.10505 -0.319658 8.62645 0 0 0 255 255 255 255
4.28872 -0.278101 8.79299 0 0 0 255 255 255 255
4.22098 -0.191947 8.80621 0 0 0 255 255 255 255
4.29548 -0.320073 8.83323 0 0 0 255 255 255 255
4.35365 -0.121576 9.10642 0 0 0 255 255 255 255
4.44503 -0.318098 9.28419 0 0 0 255 255 255 255
4.35852 -0.0817921 9.10483 0 0 0 255 255 255 255
5.01265 0.0123331 8.54133 0 0 0 255 255 255 255
4.87262 0.0670417 8.26445 0 0 0 255 255 255 255
4.86576 0.0641527 8.28373 0 0 0 255 255 255 255
4.65078 -0.204355 9.57883 0 0 0 255 255 255 255
4.66516 -0.0882589 9.291 0 0 0 255 255 255 255
3.67881 1.41688 3.50221 0 0 0 255 255 255 255
3.70623 1.66694 3.63375 0 0 0 255 255 255 255
3.50622 1.70042 4.01429 0 0 0 255 255 255 255
3.53038 1.70868 3.93723 0 0 0 255 255 255 255
3.51082 1.71232 4.0285 0 0 0 255 255 255 255
3.84087 1.45256 3.73463 0 0 0 255 255 255 255
3.82092 1.42195 3.68059 0 0 0 255 255 255 255
3.72415 1.39 3.75013 0 0 0 255 255 255 255
3.76245 1.42135 3.70125 0 0 0 255 255 255 255
3.80272 1.42233 3.75492 0 0 0 255 255 255 255
3.81755 1.41999 3.75119 0 0 0 255 255 255 255
3.73975 1.44577 3.73214 0 0 0 255 255 255 255
3.73964 1.45068 3.78177 0 0 0 255 255 255 255
3.74839 1.39996 3.85108 0 0 0 255 255 255 255
3.72273 1.70077 3.71985 0 0 0 255 255 255 255
3.76034 1.72192 3.71911 0 0 0 255 255 255 255
3.72124 1.70702 3.65773 0 0 0 255 255 255 255
3.74242 1.73328 3.72134 0 0 0 255 255 255 255
3.78486 1.59306 3.69148 0 0 0 255 255 255 255
3.77173 1.60444 3.71309 0 0 0 255 255 255 255
3.78514 1.59222 3.69264 0 0 0 255 255 255 255
3.72977 1.52589 3.65696 0 0 0 255 255 255 255
3.80427 1.70413 3.79495 0 0 0 255 255 255 255
3.59538 1.54648 4.1875 0 0 0 255 255 255 255
3.61532 1.82815 3.72313 0 0 0 255 255 255 255
3.668 1.83176 3.83272 0 0 0 255 255 255 255
3.47569 1.97485 3.8091 0 0 0 255 255 255 255
3.4653 1.98735 3.78658 0 0 0 255 255 255 255
3.66972 1.83905 3.82467 0 0 0 255 255 255 255
3.45917 1.98491 3.83613 0 0 0 255 255 255 255
3.46696 1.94349 3.83988 0 0 0 255 255 255 255
3.47534 1.95156 3.81861 0 0 0 255 255 255 255
3.66075 1.83068 3.99151 0 0 0 255 255 255 255
3.57778 1.82021 3.84607 0 0 0 255 255 255 255
3.46022 2.00072 3.94308 0 0 0 255 255 255 255
3.63025 1.82125 3.80645 0 0 0 255 255 255 255
3.46121 1.98233 3.77167 0 0 0 255 255 255 255
3.7032 2.13359 3.96217 0 0 0 255 255 255 255
3.7101 2.13686 3.9512 0 0 0 255 255 255 255
3.69598 2.12384 4.01042 0 0 0 255 255 255 255
3.59823 2.22414 3.91163 0 0 0 255 255 255 255
3.62903 2.2298 3.91944 0 0 0 255 255 255 255
3.82472 1.80509 3.53197 0 0 0 255 255 255 255
3.83034 1.82471 3.54038 0 0 0 255 255 255 255
3.82108 1.75715 3.79161 0 0 0 255 255 255 255
3.46419 2.01931 4.08539 0 0 0 255 255 255 255
3.55703 2.3172 4.21961 0 0 0 255 255 255 255
4.66239 1.92476 4.31827 0 0 0 255 255 255 255
5.08012 2.06837 4.84972 0 0 0 255 255 255 255
0.778495 0.670992 3.13929 0 0 0 255 255 255 255
0.778176 0.675301 2.83676 0 0 0 255 255 255 255
0.928565 0.690082 3.42459 0 0 0 255 255 255 255
-0.523971 0.904279 3.74603 0 0 0 255 255 255 255
-0.563198 1.08921 4.01969 0 0 0 255 255 255 255
-0.43724 0.968741 4.01712 0 0 0 255 255 255 255
-0.461157 0.998127 4.04155 0 0 0 255 255 255 255
-0.418929 1.0807 4.15552 0 0 0 255 255 255 255
0.134349 0.594389 3.8359 0 0 0 255 255 255 255
-0.206954 0.586009 3.93778 0 0 0 255 255 255 255
-0.246628 0.590949 3.88993 0 0 0 255 255 255 255
-0.278856 0.595759 3.84226 0 0 0 255 255 255 255
-0.380061 0.766228 3.79663 0 0 0 255 255 255 255
-0.366903 0.71452 3.7977 0 0 0 255 255 255 255
-0.36777 0.719638 3.79535 0 0 0 255 255 255 255
-0.381538 0.800529 3.80346 0 0 0 255 255 255 255
-0.379675 0.824888 3.80764 0 0 0 255 255 255 255
-0.386471 0.82711 3.80485 0 0 0 255 255 255 255
-0.328434 0.78036 3.88305 0 0 0 255 255 255 255
-0.379842 0.823042 3.80439 0 0 0 255 255 255 255
0.0276663 0.78899 3.90185 0 0 0 255 255 255 255
-0.303649 0.883397 4.11536 0 0 0 255 255 255 255
-0.283533 0.914516 4.07658 0 0 0 255 255 255 255
-0.0616812 0.852737 4.15092 0 0 0 255 255 255 255
-0.0555072 0.845315 4.15065 0 0 0 255 255 255 255
0.0360137 0.707002 4.13771 0 0 0 255 255 255 255
0.0562858 1.03795 4.24143 0 0 0 255 255 255 255
-0.028304 1.05603 4.35076 0 0 0 255 255 255 255
0.0481809 0.939219 4.51524 0 0 0 255 255 255 255
0.129978 1.06453 4.50074 0 0 0 255 255 255 255
-0.020637 0.708928 5.35642 0 0 0 255 255 255 255
-0.162078 1.15264 4.76169 0 0 0 255 255 255 255
-0.00923271 1.08306 4.65245 0 0 0 255 255 255 255
0.146918 0.937672 4.68565 0 0 0 255 255 255 255
0.427325 0.212329 4.47961 0 0 0 255 255 255 255
0.340051 0.23315 4.57745 0 0 0 255 255 255 255
0.195339 0.418629 4.46729 0 0 0 255 255 255 255
0.556998 0.155511 4.27308 0 0 0 255 255 255 255
0.493015 0.241647 4.33604 0 0 0 255 255 255 255
0.472373 0.222099 4.4272 0 0 0 255 255 255 255
0.458094 0.225838 4.43718 0 0 0 255 255 255 255
0.519425 0.104882 4.42069 0 0 0 255 255 255 255
0.483058 0.579316 4.29892 0 0 0 255 255 255 255
0.53376 0.446578 4.15815 0 0 0 255 255 255 255
0.466825 0.551617 4.30167 0 0 0 255 255 255 255
0.482944 0.576916 4.30642 0 0 0 255 255 255 255
0.48639 0.568565 4.31529 0 0 0 255 255 255 255
0.47709 0.537581 4.37437 0 0 0 255 255 255 255
0.465421 0.5827 4.35657 0 0 0 255 255 255 255
0.48391 0.588325 4.36265 0 0 0 255 255 255 255
0.514633 0.600887 4.35718 0 0 0 255 255 255 255
0.512987 0.601174 4.35786 0 0 0 255 255 255 255
0.194804 1.03735 4.51619 0 0 0 255 255 255 255
0.165587 1.03911 4.50361 0 0 0 255 255 255 255
0.196381 1.10942 4.55285 0 0 0 255 255 255 255
0.302576 1.18194 4.58505 0 0 0 255 255 255 255
0.583351 0.802571 4.50455 0 0 0 255 255 255 255
0.517423 1.06277 4.34471 0 0 0 255 255 255 255
0.519275 0.972935 4.41293 0 0 0 255 255 255 255
0.54037 0.997993 4.52959 0 0 0 255 255 255 255
0.524428 1.04748 4.40415 0 0 0 255 255 255 255
0.493536 1.07587 4.35554 0 0 0 255 255 255 255
0.959992 0.317434 4.1983 0 0 0 255 255 255 255
0.942266 0.375831 4.26666 0 0 0 255 255 255 255
0.973837 0.370851 4.14672 0 0 0 255 255 255 255
0.934331 0.381357 4.27192 0 0 0 255 255 255 255
1.09879 0.337782 4.2477 0 0 0 255 255 255 255
1.2101 0.327474 4.30532 0 0 0 255 255 255 255
1.17235 0.328382 4.37026 0 0 0 255 255 255 255
1.22086 0.359403 4.38632 0 0 0 255 255 255 255
1.19177 0.329838 4.39628 0 0 0 255 255 255 255
1.19481 0.352943 4.34085 0 0 0 255 255 255 255
1.06305 0.404239 4.19604 0 0 0 255 255 255 255
1.08908 0.475642 4.29821 0 0 0 255 255 255 255
1.09745 0.606693 4.30556 0 0 0 255 255 255 255
1.10312 0.599178 4.30786 0 0 0 255 255 255 255
1.2003 0.373543 4.16054 0 0 0 255 255 255 255
1.129 0.390486 4.20517 0 0 0 255 255 255 255
1.14352 0.381822 4.27895 0 0 0 255 255 255 255
1.12381 0.372315 4.19851 0 0 0 255 255 255 255
1.12463 0.379319 4.20579 0 0 0 255 255 255 255
1.12298 0.594852 4.21392 0 0 0 255 255 255 255
0.709355 0.805621 4.3851 0 0 0 255 255 255 255
0.708561 0.815405 4.38184 0 0 0 255 255 255 255
0.716104 0.826156 4.35266 0 0 0 255 255 255 255
0.71712 0.817472 4.38497 0 0 0 255 255 255 255
0.708921 0.82 4.39425 0 0 0 255 255 255 255
0.936209 1.16534 4.2534 0 0 0 255 255 255 255
0.932089 1.18472 4.26005 0 0 0 255 255 255 255
0.796851 1.00721 4.42735 0 0 0 255 255 255 255
0.790553 1.02719 4.426 0 0 0 255 255 255 255
0.813175 1.0179 4.42933 0 0 0 255 255 255 255
0.83309 1.09483 4.39917 0 0 0 255 255 255 255
0.835218 1.10769 4.43371 0 0 0 255 255 255 255
0.787814 1.10356 4.57183 0 0 0 255 255 255 255
0.792491 1.1506 4.57079 0 0 0 255 255 255 255
0.911962 1.02128 4.34999 0 0 0 255 255 255 255
0.905584 0.981495 4.37853 0 0 0 255 255 255 255
0.874137 1.02156 4.54438 0 0 0 255 255 255 255
0.850373 1.15641 4.41843 0 0 0 255 255 255 255
1.08897 0.688665 4.25177 0 0 0 255 255 255 255
1.19904 1.17949 4.34531 0 0 0 255 255 255 255
0.327482 0.181865 4.82467 0 0 0 255 255 255 255
0.634223 0.783158 5.04921 0 0 0 255 255 255 255
0.330875 0.179452 4.83222 0 0 0 255 255 255 255
0.404387 1.13039 4.61098 0 0 0 255 255 255 255
1.09359 1.15532 4.64697 0 0 0 255 255 255 255
0.335168 0.199756 4.81821 0 0 0 255 255 255 255
0.286189 0.224597 4.67728 0 0 0 255 255 255 255
1.02696 1.14135 4.60459 0 0 0 255 255 255 255
0.788952 0.844564 4.68178 0 0 0 255 255 255 255
0.196986 0.827922 4.88357 0 0 0 255 255 255 255
0.33123 0.182567 4.82166 0 0 0 255 255 255 255
0.376901 0.240893 4.78816 0 0 0 255 255 255 255
0.345328 0.235494 4.81331 0 0 0 255 255 255 255
0.939679 0.6833 5.00403 0 0 0 255 255 255 255
2.33619 0.0718282 5.33627 0 0 0 255 255 255 255
2.14277 0.0475235 5.19113 0 0 0 255 255 255 255
1.61689 0.469375 3.70704 0 0 0 255 255 255 255
1.28976 0.411479 4.03988 0 0 0 255 255 255 255
1.39261 0.344232 4.11868 0 0 0 255 255 255 255
1.49515 0.347822 4.30957 0 0 0 255 255 255 255
1.43971 0.348549 4.30421 0 0 0 255 255 255 255
1.2586 0.330698 4.2619 0 0 0 255 255 255 255
1.30161 0.34773 4.32939 0 0 0 255 255 255 255
1.28777 0.607795 4.31565 0 0 0 255 255 255 255
1.39256 0.370579 4.266 0 0 0 255 255 255 255
1.4675 0.609481 4.23976 0 0 0 255 255 255 255
1.43072 0.635736 4.25451 0 0 0 255 255 255 255
1.35019 0.436697 4.32306 0 0 0 255 255 255 255
1.3422 0.608297 4.47821 0 0 0 255 255 255 255
1.36795 0.599277 4.48358 0 0 0 255 255 255 255
1.34686 0.621129 4.4917 0 0 0 255 255 255 255
1.30831 0.61341 4.53223 0 0 0 255 255 255 255
1.4983 0.425828 4.34783 0 0 0 255 255 255 255
1.46787 0.43217 4.3628 0 0 0 255 255 255 255
1.51012 0.559798 4.36957 0 0 0 255 255 255 255
1.51095 0.539697 4.42408 0 0 0 255 255 255 255
1.48982 0.54573 4.39579 0 0 0 255 255 255 255
1.55068 0.334145 4.30721 0 0 0 255 255 255 255
1.55239 0.339868 4.30744 0 0 0 255 255 255 255
1.56574 0.349085 4.18186 0 0 0 255 255 255 255
1.71219 0.362261 4.37017 0 0 0 255 255 255 255
1.72147 0.119555 4.56459 0 0 0 255 255 255 255
1.63245 0.443943 4.22279 0 0 0 255 255 255 255
1.64724 0.421222 4.32938 0 0 0 255 255 255 255
1.56202 0.427845 4.34527 0 0 0 255 255 255 255
1.54881 0.420061 4.34196 0 0 0 255 255 255 255
1.53709 0.562154 4.33977 0 0 0 255 255 255 255
1.52681 0.572126 4.38199 0 0 0 255 255 255 255
1.54911 0.561804 4.37398 0 0 0 255 255 255 255
1.70526 0.433249 4.38066 0 0 0 255 255 255 255
1.38095 0.89415 4.04101 0 0 0 255 255 255 255
1.35795 1.10553 3.68605 0 0 0 255 255 255 255
1.35557 1.12006 3.69462 0 0 0 255 255 255 255
1.34699 1.11171 3.6892 0 0 0 255 255 255 255
1.35744 0.938492 4.02964 0 0 0 255 255 255 255
1.57961 1.12616 3.69774 0 0 0 255 255 255 255
1.52848 1.18865 3.68294 0 0 0 255 255 255 255
1.57568 1.13661 3.65237 0 0 0 255 255 255 255
1.58477 1.13556 3.66674 0 0 0 255 255 255 255
1.59255 1.15696 3.6594 0 0 0 255 255 255 255
1.58749 1.14828 3.72819 0 0 0 255 255 255 255
1.60125 1.15669 3.6369 0 0 0 255 255 255 255
1.59685 1.13814 3.64944 0 0 0 255 255 255 255
1.60343 1.15522 3.66106 0 0 0 255 255 255 255
1.77885 1.01625 3.86427 0 0 0 255 255 255 255
1.73507 0.977273 4.03761 0 0 0 255 255 255 255
1.76078 0.973547 3.94975 0 0 0 255 255 255 255
1.76909 0.958653 4.02015 0 0 0 255 255 255 255
1.76185 0.961106 3.94558 0 0 0 255 255 255 255
1.26528 1.17618 4.4148 0 0 0 255 255 255 255
1.27731 1.14739 4.38657 0 0 0 255 255 255 255
1.25061 1.16632 4.39382 0 0 0 255 255 255 255
1.75963 0.958015 4.05889 0 0 0 255 255 255 255
2.07205 0.157956 4.55516 0 0 0 255 255 255 255
1.9006 0.123399 4.56352 0 0 0 255 255 255 255
2.08404 0.174828 4.57895 0 0 0 255 255 255 255
2.08021 0.184667 4.58056 0 0 0 255 255 255 255
2.02251 0.225187 4.43283 0 0 0 255 255 255 255
2.08696 0.194937 4.57235 0 0 0 255 255 255 255
1.91805 0.14099 4.48441 0 0 0 255 255 255 255
1.93278 0.116075 4.56161 0 0 0 255 255 255 255
2.02902 0.227452 4.42716 0 0 0 255 255 255 255
1.93859 0.148381 4.48768 0 0 0 255 255 255 255
2.05396 0.190339 4.43638 0 0 0 255 255 255 255
1.90591 0.80361 4.53119 0 0 0 255 255 255 255
1.9405 0.850454 4.53009 0 0 0 255 255 255 255
1.94526 0.820005 4.51017 0 0 0 255 255 255 255
1.86636 0.962278 4.12736 0 0 0 255 255 255 255
1.82292 0.983357 4.06699 0 0 0 255 255 255 255
1.83078 0.957511 4.08205 0 0 0 255 255 255 255
1.82256 0.971524 4.11654 0 0 0 255 255 255 255
1.82812 0.974027 4.17898 0 0 0 255 255 255 255
1.93144 0.998651 4.52975 0 0 0 255 255 255 255
1.96747 1.01213 4.52789 0 0 0 255 255 255 255
2.08606 1.13551 4.09849 0 0 0 255 255 255 255
2.13384 1.14977 4.26693 0 0 0 255 255 255 255
1.7356 0.121723 4.59603 0 0 0 255 255 255 255
1.78945 0.1084 4.69666 0 0 0 255 255 255 255
1.73017 0.0945943 4.65441 0 0 0 255 255 255 255
1.7757 0.119633 4.63989 0 0 0 255 255 255 255
1.48467 0.751728 4.6243 0 0 0 255 255 255 255
1.26536 0.735855 5.22271 0 0 0 255 255 255 255
2.00921 0.153304 4.74778 0 0 0 255 255 255 255
2.10574 0.193532 4.60134 0 0 0 255 255 255 255
1.93789 0.148599 4.60513 0 0 0 255 255 255 255
1.79903 0.10971 4.68728 0 0 0 255 255 255 255
1.94269 0.988912 4.7303 0 0 0 255 255 255 255
1.9216 1.12845 4.66525 0 0 0 255 255 255 255
1.98663 1.06122 4.67048 0 0 0 255 255 255 255
1.90424 0.886556 4.61311 0 0 0 255 255 255 255
1.91321 0.852679 4.62381 0 0 0 255 255 255 255
1.97138 1.03931 4.72959 0 0 0 255 255 255 255
1.91714 0.839859 4.65201 0 0 0 255 255 255 255
1.94112 0.90769 4.63868 0 0 0 255 255 255 255
1.89878 1.08613 4.72344 0 0 0 255 255 255 255
1.92206 0.949949 4.64193 0 0 0 255 255 255 255
1.91768 0.988641 4.80743 0 0 0 255 255 255 255
2.00091 1.03509 4.59746 0 0 0 255 255 255 255
2.41319 0.063589 5.46895 0 0 0 255 255 255 255
2.39766 0.0586593 5.46175 0 0 0 255 255 255 255
2.44856 0.0404143 5.59662 0 0 0 255 255 255 255
2.45883 0.738675 4.12035 0 0 0 255 255 255 255
2.59728 0.710996 4.30477 0 0 0 255 255 255 255
2.43484 0.65443 4.32703 0 0 0 255 255 255 255
2.42196 0.8368 4.346 0 0 0 255 255 255 255
2.65838 0.845686 4.28705 0 0 0 255 255 255 255
2.68562 1.15469 4.24971 0 0 0 255 255 255 255
2.69877 1.13926 4.27686 0 0 0 255 255 255 255
3.18949 0.46836 3.92395 0 0 0 255 255 255 255
3.18328 0.630528 4.0102 0 0 0 255 255 255 255
3.20557 0.42188 3.96106 0 0 0 255 255 255 255
3.42987 0.284507 4.32933 0 0 0 255 255 255 255
3.27002 0.333369 4.20241 0 0 0 255 255 255 255
3.20127 0.447684 4.09411 0 0 0 255 255 255 255
3.43842 0.297196 4.38932 0 0 0 255 255 255 255
3.33064 0.353674 4.38584 0 0 0 255 255 255 255
3.28119 0.361366 4.3701 0 0 0 255 255 255 255
3.40751 0.277765 4.39612 0 0 0 255 255 255 255
3.17089 0.710785 3.98847 0 0 0 255 255 255 255
3.18019 0.682345 4.00451 0 0 0 255 255 255 255
3.16691 0.93566 4.1048 0 0 0 255 255 255 255
3.29883 0.756448 4.1455 0 0 0 255 255 255 255
3.2789 0.794364 4.05162 0 0 0 255 255 255 255
3.35891 0.880646 4.04608 0 0 0 255 255 255 255
2.9923 0.779863 4.94146 0 0 0 255 255 255 255
2.41783 0.0957642 5.30065 0 0 0 255 255 255 255
2.99676 0.79372 4.99558 0 0 0 255 255 255 255
-0.0846743 0.674466 5.7252 0 0 0 255 255 255 255
3.30184 -0.300807 7.89419 0 0 0 255 255 255 255
3.14997 -0.117115 7.90269 0 0 0 255 255 255 255
3.30161 -0.350086 8.08161 0 0 0 255 255 255 255
3.0132 -0.179108 8.06245 0 0 0 255 255 255 255
3.34286 -0.35445 8.10862 0 0 0 255 255 255 255
2.50918 -0.00424346 5.90986 0 0 0 255 255 255 255
2.8216 0.0713309 5.77819 0 0 0 255 255 255 255
2.24064 -0.0615073 6.23231 0 0 0 255 255 255 255
2.23247 -0.0593063 6.20555 0 0 0 255 255 255 255
3.29014 -0.325251 7.94588 0 0 0 255 255 255 255
3.23594 -0.176582 8.02192 0 0 0 255 255 255 255
3.00169 0.015693 6.60047 0 0 0 255 255 255 255
2.47845 -0.0529889 6.55617 0 0 0 255 255 255 255
2.49643 -0.0685844 6.54312 0 0 0 255 255 255 255
3.37185 -0.404724 8.23955 0 0 0 255 255 255 255
2.86436 -0.180542 7.51004 0 0 0 255 255 255 255
3.31436 -0.311455 8.11445 0 0 0 255 255 255 255
0.270713 1.60117 3.23084 0 0 0 255 255 255 255
0.239389 1.54866 3.41992 0 0 0 255 255 255 255
0.271413 1.64618 3.2897 0 0 0 255 255 255 255
0.42418 1.49128 3.32281 0 0 0 255 255 255 255
0.401581 1.52691 3.40697 0 0 0 255 255 255 255
0.37498 1.50813 3.41963 0 0 0 255 255 255 255
0.385276 1.50512 3.41168 0 0 0 255 255 255 255
0.298939 1.62155 3.30533 0 0 0 255 255 255 255
0.417417 1.65314 3.35059 0 0 0 255 255 255 255
0.303183 1.67811 3.31899 0 0 0 255 255 255 255
0.298034 1.64897 3.32918 0 0 0 255 255 255 255
0.301072 1.60822 3.30064 0 0 0 255 255 255 255
0.449876 1.58859 3.08651 0 0 0 255 255 255 255
0.506753 1.73073 3.06258 0 0 0 255 255 255 255
0.487224 1.66778 3.05725 0 0 0 255 255 255 255
0.506293 1.72847 3.06542 0 0 0 255 255 255 255
0.466329 1.59908 3.31188 0 0 0 255 255 255 255
0.461406 1.60154 3.31022 0 0 0 255 255 255 255
0.451501 1.61093 3.30881 0 0 0 255 255 255 255
0.499599 1.9287 2.87639 0 0 0 255 255 255 255
0.510214 2.18994 2.65834 0 0 0 255 255 255 255
0.372033 2.1468 2.85971 0 0 0 255 255 255 255
0.316573 2.2533 2.89808 0 0 0 255 255 255 255
0.317412 2.27387 2.89332 0 0 0 255 255 255 255
0.356688 1.93513 3.14401 0 0 0 255 255 255 255
0.377962 1.92508 3.12266 0 0 0 255 255 255 255
0.481718 1.80124 3.21447 0 0 0 255 255 255 255
0.500907 1.76135 3.05885 0 0 0 255 255 255 255
0.476835 1.74405 2.9559 0 0 0 255 255 255 255
0.478329 1.80771 3.22754 0 0 0 255 255 255 255
0.443352 1.93382 3.35339 0 0 0 255 255 255 255
0.464642 1.90195 3.37946 0 0 0 255 255 255 255
0.601461 2.13444 3.18751 0 0 0 255 255 255 255
0.656918 2.17651 3.06675 0 0 0 255 255 255 255
0.720416 2.2651 3.18329 0 0 0 255 255 255 255
0.950518 2.26778 3.06979 0 0 0 255 255 255 255
0.973903 2.27002 3.15259 0 0 0 255 255 255 255
0.730296 2.25376 3.18985 0 0 0 255 255 255 255
0.903787 2.1975 3.32168 0 0 0 255 255 255 255
0.902568 2.21517 3.31844 0 0 0 255 255 255 255
0.904653 2.25336 3.30182 0 0 0 255 255 255 255
1.20185 1.82034 3.49218 0 0 0 255 255 255 255
1.13973 2.26586 3.26289 0 0 0 255 255 255 255
1.12163 2.21249 3.25817 0 0 0 255 255 255 255
1.1386 2.27014 3.25265 0 0 0 255 255 255 255
1.19451 2.18655 3.48149 0 0 0 255 255 255 255
0.824041 2.43194 2.35574 0 0 0 255 255 255 255
0.416519 2.36525 2.50006 0 0 0 255 255 255 255
0.258411 2.30563 2.69825 0 0 0 255 255 255 255
0.269692 2.33023 2.91825 0 0 0 255 255 255 255
0.562915 2.41533 2.41689 0 0 0 255 255 255 255
0.397237 2.48143 3.2093 0 0 0 255 255 255 255
0.684993 2.53075 3.47439 0 0 0 255 255 255 255
0.806288 2.46014 2.42359 0 0 0 255 255 255 255
0.929254 2.60511 2.82422 0 0 0 255 255 255 255
1.17715 2.3399 2.61122 0 0 0 255 255 255 255
0.820055 2.45289 3.15825 0 0 0 255 255 255 255
0.958206 2.39055 3.00315 0 0 0 255 255 255 255
0.941408 2.29341 3.12327 0 0 0 255 255 255 255
1.09249 2.46862 3.03801 0 0 0 255 255 255 255
1.1028 2.54778 3.10882 0 0 0 255 255 255 255
1.19235 2.28909 3.33456 0 0 0 255 255 255 255
1.17556 2.53475 3.43204 0 0 0 255 255 255 255
1.11797 2.85877 2.68981 0 0 0 255 255 255 255
-0.402611 1.46539 4.49425 0 0 0 255 255 255 255
0.026702 1.52663 3.76865 0 0 0 255 255 255 255
0.0414021 1.41523 4.24732 0 0 0 255 255 255 255
0.0827217 1.21285 4.55128 0 0 0 255 255 255 255
0.064076 1.4812 4.17944 0 0 0 255 255 255 255
0.0968076 1.47393 4.59192 0 0 0 255 255 255 255
-0.024529 1.75649 4.02825 0 0 0 255 255 255 255
-0.105028 1.9468 4.23518 0 0 0 255 255 255 255
-0.340019 1.19761 4.93584 0 0 0 255 255 255 255
-0.871662 1.55933 4.66813 0 0 0 255 255 255 255
-0.914866 1.56864 4.75083 0 0 0 255 255 255 255
0.493017 1.54703 4.01196 0 0 0 255 255 255 255
0.522837 1.60741 4.02244 0 0 0 255 255 255 255
0.649935 1.5594 4.00582 0 0 0 255 255 255 255
0.573834 1.56636 3.96182 0 0 0 255 255 255 255
0.420979 1.61415 4.28367 0 0 0 255 255 255 255
0.344316 1.62592 4.28492 0 0 0 255 255 255 255
0.388347 1.51203 4.12641 0 0 0 255 255 255 255
0.305097 1.55143 4.30254 0 0 0 255 255 255 255
0.372851 1.62694 4.34203 0 0 0 255 255 255 255
0.374421 1.62689 4.34276 0 0 0 255 255 255 255
0.502717 1.56468 4.07942 0 0 0 255 255 255 255
0.454403 1.60882 4.24037 0 0 0 255 255 255 255
0.512761 1.58769 4.06928 0 0 0 255 255 255 255
1.2273 1.49094 3.76761 0 0 0 255 255 255 255
1.15439 1.72199 3.84391 0 0 0 255 255 255 255
1.15297 1.73534 3.83707 0 0 0 255 255 255 255
1.17251 1.72602 3.81435 0 0 0 255 255 255 255
0.9051 1.20686 4.38152 0 0 0 255 255 255 255
0.958903 1.43666 4.48387 0 0 0 255 255 255 255
0.917234 1.20936 4.39209 0 0 0 255 255 255 255
0.903804 1.19914 4.40549 0 0 0 255 255 255 255
0.902672 1.22018 4.44366 0 0 0 255 255 255 255
0.957315 1.45391 4.42674 0 0 0 255 255 255 255
0.957922 1.211 4.3869 0 0 0 255 255 255 255
0.783482 1.57938 4.48665 0 0 0 255 255 255 255
1.12893 1.28972 4.28713 0 0 0 255 255 255 255
1.00772 1.41751 4.44858 0 0 0 255 255 255 255
1.02105 1.42351 4.41822 0 0 0 255 255 255 255
0.99198 1.45971 4.4509 0 0 0 255 255 255 255
1.00372 1.46388 4.37338 0 0 0 255 255 255 255
0.984647 1.45249 4.35585 0 0 0 255 255 255 255
1.02772 1.42259 4.42207 0 0 0 255 255 255 255
0.987758 1.42553 4.46288 0 0 0 255 255 255 255
0.785996 1.77788 3.54191 0 0 0 255 255 255 255
0.774969 1.78847 3.91921 0 0 0 255 255 255 255
1.07698 2.19503 3.63978 0 0 0 255 255 255 255
1.07463 1.81087 4.07259 0 0 0 255 255 255 255
1.00888 1.83377 4.24677 0 0 0 255 255 255 255
1.17405 1.80647 4.4953 0 0 0 255 255 255 255
1.20345 1.57796 4.61869 0 0 0 255 255 255 255
0.357845 1.86247 4.67674 0 0 0 255 255 255 255
0.202779 1.89875 4.78585 0 0 0 255 255 255 255
0.240212 1.89507 4.81737 0 0 0 255 255 255 255
0.349612 1.88025 4.67616 0 0 0 255 255 255 255
0.720197 2.63393 3.71538 0 0 0 255 255 255 255
1.23413 2.44037 3.64855 0 0 0 255 255 255 255
1.17 2.43258 3.58496 0 0 0 255 255 255 255
0.711941 2.58804 3.53147 0 0 0 255 255 255 255
0.682179 2.67369 3.81987 0 0 0 255 255 255 255
1.86916 2.17481 3.38738 0 0 0 255 255 255 255
2.04946 2.19401 3.33358 0 0 0 255 255 255 255
1.90793 2.10672 3.3829 0 0 0 255 255 255 255
1.27643 2.55923 2.31039 0 0 0 255 255 255 255
1.32281 2.66311 1.92972 0 0 0 255 255 255 255
1.3083 2.58108 2.04184 0 0 0 255 255 255 255
1.36383 2.56813 2.38117 0 0 0 255 255 255 255
1.72846 2.45754 2.37312 0 0 0 255 255 255 255
1.60567 2.62981 2.14854 0 0 0 255 255 255 255
1.5615 2.72629 2.32703 0 0 0 255 255 255 255
1.98362 2.74294 2.39959 0 0 0 255 255 255 255
1.30394 2.38226 2.48971 0 0 0 255 255 255 255
1.50498 2.54528 2.91537 0 0 0 255 255 255 255
1.30221 2.71013 2.6446 0 0 0 255 255 255 255
1.76323 2.55725 2.86884 0 0 0 255 255 255 255
1.65308 2.6756 2.60988 0 0 0 255 255 255 255
1.73868 2.67482 2.93809 0 0 0 255 255 255 255
1.68543 2.80972 2.7623 0 0 0 255 255 255 255
1.27558 2.35233 3.21482 0 0 0 255 255 255 255
1.39825 2.41964 3.48892 0 0 0 255 255 255 255
1.53467 2.55178 2.95106 0 0 0 255 255 255 255
1.7405 2.38834 3.36282 0 0 0 255 255 255 255
1.6965 2.49112 3.27563 0 0 0 255 255 255 255
1.52623 2.79714 3.16686 0 0 0 255 255 255 255
1.93165 2.61706 2.56402 0 0 0 255 255 255 255
1.92893 2.77521 2.46521 0 0 0 255 255 255 255
1.84696 2.81978 2.79587 0 0 0 255 255 255 255
1.82324 2.76318 3.36159 0 0 0 255 255 255 255
1.96626 2.85423 3.02219 0 0 0 255 255 255 255
2.54086 2.50366 3.26417 0 0 0 255 255 255 255
2.55158 2.43931 3.27343 0 0 0 255 255 255 255
2.58873 2.4348 3.28691 0 0 0 255 255 255 255
3.13966 2.35315 3.22613 0 0 0 255 255 255 255
2.96554 2.47847 3.26314 0 0 0 255 255 255 255
3.14814 2.34348 3.25982 0 0 0 255 255 255 255
1.52 1.21275 3.6737 0 0 0 255 255 255 255
1.32776 1.68432 3.97485 0 0 0 255 255 255 255
1.2976 1.68227 3.92095 0 0 0 255 255 255 255
1.40543 1.6354 3.835 0 0 0 255 255 255 255
1.63603 1.22071 3.72544 0 0 0 255 255 255 255
1.61933 1.22055 3.77879 0 0 0 255 255 255 255
1.39752 1.35494 4.44151 0 0 0 255 255 255 255
1.38596 1.34452 4.43766 0 0 0 255 255 255 255
1.4281 2.24043 3.65468 0 0 0 255 255 255 255
1.42487 2.12464 3.67752 0 0 0 255 255 255 255
1.43562 2.26982 4.01378 0 0 0 255 255 255 255
1.60051 2.08797 3.59969 0 0 0 255 255 255 255
1.37968 2.13716 4.57933 0 0 0 255 255 255 255
1.79834 1.8992 4.10107 0 0 0 255 255 255 255
1.46837 2.23205 4.1712 0 0 0 255 255 255 255
1.75413 1.87381 4.25761 0 0 0 255 255 255 255
1.98322 1.44763 4.27242 0 0 0 255 255 255 255
1.93404 1.28539 4.49904 0 0 0 255 255 255 255
2.03192 1.66595 4.25827 0 0 0 255 255 255 255
1.89187 1.57372 4.32538 0 0 0 255 255 255 255
2.13437 1.30496 4.57488 0 0 0 255 255 255 255
2.14538 1.28693 4.37088 0 0 0 255 255 255 255
2.19756 1.31029 4.56392 0 0 0 255 255 255 255
2.11923 1.24545 4.31966 0 0 0 255 255 255 255
1.8276 2.08594 3.64833 0 0 0 255 255 255 255
1.80447 2.09057 3.59873 0 0 0 255 255 255 255
1.90818 2.08118 3.76092 0 0 0 255 255 255 255
1.82806 2.18776 3.95954 0 0 0 255 255 255 255
1.85475 2.26692 3.95725 0 0 0 255 255 255 255
1.83507 2.19143 3.97441 0 0 0 255 255 255 255
2.01809 2.19781 3.82458 0 0 0 255 255 255 255
2.26664 1.96004 3.90642 0 0 0 255 255 255 255
2.22999 2.253 3.72157 0 0 0 255 255 255 255
2.17571 2.26352 3.82005 0 0 0 255 255 255 255
2.27261 2.28399 3.9126 0 0 0 255 255 255 255
1.80447 1.875 4.18214 0 0 0 255 255 255 255
1.89079 1.8546 4.13106 0 0 0 255 255 255 255
1.83322 1.92397 4.14792 0 0 0 255 255 255 255
1.80411 1.84677 4.30431 0 0 0 255 255 255 255
1.84296 1.90086 4.17842 0 0 0 255 255 255 255
1.88344 1.75926 4.47524 0 0 0 255 255 255 255
1.98316 1.91521 4.37676 0 0 0 255 255 255 255
1.87771 1.75796 4.44399 0 0 0 255 255 255 255
1.85236 1.74605 4.49041 0 0 0 255 255 255 255
1.89881 2.21033 4.38646 0 0 0 255 255 255 255
2.30141 2.08779 4.12444 0 0 0 255 255 255 255
2.24854 2.21474 4.27043 0 0 0 255 255 255 255
2.17206 2.1181 4.46953 0 0 0 255 255 255 255
1.30367 1.56274 4.67799 0 0 0 255 255 255 255
1.87529 1.31985 4.70771 0 0 0 255 255 255 255
1.91124 1.34307 4.78098 0 0 0 255 255 255 255
1.86902 1.73168 4.81733 0 0 0 255 255 255 255
1.9033 1.39129 4.7015 0 0 0 255 255 255 255
1.87353 1.68523 4.83337 0 0 0 255 255 255 255
1.87752 1.31963 4.72819 0 0 0 255 255 255 255
1.96166 1.66066 4.76978 0 0 0 255 255 255 255
2.24937 1.79478 4.69319 0 0 0 255 255 255 255
