ply
format ascii 1.0
comment VCGLIB generated
element vertex 403
property float x
property float y
property float z
property float nx
property float ny
property float nz
property uchar red
property uchar green
property uchar blue
property uchar alpha
element face 0
property list uchar int vertex_indices
end_header
-3.01097 -1.04122 4.43581 0 0 0 255 255 255 255
-3.00705 -0.952219 4.40512 0 0 0 255 255 255 255
-2.95879 -0.868981 4.41198 0 0 0 255 255 255 255
-0.879464 -1.15723 3.51592 0 0 0 255 255 255 255
-0.888281 -1.16339 3.58496 0 0 0 255 255 255 255
-2.93953 -0.917076 4.42925 0 0 0 255 255 255 255
-2.95547 -0.894963 4.4168 0 0 0 255 255 255 255
-0.870374 -1.16763 3.57667 0 0 0 255 255 255 255
-0.863313 -1.1585 3.55512 0 0 0 255 255 255 255
-2.74095 -1.54694 5.26037 0 0 0 255 255 255 255
-0.366115 -1.87594 6.21034 0 0 0 255 255 255 255
-2.73556 -1.57053 5.27486 0 0 0 255 255 255 255
-2.67244 -1.5781 5.33347 0 0 0 255 255 255 255
-2.73952 -1.565 5.25273 0 0 0 255 255 255 255
-1.27231 -1.89839 6.31214 0 0 0 255 255 255 255
-0.409722 -1.8531 6.17052 0 0 0 255 255 255 255
-2.96304 -0.583655 4.37091 0 0 0 255 255 255 255
-3.0015 -0.783935 4.37541 0 0 0 255 255 255 255
-2.967 -0.578307 4.36638 0 0 0 255 255 255 255
-2.94992 -0.665382 4.38206 0 0 0 255 255 255 255
-2.91578 -0.502639 4.37697 0 0 0 255 255 255 255
-2.96687 -0.576934 4.36649 0 0 0 255 255 255 255
-2.95118 -0.416211 4.35434 0 0 0 255 255 255 255
-2.91308 -0.503888 4.37807 0 0 0 255 255 255 255
-2.95226 -0.665002 4.38308 0 0 0 255 255 255 255
-2.94668 -0.422662 4.35725 0 0 0 255 255 255 255
-2.9389 -0.541297 4.36323 0 0 0 255 255 255 255
-2.98947 -0.786554 4.38919 0 0 0 255 255 255 255
-2.53028 0.548038 4.23965 0 0 0 255 255 255 255
-2.59376 0.572216 4.24739 0 0 0 255 255 255 255
-2.70073 0.520531 4.2344 0 0 0 255 255 255 255
-2.52503 0.551561 4.24335 0 0 0 255 255 255 255
-2.57714 0.575534 4.24044 0 0 0 255 255 255 255
-2.70445 0.533045 4.23626 0 0 0 255 255 255 255
-2.53664 0.367824 4.68263 0 0 0 255 255 255 255
-2.57951 0.637682 4.24327 0 0 0 255 255 255 255
-2.57959 0.577548 4.24178 0 0 0 255 255 255 255
-2.39703 0.820592 4.47083 0 0 0 255 255 255 255
-2.69209 0.675957 4.19509 0 0 0 255 255 255 255
-2.39336 0.806763 4.47612 0 0 0 255 255 255 255
-2.68183 0.675006 4.19474 0 0 0 255 255 255 255
-2.64475 0.671383 4.20873 0 0 0 255 255 255 255
-2.57936 0.646482 4.2441 0 0 0 255 255 255 255
-2.64434 0.671175 4.2111 0 0 0 255 255 255 255
-2.62097 0.619397 4.21948 0 0 0 255 255 255 255
-2.60327 0.663012 4.2317 0 0 0 255 255 255 255
-2.60046 0.579466 4.24404 0 0 0 255 255 255 255
-2.67695 0.684599 4.19107 0 0 0 255 255 255 255
-2.58862 0.650491 4.23699 0 0 0 255 255 255 255
-2.65791 0.631278 4.20635 0 0 0 255 255 255 255
-2.58569 0.657289 4.24143 0 0 0 255 255 255 255
-2.69897 0.675922 4.19514 0 0 0 255 255 255 255
-2.61594 0.993412 4.77659 0 0 0 255 255 255 255
-2.6289 1.0348 4.77856 0 0 0 255 255 255 255
-2.62662 1.01384 4.76198 0 0 0 255 255 255 255
-2.62386 1.00691 4.75938 0 0 0 255 255 255 255
-2.61678 0.987965 4.76592 0 0 0 255 255 255 255
-2.39734 0.731533 4.50939 0 0 0 255 255 255 255
-2.40504 0.71267 4.50826 0 0 0 255 255 255 255
-2.3908 0.787008 4.48156 0 0 0 255 255 255 255
-2.59329 0.732843 4.84346 0 0 0 255 255 255 255
-2.51345 0.982751 4.60809 0 0 0 255 255 255 255
-2.46166 0.829762 4.66523 0 0 0 255 255 255 255
-2.48184 1.01317 4.63733 0 0 0 255 255 255 255
-2.48068 1.01894 4.6388 0 0 0 255 255 255 255
-2.49576 0.997713 4.62434 0 0 0 255 255 255 255
-2.51548 1.01819 4.60057 0 0 0 255 255 255 255
-2.50569 1.01752 4.61604 0 0 0 255 255 255 255
-2.49905 0.975163 4.61913 0 0 0 255 255 255 255
-2.49048 0.954332 4.62199 0 0 0 255 255 255 255
-2.48747 1.01414 4.63191 0 0 0 255 255 255 255
-2.51488 0.952828 4.60085 0 0 0 255 255 255 255
-2.51011 0.931324 4.58978 0 0 0 255 255 255 255
-2.49918 0.969606 4.61837 0 0 0 255 255 255 255
-2.50668 1.01531 4.61523 0 0 0 255 255 255 255
-2.49913 0.992071 4.62036 0 0 0 255 255 255 255
-2.48716 1.00454 4.63195 0 0 0 255 255 255 255
-2.55778 0.896658 4.86513 0 0 0 255 255 255 255
-2.54729 0.887532 4.84813 0 0 0 255 255 255 255
-1.62314 0.775633 4.14122 0 0 0 255 255 255 255
-2.06177 0.987476 4.63955 0 0 0 255 255 255 255
-2.0646 0.986438 4.622 0 0 0 255 255 255 255
-2.39496 1.25894 4.01393 0 0 0 255 255 255 255
-2.48304 1.26398 4.60841 0 0 0 255 255 255 255
-2.62562 1.0712 4.81802 0 0 0 255 255 255 255
-2.52057 1.16096 4.76004 0 0 0 255 255 255 255
-2.49204 1.14394 4.78217 0 0 0 255 255 255 255
-2.45839 1.24409 4.61862 0 0 0 255 255 255 255
-2.48585 1.06547 4.62962 0 0 0 255 255 255 255
-2.45308 1.25466 4.86244 0 0 0 255 255 255 255
-2.62455 1.10675 4.78279 0 0 0 255 255 255 255
-2.59862 1.23473 4.92756 0 0 0 255 255 255 255
-2.52715 1.22686 4.76687 0 0 0 255 255 255 255
-2.54425 1.2859 4.86795 0 0 0 255 255 255 255
-2.63322 1.05236 4.76123 0 0 0 255 255 255 255
-2.47687 1.14653 4.74191 0 0 0 255 255 255 255
-2.49363 1.04502 4.62668 0 0 0 255 255 255 255
-2.3295 1.20782 4.5147 0 0 0 255 255 255 255
-2.37333 1.21777 4.48324 0 0 0 255 255 255 255
-2.20886 1.2728 4.30075 0 0 0 255 255 255 255
-2.31056 1.22444 4.5066 0 0 0 255 255 255 255
-2.32417 1.28845 4.13948 0 0 0 255 255 255 255
-2.35346 1.21774 4.48761 0 0 0 255 255 255 255
-2.23214 1.25592 4.28379 0 0 0 255 255 255 255
-2.31772 1.29547 4.19163 0 0 0 255 255 255 255
-2.32253 1.2932 4.565 0 0 0 255 255 255 255
-2.20793 1.25617 4.2989 0 0 0 255 255 255 255
-2.31116 1.223 4.50169 0 0 0 255 255 255 255
-2.2073 1.2656 4.30451 0 0 0 255 255 255 255
-2.29869 1.29748 4.21586 0 0 0 255 255 255 255
-2.33331 1.21114 4.49415 0 0 0 255 255 255 255
-2.2443 1.27979 4.27144 0 0 0 255 255 255 255
-2.34315 1.21285 4.48369 0 0 0 255 255 255 255
-2.25822 1.28693 4.2509 0 0 0 255 255 255 255
-0.624456 0.115867 3.70722 0 0 0 255 255 255 255
-0.601447 -0.492154 3.55964 0 0 0 255 255 255 255
-0.838467 -0.669342 3.45192 0 0 0 255 255 255 255
-1.14756 -0.0916842 3.78467 0 0 0 255 255 255 255
-1.14568 -0.1041 3.78068 0 0 0 255 255 255 255
-1.14537 -0.107788 3.78005 0 0 0 255 255 255 255
-0.627122 0.116231 3.70814 0 0 0 255 255 255 255
-0.61699 0.132779 3.70811 0 0 0 255 255 255 255
-1.31022 0.304073 3.94618 0 0 0 255 255 255 255
-0.80331 0.124374 3.62441 0 0 0 255 255 255 255
-1.4115 0.307727 4.0372 0 0 0 255 255 255 255
-0.503926 -0.0647472 3.4577 0 0 0 255 255 255 255
-0.509486 0.1121 3.45483 0 0 0 255 255 255 255
0.184498 0.0790876 4.16787 0 0 0 255 255 255 255
0.2063 0.0801394 4.19284 0 0 0 255 255 255 255
0.166052 0.107457 4.18758 0 0 0 255 255 255 255
-0.137062 0.436527 4.20725 0 0 0 255 255 255 255
-0.10654 0.614514 4.27006 0 0 0 255 255 255 255
-0.0708247 0.505699 4.31992 0 0 0 255 255 255 255
0.247612 0.166886 4.23777 0 0 0 255 255 255 255
0.247271 0.142013 4.19765 0 0 0 255 255 255 255
0.104655 0.930845 4.19868 0 0 0 255 255 255 255
-0.810295 1.2138 3.54982 0 0 0 255 255 255 255
-0.783347 1.13989 3.53109 0 0 0 255 255 255 255
-0.735329 1.08043 3.55131 0 0 0 255 255 255 255
-0.65526 1.06456 3.61173 0 0 0 255 255 255 255
-0.618148 1.05536 3.61445 0 0 0 255 255 255 255
-0.173051 1.24227 4.10298 0 0 0 255 255 255 255
0.0175191 1.30353 4.21145 0 0 0 255 255 255 255
-0.740542 1.08198 3.54986 0 0 0 255 255 255 255
-0.782966 1.12501 3.50489 0 0 0 255 255 255 255
-0.76483 1.11154 3.52087 0 0 0 255 255 255 255
-2.88415 0.291404 5.25969 0 0 0 255 255 255 255
-2.92053 0.306165 5.35348 0 0 0 255 255 255 255
-2.8411 0.312375 5.21157 0 0 0 255 255 255 255
-2.92463 0.303516 5.26931 0 0 0 255 255 255 255
-2.92516 0.317047 5.32922 0 0 0 255 255 255 255
-2.87855 0.289901 5.24758 0 0 0 255 255 255 255
-2.84726 0.335096 5.18888 0 0 0 255 255 255 255
-2.93208 0.310439 5.41525 0 0 0 255 255 255 255
-3.06078 0.388764 5.75652 0 0 0 255 255 255 255
-3.29191 0.402922 5.55413 0 0 0 255 255 255 255
-2.93176 0.315444 5.41692 0 0 0 255 255 255 255
-3.30269 0.405086 5.57352 0 0 0 255 255 255 255
-3.29343 0.407092 5.56195 0 0 0 255 255 255 255
-3.21415 0.333291 5.45352 0 0 0 255 255 255 255
-2.87046 0.507201 5.50156 0 0 0 255 255 255 255
-2.96667 0.375802 5.6558 0 0 0 255 255 255 255
-2.74926 0.385436 5.1816 0 0 0 255 255 255 255
-2.79082 0.334448 5.20509 0 0 0 255 255 255 255
-2.66713 0.394763 4.98886 0 0 0 255 255 255 255
-2.76338 0.374344 5.65436 0 0 0 255 255 255 255
-2.70507 0.39552 5.56081 0 0 0 255 255 255 255
-2.83715 0.385374 5.46096 0 0 0 255 255 255 255
-2.71136 0.39769 5.55755 0 0 0 255 255 255 255
-2.83253 0.386731 5.47637 0 0 0 255 255 255 255
-2.72903 0.390895 5.54098 0 0 0 255 255 255 255
-2.65466 0.910348 4.95304 0 0 0 255 255 255 255
-2.47197 1.03194 4.95074 0 0 0 255 255 255 255
-2.94868 0.407692 5.95329 0 0 0 255 255 255 255
-2.93306 1.30581 5.25219 0 0 0 255 255 255 255
-2.71262 1.24727 5.24935 0 0 0 255 255 255 255
-2.67176 1.1117 5.2223 0 0 0 255 255 255 255
-2.66788 1.12844 5.24041 0 0 0 255 255 255 255
-2.69403 1.17281 5.27893 0 0 0 255 255 255 255
-2.66975 1.10568 5.24036 0 0 0 255 255 255 255
-2.71205 1.24743 5.24849 0 0 0 255 255 255 255
-2.7324 1.12514 5.3106 0 0 0 255 255 255 255
-2.67382 1.10813 5.18217 0 0 0 255 255 255 255
-2.65558 1.17398 5.24664 0 0 0 255 255 255 255
-2.68369 1.29025 5.17538 0 0 0 255 255 255 255
-2.82124 1.27098 5.28754 0 0 0 255 255 255 255
-2.54583 1.2583 5.03761 0 0 0 255 255 255 255
-2.55121 1.18031 5.00159 0 0 0 255 255 255 255
-2.60751 1.22546 5.11871 0 0 0 255 255 255 255
-2.55851 1.24534 5.14939 0 0 0 255 255 255 255
-2.50152 1.1016 5.00072 0 0 0 255 255 255 255
-2.57944 1.26885 4.97791 0 0 0 255 255 255 255
-2.60848 1.22216 5.11213 0 0 0 255 255 255 255
-2.55839 1.28886 4.94066 0 0 0 255 255 255 255
-2.56463 1.27071 5.00151 0 0 0 255 255 255 255
-2.52373 1.28487 5.07941 0 0 0 255 255 255 255
-2.55449 1.29449 4.94292 0 0 0 255 255 255 255
0.193316 1.16597 5.05642 0 0 0 255 255 255 255
-0.0977118 1.21872 5.03201 0 0 0 255 255 255 255
2.23185 -2.83638 6.18867 0 0 0 255 255 255 255
2.23264 -2.85839 6.19115 0 0 0 255 255 255 255
1.68453 -1.85394 6.10746 0 0 0 255 255 255 255
1.66707 -1.81992 6.08303 0 0 0 255 255 255 255
2.17989 -2.19439 6.1213 0 0 0 255 255 255 255
2.17981 -2.20504 6.12361 0 0 0 255 255 255 255
2.14544 -2.32733 6.07831 0 0 0 255 255 255 255
2.22664 -2.59981 6.18188 0 0 0 255 255 255 255
2.15541 -2.32083 6.08053 0 0 0 255 255 255 255
2.01141 -1.85251 6.13983 0 0 0 255 255 255 255
2.11849 -1.94287 6.0419 0 0 0 255 255 255 255
2.09499 -1.86867 6.00959 0 0 0 255 255 255 255
2.0086 -1.83499 6.07211 0 0 0 255 255 255 255
2.15104 -1.8978 6.08033 0 0 0 255 255 255 255
2.07064 -1.98076 6.30988 0 0 0 255 255 255 255
1.91953 -1.95225 6.11946 0 0 0 255 255 255 255
2.14388 -2.08992 6.07245 0 0 0 255 255 255 255
2.21833 -1.95118 6.15394 0 0 0 255 255 255 255
1.91106 -1.93995 6.27267 0 0 0 255 255 255 255
2.14732 -2.12542 6.07116 0 0 0 255 255 255 255
2.04085 -1.90899 6.11128 0 0 0 255 255 255 255
2.09788 -1.8445 6.01474 0 0 0 255 255 255 255
1.99672 -1.80957 6.10071 0 0 0 255 255 255 255
2.12067 -1.84938 6.03985 0 0 0 255 255 255 255
2.17595 -2.17214 6.11663 0 0 0 255 255 255 255
2.0204 -1.86203 6.13703 0 0 0 255 255 255 255
1.84752 -1.76679 6.41385 0 0 0 255 255 255 255
2.0922 -1.75748 6.53765 0 0 0 255 255 255 255
1.87442 -1.73589 6.44749 0 0 0 255 255 255 255
2.15251 -1.6825 6.08195 0 0 0 255 255 255 255
2.09241 -1.39571 5.99347 0 0 0 255 255 255 255
2.09699 -1.62533 6.00425 0 0 0 255 255 255 255
2.10107 -1.6203 6.01835 0 0 0 255 255 255 255
2.1092 -1.71097 6.03053 0 0 0 255 255 255 255
2.10419 -1.39067 6.02079 0 0 0 255 255 255 255
2.10941 -1.48562 6.03081 0 0 0 255 255 255 255
2.10926 -1.47278 6.03171 0 0 0 255 255 255 255
2.09501 -1.61004 6.00039 0 0 0 255 255 255 255
1.69436 -1.66368 6.007 0 0 0 255 255 255 255
1.86068 -1.68537 6.01779 0 0 0 255 255 255 255
2.10984 -1.7081 6.02939 0 0 0 255 255 255 255
2.13703 -1.42211 6.06108 0 0 0 255 255 255 255
2.12788 -1.45593 6.07518 0 0 0 255 255 255 255
1.71544 -1.68843 5.98563 0 0 0 255 255 255 255
2.2489 -2.71138 6.21304 0 0 0 255 255 255 255
2.23976 -2.92532 6.2019 0 0 0 255 255 255 255
2.24319 -2.6939 6.22138 0 0 0 255 255 255 255
2.24529 -2.70402 6.21881 0 0 0 255 255 255 255
2.24105 -2.94187 6.20345 0 0 0 255 255 255 255
2.30366 -1.4403 6.44394 0 0 0 255 255 255 255
2.33524 -1.70221 6.49581 0 0 0 255 255 255 255
2.35079 -1.68753 6.5344 0 0 0 255 255 255 255
2.25555 -2.42547 6.20244 0 0 0 255 255 255 255
2.27225 -2.4842 6.24531 0 0 0 255 255 255 255
2.26453 -2.45991 6.23316 0 0 0 255 255 255 255
2.41378 -1.82122 6.65817 0 0 0 255 255 255 255
2.39091 -1.56645 6.61466 0 0 0 255 255 255 255
2.31641 -1.43836 6.46212 0 0 0 255 255 255 255
2.30231 -1.44253 6.42998 0 0 0 255 255 255 255
2.40641 -1.55295 6.64591 0 0 0 255 255 255 255
0.76587 0.921454 3.97209 0 0 0 255 255 255 255
0.769014 0.884395 3.98648 0 0 0 255 255 255 255
0.976952 0.790616 3.30471 0 0 0 255 255 255 255
1.0395 0.756332 3.216 0 0 0 255 255 255 255
0.883774 0.776133 3.44036 0 0 0 255 255 255 255
0.9341 0.796688 3.53505 0 0 0 255 255 255 255
1.0692 0.675566 3.3481 0 0 0 255 255 255 255
1.18328 0.668433 3.52608 0 0 0 255 255 255 255
1.11439 0.598963 3.43159 0 0 0 255 255 255 255
1.1879 0.801708 3.43677 0 0 0 255 255 255 255
1.27223 0.738742 3.45902 0 0 0 255 255 255 255
1.24208 0.726811 3.52527 0 0 0 255 255 255 255
1.27323 0.72011 3.47138 0 0 0 255 255 255 255
1.24561 0.731925 3.51926 0 0 0 255 255 255 255
1.10989 0.620211 3.44452 0 0 0 255 255 255 255
1.27597 0.60015 3.37526 0 0 0 255 255 255 255
1.28991 0.604775 3.38876 0 0 0 255 255 255 255
1.20266 0.766224 3.4326 0 0 0 255 255 255 255
1.24092 0.73104 3.51138 0 0 0 255 255 255 255
1.25506 1.02188 3.27535 0 0 0 255 255 255 255
0.957026 0.909942 3.61802 0 0 0 255 255 255 255
1.2544 0.624488 3.61689 0 0 0 255 255 255 255
1.2631 0.695585 3.65694 0 0 0 255 255 255 255
1.26717 0.682247 3.64269 0 0 0 255 255 255 255
1.29808 0.734634 3.63166 0 0 0 255 255 255 255
1.26975 0.694298 3.64876 0 0 0 255 255 255 255
1.26015 0.649015 3.6511 0 0 0 255 255 255 255
1.30704 0.723515 3.62018 0 0 0 255 255 255 255
1.24642 0.615912 3.60443 0 0 0 255 255 255 255
1.26021 0.663712 3.66512 0 0 0 255 255 255 255
1.25843 0.66167 3.6628 0 0 0 255 255 255 255
1.28483 0.70246 3.63886 0 0 0 255 255 255 255
1.30625 0.724367 3.60713 0 0 0 255 255 255 255
0.478457 1.01595 4.34298 0 0 0 255 255 255 255
0.480449 1.03743 4.33515 0 0 0 255 255 255 255
0.460365 0.898334 4.28568 0 0 0 255 255 255 255
0.465455 1.03441 4.3803 0 0 0 255 255 255 255
0.498875 0.998593 4.40725 0 0 0 255 255 255 255
0.445259 1.02563 4.25172 0 0 0 255 255 255 255
0.456952 0.928579 4.27774 0 0 0 255 255 255 255
0.465531 0.98599 4.34975 0 0 0 255 255 255 255
0.463437 1.00723 4.45668 0 0 0 255 255 255 255
0.705957 0.965809 4.17636 0 0 0 255 255 255 255
0.454957 0.9986 4.32072 0 0 0 255 255 255 255
0.447161 0.983656 4.4424 0 0 0 255 255 255 255
0.455228 1.01263 4.42613 0 0 0 255 255 255 255
0.527116 0.933318 4.53303 0 0 0 255 255 255 255
1.33903 1.00563 3.21927 0 0 0 255 255 255 255
1.32541 0.667495 3.56247 0 0 0 255 255 255 255
1.36395 0.754084 3.57192 0 0 0 255 255 255 255
1.32149 0.679773 3.58103 0 0 0 255 255 255 255
1.33436 0.719057 3.55812 0 0 0 255 255 255 255
1.96834 0.74408 4.20119 0 0 0 255 255 255 255
1.81444 0.7057 4.1554 0 0 0 255 255 255 255
1.91479 0.754083 4.06689 0 0 0 255 255 255 255
1.65682 0.641283 4.36682 0 0 0 255 255 255 255
1.87873 0.737857 4.06448 0 0 0 255 255 255 255
1.87134 0.746254 4.02379 0 0 0 255 255 255 255
1.67726 0.649567 4.38813 0 0 0 255 255 255 255
1.68069 0.644083 4.39265 0 0 0 255 255 255 255
1.27162 1.08861 3.25444 0 0 0 255 255 255 255
1.24177 1.26836 3.36984 0 0 0 255 255 255 255
0.432347 1.11099 4.79006 0 0 0 255 255 255 255
0.410314 1.28131 4.36718 0 0 0 255 255 255 255
0.571915 1.06487 4.594 0 0 0 255 255 255 255
0.45412 1.05927 4.31868 0 0 0 255 255 255 255
0.464751 1.04086 4.29752 0 0 0 255 255 255 255
0.444587 1.06394 4.50323 0 0 0 255 255 255 255
0.767767 1.11481 4.86562 0 0 0 255 255 255 255
0.51375 1.05106 4.65493 0 0 0 255 255 255 255
0.42357 1.29771 4.36157 0 0 0 255 255 255 255
0.468546 1.11452 4.77564 0 0 0 255 255 255 255
1.06089 1.19272 4.07775 0 0 0 255 255 255 255
0.517406 1.05096 4.67529 0 0 0 255 255 255 255
0.46826 1.08918 4.86494 0 0 0 255 255 255 255
0.5069 1.06515 4.46763 0 0 0 255 255 255 255
0.768086 1.11341 4.87493 0 0 0 255 255 255 255
1.02007 1.18388 3.97868 0 0 0 255 255 255 255
1.2693 1.04143 3.26986 0 0 0 255 255 255 255
1.29958 1.09592 3.25537 0 0 0 255 255 255 255
2.11118 0.727284 6.0628 0 0 0 255 255 255 255
2.13411 0.710571 6.11987 0 0 0 255 255 255 255
2.12915 0.815459 6.10818 0 0 0 255 255 255 255
2.13348 0.766738 6.11187 0 0 0 255 255 255 255
2.11848 0.758 6.12481 0 0 0 255 255 255 255
2.11206 0.71967 6.06459 0 0 0 255 255 255 255
2.08108 0.77522 6.00804 0 0 0 255 255 255 255
1.97921 0.807605 5.67993 0 0 0 255 255 255 255
2.09805 0.796787 6.03783 0 0 0 255 255 255 255
2.17879 0.798575 6.20371 0 0 0 255 255 255 255
2.16466 0.770529 6.13261 0 0 0 255 255 255 255
2.07986 0.743252 6.01492 0 0 0 255 255 255 255
2.11324 0.709272 6.06229 0 0 0 255 255 255 255
2.04542 0.738353 5.91244 0 0 0 255 255 255 255
2.13049 0.718854 6.11759 0 0 0 255 255 255 255
0.771642 1.0935 4.99732 0 0 0 255 255 255 255
0.75857 1.15214 5.28156 0 0 0 255 255 255 255
0.769365 1.11004 5.07425 0 0 0 255 255 255 255
0.816337 1.16877 5.38442 0 0 0 255 255 255 255
0.472441 1.10246 4.9592 0 0 0 255 255 255 255
0.730615 1.30374 5.732 0 0 0 255 255 255 255
0.715953 1.30022 5.71345 0 0 0 255 255 255 255
0.712062 1.29259 5.68518 0 0 0 255 255 255 255
0.739999 1.307 5.72953 0 0 0 255 255 255 255
0.710174 1.28735 5.69078 0 0 0 255 255 255 255
0.830567 1.2271 5.65029 0 0 0 255 255 255 255
0.878829 1.09963 5.2836 0 0 0 255 255 255 255
0.977436 1.18826 5.39958 0 0 0 255 255 255 255
0.915963 1.04239 5.16436 0 0 0 255 255 255 255
0.938928 1.06708 5.18785 0 0 0 255 255 255 255
1.02893 1.23087 5.47497 0 0 0 255 255 255 255
0.882788 1.24815 5.47562 0 0 0 255 255 255 255
1.03644 1.22697 5.43098 0 0 0 255 255 255 255
1.06663 1.29007 5.60112 0 0 0 255 255 255 255
1.01988 1.26251 5.66368 0 0 0 255 255 255 255
1.02354 1.25555 5.65459 0 0 0 255 255 255 255
0.868959 1.25557 5.52996 0 0 0 255 255 255 255
0.988497 1.25509 5.56187 0 0 0 255 255 255 255
0.985792 1.22464 5.46012 0 0 0 255 255 255 255
1.03197 1.29007 5.65242 0 0 0 255 255 255 255
1.09204 1.29275 5.57927 0 0 0 255 255 255 255
0.891812 1.25472 5.76224 0 0 0 255 255 255 255
2.22295 1.19143 6.12543 0 0 0 255 255 255 255
2.22617 1.19964 6.128 0 0 0 255 255 255 255
2.22364 1.18789 6.11899 0 0 0 255 255 255 255
2.29002 0.8306 6.4447 0 0 0 255 255 255 255
3.75357 0.665681 6.34433 0 0 0 255 255 255 255
3.03901 0.633107 5.67932 0 0 0 255 255 255 255
3.37497 0.887643 5.99161 0 0 0 255 255 255 255
3.38554 0.604716 5.95778 0 0 0 255 255 255 255
3.43369 0.76489 6.00801 0 0 0 255 255 255 255
3.29042 0.694718 5.98522 0 0 0 255 255 255 255
4.0297 0.669784 6.60145 0 0 0 255 255 255 255
3.44013 0.796042 6.0191 0 0 0 255 255 255 255
4.08356 0.647737 6.66268 0 0 0 255 255 255 255
3.54961 0.9889 6.05694 0 0 0 255 255 255 255
2.28554 0.802467 6.43028 0 0 0 255 255 255 255
3.35329 0.791208 5.98751 0 0 0 255 255 255 255
3.04219 0.820501 5.66867 0 0 0 255 255 255 255
3.40528 0.835545 6.06496 0 0 0 255 255 255 255
3.43699 0.793563 6.02334 0 0 0 255 255 255 255
2.29949 1.10345 6.17615 0 0 0 255 255 255 255
2.29752 1.10017 6.20847 0 0 0 255 255 255 255
2.30975 1.04667 6.23575 0 0 0 255 255 255 255
