ply
format ascii 1.0
comment VCGLIB generated
element vertex 156
property float x
property float y
property float z
property float nx
property float ny
property float nz
property uchar red
property uchar green
property uchar blue
property uchar alpha
element face 0
property list uchar int vertex_indices
end_header
3.18107 0.654119 3.9877 0 0 0 0 255 255 255
3.17513 0.63182 3.98836 0 0 0 0 255 255 255
3.17367 0.629036 3.98869 0 0 0 0 255 255 255
3.17198 0.678117 3.99232 0 0 0 0 255 255 255
3.17284 0.709462 3.99398 0 0 0 0 255 255 255
3.16818 0.688964 3.99431 0 0 0 0 255 255 255
3.16941 0.743614 3.99728 0 0 0 0 255 255 255
3.16108 0.718698 3.9986 0 0 0 0 255 255 255
3.14766 0.841026 4.01081 0 0 0 0 255 255 255
3.10838 1.29828 4.05273 0 0 0 0 255 255 255
3.10891 1.30123 4.05273 0 0 0 0 255 255 255
3.0725 1.16859 4.05702 0 0 0 0 255 255 255
2.99926 0.815987 4.06032 0 0 0 0 255 255 255
2.99026 0.782047 4.06131 0 0 0 0 255 255 255
2.9853 0.775829 4.06263 0 0 0 0 255 255 255
2.98956 0.799447 4.06263 0 0 0 0 255 255 255
2.98976 0.821768 4.06395 0 0 0 0 255 255 255
2.99548 0.91727 4.06791 0 0 0 0 255 255 255
2.99505 0.925478 4.06857 0 0 0 0 255 255 255
2.97187 0.807721 4.06923 0 0 0 0 255 255 255
3.05022 1.26305 4.07055 0 0 0 0 255 255 255
2.96276 0.810382 4.07253 0 0 0 0 255 255 255
2.97263 0.944766 4.07748 0 0 0 0 255 255 255
2.96147 0.925442 4.08012 0 0 0 0 255 255 255
2.96344 0.957604 4.08144 0 0 0 0 255 255 255
2.91917 0.78675 4.08606 0 0 0 0 255 255 255
2.92108 0.802663 4.08639 0 0 0 0 255 255 255
2.94703 0.967678 4.08771 0 0 0 0 255 255 255
3.00197 1.28801 4.0887 0 0 0 0 255 255 255
2.91294 0.800068 4.08903 0 0 0 0 255 255 255
2.94647 0.991151 4.08936 0 0 0 0 255 255 255
2.93503 0.959681 4.09134 0 0 0 0 255 255 255
3.0254 1.46568 4.09167 0 0 0 0 255 255 255
2.9336 0.99957 4.09431 0 0 0 0 255 255 255
2.87731 0.778046 4.09993 0 0 0 0 255 255 255
2.97883 1.35113 4.10059 0 0 0 0 255 255 255
2.89424 0.887784 4.10092 0 0 0 0 255 255 255
2.89548 0.894673 4.10092 0 0 0 0 255 255 255
2.94922 1.20303 4.10158 0 0 0 0 255 255 255
2.97729 1.35852 4.10158 0 0 0 0 255 255 255
2.85617 0.730037 4.10422 0 0 0 0 255 255 255
2.86582 0.799427 4.10521 0 0 0 0 255 255 255
2.86025 0.800433 4.10719 0 0 0 0 255 255 255
2.886 0.943127 4.10719 0 0 0 0 255 255 255
2.88375 0.946582 4.10818 0 0 0 0 255 255 255
2.88189 0.946918 4.10884 0 0 0 0 255 255 255
2.95659 1.3714 4.1095 0 0 0 0 255 255 255
3.00258 1.67404 4.11247 0 0 0 0 255 255 255
2.8476 0.873847 4.1161 0 0 0 0 255 255 255
2.9029 1.19615 4.11709 0 0 0 0 255 255 255
2.9684 1.56437 4.11742 0 0 0 0 255 255 255
2.8426 0.872717 4.11775 0 0 0 0 255 255 255
2.92746 1.3482 4.11808 0 0 0 0 255 255 255
2.93364 1.38774 4.11841 0 0 0 0 255 255 255
2.83871 0.872404 4.11907 0 0 0 0 255 255 255
2.81586 0.78304 4.12138 0 0 0 0 255 255 255
2.92115 1.3717 4.12171 0 0 0 0 255 255 255
2.80956 0.758773 4.12204 0 0 0 0 255 255 255
2.81019 0.772886 4.1227 0 0 0 0 255 255 255
2.84039 0.940183 4.1227 0 0 0 0 255 255 255
2.88089 1.16456 4.1227 0 0 0 0 255 255 255
2.82578 0.864575 4.12303 0 0 0 0 255 255 255
2.79835 0.7232 4.12369 0 0 0 0 255 255 255
2.91182 1.37846 4.12534 0 0 0 0 255 255 255
2.82946 0.938091 4.12633 0 0 0 0 255 255 255
2.79797 0.885853 4.13392 0 0 0 0 255 255 255
2.9029 1.5894 4.14151 0 0 0 0 255 255 255
2.74682 0.74063 4.1425 0 0 0 0 255 255 255
2.78088 0.934665 4.14283 0 0 0 0 255 255 255
2.73757 0.737219 4.14547 0 0 0 0 255 255 255
2.77199 0.933222 4.1458 0 0 0 0 255 255 255
2.76218 0.884185 4.14613 0 0 0 0 255 255 255
2.76626 0.906819 4.14613 0 0 0 0 255 255 255
2.77013 0.933557 4.14646 0 0 0 0 255 255 255
2.89358 1.61751 4.14646 0 0 0 0 255 255 255
2.73131 0.776962 4.1501 0 0 0 0 255 255 255
2.80994 1.24443 4.15208 0 0 0 0 255 255 255
2.80472 1.2474 4.15406 0 0 0 0 255 255 255
2.7418 0.904122 4.15439 0 0 0 0 255 255 255
2.86907 1.6199 4.15505 0 0 0 0 255 255 255
2.68724 0.697527 4.16033 0 0 0 0 255 255 255
2.71726 0.86384 4.16033 0 0 0 0 255 255 255
2.68556 0.698846 4.16099 0 0 0 0 255 255 255
2.70633 0.861748 4.16396 0 0 0 0 255 255 255
2.7076 0.91131 4.1666 0 0 0 0 255 255 255
2.69585 0.872784 4.16825 0 0 0 0 255 255 255
2.63484 0.731373 4.18046 0 0 0 0 255 255 255
2.62544 0.700553 4.18178 0 0 0 0 255 255 255
2.66053 0.905581 4.18244 0 0 0 0 255 255 255
2.66106 0.908533 4.18244 0 0 0 0 255 255 255
2.64528 0.863622 4.18508 0 0 0 0 255 255 255
2.61349 0.756567 4.18937 0 0 0 0 255 255 255
2.69778 1.23419 4.19003 0 0 0 0 255 255 255
2.62027 0.836636 4.19201 0 0 0 0 255 255 255
2.607 0.779077 4.193 0 0 0 0 255 255 255
2.6944 1.28459 4.19432 0 0 0 0 255 255 255
2.61531 0.899516 4.19762 0 0 0 0 255 255 255
2.65811 1.25354 4.20489 0 0 0 0 255 255 255
2.67326 1.35344 4.20588 0 0 0 0 255 255 255
2.55036 0.693782 4.2072 0 0 0 0 255 255 255
2.55096 0.734319 4.20951 0 0 0 0 255 255 255
2.55854 0.829485 4.21281 0 0 0 0 255 255 255
2.55674 0.846069 4.21446 0 0 0 0 255 255 255
2.64725 1.35814 4.21512 0 0 0 0 255 255 255
2.51777 0.662065 4.21644 0 0 0 0 255 255 255
2.55051 0.859387 4.21743 0 0 0 0 255 255 255
2.55003 0.872684 4.21842 0 0 0 0 255 255 255
2.64058 1.37966 4.21875 0 0 0 0 255 255 255
2.5512 0.889749 4.21908 0 0 0 0 255 255 255
2.51224 0.727081 4.22238 0 0 0 0 255 255 255
2.6229 1.34017 4.22238 0 0 0 0 255 255 255
2.49866 0.731564 4.22733 0 0 0 0 255 255 255
2.48324 0.688621 4.22997 0 0 0 0 255 255 255
2.49564 0.831695 4.23459 0 0 0 0 255 255 255
2.56737 1.2557 4.23624 0 0 0 0 255 255 255
2.4629 0.70347 4.23789 0 0 0 0 255 255 255
2.46663 0.724137 4.23789 0 0 0 0 255 255 255
2.57178 1.30672 4.23789 0 0 0 0 255 255 255
2.48151 0.811889 4.23822 0 0 0 0 255 255 255
2.47471 0.827343 4.24152 0 0 0 0 255 255 255
2.48394 0.878516 4.24152 0 0 0 0 255 255 255
2.5601 1.30578 4.24185 0 0 0 0 255 255 255
2.44763 0.687936 4.24218 0 0 0 0 255 255 255
2.5658 1.35861 4.24317 0 0 0 0 255 255 255
2.47412 0.877241 4.24482 0 0 0 0 255 255 255
2.44159 0.723576 4.24647 0 0 0 0 255 255 255
2.46521 0.854461 4.24647 0 0 0 0 255 255 255
2.41633 0.65802 4.2511 0 0 0 0 255 255 255
2.52353 1.26259 4.25176 0 0 0 0 255 255 255
2.41048 0.71598 4.25671 0 0 0 0 255 255 255
2.51795 1.31136 4.25671 0 0 0 0 255 255 255
2.39713 0.668598 4.25836 0 0 0 0 255 255 255
2.41393 0.772263 4.25902 0 0 0 0 255 255 255
2.40707 0.771469 4.26133 0 0 0 0 255 255 255
2.38332 0.655848 4.26232 0 0 0 0 255 255 255
2.46686 1.13462 4.26331 0 0 0 0 255 255 255
2.40051 0.825492 4.26694 0 0 0 0 255 255 255
2.40762 0.864856 4.26694 0 0 0 0 255 255 255
2.39573 0.820258 4.26826 0 0 0 0 255 255 255
2.36547 0.684475 4.27024 0 0 0 0 255 255 255
2.35735 0.655455 4.27123 0 0 0 0 255 255 255
2.35243 0.644149 4.27222 0 0 0 0 255 255 255
2.35297 0.647101 4.27222 0 0 0 0 255 255 255
2.38796 0.840968 4.27222 0 0 0 0 255 255 255
2.37188 0.810337 4.27585 0 0 0 0 255 255 255
2.35776 0.74277 4.27651 0 0 0 0 255 255 255
2.34756 0.696853 4.27717 0 0 0 0 255 255 255
2.34645 0.696036 4.2775 0 0 0 0 255 255 255
2.37293 0.864004 4.27882 0 0 0 0 255 255 255
2.33522 0.777323 4.28641 0 0 0 0 255 255 255
2.34499 0.831448 4.28641 0 0 0 0 255 255 255
2.34562 0.845561 4.28707 0 0 0 0 255 255 255
2.3287 0.804922 4.29037 0 0 0 0 255 255 255
2.32591 0.805425 4.29136 0 0 0 0 255 255 255
2.38062 1.10853 4.29136 0 0 0 0 255 255 255
2.32338 0.796736 4.29169 0 0 0 0 255 255 255
