ply
format ascii 1.0
comment VCGLIB generated
element vertex 841
property float x
property float y
property float z
property float nx
property float ny
property float nz
property uchar red
property uchar green
property uchar blue
property uchar alpha
element face 0
property list uchar int vertex_indices
end_header
1.10176 0.15102 4.97259 0 0 0 128 128 0 255
1.09875 0.0900954 4.97233 0 0 0 128 128 0 255
1.14451 1.01594 4.97929 0 0 0 128 128 0 255
1.09796 0.0751032 4.97527 0 0 0 128 128 0 255
1.15807 1.29159 4.98346 0 0 0 128 128 0 255
1.0988 0.0940676 4.97935 0 0 0 128 128 0 255
1.14438 1.01593 4.98428 0 0 0 128 128 0 255
1.09784 0.0790716 4.98528 0 0 0 128 128 0 255
1.09777 0.0830582 4.99029 0 0 0 128 128 0 255
1.13996 0.937005 4.99494 0 0 0 128 128 0 255
1.09809 0.096037 4.99533 0 0 0 128 128 0 255
1.09621 0.061079 4.99718 0 0 0 128 128 0 255
1.13849 0.926013 5.00685 0 0 0 128 128 0 255
1.15848 1.36449 5.02363 0 0 0 128 128 0 255
1.09436 0.0710891 5.01909 0 0 0 128 128 0 255
1.0922 0.0641369 5.03092 0 0 0 128 128 0 255
1.13333 0.913113 5.03947 0 0 0 128 128 0 255
1.15379 1.35761 5.04923 0 0 0 128 128 0 255
1.14182 1.12391 5.05019 0 0 0 128 128 0 255
1.14208 1.1419 5.0532 0 0 0 128 128 0 255
1.14444 1.22586 5.06135 0 0 0 128 128 0 255
1.14217 1.17991 5.06115 0 0 0 128 128 0 255
1.12526 0.955385 5.08141 0 0 0 128 128 0 255
1.12467 0.955406 5.08333 0 0 0 128 128 0 255
1.12388 0.951432 5.08522 0 0 0 128 128 0 255
1.145 1.39692 5.08998 0 0 0 128 128 0 255
1.13861 1.32611 5.0982 0 0 0 128 128 0 255
1.07818 0.104615 5.09298 0 0 0 128 128 0 255
1.14026 1.37308 5.10029 0 0 0 128 128 0 255
1.13912 1.40614 5.10793 0 0 0 128 128 0 255
1.07239 0.0718128 5.10409 0 0 0 128 128 0 255
1.13582 1.39126 5.11438 0 0 0 128 128 0 255
1.13408 1.37131 5.11615 0 0 0 128 128 0 255
1.11176 1.02394 5.12661 0 0 0 128 128 0 255
1.0613 0.0462317 5.12697 0 0 0 128 128 0 255
1.05768 0.088412 5.13883 0 0 0 128 128 0 255
1.05562 0.160556 5.14974 0 0 0 128 128 0 255
1.03323 0.135487 5.18358 0 0 0 128 128 0 255
0.34825 0.0709861 5.01193 0 0 0 128 128 0 255
0.347932 0.0890747 5.00007 0 0 0 128 128 0 255
0.348441 0.101068 4.99912 0 0 0 128 128 0 255
0.347169 0.0801186 4.99604 0 0 0 128 128 0 255
0.348787 0.117096 4.99321 0 0 0 128 128 0 255
0.408932 1.33662 4.99543 0 0 0 128 128 0 255
0.347259 0.0911574 4.98911 0 0 0 128 128 0 255
0.35007 0.149093 4.98836 0 0 0 128 128 0 255
0.411339 1.38857 4.99265 0 0 0 128 128 0 255
0.409017 1.34163 4.99245 0 0 0 128 128 0 255
0.347598 0.10016 4.98715 0 0 0 128 128 0 255
0.34661 0.0811902 4.98607 0 0 0 128 128 0 255
0.411787 1.39957 4.9907 0 0 0 128 128 0 255
0.412386 1.41558 4.98577 0 0 0 128 128 0 255
0.41176 1.40461 4.98273 0 0 0 128 128 0 255
0.409267 1.35468 4.98152 0 0 0 128 128 0 255
0.41072 1.38567 4.97565 0 0 0 128 128 0 255
0.409432 1.35971 4.97454 0 0 0 128 128 0 255
0.410524 1.38169 4.97163 0 0 0 128 128 0 255
0.410086 1.37271 4.97059 0 0 0 128 128 0 255
0.410221 1.37472 4.9676 0 0 0 128 128 0 255
0.349512 0.124304 4.93829 0 0 0 128 128 0 255
0.413761 1.39973 4.9318 0 0 0 128 128 0 255
0.394719 1.0102 4.92814 0 0 0 128 128 0 255
0.396424 1.03217 4.92328 0 0 0 128 128 0 255
0.398097 1.04013 4.9144 0 0 0 128 128 0 255
0.353657 0.11524 4.90256 0 0 0 128 128 0 255
0.416946 1.38366 4.90503 0 0 0 128 128 0 255
0.352471 0.061267 4.89447 0 0 0 128 128 0 255
0.357607 0.090119 4.878 0 0 0 128 128 0 255
0.40113 0.960031 4.87978 0 0 0 128 128 0 255
0.360465 0.12804 4.87429 0 0 0 128 128 0 255
0.40571 1.0219 4.87424 0 0 0 128 128 0 255
0.425255 1.3844 4.87001 0 0 0 128 128 0 255
0.406887 1.00186 4.86645 0 0 0 128 128 0 255
0.405638 0.970884 4.86536 0 0 0 128 128 0 255
0.422821 1.10833 4.83569 0 0 0 128 128 0 255
0.4386 1.40492 4.83417 0 0 0 128 128 0 255
0.441259 1.40482 4.82769 0 0 0 128 128 0 255
0.381524 0.149271 4.81682 0 0 0 128 128 0 255
0.384086 0.15117 4.81136 0 0 0 128 128 0 255
0.38406 0.142164 4.81041 0 0 0 128 128 0 255
0.383197 0.116179 4.80939 0 0 0 128 128 0 255
0.383473 0.113166 4.80847 0 0 0 128 128 0 255
0.449064 1.35046 4.80477 0 0 0 128 128 0 255
0.389425 0.098912 4.79497 0 0 0 128 128 0 255
0.446949 1.23346 4.79716 0 0 0 128 128 0 255
0.402283 0.311553 4.79146 0 0 0 128 128 0 255
0.392647 0.116793 4.79063 0 0 0 128 128 0 255
0.447703 1.21041 4.79354 0 0 0 128 128 0 255
0.449205 1.22135 4.79183 0 0 0 128 128 0 255
0.450223 1.22231 4.79009 0 0 0 128 128 0 255
0.449828 1.21432 4.79005 0 0 0 128 128 0 255
0.394925 0.0946803 4.78439 0 0 0 128 128 0 255
0.397587 0.128597 4.7828 0 0 0 128 128 0 255
0.453324 1.2452 4.7867 0 0 0 128 128 0 255
0.456093 1.24008 4.78149 0 0 0 128 128 0 255
0.425439 0.578807 4.77524 0 0 0 128 128 0 255
0.427321 0.595742 4.77361 0 0 0 128 128 0 255
0.456257 1.17001 4.77521 0 0 0 128 128 0 255
0.429014 0.608681 4.77196 0 0 0 128 128 0 255
0.429148 0.600669 4.77108 0 0 0 128 128 0 255
0.41525 0.309005 4.76898 0 0 0 128 128 0 255
0.461094 1.22485 4.77205 0 0 0 128 128 0 255
0.4564 1.12997 4.77165 0 0 0 128 128 0 255
0.432724 0.640551 4.76871 0 0 0 128 128 0 255
0.422792 0.439799 4.76785 0 0 0 128 128 0 255
0.464833 1.26773 4.76971 0 0 0 128 128 0 255
0.431233 0.588569 4.76681 0 0 0 128 128 0 255
0.420362 0.36884 4.76587 0 0 0 128 128 0 255
0.470029 1.32856 4.76662 0 0 0 128 128 0 255
0.462865 1.18374 4.766 0 0 0 128 128 0 255
0.462685 1.15773 4.76422 0 0 0 128 128 0 255
0.427431 0.422584 4.75942 0 0 0 128 128 0 255
0.462826 1.12669 4.7616 0 0 0 128 128 0 255
0.428257 0.416543 4.75774 0 0 0 128 128 0 255
0.413433 0.116912 4.75646 0 0 0 128 128 0 255
0.465287 1.15361 4.76006 0 0 0 128 128 0 255
0.437962 0.601291 4.7577 0 0 0 128 128 0 255
0.471042 1.25846 4.75969 0 0 0 128 128 0 255
0.425237 0.332598 4.75573 0 0 0 128 128 0 255
0.47171 1.26043 4.75887 0 0 0 128 128 0 255
0.466175 1.14857 4.7584 0 0 0 128 128 0 255
0.425962 0.312548 4.75318 0 0 0 128 128 0 255
0.476453 1.28625 4.75408 0 0 0 128 128 0 255
0.421301 0.15961 4.74846 0 0 0 128 128 0 255
0.434726 0.383232 4.74619 0 0 0 128 128 0 255
0.432503 0.338287 4.74599 0 0 0 128 128 0 255
0.423016 0.146523 4.74517 0 0 0 128 128 0 255
0.477519 1.23615 4.74903 0 0 0 128 128 0 255
0.450046 0.680839 4.74665 0 0 0 128 128 0 255
0.479217 1.23408 4.74662 0 0 0 128 128 0 255
0.424492 0.103419 4.74019 0 0 0 128 128 0 255
0.478895 1.16603 4.74236 0 0 0 128 128 0 255
0.441243 0.404967 4.73911 0 0 0 128 128 0 255
0.440255 0.384991 4.73902 0 0 0 128 128 0 255
0.470966 0.943167 4.73748 0 0 0 128 128 0 255
0.443656 0.365823 4.73345 0 0 0 128 128 0 255
0.448018 0.415678 4.73134 0 0 0 128 128 0 255
0.454928 0.542494 4.73111 0 0 0 128 128 0 255
0.487831 1.19466 4.73312 0 0 0 128 128 0 255
0.488172 1.16262 4.73068 0 0 0 128 128 0 255
0.452997 0.425467 4.72601 0 0 0 128 128 0 255
0.492107 1.17645 4.72694 0 0 0 128 128 0 255
0.454928 0.398355 4.72211 0 0 0 128 128 0 255
0.484999 0.952554 4.72148 0 0 0 128 128 0 255
0.45466 0.339309 4.71886 0 0 0 128 128 0 255
0.484825 0.935545 4.72066 0 0 0 128 128 0 255
0.468322 0.601956 4.71924 0 0 0 128 128 0 255
0.470424 0.63089 4.71862 0 0 0 128 128 0 255
0.50764 1.35594 4.72024 0 0 0 128 128 0 255
0.500063 1.18911 4.71879 0 0 0 128 128 0 255
0.48945 0.933336 4.71549 0 0 0 128 128 0 255
0.468894 0.517848 4.71372 0 0 0 128 128 0 255
0.488798 0.906338 4.71465 0 0 0 128 128 0 255
0.493524 0.946166 4.71192 0 0 0 128 128 0 255
0.491152 0.898225 4.71171 0 0 0 128 128 0 255
0.475044 0.572626 4.71032 0 0 0 128 128 0 255
0.490411 0.869229 4.71087 0 0 0 128 128 0 255
0.476724 0.59257 4.70968 0 0 0 128 128 0 255
0.504447 1.13887 4.7113 0 0 0 128 128 0 255
0.479201 0.61448 4.70834 0 0 0 128 128 0 255
0.467787 0.383765 4.70736 0 0 0 128 128 0 255
0.49324 0.884117 4.70878 0 0 0 128 128 0 255
0.494286 0.891076 4.7081 0 0 0 128 128 0 255
0.497484 0.912954 4.70606 0 0 0 128 128 0 255
0.515485 1.26249 4.70685 0 0 0 128 128 0 255
0.48047 0.540349 4.70306 0 0 0 128 128 0 255
0.475252 0.420464 4.70184 0 0 0 128 128 0 255
0.513565 1.15147 4.70287 0 0 0 128 128 0 255
0.47671 0.377355 4.69818 0 0 0 128 128 0 255
0.504542 0.910632 4.69907 0 0 0 128 128 0 255
0.506824 0.912531 4.69703 0 0 0 128 128 0 255
0.478758 0.345229 4.6946 0 0 0 128 128 0 255
0.482306 0.402126 4.69417 0 0 0 128 128 0 255
0.483379 0.394069 4.69278 0 0 0 128 128 0 255
0.475819 0.241257 4.69212 0 0 0 128 128 0 255
0.477986 0.255173 4.69083 0 0 0 128 128 0 255
0.524877 1.18799 4.69415 0 0 0 128 128 0 255
0.511685 0.906303 4.69228 0 0 0 128 128 0 255
0.483619 0.339002 4.68985 0 0 0 128 128 0 255
0.478134 0.228139 4.68938 0 0 0 128 128 0 255
0.485351 0.358943 4.68927 0 0 0 128 128 0 255
0.490805 0.423761 4.68756 0 0 0 128 128 0 255
0.517991 0.958068 4.68918 0 0 0 128 128 0 255
0.491814 0.413704 4.6862 0 0 0 128 128 0 255
0.487875 0.318787 4.68513 0 0 0 128 128 0 255
0.485602 0.272843 4.68494 0 0 0 128 128 0 255
0.510012 0.720188 4.6849 0 0 0 128 128 0 255
0.507113 0.615212 4.68251 0 0 0 128 128 0 255
0.502221 0.516334 4.68209 0 0 0 128 128 0 255
0.488238 0.233682 4.68088 0 0 0 128 128 0 255
0.53807 1.22543 4.68448 0 0 0 128 128 0 255
0.539332 1.23538 4.68388 0 0 0 128 128 0 255
0.498676 0.382358 4.67896 0 0 0 128 128 0 255
0.541647 1.23527 4.68198 0 0 0 128 128 0 255
0.497522 0.34337 4.67817 0 0 0 128 128 0 255
0.484725 0.0846889 4.67706 0 0 0 128 128 0 255
0.501373 0.358209 4.67572 0 0 0 128 128 0 255
0.529776 0.916485 4.67748 0 0 0 128 128 0 255
0.503983 0.395127 4.67525 0 0 0 128 128 0 255
0.495682 0.227334 4.67454 0 0 0 128 128 0 255
0.518256 0.667755 4.6758 0 0 0 128 128 0 255
0.516279 0.627804 4.67563 0 0 0 128 128 0 255
0.515137 0.588816 4.67484 0 0 0 128 128 0 255
0.498535 0.25323 4.67341 0 0 0 128 128 0 255
0.515822 0.554749 4.67285 0 0 0 128 128 0 255
0.520023 0.623627 4.67254 0 0 0 128 128 0 255
0.517206 0.566697 4.67229 0 0 0 128 128 0 255
0.515773 0.537733 4.67217 0 0 0 128 128 0 255
0.514242 0.506771 4.67204 0 0 0 128 128 0 255
0.500357 0.226117 4.67084 0 0 0 128 128 0 255
0.509752 0.383849 4.6703 0 0 0 128 128 0 255
0.517614 0.526636 4.67031 0 0 0 128 128 0 255
0.551401 1.14473 4.67055 0 0 0 128 128 0 255
0.510354 0.24968 4.66437 0 0 0 128 128 0 255
0.528953 0.609199 4.66532 0 0 0 128 128 0 255
0.51914 0.361391 4.66252 0 0 0 128 128 0 255
0.509014 0.123608 4.66036 0 0 0 128 128 0 255
0.528285 0.413021 4.6582 0 0 0 128 128 0 255
0.553523 0.906375 4.65975 0 0 0 128 128 0 255
0.57322 1.27085 4.6602 0 0 0 128 128 0 255
0.554987 0.902302 4.65862 0 0 0 128 128 0 255
0.5287 0.370957 4.65635 0 0 0 128 128 0 255
0.5743 1.2758 4.65967 0 0 0 128 128 0 255
0.567284 1.13398 4.65906 0 0 0 128 128 0 255
0.541639 0.615616 4.65685 0 0 0 128 128 0 255
0.574196 1.25679 4.65904 0 0 0 128 128 0 255
0.542668 0.602554 4.65569 0 0 0 128 128 0 255
0.525966 0.26497 4.65425 0 0 0 128 128 0 255
0.527446 0.243879 4.65253 0 0 0 128 128 0 255
0.52888 0.255824 4.65205 0 0 0 128 128 0 255
0.550135 0.651258 4.65267 0 0 0 128 128 0 255
0.529135 0.226781 4.65085 0 0 0 128 128 0 255
0.575687 1.1506 4.65427 0 0 0 128 128 0 255
0.537986 0.388542 4.65101 0 0 0 128 128 0 255
0.56424 0.884851 4.65208 0 0 0 128 128 0 255
0.542015 0.418386 4.64956 0 0 0 128 128 0 255
0.556977 0.668957 4.64907 0 0 0 128 128 0 255
0.571322 0.941581 4.64972 0 0 0 128 128 0 255
0.560007 0.712863 4.64874 0 0 0 128 128 0 255
0.555758 0.626969 4.64838 0 0 0 128 128 0 255
0.59178 1.26798 4.64857 0 0 0 128 128 0 255
0.575424 0.937384 4.64716 0 0 0 128 128 0 255
0.57414 0.911416 4.64705 0 0 0 128 128 0 255
0.561984 0.665719 4.646 0 0 0 128 128 0 255
0.562874 0.648659 4.64492 0 0 0 128 128 0 255
0.562627 0.643665 4.6449 0 0 0 128 128 0 255
0.55057 0.399965 4.64386 0 0 0 128 128 0 255
0.543702 0.261136 4.64327 0 0 0 128 128 0 255
0.565816 0.690566 4.64461 0 0 0 128 128 0 255
0.562385 0.603632 4.64374 0 0 0 128 128 0 255
0.564637 0.631557 4.64337 0 0 0 128 128 0 255
0.563797 0.614578 4.64329 0 0 0 128 128 0 255
0.562513 0.58861 4.64318 0 0 0 128 128 0 255
0.544675 0.228054 4.64164 0 0 0 128 128 0 255
0.580808 0.923116 4.64363 0 0 0 128 128 0 255
0.577992 0.866186 4.64339 0 0 0 128 128 0 255
0.554126 0.38378 4.64133 0 0 0 128 128 0 255
0.571255 0.712334 4.64225 0 0 0 128 128 0 255
0.581998 0.894028 4.64206 0 0 0 128 128 0 255
0.602669 1.25845 4.64219 0 0 0 128 128 0 255
0.560767 0.411498 4.63857 0 0 0 128 128 0 255
0.58778 0.921786 4.63981 0 0 0 128 128 0 255
0.555514 0.269589 4.63702 0 0 0 128 128 0 255
0.575767 0.661065 4.63823 0 0 0 128 128 0 255
0.561531 0.3554 4.63646 0 0 0 128 128 0 255
0.563356 0.374335 4.63608 0 0 0 128 128 0 255
0.58114 0.679832 4.63601 0 0 0 128 128 0 255
0.587045 0.690565 4.63338 0 0 0 128 128 0 255
0.57307 0.389893 4.63165 0 0 0 128 128 0 255
0.565807 0.243074 4.63103 0 0 0 128 128 0 255
0.572991 0.351855 4.63062 0 0 0 128 128 0 255
0.574782 0.36979 4.63027 0 0 0 128 128 0 255
0.572114 0.315856 4.63004 0 0 0 128 128 0 255
0.567815 0.228963 4.62966 0 0 0 128 128 0 255
0.602974 0.903047 4.63169 0 0 0 128 128 0 255
0.598295 0.790143 4.63078 0 0 0 128 128 0 255
0.575417 0.327713 4.62881 0 0 0 128 128 0 255
0.57993 0.40058 4.6287 0 0 0 128 128 0 255
0.57891 0.361585 4.62811 0 0 0 128 128 0 255
0.586326 0.419297 4.6263 0 0 0 128 128 0 255
0.61375 0.936573 4.6277 0 0 0 128 128 0 255
0.588896 0.434192 4.62556 0 0 0 128 128 0 255
0.585315 0.34326 4.62477 0 0 0 128 128 0 255
0.633428 1.26 4.6275 0 0 0 128 128 0 255
0.584115 0.263227 4.62324 0 0 0 128 128 0 255
0.583324 0.247247 4.62317 0 0 0 128 128 0 255
0.591489 0.375002 4.62294 0 0 0 128 128 0 255
0.592346 0.354938 4.62209 0 0 0 128 128 0 255
0.638863 1.25774 4.62519 0 0 0 128 128 0 255
0.641594 1.25661 4.62407 0 0 0 128 128 0 255
0.624991 0.92102 4.62263 0 0 0 128 128 0 255
0.593637 0.230737 4.61859 0 0 0 128 128 0 255
0.604056 0.422456 4.61905 0 0 0 128 128 0 255
0.594618 0.231691 4.61823 0 0 0 128 128 0 255
0.629102 0.909811 4.62077 0 0 0 128 128 0 255
0.610456 0.419146 4.61658 0 0 0 128 128 0 255
0.609074 0.353137 4.61562 0 0 0 128 128 0 255
0.636302 0.884437 4.61756 0 0 0 128 128 0 255
0.612338 0.400034 4.61549 0 0 0 128 128 0 255
0.608007 0.236055 4.61347 0 0 0 128 128 0 255
0.617763 0.375746 4.61311 0 0 0 128 128 0 255
0.614274 0.266789 4.61201 0 0 0 128 128 0 255
0.623957 0.38546 4.61129 0 0 0 128 128 0 255
0.621239 0.330528 4.61106 0 0 0 128 128 0 255
0.62191 0.2474 4.60923 0 0 0 128 128 0 255
0.628551 0.265101 4.60762 0 0 0 128 128 0 255
0.642854 0.417587 4.60642 0 0 0 128 128 0 255
0.643008 0.381537 4.60576 0 0 0 128 128 0 255
0.647117 0.42539 4.60546 0 0 0 128 128 0 255
0.644548 0.373454 4.60523 0 0 0 128 128 0 255
0.645912 0.381397 4.60502 0 0 0 128 128 0 255
0.638451 0.230583 4.60438 0 0 0 128 128 0 255
0.64614 0.366369 4.60472 0 0 0 128 128 0 255
0.643337 0.270393 4.60384 0 0 0 128 128 0 255
0.653734 0.382019 4.60317 0 0 0 128 128 0 255
0.674621 0.784476 4.60467 0 0 0 128 128 0 255
0.658239 0.413838 4.60265 0 0 0 128 128 0 255
0.696768 1.17286 4.60569 0 0 0 128 128 0 255
0.660834 0.426727 4.60229 0 0 0 128 128 0 255
0.662256 0.435669 4.60212 0 0 0 128 128 0 255
0.652917 0.246901 4.60131 0 0 0 128 128 0 255
0.662147 0.413648 4.60182 0 0 0 128 128 0 255
0.654616 0.221789 4.6006 0 0 0 128 128 0 255
0.65772 0.264689 4.60058 0 0 0 128 128 0 255
0.712629 1.2752 4.60396 0 0 0 128 128 0 255
0.713216 1.26717 4.60374 0 0 0 128 128 0 255
0.671358 0.401186 4.59986 0 0 0 128 128 0 255
0.669377 0.341212 4.59943 0 0 0 128 128 0 255
0.681132 0.558896 4.60019 0 0 0 128 128 0 255
0.682314 0.562843 4.60003 0 0 0 128 128 0 255
0.681375 0.543866 4.59995 0 0 0 128 128 0 255
0.675001 0.415025 4.5994 0 0 0 128 128 0 255
0.684287 0.58277 4.59995 0 0 0 128 128 0 255
0.67312 0.357048 4.59899 0 0 0 128 128 0 255
0.685766 0.59271 4.59983 0 0 0 128 128 0 255
0.683444 0.545768 4.59963 0 0 0 128 128 0 255
0.677218 0.419923 4.59909 0 0 0 128 128 0 255
0.674646 0.347963 4.59862 0 0 0 128 128 0 255
0.715013 1.14393 4.60186 0 0 0 128 128 0 255
0.67158 0.266016 4.59811 0 0 0 128 128 0 255
0.68907 0.599557 4.59938 0 0 0 128 128 0 255
0.674987 0.314908 4.59816 0 0 0 128 128 0 255
0.670837 0.231011 4.5978 0 0 0 128 128 0 255
0.724298 1.27163 4.60194 0 0 0 128 128 0 255
0.718022 1.14479 4.6014 0 0 0 128 128 0 255
0.67365 0.22787 4.59733 0 0 0 128 128 0 255
0.691191 0.56241 4.59861 0 0 0 128 128 0 255
0.723309 1.17156 4.60093 0 0 0 128 128 0 255
0.686349 0.424483 4.59774 0 0 0 128 128 0 255
0.727757 1.24143 4.60109 0 0 0 128 128 0 255
0.722766 1.14055 4.60066 0 0 0 128 128 0 255
0.687784 0.4134 4.59742 0 0 0 128 128 0 255
0.731268 1.27229 4.60095 0 0 0 128 128 0 255
0.685463 0.346434 4.597 0 0 0 128 128 0 255
0.690752 0.433278 4.59724 0 0 0 128 128 0 255
0.682256 0.241466 4.59629 0 0 0 128 128 0 255
0.739342 1.29493 4.60019 0 0 0 128 128 0 255
0.694032 0.379054 4.59627 0 0 0 128 128 0 255
0.693591 0.350041 4.59604 0 0 0 128 128 0 255
0.700825 0.415765 4.59589 0 0 0 128 128 0 255
0.742781 1.2437 4.59933 0 0 0 128 128 0 255
0.699299 0.364779 4.59558 0 0 0 128 128 0 255
0.709385 0.548504 4.59626 0 0 0 128 128 0 255
0.744443 1.17653 4.59859 0 0 0 128 128 0 255
0.71505 0.562242 4.59588 0 0 0 128 128 0 255
0.700276 0.26361 4.5946 0 0 0 128 128 0 255
0.736815 0.820483 4.59635 0 0 0 128 128 0 255
0.708353 0.245192 4.59389 0 0 0 128 128 0 255
0.740184 0.868375 4.5965 0 0 0 128 128 0 255
0.73792 0.802407 4.59616 0 0 0 128 128 0 255
0.74203 0.86528 4.59638 0 0 0 128 128 0 255
0.740211 0.808301 4.59609 0 0 0 128 128 0 255
0.713192 0.24195 4.59362 0 0 0 128 128 0 255
0.744934 0.84311 4.5961 0 0 0 128 128 0 255
0.738125 0.685256 4.59539 0 0 0 128 128 0 255
0.724349 0.386574 4.59408 0 0 0 128 128 0 255
0.719309 0.2847 4.59364 0 0 0 128 128 0 255
0.748779 0.839917 4.59595 0 0 0 128 128 0 255
0.724913 0.357512 4.59389 0 0 0 128 128 0 255
0.721266 0.263578 4.59346 0 0 0 128 128 0 255
0.72104 0.218535 4.59322 0 0 0 128 128 0 255
0.756729 0.818499 4.59571 0 0 0 128 128 0 255
0.736974 0.398966 4.59391 0 0 0 128 128 0 255
0.730512 0.248103 4.59326 0 0 0 128 128 0 255
0.730572 0.229077 4.59318 0 0 0 128 128 0 255
0.750495 0.611556 4.59482 0 0 0 128 128 0 255
0.751791 0.617499 4.59486 0 0 0 128 128 0 255
0.764203 0.848166 4.59585 0 0 0 128 128 0 255
0.742808 0.415698 4.594 0 0 0 128 128 0 255
0.752612 0.573405 4.5947 0 0 0 128 128 0 255
0.793793 1.36533 4.59813 0 0 0 128 128 0 255
0.794792 1.36528 4.59815 0 0 0 128 128 0 255
0.790157 1.25137 4.59769 0 0 0 128 128 0 255
0.769404 0.831888 4.59589 0 0 0 128 128 0 255
0.74707 0.380445 4.59396 0 0 0 128 128 0 255
0.746082 0.360469 4.59388 0 0 0 128 128 0 255
0.791403 1.25632 4.59774 0 0 0 128 128 0 255
0.756715 0.55518 4.59474 0 0 0 128 128 0 255
0.749067 0.380345 4.59402 0 0 0 128 128 0 255
0.772696 0.837732 4.59601 0 0 0 128 128 0 255
0.765729 0.696906 4.59541 0 0 0 128 128 0 255
0.773644 0.836684 4.59604 0 0 0 128 128 0 255
0.761005 0.560974 4.5949 0 0 0 128 128 0 255
0.799881 1.26591 4.5981 0 0 0 128 128 0 255
0.793902 1.14506 4.59758 0 0 0 128 128 0 255
0.771132 0.664598 4.59558 0 0 0 128 128 0 255
0.766981 0.580702 4.59522 0 0 0 128 128 0 255
0.759925 0.417853 4.59458 0 0 0 128 128 0 255
0.801933 1.24678 4.59818 0 0 0 128 128 0 255
0.781477 0.833291 4.59641 0 0 0 128 128 0 255
0.774114 0.684475 4.59578 0 0 0 128 128 0 255
0.758262 0.343845 4.59438 0 0 0 128 128 0 255
0.753222 0.24197 4.59395 0 0 0 128 128 0 255
0.803927 1.24668 4.5983 0 0 0 128 128 0 255
0.772205 0.605473 4.59556 0 0 0 128 128 0 255
0.760297 0.364769 4.59453 0 0 0 128 128 0 255
0.800081 1.14875 4.59795 0 0 0 128 128 0 255
0.790208 0.928975 4.59708 0 0 0 128 128 0 255
0.760165 0.321723 4.59448 0 0 0 128 128 0 255
0.775787 0.617309 4.59582 0 0 0 128 128 0 255
0.80223 1.13163 4.59809 0 0 0 128 128 0 255
0.78781 0.81996 4.59683 0 0 0 128 128 0 255
0.76741 0.387443 4.59506 0 0 0 128 128 0 255
0.761135 0.2606 4.59452 0 0 0 128 128 0 255
0.788375 0.770872 4.59687 0 0 0 128 128 0 255
0.771031 0.420304 4.59537 0 0 0 128 128 0 255
0.761643 0.230538 4.59456 0 0 0 128 128 0 255
0.819165 1.37308 4.59953 0 0 0 128 128 0 255
0.780575 0.593041 4.59619 0 0 0 128 128 0 255
0.779593 0.553041 4.59611 0 0 0 128 128 0 255
0.77312 0.422202 4.59555 0 0 0 128 128 0 255
0.790766 0.758738 4.59708 0 0 0 128 128 0 255
0.786968 0.661807 4.59676 0 0 0 128 128 0 255
0.774878 0.357034 4.59576 0 0 0 128 128 0 255
0.772615 0.271041 4.59561 0 0 0 128 128 0 255
0.802814 0.841239 4.59827 0 0 0 128 128 0 255
0.780731 0.374764 4.59639 0 0 0 128 128 0 255
0.777035 0.239781 4.59618 0 0 0 128 128 0 255
0.807129 0.828007 4.59881 0 0 0 128 128 0 255
0.804609 0.77707 4.5986 0 0 0 128 128 0 255
0.794826 0.579313 4.59775 0 0 0 128 128 0 255
0.779461 0.248671 4.59647 0 0 0 128 128 0 255
0.778819 0.235687 4.59641 0 0 0 128 128 0 255
0.79567 0.556243 4.59791 0 0 0 128 128 0 255
0.788851 0.418413 4.59733 0 0 0 128 128 0 255
0.792066 0.363183 4.59793 0 0 0 128 128 0 255
0.786483 0.250322 4.59745 0 0 0 128 128 0 255
0.785198 0.224354 4.59734 0 0 0 128 128 0 255
0.840242 1.31696 4.60216 0 0 0 128 128 0 255
0.795325 0.389052 4.59835 0 0 0 128 128 0 255
0.794337 0.369077 4.59826 0 0 0 128 128 0 255
0.798041 0.42396 4.59865 0 0 0 128 128 0 255
0.788456 0.230198 4.59782 0 0 0 128 128 0 255
0.79127 0.267103 4.59814 0 0 0 128 128 0 255
0.824611 0.861173 4.60134 0 0 0 128 128 0 255
0.799851 0.340765 4.59928 0 0 0 128 128 0 255
0.824948 0.828115 4.60154 0 0 0 128 128 0 255
0.815955 0.646339 4.60076 0 0 0 128 128 0 255
0.823603 0.761099 4.60161 0 0 0 128 128 0 255
0.813622 0.559347 4.60075 0 0 0 128 128 0 255
0.817519 0.618225 4.60118 0 0 0 128 128 0 255
0.815395 0.575278 4.601 0 0 0 128 128 0 255
0.844287 1.11951 4.60369 0 0 0 128 128 0 255
0.827924 0.768892 4.60238 0 0 0 128 128 0 255
0.80223 0.249532 4.60016 0 0 0 128 128 0 255
0.822431 0.638003 4.60202 0 0 0 128 128 0 255
0.807706 0.34037 4.60075 0 0 0 128 128 0 255
0.8143 0.414131 4.60165 0 0 0 128 128 0 255
0.864235 1.38384 4.6062 0 0 0 128 128 0 255
0.812106 0.330136 4.6017 0 0 0 128 128 0 255
0.814565 0.36005 4.60204 0 0 0 128 128 0 255
0.841457 0.844306 4.60474 0 0 0 128 128 0 255
0.832881 0.631469 4.60427 0 0 0 128 128 0 255
0.831103 0.595514 4.60412 0 0 0 128 128 0 255
0.821616 0.40375 4.6033 0 0 0 128 128 0 255
0.820232 0.375784 4.60318 0 0 0 128 128 0 255
0.84056 0.747228 4.60522 0 0 0 128 128 0 255
0.831715 0.568449 4.60445 0 0 0 128 128 0 255
0.822163 0.355662 4.60377 0 0 0 128 128 0 255
0.815937 0.229817 4.60323 0 0 0 128 128 0 255
0.833116 0.557364 4.60487 0 0 0 128 128 0 255
0.862845 1.1386 4.60758 0 0 0 128 128 0 255
0.82796 0.433468 4.60457 0 0 0 128 128 0 255
0.865643 1.1755 4.60798 0 0 0 128 128 0 255
0.830326 0.422334 4.60524 0 0 0 128 128 0 255
0.878977 1.3861 4.6096 0 0 0 128 128 0 255
0.868897 1.18235 4.60873 0 0 0 128 128 0 255
0.852887 0.858748 4.60735 0 0 0 128 128 0 255
0.827469 0.325356 4.60531 0 0 0 128 128 0 255
0.824455 0.264431 4.60505 0 0 0 128 128 0 255
0.831648 0.390227 4.60584 0 0 0 128 128 0 255
0.864881 1.04237 4.60888 0 0 0 128 128 0 255
0.854949 0.841622 4.60802 0 0 0 128 128 0 255
0.870986 1.1462 4.60958 0 0 0 128 128 0 255
0.866341 1.05231 4.60918 0 0 0 128 128 0 255
0.857276 0.849514 4.60857 0 0 0 128 128 0 255
0.836276 0.425037 4.60675 0 0 0 128 128 0 255
0.87252 1.13811 4.61006 0 0 0 128 128 0 255
0.871458 1.09711 4.61015 0 0 0 128 128 0 255
0.869877 1.06515 4.61001 0 0 0 128 128 0 255
0.858858 0.842425 4.60906 0 0 0 128 128 0 255
0.835931 0.378996 4.60708 0 0 0 128 128 0 255
0.858659 0.79938 4.60941 0 0 0 128 128 0 255
0.845516 0.533708 4.60827 0 0 0 128 128 0 255
0.884102 1.2747 4.61198 0 0 0 128 128 0 255
0.876752 1.06781 4.61193 0 0 0 128 128 0 255
0.845148 0.409568 4.6094 0 0 0 128 128 0 255
0.842431 0.354636 4.60916 0 0 0 128 128 0 255
0.854177 0.553294 4.61058 0 0 0 128 128 0 255
0.843505 0.33756 4.60966 0 0 0 128 128 0 255
0.85762 0.584159 4.6113 0 0 0 128 128 0 255
0.888172 1.18237 4.61415 0 0 0 128 128 0 255
0.872014 0.855776 4.61275 0 0 0 128 128 0 255
0.888088 1.16135 4.61436 0 0 0 128 128 0 255
0.872982 0.836702 4.61327 0 0 0 128 128 0 255
0.890585 1.17324 4.61501 0 0 0 128 128 0 255
0.900738 1.33994 4.61634 0 0 0 128 128 0 255
0.855823 0.432055 4.61246 0 0 0 128 128 0 255
0.90397 1.36681 4.61708 0 0 0 128 128 0 255
0.855695 0.391009 4.61291 0 0 0 128 128 0 255
0.854954 0.376028 4.61284 0 0 0 128 128 0 255
0.89548 1.17599 4.61658 0 0 0 128 128 0 255
0.896131 1.16995 4.61687 0 0 0 128 128 0 255
0.851371 0.246043 4.61324 0 0 0 128 128 0 255
0.861408 0.429769 4.61435 0 0 0 128 128 0 255
0.86932 0.570547 4.61528 0 0 0 128 128 0 255
0.862007 0.422729 4.61464 0 0 0 128 128 0 255
0.857807 0.337834 4.61428 0 0 0 128 128 0 255
0.85964 0.355764 4.61469 0 0 0 128 128 0 255
0.86325 0.409649 4.61525 0 0 0 128 128 0 255
0.86518 0.429576 4.61567 0 0 0 128 128 0 255
0.91578 1.37622 4.62107 0 0 0 128 128 0 255
0.875459 0.542198 4.61785 0 0 0 128 128 0 255
0.917654 1.37612 4.62176 0 0 0 128 128 0 255
0.869474 0.383298 4.61787 0 0 0 128 128 0 255
0.869128 0.376307 4.61784 0 0 0 128 128 0 255
0.863248 0.257453 4.61733 0 0 0 128 128 0 255
0.906479 1.11235 4.62134 0 0 0 128 128 0 255
0.905096 1.08439 4.62122 0 0 0 128 128 0 255
0.919864 1.36399 4.62277 0 0 0 128 128 0 255
0.910526 1.17523 4.62196 0 0 0 128 128 0 255
0.921587 1.37993 4.6232 0 0 0 128 128 0 255
0.921621 1.34288 4.62376 0 0 0 128 128 0 255
0.914398 1.17803 4.62342 0 0 0 128 128 0 255
0.878207 0.408885 4.62087 0 0 0 128 128 0 255
0.927001 1.35762 4.62568 0 0 0 128 128 0 255
0.879269 0.39281 4.62155 0 0 0 128 128 0 255
0.874496 0.25888 4.62174 0 0 0 128 128 0 255
0.931565 1.35639 4.62759 0 0 0 128 128 0 255
0.918075 1.08372 4.62642 0 0 0 128 128 0 255
0.882647 0.367604 4.62336 0 0 0 128 128 0 255
0.933522 1.37731 4.62807 0 0 0 128 128 0 255
0.922762 1.08548 4.6284 0 0 0 128 128 0 255
0.927577 1.12729 4.6298 0 0 0 128 128 0 255
0.902497 0.601892 4.62796 0 0 0 128 128 0 255
0.901805 0.587909 4.6279 0 0 0 128 128 0 255
0.929101 1.12121 4.63059 0 0 0 128 128 0 255
0.94182 1.35986 4.63203 0 0 0 128 128 0 255
0.913408 0.785572 4.62957 0 0 0 128 128 0 255
0.89297 0.354057 4.62815 0 0 0 128 128 0 255
0.934839 1.18199 4.6321 0 0 0 128 128 0 255
0.930589 1.0961 4.63174 0 0 0 128 128 0 255
0.91542 0.789474 4.63043 0 0 0 128 128 0 255
0.889676 0.269115 4.6282 0 0 0 128 128 0 255
0.933719 1.14099 4.63235 0 0 0 128 128 0 255
0.916276 0.788428 4.63084 0 0 0 128 128 0 255
0.88905 0.238107 4.62849 0 0 0 128 128 0 255
0.934771 1.14394 4.63279 0 0 0 128 128 0 255
0.934524 1.13895 4.63277 0 0 0 128 128 0 255
0.931559 1.07902 4.63251 0 0 0 128 128 0 255
0.896625 0.372894 4.62949 0 0 0 128 128 0 255
0.90746 0.5736 4.63078 0 0 0 128 128 0 255
0.935687 1.12587 4.63357 0 0 0 128 128 0 255
0.894292 0.27088 4.63034 0 0 0 128 128 0 255
0.900825 0.384693 4.63126 0 0 0 128 128 0 255
0.895883 0.284816 4.63084 0 0 0 128 128 0 255
0.92381 0.831097 4.63361 0 0 0 128 128 0 255
0.894855 0.245818 4.63111 0 0 0 128 128 0 255
0.937407 1.08773 4.63514 0 0 0 128 128 0 255
0.900397 0.339656 4.63195 0 0 0 128 128 0 255
0.894962 0.229791 4.63148 0 0 0 128 128 0 255
0.938995 1.10167 4.63564 0 0 0 128 128 0 255
0.928174 0.88294 4.63471 0 0 0 128 128 0 255
0.924325 0.787012 4.63474 0 0 0 128 128 0 255
0.897153 0.219665 4.63276 0 0 0 128 128 0 255
0.92883 0.841852 4.63587 0 0 0 128 128 0 255
0.945336 1.15742 4.63767 0 0 0 128 128 0 255
0.909216 0.427317 4.63455 0 0 0 128 128 0 255
0.91811 0.571048 4.63607 0 0 0 128 128 0 255
0.906597 0.338335 4.63508 0 0 0 128 128 0 255
0.87868 -0.22597 4.63267 0 0 0 128 128 0 255
0.917417 0.539042 4.63639 0 0 0 128 128 0 255
0.91717 0.534048 4.63637 0 0 0 128 128 0 255
0.911587 0.421187 4.63589 0 0 0 128 128 0 255
0.932436 0.824644 4.63808 0 0 0 128 128 0 255
0.947305 1.10725 4.63975 0 0 0 128 128 0 255
0.948733 1.11819 4.64026 0 0 0 128 128 0 255
0.933069 0.80158 4.6389 0 0 0 128 128 0 255
0.932279 0.7856 4.63884 0 0 0 128 128 0 255
0.913446 0.387046 4.6376 0 0 0 128 128 0 255
0.910828 0.334111 4.63737 0 0 0 128 128 0 255
0.910136 0.320128 4.63731 0 0 0 128 128 0 255
0.907072 0.258204 4.63705 0 0 0 128 128 0 255
0.951724 1.12504 4.6417 0 0 0 128 128 0 255
0.948364 1.05713 4.6414 0 0 0 128 128 0 255
0.951825 1.05595 4.64331 0 0 0 128 128 0 255
0.95115 1.00692 4.64407 0 0 0 128 128 0 255
0.928569 0.55048 4.64212 0 0 0 128 128 0 255
0.92285 0.399576 4.64245 0 0 0 128 128 0 255
0.921743 0.35958 4.64278 0 0 0 128 128 0 255
0.972269 1.3633 4.64756 0 0 0 128 128 0 255
0.959225 1.09962 4.64643 0 0 0 128 128 0 255
0.958138 1.07765 4.64634 0 0 0 128 128 0 255
0.933755 0.567234 4.64466 0 0 0 128 128 0 255
0.961425 1.0915 4.6479 0 0 0 128 128 0 255
0.937015 0.598106 4.64579 0 0 0 128 128 0 255
0.936225 0.582125 4.64572 0 0 0 128 128 0 255
0.918634 0.226563 4.6442 0 0 0 128 128 0 255
0.938322 0.60705 4.64633 0 0 0 128 128 0 255
0.920929 0.255483 4.64483 0 0 0 128 128 0 255
0.949036 0.788736 4.64812 0 0 0 128 128 0 255
0.947158 0.750783 4.64796 0 0 0 128 128 0 255
0.966052 1.11529 4.65003 0 0 0 128 128 0 255
0.927511 0.336249 4.6467 0 0 0 128 128 0 255
0.932534 0.403078 4.64802 0 0 0 128 128 0 255
0.972782 1.18203 4.65238 0 0 0 128 128 0 255
0.968582 1.09713 4.65202 0 0 0 128 128 0 255
0.975834 1.17486 4.65446 0 0 0 128 128 0 255
0.946088 0.573601 4.65189 0 0 0 128 128 0 255
0.956915 0.775309 4.65328 0 0 0 128 128 0 255
0.973868 1.10086 4.65521 0 0 0 128 128 0 255
0.947383 0.565523 4.65292 0 0 0 128 128 0 255
0.938539 0.386743 4.65216 0 0 0 128 128 0 255
0.933597 0.286866 4.65173 0 0 0 128 128 0 255
0.970513 0.998901 4.65585 0 0 0 128 128 0 255
0.938543 0.352697 4.65308 0 0 0 128 128 0 255
0.935628 0.29377 4.65283 0 0 0 128 128 0 255
0.911268 -0.198624 4.65073 0 0 0 128 128 0 255
0.942447 0.414577 4.65389 0 0 0 128 128 0 255
0.9755 1.04871 4.65769 0 0 0 128 128 0 255
0.979196 1.08957 4.65896 0 0 0 128 128 0 255
0.937683 0.233581 4.65585 0 0 0 128 128 0 255
0.978488 1.04154 4.65986 0 0 0 128 128 0 255
0.947112 0.407324 4.65715 0 0 0 128 128 0 255
0.955897 0.568082 4.65839 0 0 0 128 128 0 255
0.945076 0.349352 4.65746 0 0 0 128 128 0 255
0.941951 0.269407 4.65768 0 0 0 128 128 0 255
0.941197 0.237403 4.6581 0 0 0 128 128 0 255
0.985258 1.11128 4.6624 0 0 0 128 128 0 255
0.950769 0.414142 4.65942 0 0 0 128 128 0 255
0.951197 0.406108 4.65995 0 0 0 128 128 0 255
1.00345 1.36267 4.66747 0 0 0 128 128 0 255
0.925079 -0.221377 4.6607 0 0 0 128 128 0 255
1.00421 1.36163 4.66805 0 0 0 128 128 0 255
0.952624 0.318915 4.66359 0 0 0 128 128 0 255
0.95647 0.363774 4.66495 0 0 0 128 128 0 255
0.95181 0.236846 4.66559 0 0 0 128 128 0 255
0.999966 1.1776 4.67079 0 0 0 128 128 0 255
0.964401 0.442465 4.66824 0 0 0 128 128 0 255
0.94939 0.122817 4.66748 0 0 0 128 128 0 255
0.967401 0.42228 4.67117 0 0 0 128 128 0 255
0.959446 0.261478 4.67048 0 0 0 128 128 0 255
1.0141 1.35009 4.67574 0 0 0 128 128 0 255
0.998384 1.03249 4.67438 0 0 0 128 128 0 255
1.01862 1.34585 4.67942 0 0 0 128 128 0 255
1.01975 1.3528 4.68007 0 0 0 128 128 0 255
1.02137 1.36974 4.68077 0 0 0 128 128 0 255
0.98011 0.535766 4.6772 0 0 0 128 128 0 255
0.972748 0.386949 4.67657 0 0 0 128 128 0 255
1.02353 1.3506 4.6832 0 0 0 128 128 0 255
1.02391 1.34257 4.68381 0 0 0 128 128 0 255
0.977708 0.408717 4.67981 0 0 0 128 128 0 255
1.0267 1.38348 4.68462 0 0 0 128 128 0 255
0.976676 0.356699 4.68087 0 0 0 128 128 0 255
0.975441 0.33173 4.68076 0 0 0 128 128 0 255
0.983042 0.423455 4.68373 0 0 0 128 128 0 255
0.987579 0.408192 4.68826 0 0 0 128 128 0 255
1.02094 1.0373 4.69294 0 0 0 128 128 0 255
0.990458 0.421057 4.69031 0 0 0 128 128 0 255
0.987789 0.367124 4.69008 0 0 0 128 128 0 255
0.986455 0.340157 4.68996 0 0 0 128 128 0 255
1.02297 1.04821 4.69433 0 0 0 128 128 0 255
1.0155 0.867349 4.69491 0 0 0 128 128 0 255
1.04098 1.35267 4.69834 0 0 0 128 128 0 255
0.995563 0.419783 4.69503 0 0 0 128 128 0 255
0.994711 0.387784 4.69558 0 0 0 128 128 0 255
0.993229 0.35782 4.69545 0 0 0 128 128 0 255
0.981173 0.114121 4.69441 0 0 0 128 128 0 255
1.02271 0.939065 4.69862 0 0 0 128 128 0 255
0.964887 -0.244515 4.69425 0 0 0 128 128 0 255
0.995109 0.351711 4.69749 0 0 0 128 128 0 255
0.995337 0.341685 4.69813 0 0 0 128 128 0 255
0.997984 0.380598 4.69899 0 0 0 128 128 0 255
0.995565 0.302617 4.70005 0 0 0 128 128 0 255
0.968537 -0.243709 4.69772 0 0 0 128 128 0 255
0.99882 0.339495 4.70161 0 0 0 128 128 0 255
1.02908 0.936721 4.70486 0 0 0 128 128 0 255
1.0518 1.35309 4.70876 0 0 0 128 128 0 255
1.0057 0.421242 4.70478 0 0 0 128 128 0 255
1.01757 0.646926 4.70645 0 0 0 128 128 0 255
1.00502 0.393239 4.70537 0 0 0 128 128 0 255
1.03246 0.933535 4.70839 0 0 0 128 128 0 255
1.03301 0.930501 4.70909 0 0 0 128 128 0 255
1.03702 0.997381 4.71009 0 0 0 128 128 0 255
1.00618 0.374149 4.70743 0 0 0 128 128 0 255
1.0262 0.764631 4.70982 0 0 0 128 128 0 255
1.03598 0.934347 4.71198 0 0 0 128 128 0 255
1.01039 0.416984 4.70977 0 0 0 128 128 0 255
1.00708 0.336047 4.71015 0 0 0 128 128 0 255
1.00989 0.378957 4.71106 0 0 0 128 128 0 255
1.04136 1.00115 4.71444 0 0 0 128 128 0 255
1.0211 0.591658 4.71269 0 0 0 128 128 0 255
1.02066 0.582669 4.71265 0 0 0 128 128 0 255
1.02361 0.628575 4.71358 0 0 0 128 128 0 255
1.01057 0.3649 4.71245 0 0 0 128 128 0 255
1.011 0.359869 4.71316 0 0 0 128 128 0 255
1.02221 0.57257 4.7148 0 0 0 128 128 0 255
1.02733 0.662423 4.71592 0 0 0 128 128 0 255
1.02416 0.584482 4.71632 0 0 0 128 128 0 255
1.00928 0.283853 4.71504 0 0 0 128 128 0 255
1.03407 0.771216 4.71786 0 0 0 128 128 0 255
1.06261 1.33449 4.721 0 0 0 128 128 0 255
1.03176 0.697234 4.71902 0 0 0 128 128 0 255
1.01345 0.31367 4.71813 0 0 0 128 128 0 255
1.06397 1.32139 4.72318 0 0 0 128 128 0 255
1.01634 0.358579 4.71906 0 0 0 128 128 0 255
1.00399 0.108886 4.718 0 0 0 128 128 0 255
1.03396 0.661062 4.72335 0 0 0 128 128 0 255
1.06112 1.17033 4.7278 0 0 0 128 128 0 255
1.03582 0.658958 4.72561 0 0 0 128 128 0 255
1.03498 0.641979 4.72554 0 0 0 128 128 0 255
1.03202 0.582052 4.72528 0 0 0 128 128 0 255
1.01685 0.27543 4.72397 0 0 0 128 128 0 255
1.03588 0.646937 4.72632 0 0 0 128 128 0 255
1.03489 0.626962 4.72623 0 0 0 128 128 0 255
1.05378 0.982453 4.72927 0 0 0 128 128 0 255
1.04256 0.755732 4.7283 0 0 0 128 128 0 255
1.04123 0.702727 4.72961 0 0 0 128 128 0 255
1.02522 0.379126 4.72823 0 0 0 128 128 0 255
1.07636 1.39983 4.73335 0 0 0 128 128 0 255
1.04054 0.675726 4.73026 0 0 0 128 128 0 255
1.02526 0.354087 4.72965 0 0 0 128 128 0 255
1.03376 0.512857 4.7311 0 0 0 128 128 0 255
1.02511 0.338072 4.73036 0 0 0 128 128 0 255
1.08072 1.42363 4.73732 0 0 0 128 128 0 255
1.03847 0.569683 4.73367 0 0 0 128 128 0 255
1.04943 0.778391 4.73534 0 0 0 128 128 0 255
1.03134 0.412841 4.73378 0 0 0 128 128 0 255
1.04643 0.667391 4.73799 0 0 0 128 128 0 255
1.04216 0.568479 4.73835 0 0 0 128 128 0 255
1.03101 0.330738 4.73813 0 0 0 128 128 0 255
1.05327 0.768165 4.74078 0 0 0 128 128 0 255
1.07218 1.12566 4.7439 0 0 0 128 128 0 255
1.03329 0.339626 4.74054 0 0 0 128 128 0 255
1.05717 0.810013 4.74334 0 0 0 128 128 0 255
1.03405 0.342589 4.74134 0 0 0 128 128 0 255
1.02337 0.126855 4.74042 0 0 0 128 128 0 255
1.03258 0.300607 4.74196 0 0 0 128 128 0 255
1.08566 1.36127 4.74729 0 0 0 128 128 0 255
1.04114 0.461376 4.74344 0 0 0 128 128 0 255
1.07944 1.2234 4.7475 0 0 0 128 128 0 255
1.0496 0.584093 4.74717 0 0 0 128 128 0 255
1.08196 1.20223 4.75223 0 0 0 128 128 0 255
1.08225 1.19621 4.75302 0 0 0 128 128 0 255
1.05033 0.551003 4.75026 0 0 0 128 128 0 255
1.07499 1.00232 4.75545 0 0 0 128 128 0 255
1.04297 0.355115 4.75268 0 0 0 128 128 0 255
1.09221 1.33887 4.7577 0 0 0 128 128 0 255
1.09592 1.39074 4.75956 0 0 0 128 128 0 255
1.05928 0.615604 4.75872 0 0 0 128 128 0 255
1.0633 0.685486 4.75985 0 0 0 128 128 0 255
1.08812 1.17585 4.76277 0 0 0 128 128 0 255
1.0818 1.04801 4.76222 0 0 0 128 128 0 255
1.06302 0.668476 4.7606 0 0 0 128 128 0 255
1.06725 0.731336 4.76253 0 0 0 128 128 0 255
1.06839 0.743291 4.76342 0 0 0 128 128 0 255
1.05876 0.537513 4.76337 0 0 0 128 128 0 255
1.05136 0.365664 4.76431 0 0 0 128 128 0 255
1.05186 0.364634 4.76514 0 0 0 128 128 0 255
1.08363 0.995826 4.76868 0 0 0 128 128 0 255
1.05878 0.439361 4.77052 0 0 0 128 128 0 255
1.07368 0.697924 4.77503 0 0 0 128 128 0 255
1.06992 0.622018 4.77471 0 0 0 128 128 0 255
1.04709 0.160586 4.77274 0 0 0 128 128 0 255
1.06847 0.582038 4.77539 0 0 0 128 128 0 255
1.06992 0.600985 4.77633 0 0 0 128 128 0 255
1.07809 0.755765 4.77785 0 0 0 128 128 0 255
1.06821 0.556011 4.77699 0 0 0 128 128 0 255
1.07935 0.770718 4.77877 0 0 0 128 128 0 255
1.07593 0.670754 4.78092 0 0 0 128 128 0 255
1.06547 0.448999 4.78084 0 0 0 128 128 0 255
1.07565 0.644729 4.78254 0 0 0 128 128 0 255
1.07912 0.704627 4.78366 0 0 0 128 128 0 255
1.07912 0.684595 4.78531 0 0 0 128 128 0 255
1.064 0.378972 4.78401 0 0 0 128 128 0 255
1.06419 0.362935 4.78568 0 0 0 128 128 0 255
1.11526 1.37563 4.79176 0 0 0 128 128 0 255
1.08284 0.710424 4.78979 0 0 0 128 128 0 255
1.08253 0.694416 4.7906 0 0 0 128 128 0 255
1.07937 0.630495 4.79032 0 0 0 128 128 0 255
1.08072 0.619399 4.7938 0 0 0 128 128 0 255
1.10448 1.05273 4.80008 0 0 0 128 128 0 255
1.08976 0.755099 4.7988 0 0 0 128 128 0 255
1.08799 0.710127 4.7995 0 0 0 128 128 0 255
1.08532 0.656194 4.79927 0 0 0 128 128 0 255
1.07885 0.525355 4.79871 0 0 0 128 128 0 255
1.09073 0.738014 4.8023 0 0 0 128 128 0 255
1.08421 0.606177 4.80173 0 0 0 128 128 0 255
1.09251 0.75594 4.80416 0 0 0 128 128 0 255
1.09271 0.750921 4.80504 0 0 0 128 128 0 255
1.09444 0.741805 4.8095 0 0 0 128 128 0 255
1.08604 0.545971 4.81137 0 0 0 128 128 0 255
1.09686 0.747674 4.81405 0 0 0 128 128 0 255
1.09095 0.594765 4.81704 0 0 0 128 128 0 255
1.09784 0.701538 4.82116 0 0 0 128 128 0 255
1.06785 0.0792574 4.82033 0 0 0 128 128 0 255
1.0928 0.575622 4.82338 0 0 0 128 128 0 255
1.07055 0.11015 4.82323 0 0 0 128 128 0 255
1.07044 0.077099 4.82679 0 0 0 128 128 0 255
1.07994 0.12661 4.84572 0 0 0 128 128 0 255
1.07816 0.0906544 4.84557 0 0 0 128 128 0 255
1.08125 0.146565 4.84675 0 0 0 128 128 0 255
1.1435 1.37897 4.85581 0 0 0 128 128 0 255
1.10239 0.547991 4.85226 0 0 0 128 128 0 255
1.06572 -0.25421 4.85836 0 0 0 128 128 0 255
1.08663 0.102139 4.87143 0 0 0 128 128 0 255
1.13491 1.03786 4.88318 0 0 0 128 128 0 255
1.09332 0.111704 4.89877 0 0 0 128 128 0 255
1.13805 0.965466 4.91721 0 0 0 128 128 0 255
1.1417 1.01731 4.92536 0 0 0 128 128 0 255
1.14188 1.01128 4.9293 0 0 0 128 128 0 255
1.09746 0.091314 4.93632 0 0 0 128 128 0 255
1.09824 0.105288 4.93737 0 0 0 128 128 0 255
1.15031 1.15297 4.94484 0 0 0 128 128 0 255
1.14356 1.01514 4.94525 0 0 0 128 128 0 255
1.09824 0.0962518 4.94332 0 0 0 128 128 0 255
1.1491 1.12298 4.9487 0 0 0 128 128 0 255
1.09787 0.0772002 4.95422 0 0 0 128 128 0 255
1.144 1.00501 4.96718 0 0 0 128 128 0 255
1.14223 0.969047 4.96803 0 0 0 128 128 0 255
1.13632 0.849185 4.96952 0 0 0 128 128 0 255
