ply
format ascii 1.0
comment VCGLIB generated
element vertex 82
property float x
property float y
property float z
property float nx
property float ny
property float nz
property uchar red
property uchar green
property uchar blue
property uchar alpha
element face 0
property list uchar int vertex_indices
end_header
-2.63702 1.21123 4.92784 0 0 0 0 0 128 255
-2.69029 1.39942 5.1718 0 0 0 0 0 128 255
-2.68867 1.36975 5.13668 0 0 0 0 0 128 255
-2.70496 1.35294 5.14586 0 0 0 0 0 128 255
-2.69022 1.22913 5.01199 0 0 0 0 0 128 255
-2.7247 1.36449 5.19242 0 0 0 0 0 128 255
-2.72707 1.41716 5.26037 0 0 0 0 0 128 255
-2.72597 1.37454 5.20613 0 0 0 0 0 128 255
-2.73245 1.38647 5.23226 0 0 0 0 0 128 255
-2.73507 1.38651 5.23729 0 0 0 0 0 128 255
-2.74296 1.39577 5.26424 0 0 0 0 0 128 255
-2.75016 1.36991 5.2463 0 0 0 0 0 128 255
-2.75477 1.40354 5.29865 0 0 0 0 0 128 255
-2.81912 1.25014 5.24907 0 0 0 0 0 128 255
-2.8341 1.32968 5.37958 0 0 0 0 0 128 255
-2.8311 1.21031 5.23317 0 0 0 0 0 128 255
-2.82431 1.11512 5.13853 0 0 0 0 0 128 255
-2.84581 1.22954 5.28386 0 0 0 0 0 128 255
-2.81507 1.03881 5.07067 0 0 0 0 0 128 255
-2.85315 1.25975 5.33502 0 0 0 0 0 128 255
-2.81967 1.0342 5.07545 0 0 0 0 0 128 255
-2.72398 0.779061 4.83339 0 0 0 0 0 128 255
-2.84109 1.12897 5.18036 0 0 0 0 0 128 255
-2.85633 1.23773 5.31666 0 0 0 0 0 128 255
-2.83134 1.06395 5.11447 0 0 0 0 0 128 255
-2.85417 1.35972 5.48252 0 0 0 0 0 128 255
-2.8226 1.02077 5.07222 0 0 0 0 0 128 255
-2.82606 1.02557 5.08087 0 0 0 0 0 128 255
-2.82251 1.00724 5.06416 0 0 0 0 0 128 255
-2.85553 1.3707 5.50677 0 0 0 0 0 128 255
-2.83303 1.04453 5.10463 0 0 0 0 0 128 255
-2.85102 1.12556 5.19677 0 0 0 0 0 128 255
-2.73842 0.778537 4.85123 0 0 0 0 0 128 255
-2.82205 0.99028 5.05386 0 0 0 0 0 128 255
-2.85884 1.36947 5.51527 0 0 0 0 0 128 255
-2.81444 0.958061 5.02477 0 0 0 0 0 128 255
-2.8152 0.958084 5.02598 0 0 0 0 0 128 255
-2.82623 0.986981 5.05886 0 0 0 0 0 128 255
-2.74242 0.763454 4.85239 0 0 0 0 0 128 255
-2.82242 0.964426 5.04066 0 0 0 0 0 128 255
-2.73977 0.750769 4.84592 0 0 0 0 0 128 255
-2.7505 0.762487 4.86244 0 0 0 0 0 128 255
-2.87602 1.34687 5.53018 0 0 0 0 0 128 255
-2.89373 1.26289 5.44623 0 0 0 0 0 128 255
-2.89777 1.25865 5.45202 0 0 0 0 0 128 255
-2.83256 0.858781 5.00899 0 0 0 0 0 128 255
-2.87727 1.41137 5.69172 0 0 0 0 0 128 255
-2.83909 0.868596 5.02319 0 0 0 0 0 128 255
-2.87258 1.42781 5.72116 0 0 0 0 0 128 255
-2.88262 1.41235 5.72567 0 0 0 0 0 128 255
-2.91598 1.13976 5.35434 0 0 0 0 0 128 255
-2.91879 1.21672 5.45532 0 0 0 0 0 128 255
-2.73515 0.582655 4.81282 0 0 0 0 0 128 255
-2.92314 1.21232 5.4625 0 0 0 0 0 128 255
-2.89352 1.40801 5.78333 0 0 0 0 0 128 255
-2.92888 1.08779 5.33519 0 0 0 0 0 128 255
-2.89367 1.40979 5.79303 0 0 0 0 0 128 255
-2.93673 1.06428 5.33317 0 0 0 0 0 128 255
-2.94303 1.09698 5.38102 0 0 0 0 0 128 255
-2.94377 1.10006 5.38622 0 0 0 0 0 128 255
-2.87899 1.44953 5.90149 0 0 0 0 0 128 255
-2.93639 1.00252 5.28161 0 0 0 0 0 128 255
-2.94717 1.06629 5.36184 0 0 0 0 0 128 255
-2.93926 0.988965 5.27829 0 0 0 0 0 128 255
-2.95316 1.0526 5.36484 0 0 0 0 0 128 255
-2.9531 1.04223 5.35521 0 0 0 0 0 128 255
-2.83806 0.64243 4.9585 0 0 0 0 0 128 255
-2.95722 1.03194 5.35685 0 0 0 0 0 128 255
-2.8433 0.628902 4.96427 0 0 0 0 0 128 255
-2.97197 1.01101 5.37802 0 0 0 0 0 128 255
-2.91414 1.3936 5.95792 0 0 0 0 0 128 255
-2.94202 1.34053 5.91383 0 0 0 0 0 128 255
-2.93734 1.35202 5.97426 0 0 0 0 0 128 255
-2.99377 0.867395 5.33078 0 0 0 0 0 128 255
-2.9465 1.33449 6.00469 0 0 0 0 0 128 255
-3.00431 0.851665 5.34915 0 0 0 0 0 128 255
-3.01432 1.1591 5.77404 0 0 0 0 0 128 255
-2.98749 1.25028 6.02482 0 0 0 0 0 128 255
-3.00202 0.649931 5.26235 0 0 0 0 0 128 255
-3.04065 0.69643 5.3755 0 0 0 0 0 128 255
-3.01861 1.17789 6.03678 0 0 0 0 0 128 255
-3.04479 0.650441 5.37258 0 0 0 0 0 128 255
