ply
format ascii 1.0
comment VCGLIB generated
element vertex 971
property float x
property float y
property float z
property float nx
property float ny
property float nz
property uchar red
property uchar green
property uchar blue
property uchar alpha
element face 0
property list uchar int vertex_indices
end_header
2.68731 0.362045 4.12879 0 0 0 255 255 0 255
2.72739 0.169057 4.07964 0 0 0 255 255 0 255
2.69676 0.357834 4.05559 0 0 0 255 255 0 255
2.62661 0.781629 4.03577 0 0 0 255 255 0 255
2.62646 0.782467 4.03173 0 0 0 255 255 0 255
2.6991 0.342356 4.03816 0 0 0 255 255 0 255
2.67898 0.463578 4.03264 0 0 0 255 255 0 255
2.72695 0.173682 4.04246 0 0 0 255 255 0 255
2.69881 0.342047 4.03117 0 0 0 255 255 0 255
2.67927 0.459277 4.0248 0 0 0 255 255 0 255
2.68142 0.443165 4.01841 0 0 0 255 255 0 255
2.67914 0.456968 4.0179 0 0 0 255 255 0 255
2.68003 0.448826 4.01321 0 0 0 255 255 0 255
2.68109 0.42804 3.99511 0 0 0 255 255 0 255
2.72554 0.157783 4.00322 0 0 0 255 255 0 255
2.58093 1.025 3.96491 0 0 0 255 255 0 255
2.71919 0.185739 3.99231 0 0 0 255 255 0 255
2.68432 0.390472 3.97974 0 0 0 255 255 0 255
2.68142 0.403014 3.97535 0 0 0 255 255 0 255
2.62751 0.727304 3.96226 0 0 0 255 255 0 255
2.67922 0.413719 3.97299 0 0 0 255 255 0 255
2.71462 0.194565 3.97727 0 0 0 255 255 0 255
2.68069 0.392364 3.96501 0 0 0 255 255 0 255
2.67273 0.428235 3.9559 0 0 0 255 255 0 255
2.61942 0.748573 3.94297 0 0 0 255 255 0 255
2.59895 0.865579 3.93474 0 0 0 255 255 0 255
2.71515 0.155331 3.95645 0 0 0 255 255 0 255
2.59186 0.885212 3.92154 0 0 0 255 255 0 255
2.66846 0.42077 3.93793 0 0 0 255 255 0 255
2.58862 0.902873 3.91993 0 0 0 255 255 0 255
2.5887 0.894641 3.91643 0 0 0 255 255 0 255
2.67215 0.38673 3.9335 0 0 0 255 255 0 255
2.58938 0.886579 3.91484 0 0 0 255 255 0 255
2.69812 0.219669 3.93501 0 0 0 255 255 0 255
2.57719 0.904963 3.89077 0 0 0 255 255 0 255
2.70262 0.142669 3.91739 0 0 0 255 255 0 255
2.47863 1.45426 3.85384 0 0 0 255 255 0 255
2.68969 0.15488 3.8943 0 0 0 255 255 0 255
2.51783 1.0641 3.82501 0 0 0 255 255 0 255
2.66605 0.158676 3.85633 0 0 0 255 255 0 255
2.45285 1.40335 3.80005 0 0 0 255 255 0 255
2.5096 1.02349 3.80625 0 0 0 255 255 0 255
2.50622 1.02481 3.80227 0 0 0 255 255 0 255
2.49262 1.06377 3.79233 0 0 0 255 255 0 255
2.49299 1.03325 3.78818 0 0 0 255 255 0 255
2.42767 1.41945 3.77227 0 0 0 255 255 0 255
2.42587 1.42621 3.77127 0 0 0 255 255 0 255
2.48804 1.03834 3.78353 0 0 0 255 255 0 255
2.56933 0.543284 3.80128 0 0 0 255 255 0 255
2.48297 1.06482 3.78181 0 0 0 255 255 0 255
2.42434 1.41468 3.76801 0 0 0 255 255 0 255
2.42164 1.41412 3.76511 0 0 0 255 255 0 255
2.56054 0.549637 3.79307 0 0 0 255 255 0 255
2.56116 0.541609 3.79265 0 0 0 255 255 0 255
2.56303 0.521608 3.79198 0 0 0 255 255 0 255
2.41398 1.42173 3.75837 0 0 0 255 255 0 255
2.63533 0.0542814 3.80452 0 0 0 255 255 0 255
2.44595 1.19792 3.76182 0 0 0 255 255 0 255
2.4648 1.06622 3.76398 0 0 0 255 255 0 255
2.57554 0.379458 3.78689 0 0 0 255 255 0 255
2.54844 0.543117 3.78078 0 0 0 255 255 0 255
2.4593 1.08142 3.76068 0 0 0 255 255 0 255
2.53809 0.591975 3.77693 0 0 0 255 255 0 255
2.45671 1.07886 3.75808 0 0 0 255 255 0 255
2.60559 0.161391 3.78968 0 0 0 255 255 0 255
2.60314 0.17618 3.78913 0 0 0 255 255 0 255
2.46192 1.02898 3.75729 0 0 0 255 255 0 255
2.6024 0.176032 3.78847 0 0 0 255 255 0 255
2.58515 0.266292 3.78314 0 0 0 255 255 0 255
2.52914 0.581035 3.76815 0 0 0 255 255 0 255
2.45132 1.04623 3.75014 0 0 0 255 255 0 255
2.54694 0.459322 3.77078 0 0 0 255 255 0 255
2.44109 1.08901 3.746 0 0 0 255 255 0 255
2.54616 0.444919 3.76879 0 0 0 255 255 0 255
2.45033 1.02364 3.74719 0 0 0 255 255 0 255
2.44821 1.03646 3.74671 0 0 0 255 255 0 255
2.54523 0.445754 3.76814 0 0 0 255 255 0 255
2.39234 1.35938 3.73278 0 0 0 255 255 0 255
2.55123 0.39502 3.76817 0 0 0 255 255 0 255
2.55372 0.37515 3.7683 0 0 0 255 255 0 255
2.43589 1.08189 3.74129 0 0 0 255 255 0 255
2.55105 0.376666 3.7664 0 0 0 255 255 0 255
2.54818 0.384249 3.76491 0 0 0 255 255 0 255
2.53969 0.435515 3.76299 0 0 0 255 255 0 255
2.54739 0.384096 3.76431 0 0 0 255 255 0 255
2.54462 0.400856 3.76368 0 0 0 255 255 0 255
2.54549 0.385762 3.76305 0 0 0 255 255 0 255
2.53525 0.437708 3.75992 0 0 0 255 255 0 255
2.52072 0.525452 3.75664 0 0 0 255 255 0 255
2.59975 0.0431958 3.77406 0 0 0 255 255 0 255
2.52384 0.501637 3.75694 0 0 0 255 255 0 255
2.40335 1.22923 3.72977 0 0 0 255 255 0 255
2.52092 0.5143 3.75588 0 0 0 255 255 0 255
2.42655 1.08415 3.7346 0 0 0 255 255 0 255
2.56289 0.255841 3.76494 0 0 0 255 255 0 255
2.56032 0.256364 3.76317 0 0 0 255 255 0 255
2.40653 1.18508 3.7285 0 0 0 255 255 0 255
2.51968 0.496768 3.75362 0 0 0 255 255 0 255
2.50698 0.553329 3.74922 0 0 0 255 255 0 255
2.514 0.500765 3.75005 0 0 0 255 255 0 255
2.50698 0.543159 3.74847 0 0 0 255 255 0 255
2.41915 1.07357 3.72866 0 0 0 255 255 0 255
2.42143 1.04451 3.72807 0 0 0 255 255 0 255
2.41177 1.08742 3.72481 0 0 0 255 255 0 255
2.38745 1.23432 3.71933 0 0 0 255 255 0 255
2.52474 0.400095 3.74993 0 0 0 255 255 0 255
2.5107 0.484882 3.74676 0 0 0 255 255 0 255
2.392 1.19654 3.71965 0 0 0 255 255 0 255
2.52047 0.415555 3.74826 0 0 0 255 255 0 255
2.40371 1.1103 3.72124 0 0 0 255 255 0 255
2.51667 0.422969 3.74637 0 0 0 255 255 0 255
2.35145 1.4207 3.70912 0 0 0 255 255 0 255
2.49478 0.549991 3.7411 0 0 0 255 255 0 255
2.40515 1.09125 3.72089 0 0 0 255 255 0 255
2.51908 0.398005 3.74624 0 0 0 255 255 0 255
2.50698 0.465874 3.74318 0 0 0 255 255 0 255
2.50385 0.479518 3.74214 0 0 0 255 255 0 255
2.40193 1.08454 3.71851 0 0 0 255 255 0 255
2.51259 0.411015 3.74313 0 0 0 255 255 0 255
2.50982 0.427776 3.74251 0 0 0 255 255 0 255
2.40778 1.04396 3.7195 0 0 0 255 255 0 255
2.51289 0.403955 3.74288 0 0 0 255 255 0 255
2.50571 0.447334 3.74126 0 0 0 255 255 0 255
2.49836 0.4917 3.73961 0 0 0 255 255 0 255
2.48788 0.549708 3.73693 0 0 0 255 255 0 255
2.50777 0.42434 3.7411 0 0 0 255 255 0 255
2.52635 0.306859 3.74497 0 0 0 255 255 0 255
2.48668 0.546432 3.73603 0 0 0 255 255 0 255
2.40272 1.04809 3.71679 0 0 0 255 255 0 255
2.348 1.37328 3.70414 0 0 0 255 255 0 255
2.34714 1.37312 3.70365 0 0 0 255 255 0 255
2.48245 0.550722 3.73385 0 0 0 255 255 0 255
2.48061 0.556478 3.73314 0 0 0 255 255 0 255
2.50816 0.384771 3.73906 0 0 0 255 255 0 255
2.36743 1.23461 3.70733 0 0 0 255 255 0 255
2.5182 0.313466 3.74074 0 0 0 255 255 0 255
2.39783 1.03498 3.71331 0 0 0 255 255 0 255
2.49553 0.434249 3.73478 0 0 0 255 255 0 255
2.39316 1.05241 3.7117 0 0 0 255 255 0 255
2.38908 1.07705 3.71077 0 0 0 255 255 0 255
2.49951 0.383162 3.73431 0 0 0 255 255 0 255
2.49527 0.408795 3.73335 0 0 0 255 255 0 255
2.37135 1.15709 3.70541 0 0 0 255 255 0 255
2.36449 1.1985 3.70387 0 0 0 255 255 0 255
2.39067 1.02959 3.70924 0 0 0 255 255 0 255
2.5124 0.289016 3.73643 0 0 0 255 255 0 255
2.49285 0.396155 3.73151 0 0 0 255 255 0 255
2.50928 0.291487 3.73496 0 0 0 255 255 0 255
2.46732 0.544863 3.7255 0 0 0 255 255 0 255
2.49168 0.386794 3.7305 0 0 0 255 255 0 255
2.38393 1.03749 3.70621 0 0 0 255 255 0 255
2.48975 0.387455 3.72959 0 0 0 255 255 0 255
2.48217 0.427714 3.72764 0 0 0 255 255 0 255
2.38177 1.03404 3.705 0 0 0 255 255 0 255
2.56497 -0.0833064 3.74584 0 0 0 255 255 0 255
2.55746 -0.0379552 3.74415 0 0 0 255 255 0 255
2.48742 0.384994 3.72836 0 0 0 255 255 0 255
2.49805 0.30974 3.7303 0 0 0 255 255 0 255
2.43617 0.683394 3.71635 0 0 0 255 255 0 255
2.48426 0.387462 3.72697 0 0 0 255 255 0 255
2.36745 1.08728 3.70041 0 0 0 255 255 0 255
2.45905 0.523025 3.72064 0 0 0 255 255 0 255
2.47693 0.409483 3.72446 0 0 0 255 255 0 255
2.45587 0.536664 3.71971 0 0 0 255 255 0 255
2.38624 0.951562 3.7038 0 0 0 255 255 0 255
2.45162 0.551124 3.71834 0 0 0 255 255 0 255
2.34975 1.16632 3.69537 0 0 0 255 255 0 255
2.42598 0.683564 3.71176 0 0 0 255 255 0 255
2.33904 1.20297 3.69197 0 0 0 255 255 0 255
2.41095 0.763092 3.70799 0 0 0 255 255 0 255
2.44498 0.551946 3.71548 0 0 0 255 255 0 255
2.45011 0.515303 3.71645 0 0 0 255 255 0 255
2.44636 0.537979 3.71561 0 0 0 255 255 0 255
2.30089 1.41641 3.68281 0 0 0 255 255 0 255
2.4639 0.426408 3.71938 0 0 0 255 255 0 255
2.46632 0.400445 3.71958 0 0 0 255 255 0 255
2.45016 0.498048 3.71593 0 0 0 255 255 0 255
2.40396 0.777057 3.70551 0 0 0 255 255 0 255
2.45986 0.4338 3.71795 0 0 0 255 255 0 255
2.35283 1.07447 3.69365 0 0 0 255 255 0 255
2.35257 1.07036 3.69342 0 0 0 255 255 0 255
2.45578 0.430016 3.71621 0 0 0 255 255 0 255
2.4578 0.412105 3.71651 0 0 0 255 255 0 255
2.35151 1.05392 3.69255 0 0 0 255 255 0 255
2.4368 0.533204 3.71163 0 0 0 255 255 0 255
2.43245 0.553743 3.7105 0 0 0 255 255 0 255
2.43251 0.547662 3.71037 0 0 0 255 255 0 255
2.33037 1.15875 3.68719 0 0 0 255 255 0 255
2.45532 0.39846 3.71523 0 0 0 255 255 0 255
2.38593 0.800207 3.69918 0 0 0 255 255 0 255
2.42925 0.532864 3.70882 0 0 0 255 255 0 255
2.42489 0.553401 3.70771 0 0 0 255 255 0 255
2.40253 0.688469 3.70267 0 0 0 255 255 0 255
2.3942 0.73875 3.70079 0 0 0 255 255 0 255
2.30686 1.2662 3.68109 0 0 0 255 255 0 255
2.45161 0.380537 3.71349 0 0 0 255 255 0 255
2.42614 0.534337 3.70775 0 0 0 255 255 0 255
2.44632 0.400909 3.71206 0 0 0 255 255 0 255
2.42003 0.559638 3.70614 0 0 0 255 255 0 255
2.32697 1.1216 3.68516 0 0 0 255 255 0 255
2.42057 0.550598 3.70615 0 0 0 255 255 0 255
2.44755 0.381844 3.71212 0 0 0 255 255 0 255
2.38388 0.766343 3.69777 0 0 0 255 255 0 255
2.4427 0.405339 3.71092 0 0 0 255 255 0 255
2.42719 0.498999 3.70743 0 0 0 255 255 0 255
2.51409 -0.0315797 3.72692 0 0 0 255 255 0 255
2.42169 0.526437 3.70608 0 0 0 255 255 0 255
2.42026 0.529229 3.70566 0 0 0 255 255 0 255
2.42181 0.508191 3.70582 0 0 0 255 255 0 255
2.41528 0.547627 3.70435 0 0 0 255 255 0 255
2.51198 -0.0421051 3.72606 0 0 0 255 255 0 255
2.43573 0.418308 3.70887 0 0 0 255 255 0 255
2.39279 0.677599 3.69919 0 0 0 255 255 0 255
2.3839 0.719659 3.69701 0 0 0 255 255 0 255
2.43797 0.387245 3.70912 0 0 0 255 255 0 255
2.43422 0.409921 3.70827 0 0 0 255 255 0 255
2.41499 0.520174 3.70385 0 0 0 255 255 0 255
2.41026 0.548765 3.70279 0 0 0 255 255 0 255
2.42143 0.46956 3.70516 0 0 0 255 255 0 255
2.4149 0.508996 3.70368 0 0 0 255 255 0 255
2.43358 0.384439 3.70776 0 0 0 255 255 0 255
2.40648 0.548097 3.70165 0 0 0 255 255 0 255
2.3224 1.05583 3.68269 0 0 0 255 255 0 255
2.37435 0.736237 3.69434 0 0 0 255 255 0 255
2.28995 1.24594 3.6753 0 0 0 255 255 0 255
2.41308 0.496497 3.70301 0 0 0 255 255 0 255
2.37243 0.741985 3.69384 0 0 0 255 255 0 255
2.31675 1.07818 3.68129 0 0 0 255 255 0 255
2.4262 0.40546 3.70585 0 0 0 255 255 0 255
2.41837 0.452783 3.70408 0 0 0 255 255 0 255
2.4169 0.461656 3.70375 0 0 0 255 255 0 255
2.4102 0.502078 3.70224 0 0 0 255 255 0 255
2.36792 0.757425 3.69271 0 0 0 255 255 0 255
2.4233 0.417124 3.70514 0 0 0 255 255 0 255
2.40354 0.536417 3.70068 0 0 0 255 255 0 255
2.40077 0.553177 3.70006 0 0 0 255 255 0 255
2.36485 0.770075 3.69196 0 0 0 255 255 0 255
2.35587 0.824299 3.68994 0 0 0 255 255 0 255
2.36504 0.763006 3.69195 0 0 0 255 255 0 255
2.2583 1.4017 3.66784 0 0 0 255 255 0 255
2.42044 0.416622 3.70435 0 0 0 255 255 0 255
2.40396 0.516198 3.70063 0 0 0 255 255 0 255
2.3984 0.549718 3.69938 0 0 0 255 255 0 255
2.36983 0.72225 3.69294 0 0 0 255 255 0 255
2.42064 0.409554 3.70435 0 0 0 255 255 0 255
2.41884 0.420399 3.70395 0 0 0 255 255 0 255
2.36758 0.72997 3.69239 0 0 0 255 255 0 255
2.36431 0.749688 3.69165 0 0 0 255 255 0 255
2.31566 1.04348 3.68068 0 0 0 255 255 0 255
2.36826 0.719944 3.6925 0 0 0 255 255 0 255
2.41386 0.432714 3.70271 0 0 0 255 255 0 255
2.41304 0.437643 3.70253 0 0 0 255 255 0 255
2.40569 0.482008 3.70087 0 0 0 255 255 0 255
2.3972 0.533275 3.69896 0 0 0 255 255 0 255
2.3076 1.06845 3.67873 0 0 0 255 255 0 255
2.30893 1.05448 3.679 0 0 0 255 255 0 255
2.41899 0.383903 3.70379 0 0 0 255 255 0 255
2.40528 0.466718 3.7007 0 0 0 255 255 0 255
2.30797 1.05431 3.67876 0 0 0 255 255 0 255
2.35814 0.739477 3.69003 0 0 0 255 255 0 255
2.35765 0.742434 3.68992 0 0 0 255 255 0 255
2.35865 0.730436 3.69013 0 0 0 255 255 0 255
2.35359 0.760999 3.68899 0 0 0 255 255 0 255
2.41287 0.397036 3.70234 0 0 0 255 255 0 255
2.35867 0.724353 3.69012 0 0 0 255 255 0 255
2.29959 1.07517 3.67679 0 0 0 255 255 0 255
2.40344 0.442052 3.70019 0 0 0 255 255 0 255
2.27708 1.20514 3.6717 0 0 0 255 255 0 255
2.30289 1.04328 3.67752 0 0 0 255 255 0 255
2.28967 1.12314 3.67454 0 0 0 255 255 0 255
2.38552 0.538336 3.69615 0 0 0 255 255 0 255
2.38311 0.540959 3.69561 0 0 0 255 255 0 255
2.40076 0.428399 3.69959 0 0 0 255 255 0 255
2.29431 1.0712 3.67559 0 0 0 255 255 0 255
2.29333 1.07712 3.67537 0 0 0 255 255 0 255
2.48322 -0.0755611 3.7182 0 0 0 255 255 0 255
2.40616 0.389782 3.70082 0 0 0 255 255 0 255
2.34706 0.746676 3.6875 0 0 0 255 255 0 255
2.39426 0.455669 3.69815 0 0 0 255 255 0 255
2.29157 1.0758 3.675 0 0 0 255 255 0 255
2.42252 0.279027 3.70454 0 0 0 255 255 0 255
2.41974 0.295787 3.70391 0 0 0 255 255 0 255
2.40129 0.407193 3.69975 0 0 0 255 255 0 255
2.34138 0.769017 3.68624 0 0 0 255 255 0 255
2.37616 0.552938 3.69411 0 0 0 255 255 0 255
2.32996 0.831947 3.68369 0 0 0 255 255 0 255
2.41997 0.264388 3.70408 0 0 0 255 255 0 255
2.41964 0.266359 3.70401 0 0 0 255 255 0 255
2.33801 0.759307 3.68561 0 0 0 255 255 0 255
2.47435 -0.0699984 3.71638 0 0 0 255 255 0 255
2.29035 1.04111 3.67489 0 0 0 255 255 0 255
2.28676 1.0628 3.67408 0 0 0 255 255 0 255
2.39486 0.397968 3.69853 0 0 0 255 255 0 255
2.36939 0.551767 3.69279 0 0 0 255 255 0 255
2.36759 0.562612 3.69238 0 0 0 255 255 0 255
2.48777 -0.175172 3.71957 0 0 0 255 255 0 255
2.41545 0.26158 3.70326 0 0 0 255 255 0 255
2.36859 0.544532 3.69269 0 0 0 255 255 0 255
2.26394 1.17649 3.6691 0 0 0 255 255 0 255
2.40974 0.290003 3.70202 0 0 0 255 255 0 255
2.46493 -0.0493119 3.71451 0 0 0 255 255 0 255
2.41465 0.254344 3.70318 0 0 0 255 255 0 255
2.46756 -0.0772513 3.71521 0 0 0 255 255 0 255
2.40634 0.29246 3.70141 0 0 0 255 255 0 255
2.38985 0.392035 3.69769 0 0 0 255 255 0 255
2.36193 0.560623 3.6914 0 0 0 255 255 0 255
2.41173 0.253843 3.70269 0 0 0 255 255 0 255
2.3332 0.728059 3.68498 0 0 0 255 255 0 255
2.37925 0.443954 3.69542 0 0 0 255 255 0 255
2.33419 0.716061 3.68526 0 0 0 255 255 0 255
2.4026 0.296888 3.70075 0 0 0 255 255 0 255
2.40227 0.29886 3.70068 0 0 0 255 255 0 255
2.39313 0.35407 3.69862 0 0 0 255 255 0 255
2.3817 0.423083 3.69604 0 0 0 255 255 0 255
2.46383 -0.0789053 3.71463 0 0 0 255 255 0 255
2.36244 0.533336 3.69177 0 0 0 255 255 0 255
2.36163 0.538265 3.69158 0 0 0 255 255 0 255
2.3582 0.558969 3.69081 0 0 0 255 255 0 255
2.40686 0.253008 3.70193 0 0 0 255 255 0 255
2.35609 0.559621 3.69048 0 0 0 255 255 0 255
2.3285 0.726238 3.68426 0 0 0 255 255 0 255
2.2178 1.39468 3.6593 0 0 0 255 255 0 255
2.48197 -0.206587 3.71894 0 0 0 255 255 0 255
2.48066 -0.1987 3.71864 0 0 0 255 255 0 255
2.3827 0.392838 3.69655 0 0 0 255 255 0 255
2.37421 0.444105 3.69464 0 0 0 255 255 0 255
2.37454 0.436051 3.69479 0 0 0 255 255 0 255
2.36067 0.51377 3.69175 0 0 0 255 255 0 255
2.39088 0.319214 3.69873 0 0 0 255 255 0 255
2.36835 0.443104 3.69384 0 0 0 255 255 0 255
2.39317 0.287166 3.69953 0 0 0 255 255 0 255
2.39056 0.296858 3.69904 0 0 0 255 255 0 255
2.34664 0.562064 3.68914 0 0 0 255 255 0 255
2.39513 0.263171 3.70017 0 0 0 255 255 0 255
2.38974 0.295706 3.69896 0 0 0 255 255 0 255
2.38256 0.339085 3.69734 0 0 0 255 255 0 255
2.38778 0.301455 3.69862 0 0 0 255 255 0 255
2.34387 0.554497 3.68894 0 0 0 255 255 0 255
2.44133 -0.0401644 3.71103 0 0 0 255 255 0 255
2.39105 0.263492 3.69969 0 0 0 255 255 0 255
2.3646 0.423207 3.69372 0 0 0 255 255 0 255
2.25554 1.08179 3.66914 0 0 0 255 255 0 255
2.22926 1.24051 3.66321 0 0 0 255 255 0 255
2.34044 0.563038 3.68839 0 0 0 255 255 0 255
2.38762 0.272032 3.69915 0 0 0 255 255 0 255
2.30533 0.768924 3.6806 0 0 0 255 255 0 255
2.38533 0.279753 3.69876 0 0 0 255 255 0 255
2.38517 0.280739 3.69872 0 0 0 255 255 0 255
2.30484 0.7658 3.68061 0 0 0 255 255 0 255
2.25766 1.05072 3.66997 0 0 0 255 255 0 255
2.38974 0.247052 3.69988 0 0 0 255 255 0 255
2.37863 0.314093 3.69737 0 0 0 255 255 0 255
2.38255 0.28435 3.69838 0 0 0 255 255 0 255
2.35806 0.432235 3.69286 0 0 0 255 255 0 255
2.30223 0.769411 3.68027 0 0 0 255 255 0 255
2.38157 0.284184 3.69829 0 0 0 255 255 0 255
2.37928 0.297987 3.69778 0 0 0 255 255 0 255
2.30173 0.766288 3.68029 0 0 0 255 255 0 255
2.37732 0.297655 3.6976 0 0 0 255 255 0 255
2.43886 -0.0801088 3.71162 0 0 0 255 255 0 255
2.38238 0.261011 3.69888 0 0 0 255 255 0 255
2.33405 0.546755 3.68813 0 0 0 255 255 0 255
2.38155 0.247698 3.69913 0 0 0 255 255 0 255
2.33126 0.551353 3.6878 0 0 0 255 255 0 255
2.34465 0.464429 3.69096 0 0 0 255 255 0 255
2.30088 0.716488 3.68141 0 0 0 255 255 0 255
2.28178 0.831837 3.6771 0 0 0 255 255 0 255
2.36814 0.304218 3.69673 0 0 0 255 255 0 255
2.33859 0.482665 3.69007 0 0 0 255 255 0 255
2.18252 1.42518 3.65488 0 0 0 255 255 0 255
2.18904 1.37966 3.65651 0 0 0 255 255 0 255
2.29238 0.749512 3.67998 0 0 0 255 255 0 255
2.36519 0.303722 3.69656 0 0 0 255 255 0 255
2.36976 0.270037 3.69776 0 0 0 255 255 0 255
2.34184 0.438625 3.69147 0 0 0 255 255 0 255
2.28731 0.767914 3.67917 0 0 0 255 255 0 255
2.29236 0.725191 3.68066 0 0 0 255 255 0 255
2.28632 0.761669 3.6793 0 0 0 255 255 0 255
2.36484 0.275293 3.69736 0 0 0 255 255 0 255
2.34295 0.401323 3.69261 0 0 0 255 255 0 255
2.33772 0.420712 3.69181 0 0 0 255 255 0 255
2.32972 0.469021 3.69001 0 0 0 255 255 0 255
2.23045 1.06845 3.66763 0 0 0 255 255 0 255
2.36301 0.261818 3.69771 0 0 0 255 255 0 255
2.35746 0.295339 3.69646 0 0 0 255 255 0 255
2.23208 1.05251 3.66819 0 0 0 255 255 0 255
2.23354 1.03755 3.66871 0 0 0 255 255 0 255
2.35597 0.285973 3.69672 0 0 0 255 255 0 255
2.21035 1.16539 3.66388 0 0 0 255 255 0 255
2.33393 0.41299 3.69195 0 0 0 255 255 0 255
2.22715 1.05777 3.66788 0 0 0 255 255 0 255
2.22324 1.08143 3.667 0 0 0 255 255 0 255
2.22307 1.08241 3.66696 0 0 0 255 255 0 255
2.36004 0.249167 3.69805 0 0 0 255 255 0 255
2.33033 0.4286 3.69135 0 0 0 255 255 0 255
2.27841 0.742115 3.67964 0 0 0 255 255 0 255
2.27758 0.734886 3.67988 0 0 0 255 255 0 255
2.41797 -0.125142 3.71197 0 0 0 255 255 0 255
2.34712 0.302737 3.69599 0 0 0 255 255 0 255
2.34498 0.303396 3.69596 0 0 0 255 255 0 255
2.20915 1.12366 3.66533 0 0 0 255 255 0 255
2.27118 0.742942 3.67955 0 0 0 255 255 0 255
2.34708 0.272344 3.69712 0 0 0 255 255 0 255
2.30838 0.499923 3.68863 0 0 0 255 255 0 255
2.21352 1.06665 3.66748 0 0 0 255 255 0 255
2.21025 1.08637 3.66675 0 0 0 255 255 0 255
2.32127 0.409881 3.69202 0 0 0 255 255 0 255
2.39538 -0.0437934 3.70897 0 0 0 255 255 0 255
2.34183 0.27958 3.6969 0 0 0 255 255 0 255
2.21138 1.06731 3.66749 0 0 0 255 255 0 255
2.26754 0.722085 3.6804 0 0 0 255 255 0 255
2.31863 0.407422 3.69217 0 0 0 255 255 0 255
2.21219 1.05023 3.66817 0 0 0 255 255 0 255
2.29185 0.563031 3.68638 0 0 0 255 255 0 255
2.26278 0.732444 3.68008 0 0 0 255 255 0 255
2.21217 1.03807 3.66867 0 0 0 255 255 0 255
2.33999 0.25396 3.69801 0 0 0 255 255 0 255
2.27469 0.648319 3.68329 0 0 0 255 255 0 255
2.26147 0.728176 3.68031 0 0 0 255 255 0 255
2.25526 0.76564 3.67891 0 0 0 255 255 0 255
2.2551 0.766626 3.67887 0 0 0 255 255 0 255
2.29525 0.518019 3.68819 0 0 0 255 255 0 255
2.2613 0.723085 3.68053 0 0 0 255 255 0 255
2.29623 0.506026 3.68867 0 0 0 255 255 0 255
2.25623 0.747571 3.67966 0 0 0 255 255 0 255
2.31173 0.406289 3.69244 0 0 0 255 255 0 255
2.29312 0.518681 3.68824 0 0 0 255 255 0 255
2.28593 0.555984 3.68689 0 0 0 255 255 0 255
2.25735 0.722439 3.68073 0 0 0 255 255 0 255
2.24984 0.761714 3.67931 0 0 0 255 255 0 255
2.29799 0.464798 3.69045 0 0 0 255 255 0 255
2.2544 0.728033 3.68062 0 0 0 255 255 0 255
2.14861 1.36689 3.65677 0 0 0 255 255 0 255
2.32803 0.277317 3.6975 0 0 0 255 255 0 255
2.3024 0.432103 3.69172 0 0 0 255 255 0 255
2.28689 0.525763 3.68823 0 0 0 255 255 0 255
2.28476 0.53858 3.68775 0 0 0 255 255 0 255
2.25554 0.715055 3.68116 0 0 0 255 255 0 255
2.30369 0.412064 3.69259 0 0 0 255 255 0 255
2.29275 0.478119 3.69013 0 0 0 255 255 0 255
2.32703 0.265005 3.69815 0 0 0 255 255 0 255
2.32622 0.269934 3.69796 0 0 0 255 255 0 255
2.32507 0.276836 3.6977 0 0 0 255 255 0 255
2.32018 0.306413 3.6966 0 0 0 255 255 0 255
2.25095 0.724432 3.68099 0 0 0 255 255 0 255
2.2818 0.532022 3.68824 0 0 0 255 255 0 255
2.32441 0.268628 3.69815 0 0 0 255 255 0 255
2.29013 0.475666 3.69042 0 0 0 255 255 0 255
2.24441 0.751717 3.68011 0 0 0 255 255 0 255
2.30318 0.390719 3.69366 0 0 0 255 255 0 255
2.2818 0.519871 3.68884 0 0 0 255 255 0 255
2.27902 0.536632 3.68821 0 0 0 255 255 0 255
2.39967 -0.198021 3.71572 0 0 0 255 255 0 255
2.32326 0.263379 3.69849 0 0 0 255 255 0 255
2.28032 0.522669 3.68881 0 0 0 255 255 0 255
2.24473 0.737595 3.68078 0 0 0 255 255 0 255
2.27738 0.53434 3.68845 0 0 0 255 255 0 255
2.31672 0.28459 3.69794 0 0 0 255 255 0 255
2.29761 0.393865 3.69395 0 0 0 255 255 0 255
2.25043 0.678789 3.68331 0 0 0 255 255 0 255
2.2901 0.433141 3.69257 0 0 0 255 255 0 255
2.28357 0.472577 3.6911 0 0 0 255 255 0 255
2.27573 0.5199 3.68933 0 0 0 255 255 0 255
2.31279 0.290027 3.69801 0 0 0 255 255 0 255
2.17843 1.10142 3.66771 0 0 0 255 255 0 255
2.31328 0.280995 3.69844 0 0 0 255 255 0 255
2.27573 0.507752 3.68997 0 0 0 255 255 0 255
2.34838 0.0629537 3.70668 0 0 0 255 255 0 255
2.27295 0.518438 3.68967 0 0 0 255 255 0 255
2.35752 0.00166959 3.70906 0 0 0 255 255 0 255
2.34952 0.0499785 3.70726 0 0 0 255 255 0 255
2.28274 0.45321 3.6922 0 0 0 255 255 0 255
2.2754 0.497575 3.69055 0 0 0 255 255 0 255
2.16585 1.15911 3.66585 0 0 0 255 255 0 255
2.29123 0.395869 3.69445 0 0 0 255 255 0 255
2.1265 1.39064 3.65731 0 0 0 255 255 0 255
2.30543 0.304023 3.69798 0 0 0 255 255 0 255
2.29237 0.382895 3.69504 0 0 0 255 255 0 255
2.27148 0.509089 3.69033 0 0 0 255 255 0 255
2.27082 0.513033 3.69018 0 0 0 255 255 0 255
2.26103 0.572187 3.68797 0 0 0 255 255 0 255
2.2269 0.778239 3.68028 0 0 0 255 255 0 255
2.31343 0.24964 3.70012 0 0 0 255 255 0 255
2.30674 0.290062 3.69861 0 0 0 255 255 0 255
2.30413 0.305837 3.69803 0 0 0 255 255 0 255
2.28976 0.392595 3.69479 0 0 0 255 255 0 255
2.22919 0.758363 3.68113 0 0 0 255 255 0 255
2.31082 0.259342 3.69987 0 0 0 255 255 0 255
2.28764 0.399339 3.69465 0 0 0 255 255 0 255
2.34298 0.0590468 3.70747 0 0 0 255 255 0 255
2.28649 0.400167 3.69473 0 0 0 255 255 0 255
2.28568 0.405096 3.69455 0 0 0 255 255 0 255
2.27735 0.455377 3.69267 0 0 0 255 255 0 255
2.17956 1.04593 3.67062 0 0 0 255 255 0 255
2.30984 0.253111 3.70034 0 0 0 255 255 0 255
2.2336 0.713524 3.68315 0 0 0 255 255 0 255
2.26951 0.490554 3.69159 0 0 0 255 255 0 255
2.2816 0.411525 3.69467 0 0 0 255 255 0 255
2.34527 0.0209531 3.70937 0 0 0 255 255 0 255
2.22674 0.736714 3.68265 0 0 0 255 255 0 255
2.23213 0.685962 3.68494 0 0 0 255 255 0 255
2.27883 0.391852 3.6962 0 0 0 255 255 0 255
2.27867 0.386767 3.69653 0 0 0 255 255 0 255
2.22594 0.705211 3.68464 0 0 0 255 255 0 255
2.16863 1.05126 3.67172 0 0 0 255 255 0 255
2.24749 0.56293 3.69024 0 0 0 255 255 0 255
2.21403 0.765039 3.6827 0 0 0 255 255 0 255
2.14627 1.17419 3.66742 0 0 0 255 255 0 255
2.33372 0.0180942 3.71121 0 0 0 255 255 0 255
2.24784 0.536675 3.69184 0 0 0 255 255 0 255
2.24327 0.55821 3.6912 0 0 0 255 255 0 255
2.29014 0.269188 3.70216 0 0 0 255 255 0 255
2.28752 0.284962 3.70157 0 0 0 255 255 0 255
2.24426 0.546225 3.69181 0 0 0 255 255 0 255
2.15512 1.08452 3.67171 0 0 0 255 255 0 255
2.23774 0.57959 3.69073 0 0 0 255 255 0 255
2.2815 0.309301 3.701 0 0 0 255 255 0 255
2.15841 1.0466 3.67364 0 0 0 255 255 0 255
2.15563 1.06336 3.67302 0 0 0 255 255 0 255
2.28902 0.25181 3.70349 0 0 0 255 255 0 255
2.23499 0.578142 3.69131 0 0 0 255 255 0 255
2.28659 0.25446 3.70375 0 0 0 255 255 0 255
2.23615 0.559102 3.69238 0 0 0 255 255 0 255
2.23501 0.559935 3.69253 0 0 0 255 255 0 255
2.15454 1.03991 3.6748 0 0 0 255 255 0 255
2.3276 -0.0112055 3.71423 0 0 0 255 255 0 255
2.32631 -0.00938666 3.71436 0 0 0 255 255 0 255
2.32534 -0.00953937 3.71456 0 0 0 255 255 0 255
2.34741 -0.154771 3.72038 0 0 0 255 255 0 255
2.34349 -0.131109 3.7195 0 0 0 255 255 0 255
2.27051 0.309586 3.70304 0 0 0 255 255 0 255
2.23232 0.534218 3.69486 0 0 0 255 255 0 255
2.33046 -0.0643725 3.71741 0 0 0 255 255 0 255
2.27299 0.282663 3.70446 0 0 0 255 255 0 255
2.23283 0.525193 3.6954 0 0 0 255 255 0 255
2.35398 -0.212409 3.72315 0 0 0 255 255 0 255
2.32035 -0.00931418 3.71557 0 0 0 255 255 0 255
2.3282 -0.0627041 3.71777 0 0 0 255 255 0 255
2.27547 0.25574 3.70588 0 0 0 255 255 0 255
2.22861 0.538692 3.69532 0 0 0 255 255 0 255
2.23436 0.492053 3.69749 0 0 0 255 255 0 255
2.12791 1.13486 3.67349 0 0 0 255 255 0 255
2.26294 0.313455 3.70438 0 0 0 255 255 0 255
2.26949 0.267953 3.7063 0 0 0 255 255 0 255
2.26088 0.308074 3.70526 0 0 0 255 255 0 255
2.2199 0.555533 3.69602 0 0 0 255 255 0 255
2.34596 -0.211644 3.72489 0 0 0 255 255 0 255
2.26808 0.258629 3.70733 0 0 0 255 255 0 255
2.33424 -0.15279 3.72317 0 0 0 255 255 0 255
2.29343 0.0936844 3.71396 0 0 0 255 255 0 255
2.21917 0.536202 3.69768 0 0 0 255 255 0 255
2.2187 0.533095 3.69804 0 0 0 255 255 0 255
2.2197 0.521115 3.69873 0 0 0 255 255 0 255
2.21648 0.528705 3.69894 0 0 0 255 255 0 255
2.21616 0.530677 3.69887 0 0 0 255 255 0 255
2.25487 0.290956 3.70807 0 0 0 255 255 0 255
2.25096 0.314617 3.70719 0 0 0 255 255 0 255
2.22075 0.497008 3.70038 0 0 0 255 255 0 255
2.21504 0.531514 3.69909 0 0 0 255 255 0 255
2.12655 1.06587 3.67914 0 0 0 255 255 0 255
2.21833 0.505733 3.70031 0 0 0 255 255 0 255
2.2115 0.541077 3.69925 0 0 0 255 255 0 255
2.20774 0.563753 3.6984 0 0 0 255 255 0 255
2.22595 0.43613 3.70396 0 0 0 255 255 0 255
2.21651 0.487249 3.70232 0 0 0 255 255 0 255
2.20557 0.553304 3.69985 0 0 0 255 255 0 255
2.11055 1.1271 3.67843 0 0 0 255 255 0 255
2.24302 0.31541 3.70928 0 0 0 255 255 0 255
2.21347 0.493857 3.70262 0 0 0 255 255 0 255
2.20909 0.514414 3.70213 0 0 0 255 255 0 255
2.32292 -0.178817 3.72829 0 0 0 255 255 0 255
2.32703 -0.209526 3.72972 0 0 0 255 255 0 255
2.32805 -0.221502 3.73046 0 0 0 255 255 0 255
2.3207 -0.177137 3.7288 0 0 0 255 255 0 255
2.30176 -0.0627728 3.72453 0 0 0 255 255 0 255
2.23907 0.315811 3.71039 0 0 0 255 255 0 255
2.11793 1.04735 3.68308 0 0 0 255 255 0 255
2.32612 -0.215732 3.73053 0 0 0 255 255 0 255
2.24857 0.252568 3.71304 0 0 0 255 255 0 255
2.23845 0.313694 3.71076 0 0 0 255 255 0 255
2.22474 0.396509 3.70767 0 0 0 255 255 0 255
2.24126 0.290873 3.7119 0 0 0 255 255 0 255
2.24162 0.282841 3.7125 0 0 0 255 255 0 255
2.23983 0.293686 3.71209 0 0 0 255 255 0 255
2.11477 1.04888 3.6839 0 0 0 255 255 0 255
2.19513 0.557761 3.70253 0 0 0 255 255 0 255
2.23619 0.298182 3.71282 0 0 0 255 255 0 255
2.19194 0.565359 3.70285 0 0 0 255 255 0 255
2.24145 0.260574 3.71453 0 0 0 255 255 0 255
2.19215 0.558314 3.70341 0 0 0 255 255 0 255
2.23643 0.285077 3.71392 0 0 0 255 255 0 255
2.23398 0.299866 3.71337 0 0 0 255 255 0 255
2.30753 -0.155905 3.73101 0 0 0 255 255 0 255
2.23896 0.258171 3.71555 0 0 0 255 255 0 255
2.23035 0.304365 3.71414 0 0 0 255 255 0 255
2.10375 1.0573 3.68667 0 0 0 255 255 0 255
2.23217 0.270275 3.7167 0 0 0 255 255 0 255
2.18193 0.567873 3.70592 0 0 0 255 255 0 255
2.22296 0.314356 3.71571 0 0 0 255 255 0 255
2.28864 -0.0880305 3.73107 0 0 0 255 255 0 255
2.22154 0.317173 3.71594 0 0 0 255 255 0 255
2.31029 -0.230281 3.73706 0 0 0 255 255 0 255
2.22523 0.28337 3.71788 0 0 0 255 255 0 255
2.22724 0.265484 3.71889 0 0 0 255 255 0 255
2.20422 0.404495 3.7137 0 0 0 255 255 0 255
2.21984 0.298724 3.71834 0 0 0 255 255 0 255
2.17592 0.56393 3.70844 0 0 0 255 255 0 255
2.22561 0.258162 3.7202 0 0 0 255 255 0 255
2.19786 0.425764 3.71395 0 0 0 255 255 0 255
2.19753 0.427736 3.71387 0 0 0 255 255 0 255
2.28918 -0.131406 3.7351 0 0 0 255 255 0 255
2.2224 0.271825 3.72005 0 0 0 255 255 0 255
2.22208 0.273797 3.71997 0 0 0 255 255 0 255
2.17457 0.560693 3.70926 0 0 0 255 255 0 255
2.30197 -0.214361 3.73855 0 0 0 255 255 0 255
2.09348 1.04463 3.69155 0 0 0 255 255 0 255
2.30023 -0.20957 3.73873 0 0 0 255 255 0 255
2.19982 0.396756 3.71609 0 0 0 255 255 0 255
2.21686 0.288168 3.72051 0 0 0 255 255 0 255
2.19988 0.390701 3.71668 0 0 0 255 255 0 255
2.29774 -0.205904 3.73932 0 0 0 255 255 0 255
2.21317 0.30479 3.72025 0 0 0 255 255 0 255
2.19472 0.416196 3.71609 0 0 0 255 255 0 255
2.17692 0.523659 3.71208 0 0 0 255 255 0 255
2.21845 0.267188 3.72202 0 0 0 255 255 0 255
2.19197 0.415782 3.71721 0 0 0 255 255 0 255
2.19308 0.397762 3.71863 0 0 0 255 255 0 255
2.21551 0.256642 3.72428 0 0 0 255 255 0 255
2.16506 0.561283 3.71291 0 0 0 255 255 0 255
2.28317 -0.157571 3.74013 0 0 0 255 255 0 255
2.19148 0.39045 3.72005 0 0 0 255 255 0 255
2.18985 0.400309 3.71968 0 0 0 255 255 0 255
2.1892 0.404253 3.71954 0 0 0 255 255 0 255
2.0806 1.04876 3.69625 0 0 0 255 255 0 255
2.20744 0.2716 3.72605 0 0 0 255 255 0 255
2.16213 0.539629 3.71644 0 0 0 255 255 0 255
2.07682 1.0492 3.69781 0 0 0 255 255 0 255
2.18342 0.394299 3.72307 0 0 0 255 255 0 255
2.17011 0.469093 3.72069 0 0 0 255 255 0 255
2.16929 0.474023 3.7205 0 0 0 255 255 0 255
2.16521 0.49867 3.71958 0 0 0 255 255 0 255
2.27924 -0.206645 3.74715 0 0 0 255 255 0 255
2.17639 0.414469 3.72396 0 0 0 255 255 0 255
2.15215 0.55532 3.71912 0 0 0 255 255 0 255
2.16399 0.478287 3.72242 0 0 0 255 255 0 255
2.16391 0.473226 3.72303 0 0 0 255 255 0 255
2.14774 0.570829 3.71939 0 0 0 255 255 0 255
2.26865 -0.164781 3.74728 0 0 0 255 255 0 255
2.15944 0.483676 3.72392 0 0 0 255 255 0 255
2.15398 0.51115 3.72333 0 0 0 255 255 0 255
2.27098 -0.211903 3.75164 0 0 0 255 255 0 255
2.24796 -0.0728916 3.74645 0 0 0 255 255 0 255
2.27134 -0.224979 3.75302 0 0 0 255 255 0 255
2.26171 -0.166811 3.75084 0 0 0 255 255 0 255
2.15624 0.470078 3.72706 0 0 0 255 255 0 255
2.1551 0.476979 3.72681 0 0 0 255 255 0 255
2.15307 0.483751 3.727 0 0 0 255 255 0 255
2.16639 0.397849 3.73066 0 0 0 255 255 0 255
2.262 -0.184944 3.75287 0 0 0 255 255 0 255
2.15831 0.424942 3.73148 0 0 0 255 255 0 255
2.15113 0.468321 3.72986 0 0 0 255 255 0 255
2.15025 0.468194 3.73032 0 0 0 255 255 0 255
2.13834 0.540164 3.72764 0 0 0 255 255 0 255
2.16103 0.38697 3.73476 0 0 0 255 255 0 255
2.1404 0.506138 3.73078 0 0 0 255 255 0 255
2.13475 0.529548 3.73086 0 0 0 255 255 0 255
2.25698 -0.213943 3.7591 0 0 0 255 255 0 255
2.02923 1.16138 3.70775 0 0 0 255 255 0 255
2.25269 -0.193364 3.75882 0 0 0 255 255 0 255
2.23702 -0.098718 3.75529 0 0 0 255 255 0 255
2.15105 0.409755 3.73727 0 0 0 255 255 0 255
2.14676 0.430335 3.737 0 0 0 255 255 0 255
2.12472 0.563431 3.73203 0 0 0 255 255 0 255
2.25512 -0.229353 3.76212 0 0 0 255 255 0 255
2.13019 0.519805 3.73464 0 0 0 255 255 0 255
2.12496 0.551354 3.73346 0 0 0 255 255 0 255
2.03778 1.07782 3.71381 0 0 0 255 255 0 255
2.01835 1.19514 3.70943 0 0 0 255 255 0 255
2.13129 0.507851 3.73559 0 0 0 255 255 0 255
2.14297 0.426763 3.73962 0 0 0 255 255 0 255
2.14392 0.415796 3.74053 0 0 0 255 255 0 255
2.12465 0.532132 3.73619 0 0 0 255 255 0 255
2.03404 1.0793 3.71576 0 0 0 255 255 0 255
2.23707 -0.157253 3.76295 0 0 0 255 255 0 255
2.1432 0.409637 3.74178 0 0 0 255 255 0 255
2.12798 0.496275 3.73906 0 0 0 255 255 0 255
2.03737 1.04345 3.71863 0 0 0 255 255 0 255
2.24746 -0.230451 3.76671 0 0 0 255 255 0 255
2.24354 -0.206789 3.76582 0 0 0 255 255 0 255
2.13628 0.440944 3.74164 0 0 0 255 255 0 255
2.12207 0.526717 3.73843 0 0 0 255 255 0 255
2.1175 0.554322 3.7374 0 0 0 255 255 0 255
2.23894 -0.184234 3.7655 0 0 0 255 255 0 255
2.14098 0.407303 3.74341 0 0 0 255 255 0 255
2.13347 0.452655 3.74172 0 0 0 255 255 0 255
2.13407 0.438612 3.74328 0 0 0 255 255 0 255
2.12444 0.49678 3.74111 0 0 0 255 255 0 255
2.03514 1.03607 3.72098 0 0 0 255 255 0 255
2.23329 -0.17091 3.76709 0 0 0 255 255 0 255
2.21745 -0.0752779 3.76352 0 0 0 255 255 0 255
2.13844 0.401896 3.74571 0 0 0 255 255 0 255
2.12191 0.491375 3.74342 0 0 0 255 255 0 255
2.1196 0.50013 3.74363 0 0 0 255 255 0 255
2.13656 0.39255 3.74819 0 0 0 255 255 0 255
2.13377 0.404263 3.74829 0 0 0 255 255 0 255
2.11516 0.516655 3.74409 0 0 0 255 255 0 255
2.13082 0.416963 3.74835 0 0 0 255 255 0 255
2.02764 1.04005 3.72509 0 0 0 255 255 0 255
2.1122 0.524309 3.74489 0 0 0 255 255 0 255
2.1104 0.535153 3.74448 0 0 0 255 255 0 255
2.10401 0.558467 3.74526 0 0 0 255 255 0 255
2.13045 0.393707 3.75196 0 0 0 255 255 0 255
2.10808 0.528775 3.74692 0 0 0 255 255 0 255
2.13077 0.386691 3.75278 0 0 0 255 255 0 255
2.11167 0.50204 3.74847 0 0 0 255 255 0 255
2.22677 -0.19806 3.77517 0 0 0 255 255 0 255
2.11232 0.488009 3.75011 0 0 0 255 255 0 255
2.1231 0.417896 3.75329 0 0 0 255 255 0 255
2.11738 0.452403 3.75201 0 0 0 255 255 0 255
2.11722 0.453388 3.75197 0 0 0 255 255 0 255
2.11951 0.434543 3.75324 0 0 0 255 255 0 255
2.09828 0.562709 3.74845 0 0 0 255 255 0 255
2.23053 -0.240909 3.77902 0 0 0 255 255 0 255
2.11968 0.423472 3.75479 0 0 0 255 255 0 255
2.11739 0.437274 3.75427 0 0 0 255 255 0 255
2.1169 0.440232 3.75416 0 0 0 255 255 0 255
2.20915 -0.121841 3.77572 0 0 0 255 255 0 255
2.21471 -0.160404 3.77773 0 0 0 255 255 0 255
2.11822 0.422261 3.75598 0 0 0 255 255 0 255
2.11679 0.416011 3.75795 0 0 0 255 255 0 255
2.21802 -0.200285 3.78154 0 0 0 255 255 0 255
2.11958 0.39421 3.75934 0 0 0 255 255 0 255
2.22181 -0.23304 3.78394 0 0 0 255 255 0 255
2.2192 -0.217266 3.78335 0 0 0 255 255 0 255
2.2142 -0.20182 3.78455 0 0 0 255 255 0 255
2.21444 -0.217919 3.78695 0 0 0 255 255 0 255
2.08612 0.556995 3.75801 0 0 0 255 255 0 255
2.10528 0.431571 3.76391 0 0 0 255 255 0 255
2.0852 0.552837 3.75938 0 0 0 255 255 0 255
2.20412 -0.174968 3.78777 0 0 0 255 255 0 255
2.10061 0.45009 3.76443 0 0 0 255 255 0 255
2.20922 -0.210566 3.78971 0 0 0 255 255 0 255
2.10718 0.405618 3.76671 0 0 0 255 255 0 255
2.10804 0.395654 3.76769 0 0 0 255 255 0 255
2.07995 0.565228 3.76136 0 0 0 255 255 0 255
2.1071 0.396534 3.76828 0 0 0 255 255 0 255
2.08645 0.511674 3.76522 0 0 0 255 255 0 255
2.17078 -0.00711536 3.78584 0 0 0 255 255 0 255
2.07646 0.557699 3.76538 0 0 0 255 255 0 255
2.20494 -0.232312 3.79677 0 0 0 255 255 0 255
2.19874 -0.194848 3.79537 0 0 0 255 255 0 255
2.10176 0.390774 3.77351 0 0 0 255 255 0 255
2.19063 -0.150585 3.79436 0 0 0 255 255 0 255
2.10024 0.390571 3.77479 0 0 0 255 255 0 255
2.09616 0.415218 3.77387 0 0 0 255 255 0 255
2.07248 0.558173 3.76853 0 0 0 255 255 0 255
2.19593 -0.20127 3.79882 0 0 0 255 255 0 255
2.19152 -0.174651 3.79782 0 0 0 255 255 0 255
2.09526 0.401998 3.77694 0 0 0 255 255 0 255
2.0951 0.402984 3.7769 0 0 0 255 255 0 255
2.19351 -0.200584 3.80074 0 0 0 255 255 0 255
2.06731 0.561514 3.77229 0 0 0 255 255 0 255
2.08964 0.408306 3.78064 0 0 0 255 255 0 255
2.19013 -0.203047 3.80412 0 0 0 255 255 0 255
2.09054 0.398349 3.78167 0 0 0 255 255 0 255
2.19143 -0.220001 3.80609 0 0 0 255 255 0 255
2.18686 -0.201462 3.80674 0 0 0 255 255 0 255
2.08874 0.391062 3.78461 0 0 0 255 255 0 255
2.18589 -0.20461 3.8082 0 0 0 255 255 0 255
2.15979 -0.0780856 3.80826 0 0 0 255 255 0 255
2.17262 -0.2033 3.82066 0 0 0 255 255 0 255
2.15168 -0.0811368 3.81681 0 0 0 255 255 0 255
2.15802 -0.123618 3.81911 0 0 0 255 255 0 255
2.13267 5.126e-06 3.81956 0 0 0 255 255 0 255
2.16919 -0.232917 3.83045 0 0 0 255 255 0 255
2.12886 0.0105988 3.82136 0 0 0 255 255 0 255
2.15007 -0.121594 3.82703 0 0 0 255 255 0 255
2.11089 0.115021 3.8182 0 0 0 255 255 0 255
2.11137 0.108037 3.8192 0 0 0 255 255 0 255
2.10876 0.123812 3.81861 0 0 0 255 255 0 255
2.1094 0.115842 3.81965 0 0 0 255 255 0 255
2.1182 0.034436 3.82793 0 0 0 255 255 0 255
2.15952 -0.22304 3.83905 0 0 0 255 255 0 255
2.15775 -0.220238 3.84047 0 0 0 255 255 0 255
2.12315 -0.0152484 3.83358 0 0 0 255 255 0 255
2.1196 -0.00159872 3.8346 0 0 0 255 255 0 255
2.11894 0.00234485 3.83445 0 0 0 255 255 0 255
2.11787 -0.00281084 3.83696 0 0 0 255 255 0 255
2.1066 0.00893217 3.84831 0 0 0 255 255 0 255
2.10584 0.00984985 3.84908 0 0 0 255 255 0 255
2.12657 -0.147501 3.86223 0 0 0 255 255 0 255
2.04527 0.302316 3.85534 0 0 0 255 255 0 255
2.11667 -0.135538 3.87336 0 0 0 255 255 0 255
2.12764 -0.211624 3.87873 0 0 0 255 255 0 255
1.94299 0.903424 3.83709 0 0 0 255 255 0 255
2.06702 0.13508 3.87087 0 0 0 255 255 0 255
2.09559 -0.0745442 3.88902 0 0 0 255 255 0 255
2.0956 -0.0835607 3.89197 0 0 0 255 255 0 255
2.05364 0.169815 3.88251 0 0 0 255 255 0 255
2.05565 0.145968 3.8869 0 0 0 255 255 0 255
2.0544 0.130832 3.89454 0 0 0 255 255 0 255
2.04999 0.138438 3.90051 0 0 0 255 255 0 255
2.08302 -0.0637085 3.90896 0 0 0 255 255 0 255
2.09748 -0.161461 3.91621 0 0 0 255 255 0 255
2.08197 -0.0678004 3.91272 0 0 0 255 255 0 255
1.99616 0.447787 3.89437 0 0 0 255 255 0 255
1.97876 0.550285 3.89145 0 0 0 255 255 0 255
2.09377 -0.146779 3.91838 0 0 0 255 255 0 255
2.0656 0.0207893 3.91304 0 0 0 255 255 0 255
1.96136 0.647785 3.89054 0 0 0 255 255 0 255
1.98234 0.518599 3.89627 0 0 0 255 255 0 255
2.00544 0.376597 3.90248 0 0 0 255 255 0 255
1.97801 0.542227 3.8963 0 0 0 255 255 0 255
2.09026 -0.138074 3.92261 0 0 0 255 255 0 255
1.98644 0.483963 3.90122 0 0 0 255 255 0 255
1.97713 0.540159 3.89912 0 0 0 255 255 0 255
2.09886 -0.197323 3.92757 0 0 0 255 255 0 255
1.97586 0.543054 3.90085 0 0 0 255 255 0 255
2.08665 -0.128371 3.92683 0 0 0 255 255 0 255
2.08648 -0.127385 3.9268 0 0 0 255 255 0 255
2.07237 -0.0515883 3.92765 0 0 0 255 255 0 255
2.09802 -0.213358 3.93647 0 0 0 255 255 0 255
2.07418 -0.0694172 3.93109 0 0 0 255 255 0 255
1.9777 0.513247 3.90934 0 0 0 255 255 0 255
1.99704 0.391929 3.91572 0 0 0 255 255 0 255
2.07373 -0.0734394 3.93403 0 0 0 255 255 0 255
2.08137 -0.121774 3.93677 0 0 0 255 255 0 255
2.0882 -0.165178 3.93932 0 0 0 255 255 0 255
2.0606 0.00143862 3.9331 0 0 0 255 255 0 255
1.99437 0.392745 3.92222 0 0 0 255 255 0 255
2.07321 -0.0854372 3.94101 0 0 0 255 255 0 255
1.99958 0.359202 3.92441 0 0 0 255 255 0 255
1.99893 0.363145 3.92427 0 0 0 255 255 0 255
2.05393 0.0289047 3.93768 0 0 0 255 255 0 255
1.98568 0.441009 3.9223 0 0 0 255 255 0 255
1.99236 0.398594 3.92482 0 0 0 255 255 0 255
1.97048 0.530704 3.91989 0 0 0 255 255 0 255
2.07235 -0.0864877 3.94387 0 0 0 255 255 0 255
1.96917 0.536599 3.9206 0 0 0 255 255 0 255
2.02075 0.223063 3.93325 0 0 0 255 255 0 255
1.98368 0.444869 3.92591 0 0 0 255 255 0 255
1.88246 1.05612 3.90309 0 0 0 255 255 0 255
2.08294 -0.156547 3.94931 0 0 0 255 255 0 255
2.07118 -0.0855622 3.94666 0 0 0 255 255 0 255
2.09338 -0.221635 3.95268 0 0 0 255 255 0 255
2.08636 -0.181232 3.95212 0 0 0 255 255 0 255
1.98971 0.402418 3.93033 0 0 0 255 255 0 255
2.07135 -0.0925196 3.94975 0 0 0 255 255 0 255
2.06661 -0.0639286 3.94869 0 0 0 255 255 0 255
1.96114 0.57296 3.92491 0 0 0 255 255 0 255
1.98205 0.444776 3.93064 0 0 0 255 255 0 255
2.08883 -0.201989 3.95573 0 0 0 255 255 0 255
1.97144 0.50687 3.92927 0 0 0 255 255 0 255
2.07398 -0.114261 3.95341 0 0 0 255 255 0 255
1.98435 0.426996 3.9332 0 0 0 255 255 0 255
2.06502 -0.0620252 3.9524 0 0 0 255 255 0 255
2.07956 -0.151758 3.95671 0 0 0 255 255 0 255
2.0652 -0.0649987 3.95347 0 0 0 255 255 0 255
1.99157 0.37964 3.93686 0 0 0 255 255 0 255
1.96693 0.526523 3.93233 0 0 0 255 255 0 255
1.95784 0.57776 3.93232 0 0 0 255 255 0 255
2.08765 -0.208013 3.96261 0 0 0 255 255 0 255
1.98385 0.417032 3.94023 0 0 0 255 255 0 255
2.08396 -0.189307 3.96382 0 0 0 255 255 0 255
2.07531 -0.137055 3.96187 0 0 0 255 255 0 255
1.98832 0.386443 3.94328 0 0 0 255 255 0 255
1.87992 1.04108 3.91884 0 0 0 255 255 0 255
1.98922 0.377547 3.94553 0 0 0 255 255 0 255
2.08559 -0.206115 3.96828 0 0 0 255 255 0 255
2.07367 -0.134145 3.96559 0 0 0 255 255 0 255
1.90208 0.902032 3.92691 0 0 0 255 255 0 255
1.90012 0.913863 3.92646 0 0 0 255 255 0 255
2.01624 0.210908 3.95367 0 0 0 255 255 0 255
2.06135 -0.0631812 3.96486 0 0 0 255 255 0 255
2.0225 0.171462 3.9561 0 0 0 255 255 0 255
1.98789 0.380472 3.9483 0 0 0 255 255 0 255
2.02391 0.159612 3.95847 0 0 0 255 255 0 255
1.9418 0.650563 3.94303 0 0 0 255 255 0 255
2.08815 -0.234779 3.97705 0 0 0 255 255 0 255
1.96446 0.510552 3.95018 0 0 0 255 255 0 255
1.98396 0.391252 3.9556 0 0 0 255 255 0 255
1.98151 0.40604 3.95505 0 0 0 255 255 0 255
1.97939 0.418857 3.95457 0 0 0 255 255 0 255
1.966 0.4997 3.95155 0 0 0 255 255 0 255
2.07399 -0.153955 3.97693 0 0 0 255 255 0 255
1.89636 0.9187 3.93688 0 0 0 255 255 0 255
2.05186 -0.0218502 3.97296 0 0 0 255 255 0 255
1.96469 0.495722 3.95946 0 0 0 255 255 0 255
1.99029 0.336987 3.9683 0 0 0 255 255 0 255
1.95501 0.545996 3.96343 0 0 0 255 255 0 255
1.98238 0.37938 3.97062 0 0 0 255 255 0 255
1.98124 0.386281 3.97036 0 0 0 255 255 0 255
1.97634 0.415858 3.96926 0 0 0 255 255 0 255
2.02049 0.146711 3.98126 0 0 0 255 255 0 255
2.02273 0.131925 3.98279 0 0 0 255 255 0 255
1.97057 0.444459 3.97308 0 0 0 255 255 0 255
1.96485 0.478966 3.97179 0 0 0 255 255 0 255
2.05539 -0.070171 3.99426 0 0 0 255 255 0 255
2.0229 0.126022 3.98693 0 0 0 255 255 0 255
1.98252 0.367576 3.97988 0 0 0 255 255 0 255
1.96521 0.472081 3.97597 0 0 0 255 255 0 255
2.07208 -0.176621 4.00314 0 0 0 255 255 0 255
2.03985 0.0117323 4.00202 0 0 0 255 255 0 255
1.95136 0.545112 3.98309 0 0 0 255 255 0 255
1.99348 0.289774 3.99361 0 0 0 255 255 0 255
1.96687 0.450476 3.98761 0 0 0 255 255 0 255
1.97651 0.391332 3.99081 0 0 0 255 255 0 255
1.96118 0.482057 3.9894 0 0 0 255 255 0 255
1.96168 0.478125 3.99053 0 0 0 255 255 0 255
2.01426 0.159693 4.00341 0 0 0 255 255 0 255
1.9501 0.54715 3.98895 0 0 0 255 255 0 255
1.98023 0.361856 3.99983 0 0 0 255 255 0 255
1.94 0.59957 3.9979 0 0 0 255 255 0 255
1.94152 0.589729 3.99926 0 0 0 255 255 0 255
2.0521 -0.0786898 4.02521 0 0 0 255 255 0 255
2.01721 0.131325 4.01836 0 0 0 255 255 0 255
2.01199 0.162874 4.01718 0 0 0 255 255 0 255
1.95615 0.50005 4.0046 0 0 0 255 255 0 255
2.06571 -0.163398 4.03235 0 0 0 255 255 0 255
1.98039 0.35126 4.01413 0 0 0 255 255 0 255
2.01203 0.158113 4.02533 0 0 0 255 255 0 255
1.99309 0.272476 4.02106 0 0 0 255 255 0 255
2.0428 -0.0291368 4.03531 0 0 0 255 255 0 255
2.05522 -0.105001 4.04014 0 0 0 255 255 0 255
2.00914 0.172113 4.03279 0 0 0 255 255 0 255
2.01659 0.126789 4.03548 0 0 0 255 255 0 255
2.01729 0.121915 4.03766 0 0 0 255 255 0 255
1.98088 0.34177 4.02945 0 0 0 255 255 0 255
1.89844 0.837883 4.01792 0 0 0 255 255 0 255
1.93736 0.60235 4.02972 0 0 0 255 255 0 255
1.94289 0.568862 4.03197 0 0 0 255 255 0 255
1.94207 0.573792 4.03179 0 0 0 255 255 0 255
1.90986 0.768081 4.02653 0 0 0 255 255 0 255
1.95752 0.480233 4.03828 0 0 0 255 255 0 255
1.9392 0.590724 4.03616 0 0 0 255 255 0 255
1.93756 0.600618 4.03679 0 0 0 255 255 0 255
1.96073 0.460694 4.04401 0 0 0 255 255 0 255
1.97285 0.387967 4.05273 0 0 0 255 255 0 255
1.96371 0.443177 4.05067 0 0 0 255 255 0 255
1.89396 0.865386 4.04091 0 0 0 255 255 0 255
2.07121 -0.204181 4.08384 0 0 0 255 255 0 255
1.96925 0.412092 4.06283 0 0 0 255 255 0 255
1.9669 0.42697 4.06428 0 0 0 255 255 0 255
1.90192 0.819357 4.04963 0 0 0 255 255 0 255
1.95312 0.510864 4.06314 0 0 0 255 255 0 255
1.90061 0.830581 4.0572 0 0 0 255 255 0 255
1.94843 0.542798 4.06994 0 0 0 255 255 0 255
1.97461 0.389413 4.08364 0 0 0 255 255 0 255
1.89368 0.881649 4.07023 0 0 0 255 255 0 255
1.97469 0.394786 4.09139 0 0 0 255 255 0 255
1.91433 0.768049 4.08737 0 0 0 255 255 0 255
2.05472 -0.0787736 4.11997 0 0 0 255 255 0 255
1.9512 0.55258 4.10232 0 0 0 255 255 0 255
1.97962 0.383136 4.11062 0 0 0 255 255 0 255
1.93718 0.639469 4.10105 0 0 0 255 255 0 255
1.89771 0.888522 4.1006 0 0 0 255 255 0 255
1.90049 0.876973 4.10494 0 0 0 255 255 0 255
1.89902 0.885846 4.10461 0 0 0 255 255 0 255
1.99689 0.338859 4.15215 0 0 0 255 255 0 255
2.02711 0.163705 4.16251 0 0 0 255 255 0 255
1.95252 0.627677 4.15185 0 0 0 255 255 0 255
2.09044 -0.195104 4.1873 0 0 0 255 255 0 255
2.0346 0.203781 4.19753 0 0 0 255 255 0 255
1.97643 0.583486 4.19336 0 0 0 255 255 0 255
1.97529 0.590388 4.1931 0 0 0 255 255 0 255
2.02733 0.317909 4.21668 0 0 0 255 255 0 255
2.06179 0.148802 4.23437 0 0 0 255 255 0 255
1.98492 0.622375 4.21928 0 0 0 255 255 0 255
2.00097 0.591222 4.23739 0 0 0 255 255 0 255
2.08081 0.409082 4.30242 0 0 0 255 255 0 255
2.12526 0.391359 4.33692 0 0 0 255 255 0 255
