ply
format ascii 1.0
comment VCGLIB generated
element vertex 270
property float x
property float y
property float z
property float nx
property float ny
property float nz
property uchar red
property uchar green
property uchar blue
property uchar alpha
element face 0
property list uchar int vertex_indices
end_header
-1.04179 0.135802 4.25252 0 0 0 255 255 255 255
-1.04235 0.133339 4.24859 0 0 0 255 255 255 255
-1.02837 0.189447 4.26319 0 0 0 255 255 255 255
-0.951108 0.352237 4.1547 0 0 0 255 255 255 255
-0.92873 0.330019 4.11832 0 0 0 255 255 255 255
-1.00741 0.326746 4.22857 0 0 0 255 255 255 255
-1.00223 0.592198 4.2223 0 0 0 255 255 255 255
-0.985466 0.652991 4.19675 0 0 0 255 255 255 255
-0.955757 0.592544 4.16835 0 0 0 255 255 255 255
-0.945002 0.680459 4.15634 0 0 0 255 255 255 255
-0.966057 0.535324 4.18269 0 0 0 255 255 255 255
-0.983642 0.483463 4.22878 0 0 0 255 255 255 255
-1.01017 0.571503 4.23289 0 0 0 255 255 255 255
-0.921774 0.449545 4.14334 0 0 0 255 255 255 255
-0.976932 0.335141 4.19627 0 0 0 255 255 255 255
-0.99573 0.497641 4.25184 0 0 0 255 255 255 255
-0.95346 0.686959 4.16268 0 0 0 255 255 255 255
-0.921405 0.585315 4.13652 0 0 0 255 255 255 255
-1.01701 0.489646 4.25384 0 0 0 255 255 255 255
-0.969052 0.685516 4.17698 0 0 0 255 255 255 255
-0.993845 0.6909 4.1694 0 0 0 255 255 255 255
-0.907953 0.631225 4.12854 0 0 0 255 255 255 255
-0.944541 0.469844 4.17479 0 0 0 255 255 255 255
-0.336364 0.105204 4.59011 0 0 0 255 255 255 255
-0.311941 0.100479 4.56176 0 0 0 255 255 255 255
-0.341483 0.141807 4.55028 0 0 0 255 255 255 255
-0.34415 0.127655 4.52834 0 0 0 255 255 255 255
-0.286877 0.0770361 4.56736 0 0 0 255 255 255 255
-0.318313 0.0884988 4.64837 0 0 0 255 255 255 255
0.314433 0.0626433 4.89807 0 0 0 255 255 255 255
0.332623 0.0884204 4.88442 0 0 0 255 255 255 255
0.39057 0.140788 4.79422 0 0 0 255 255 255 255
0.391656 0.149147 4.79054 0 0 0 255 255 255 255
0.387233 0.112598 4.79961 0 0 0 255 255 255 255
0.357708 0.127295 4.87834 0 0 0 255 255 255 255
0.386597 0.113649 4.80086 0 0 0 255 255 255 255
0.386211 0.595487 4.76524 0 0 0 255 255 255 255
0.666944 0.24371 4.64646 0 0 0 255 255 255 255
0.385005 0.604755 4.76689 0 0 0 255 255 255 255
0.383828 0.591448 4.77113 0 0 0 255 255 255 255
-0.826272 0.877974 4.01018 0 0 0 255 255 255 255
-0.822533 0.880308 4.00785 0 0 0 255 255 255 255
-0.963567 0.695026 4.1688 0 0 0 255 255 255 255
-0.955262 0.913001 4.17034 0 0 0 255 255 255 255
-0.988451 0.707387 4.16651 0 0 0 255 255 255 255
-1.00769 0.823943 4.22464 0 0 0 255 255 255 255
-1.00206 0.815222 4.22218 0 0 0 255 255 255 255
-0.959661 0.700338 4.16381 0 0 0 255 255 255 255
-0.997533 0.77871 4.20161 0 0 0 255 255 255 255
-0.95753 0.898226 4.17547 0 0 0 255 255 255 255
-0.924794 1.01747 4.16493 0 0 0 255 255 255 255
-0.985939 1.068 4.22199 0 0 0 255 255 255 255
-0.856699 0.979235 4.13026 0 0 0 255 255 255 255
-0.992373 1.03957 4.2015 0 0 0 255 255 255 255
-0.929738 1.02649 4.16893 0 0 0 255 255 255 255
-0.887551 0.956635 4.14284 0 0 0 255 255 255 255
-0.888782 0.946296 4.14412 0 0 0 255 255 255 255
-0.913754 1.02909 4.16553 0 0 0 255 255 255 255
-0.803356 0.974443 3.98733 0 0 0 255 255 255 255
-0.662978 0.940358 4.02455 0 0 0 255 255 255 255
-0.598269 1.1017 4.02662 0 0 0 255 255 255 255
-0.691421 1.29452 4.0101 0 0 0 255 255 255 255
-0.863444 1.17532 4.12317 0 0 0 255 255 255 255
-0.867516 1.17011 4.12552 0 0 0 255 255 255 255
-0.865917 1.19241 4.12135 0 0 0 255 255 255 255
-0.696932 1.3674 3.85158 0 0 0 255 255 255 255
-0.679561 1.37353 3.85353 0 0 0 255 255 255 255
-0.948401 1.41496 4.19433 0 0 0 255 255 255 255
-0.865765 1.30499 4.12969 0 0 0 255 255 255 255
-0.912405 1.22174 4.14513 0 0 0 255 255 255 255
-0.904309 1.27197 4.13632 0 0 0 255 255 255 255
-0.881104 1.2743 4.12892 0 0 0 255 255 255 255
-0.864828 1.20254 4.12377 0 0 0 255 255 255 255
-0.901436 1.27334 4.13458 0 0 0 255 255 255 255
-0.857059 1.32244 4.12318 0 0 0 255 255 255 255
-0.532847 1.12545 4.02194 0 0 0 255 255 255 255
-0.490643 1.40867 4.0906 0 0 0 255 255 255 255
-0.456173 1.42246 4.09085 0 0 0 255 255 255 255
-0.431889 1.38984 4.09267 0 0 0 255 255 255 255
-0.301473 1.47362 4.65146 0 0 0 255 255 255 255
-0.32279 0.750245 4.35393 0 0 0 255 255 255 255
-0.294996 1.46103 4.65304 0 0 0 255 255 255 255
-0.335438 1.44315 4.63277 0 0 0 255 255 255 255
0.331916 1.40281 4.99179 0 0 0 255 255 255 255
0.547968 0.90277 4.65633 0 0 0 255 255 255 255
0.477325 0.886691 4.67836 0 0 0 255 255 255 255
0.47345 0.90975 4.68108 0 0 0 255 255 255 255
0.498969 0.908346 4.68452 0 0 0 255 255 255 255
0.465562 0.937136 4.68461 0 0 0 255 255 255 255
0.573557 0.923182 4.63928 0 0 0 255 255 255 255
0.575621 0.901368 4.6406 0 0 0 255 255 255 255
0.574282 0.941769 4.63766 0 0 0 255 255 255 255
0.569906 0.941567 4.63724 0 0 0 255 255 255 255
0.566664 1.15374 4.68459 0 0 0 255 255 255 255
0.575269 1.27166 4.65739 0 0 0 255 255 255 255
0.340246 1.39145 4.99328 0 0 0 255 255 255 255
0.380315 1.38608 4.91595 0 0 0 255 255 255 255
0.360836 1.40333 4.94727 0 0 0 255 255 255 255
0.948963 -0.242231 4.71029 0 0 0 255 255 255 255
0.949567 -0.243811 4.70945 0 0 0 255 255 255 255
1.0267 0.114625 4.68006 0 0 0 255 255 255 255
1.11293 0.0900738 4.905 0 0 0 255 255 255 255
1.14189 0.0622064 4.91039 0 0 0 255 255 255 255
1.06998 0.104592 4.94191 0 0 0 255 255 255 255
1.11239 0.0973165 4.90656 0 0 0 255 255 255 255
1.08561 0.102916 4.97593 0 0 0 255 255 255 255
0.824155 -0.217967 4.79374 0 0 0 255 255 255 255
1.05439 0.113899 4.79831 0 0 0 255 255 255 255
1.12979 0.0736659 4.90592 0 0 0 255 255 255 255
2.08139 0.170465 4.02787 0 0 0 255 255 255 255
2.13273 0.0337164 4.0098 0 0 0 255 255 255 255
2.13638 -0.0840458 3.99222 0 0 0 255 255 255 255
2.12272 -0.128475 3.99848 0 0 0 255 255 255 255
2.1471 -0.0610235 3.98172 0 0 0 255 255 255 255
2.14108 -0.0778424 3.98809 0 0 0 255 255 255 255
2.12744 -0.0542487 3.99334 0 0 0 255 255 255 255
2.0566 0.164072 4.04231 0 0 0 255 255 255 255
2.10184 -0.0574189 4.00197 0 0 0 255 255 255 255
2.06612 0.125168 4.03832 0 0 0 255 255 255 255
2.10327 -0.15037 4.00978 0 0 0 255 255 255 255
2.06932 0.134275 4.0387 0 0 0 255 255 255 255
2.1342 -0.147311 4.00714 0 0 0 255 255 255 255
2.11978 -0.201983 4.01434 0 0 0 255 255 255 255
2.05175 0.133862 4.04456 0 0 0 255 255 255 255
2.10965 -0.0153505 4.01077 0 0 0 255 255 255 255
2.04933 0.176672 4.04035 0 0 0 255 255 255 255
2.13165 -0.202317 4.003 0 0 0 255 255 255 255
1.93606 0.411569 3.97729 0 0 0 255 255 255 255
1.94091 0.49897 3.99965 0 0 0 255 255 255 255
1.96073 0.374155 3.98865 0 0 0 255 255 255 255
1.99575 0.333837 3.99092 0 0 0 255 255 255 255
1.97727 0.443341 3.94244 0 0 0 255 255 255 255
1.96228 0.336067 4.02141 0 0 0 255 255 255 255
1.98032 0.266934 4.032 0 0 0 255 255 255 255
1.98608 0.378702 3.94559 0 0 0 255 255 255 255
1.97558 0.419372 3.94857 0 0 0 255 255 255 255
1.97586 0.392175 3.96891 0 0 0 255 255 255 255
1.94989 0.357246 4.01014 0 0 0 255 255 255 255
1.98484 0.382369 3.95415 0 0 0 255 255 255 255
1.98404 0.389157 3.94154 0 0 0 255 255 255 255
1.9836 0.532867 3.94063 0 0 0 255 255 255 255
1.96886 0.498245 3.96988 0 0 0 255 255 255 255
1.94605 0.474754 3.98092 0 0 0 255 255 255 255
1.97565 0.593249 4.01785 0 0 0 255 255 255 255
1.95032 0.571678 4.01713 0 0 0 255 255 255 255
1.98605 0.544415 3.92419 0 0 0 255 255 255 255
1.95943 0.471225 3.9745 0 0 0 255 255 255 255
1.95708 0.549722 3.98041 0 0 0 255 255 255 255
1.95789 0.588705 4.00373 0 0 0 255 255 255 255
1.96904 0.601678 4.04136 0 0 0 255 255 255 255
1.94781 0.575093 4.02317 0 0 0 255 255 255 255
1.9815 0.508889 3.92984 0 0 0 255 255 255 255
2.23775 -0.160109 3.7941 0 0 0 255 255 255 255
2.32644 -0.146021 3.84714 0 0 0 255 255 255 255
2.3765 -0.167569 3.83684 0 0 0 255 255 255 255
2.229 -0.194043 3.78159 0 0 0 255 255 255 255
2.22586 -0.160279 3.80348 0 0 0 255 255 255 255
2.35224 -0.216975 3.87996 0 0 0 255 255 255 255
2.33153 -0.207857 3.88151 0 0 0 255 255 255 255
2.33549 -0.11251 3.90926 0 0 0 255 255 255 255
2.31469 -0.221435 3.89683 0 0 0 255 255 255 255
2.36056 -0.207523 3.87479 0 0 0 255 255 255 255
2.36898 -0.2036 3.8553 0 0 0 255 255 255 255
2.34786 -0.114275 3.88767 0 0 0 255 255 255 255
2.30056 -0.168635 3.90272 0 0 0 255 255 255 255
2.32422 -0.0798961 3.91982 0 0 0 255 255 255 255
2.29396 -0.209593 3.89066 0 0 0 255 255 255 255
2.19723 -0.186828 3.87278 0 0 0 255 255 255 255
2.32661 -0.20881 3.88174 0 0 0 255 255 255 255
2.34235 0.0681414 3.9109 0 0 0 255 255 255 255
2.21042 0.0198775 3.89724 0 0 0 255 255 255 255
2.3474 0.0868079 3.91339 0 0 0 255 255 255 255
2.20577 0.013951 3.89531 0 0 0 255 255 255 255
2.33868 0.0117203 3.90435 0 0 0 255 255 255 255
2.33756 0.00551817 3.90569 0 0 0 255 255 255 255
2.33931 0.00828334 3.90503 0 0 0 255 255 255 255
2.35144 0.114889 3.90677 0 0 0 255 255 255 255
2.35528 0.114677 3.90447 0 0 0 255 255 255 255
2.20914 0.015021 3.89941 0 0 0 255 255 255 255
2.47127 -0.0436954 3.90631 0 0 0 255 255 255 255
2.45652 -0.19735 3.91037 0 0 0 255 255 255 255
2.4919 -0.184173 3.93649 0 0 0 255 255 255 255
2.48352 -0.0447366 3.90862 0 0 0 255 255 255 255
2.50195 -0.0708411 3.94451 0 0 0 255 255 255 255
2.49463 -0.0921071 3.93894 0 0 0 255 255 255 255
2.49348 0.000851851 3.942 0 0 0 255 255 255 255
2.45043 -0.187827 3.90397 0 0 0 255 255 255 255
2.47044 -0.0639337 3.94226 0 0 0 255 255 255 255
2.49092 -0.0111797 3.94362 0 0 0 255 255 255 255
2.4098 -0.217934 3.86527 0 0 0 255 255 255 255
2.46875 0.037539 3.91825 0 0 0 255 255 255 255
2.53072 0.141032 3.93482 0 0 0 255 255 255 255
2.54481 0.135466 3.95432 0 0 0 255 255 255 255
2.45873 0.0379367 3.9441 0 0 0 255 255 255 255
2.53937 0.121522 3.95904 0 0 0 255 255 255 255
2.47475 0.0508856 3.92226 0 0 0 255 255 255 255
1.05085 0.763739 4.68669 0 0 0 255 255 255 255
1.05336 0.772426 4.73726 0 0 0 255 255 255 255
1.09136 0.753928 4.76476 0 0 0 255 255 255 255
1.05076 0.763701 4.6865 0 0 0 255 255 255 255
1.05805 0.813971 4.72917 0 0 0 255 255 255 255
1.07265 0.731774 4.74561 0 0 0 255 255 255 255
1.18546 1.11966 5.04632 0 0 0 255 255 255 255
1.09083 0.772894 4.76698 0 0 0 255 255 255 255
1.10882 0.738261 4.80637 0 0 0 255 255 255 255
1.17872 1.13781 5.0478 0 0 0 255 255 255 255
0.915483 1.35995 4.67228 0 0 0 255 255 255 255
0.910934 1.36151 4.67332 0 0 0 255 255 255 255
0.998851 1.3663 4.69635 0 0 0 255 255 255 255
0.907007 1.38316 4.6688 0 0 0 255 255 255 255
0.98893 1.34745 4.69282 0 0 0 255 255 255 255
0.995205 1.34293 4.69352 0 0 0 255 255 255 255
0.905069 1.34675 4.6696 0 0 0 255 255 255 255
1.11185 1.39648 5.04077 0 0 0 255 255 255 255
1.18842 1.2215 5.05892 0 0 0 255 255 255 255
1.06912 1.39977 5.11084 0 0 0 255 255 255 255
1.20363 1.17389 5.06278 0 0 0 255 255 255 255
2.06975 1.07652 3.74384 0 0 0 255 255 255 255
1.99475 0.903314 4.07435 0 0 0 255 255 255 255
2.14983 1.36589 3.69721 0 0 0 255 255 255 255
2.1707 1.43021 3.83099 0 0 0 255 255 255 255
1.99441 1.57481 4.0978 0 0 0 255 255 255 255
2.27451 0.733627 3.6816 0 0 0 255 255 255 255
2.3538 0.744496 3.65929 0 0 0 255 255 255 255
2.24838 0.760771 3.68195 0 0 0 255 255 255 255
2.25567 0.715219 3.68299 0 0 0 255 255 255 255
2.32734 0.712748 3.6567 0 0 0 255 255 255 255
2.30062 0.76273 3.67965 0 0 0 255 255 255 255
2.3776 0.714974 3.69755 0 0 0 255 255 255 255
2.25603 0.722337 3.68176 0 0 0 255 255 255 255
2.35495 0.720972 3.66314 0 0 0 255 255 255 255
2.33951 1.05122 3.69989 0 0 0 255 255 255 255
2.34337 1.06214 3.69765 0 0 0 255 255 255 255
2.39163 1.08231 3.69594 0 0 0 255 255 255 255
2.3113 1.05152 3.69798 0 0 0 255 255 255 255
2.35157 1.07864 3.69049 0 0 0 255 255 255 255
2.47765 1.0815 3.72859 0 0 0 255 255 255 255
2.63362 0.897477 3.86748 0 0 0 255 255 255 255
2.21636 1.39136 3.65493 0 0 0 255 255 255 255
2.4102 1.41273 3.7808 0 0 0 255 255 255 255
2.31051 1.41643 3.77491 0 0 0 255 255 255 255
2.25145 1.41287 3.79984 0 0 0 255 255 255 255
2.39948 1.41094 3.78612 0 0 0 255 255 255 255
2.22709 1.23752 3.66313 0 0 0 255 255 255 255
2.18678 1.37685 3.66829 0 0 0 255 255 255 255
2.46126 1.4045 3.79337 0 0 0 255 255 255 255
2.45249 1.36147 3.63353 0 0 0 255 255 255 255
2.38955 1.2326 3.64688 0 0 0 255 255 255 255
2.38519 1.63083 3.98878 0 0 0 255 255 255 255
2.39535 1.62889 3.98083 0 0 0 255 255 255 255
2.39289 1.62949 3.9852 0 0 0 255 255 255 255
1.7504 1.45166 6.64819 0 0 0 255 255 255 255
1.72685 1.441 6.66921 0 0 0 255 255 255 255
1.88101 1.37257 6.61667 0 0 0 255 255 255 255
1.31595 1.37717 6.4872 0 0 0 255 255 255 255
1.87057 1.41176 6.81826 0 0 0 255 255 255 255
2.14078 1.37002 6.2844 0 0 0 255 255 255 255
1.87378 1.39885 6.36062 0 0 0 255 255 255 255
1.88595 1.46485 6.71491 0 0 0 255 255 255 255
1.89214 1.3541 6.47461 0 0 0 255 255 255 255
1.88441 1.38887 6.68864 0 0 0 255 255 255 255
1.92062 1.36659 6.5306 0 0 0 255 255 255 255
2.10862 1.38253 6.43098 0 0 0 255 255 255 255
1.87709 1.39718 6.34671 0 0 0 255 255 255 255
2.1425 1.36871 6.2847 0 0 0 255 255 255 255
1.89172 1.35582 6.48905 0 0 0 255 255 255 255
1.23839 1.35906 6.34035 0 0 0 255 255 255 255
2.08027 1.40671 6.47381 0 0 0 255 255 255 255
2.16591 1.37303 6.29175 0 0 0 255 255 255 255
1.71726 1.44921 6.66848 0 0 0 255 255 255 255
