ply
format ascii 1.0
comment VCGLIB generated
element vertex 73
property float x
property float y
property float z
property float nx
property float ny
property float nz
property uchar red
property uchar green
property uchar blue
property uchar alpha
element face 0
property list uchar int vertex_indices
end_header
0.935429 1.08475 4.1625 0 0 0 128 0 128 255
0.931656 1.16824 4.2576 0 0 0 128 0 128 255
0.934748 1.18435 4.26692 0 0 0 128 0 128 255
0.867381 1.03918 4.27625 0 0 0 128 0 128 255
0.727414 0.752216 4.31074 0 0 0 128 0 128 255
0.856791 1.04926 4.31167 0 0 0 128 0 128 255
0.742779 0.794611 4.3182 0 0 0 128 0 128 255
0.740515 0.791235 4.32007 0 0 0 128 0 128 255
0.741191 0.796396 4.32379 0 0 0 128 0 128 255
1.0214 1.45314 4.33964 0 0 0 128 0 128 255
1.02134 1.45753 4.34431 0 0 0 128 0 128 255
0.734702 0.801413 4.34431 0 0 0 128 0 128 255
0.735972 0.805223 4.34524 0 0 0 128 0 128 255
0.733307 0.800931 4.3471 0 0 0 128 0 128 255
0.827455 1.01734 4.34803 0 0 0 128 0 128 255
0.736924 0.814629 4.3527 0 0 0 128 0 128 255
0.732189 0.804693 4.35363 0 0 0 128 0 128 255
0.911814 1.21947 4.35736 0 0 0 128 0 128 255
0.864782 1.11452 4.36016 0 0 0 128 0 128 255
0.825231 1.03031 4.36668 0 0 0 128 0 128 255
0.733624 0.821527 4.36761 0 0 0 128 0 128 255
0.992309 1.41456 4.36855 0 0 0 128 0 128 255
0.991977 1.41471 4.36948 0 0 0 128 0 128 255
0.912311 1.23235 4.36948 0 0 0 128 0 128 255
0.835115 1.05655 4.37041 0 0 0 128 0 128 255
0.898658 1.21103 4.37973 0 0 0 128 0 128 255
0.731718 0.828907 4.37973 0 0 0 128 0 128 255
0.717845 0.798956 4.3816 0 0 0 128 0 128 255
0.899403 1.21725 4.3844 0 0 0 128 0 128 255
1.00089 1.45228 4.38719 0 0 0 128 0 128 255
0.932037 1.29466 4.38719 0 0 0 128 0 128 255
0.722662 0.815403 4.38719 0 0 0 128 0 128 255
0.72066 0.810821 4.38719 0 0 0 128 0 128 255
0.716726 0.802719 4.38813 0 0 0 128 0 128 255
0.905835 1.24282 4.39558 0 0 0 128 0 128 255
0.801086 1.00485 4.39745 0 0 0 128 0 128 255
0.853198 1.12504 4.39838 0 0 0 128 0 128 255
0.898505 1.22965 4.39931 0 0 0 128 0 128 255
0.887571 1.20824 4.40304 0 0 0 128 0 128 255
0.855213 1.13507 4.40398 0 0 0 128 0 128 255
0.98713 1.43974 4.40677 0 0 0 128 0 128 255
0.806579 1.02646 4.40677 0 0 0 128 0 128 255
0.830268 1.08159 4.4077 0 0 0 128 0 128 255
0.986868 1.44095 4.40864 0 0 0 128 0 128 255
0.836011 1.09654 4.40957 0 0 0 128 0 128 255
0.803791 1.02549 4.41237 0 0 0 128 0 128 255
0.830351 1.0881 4.41423 0 0 0 128 0 128 255
0.80513 1.03037 4.41423 0 0 0 128 0 128 255
0.802327 1.02395 4.41423 0 0 0 128 0 128 255
0.846033 1.1249 4.41516 0 0 0 128 0 128 255
0.90397 1.26655 4.42449 0 0 0 128 0 128 255
0.850726 1.14467 4.42449 0 0 0 128 0 128 255
0.853942 1.15745 4.43008 0 0 0 128 0 128 255
0.832062 1.10917 4.43195 0 0 0 128 0 128 255
0.877368 1.21379 4.43288 0 0 0 128 0 128 255
0.976665 1.4465 4.43847 0 0 0 128 0 128 255
0.971861 1.4355 4.43847 0 0 0 128 0 128 255
0.979881 1.45928 4.44407 0 0 0 128 0 128 255
0.960747 1.4218 4.45059 0 0 0 128 0 128 255
0.980433 1.46777 4.45152 0 0 0 128 0 128 255
0.980033 1.46685 4.45152 0 0 0 128 0 128 255
0.975297 1.45691 4.45246 0 0 0 128 0 128 255
0.965096 1.43627 4.45525 0 0 0 128 0 128 255
0.990455 1.49613 4.45712 0 0 0 128 0 128 255
0.796431 1.05381 4.45898 0 0 0 128 0 128 255
0.967056 1.45069 4.46551 0 0 0 128 0 128 255
0.968408 1.46102 4.47297 0 0 0 128 0 128 255
0.955735 1.43381 4.47483 0 0 0 128 0 128 255
0.968973 1.47496 4.48602 0 0 0 128 0 128 255
0.960249 1.46131 4.49255 0 0 0 128 0 128 255
0.821221 1.1783 4.52891 0 0 0 128 0 128 255
0.791829 1.15076 4.56993 0 0 0 128 0 128 255
0.772889 1.11102 4.57366 0 0 0 128 0 128 255
