ply
format ascii 1.0
comment VCGLIB generated
element vertex 338
property float x
property float y
property float z
property float nx
property float ny
property float nz
property uchar red
property uchar green
property uchar blue
property uchar alpha
element face 0
property list uchar int vertex_indices
end_header
4.02208 0.830285 3.33384 0 0 0 255 0 255 255
4.01106 0.942644 3.37437 0 0 0 255 0 255 255
4.01432 1.1414 3.42469 0 0 0 255 0 255 255
4.0062 1.16765 3.43937 0 0 0 255 0 255 255
4.00014 1.1933 3.45195 0 0 0 255 0 255 255
3.99478 1.18755 3.45544 0 0 0 255 0 255 255
4.01181 1.28357 3.46523 0 0 0 255 0 255 255
3.93402 1.02187 3.46802 0 0 0 255 0 255 255
4.06541 1.48146 3.46802 0 0 0 255 0 255 255
3.93581 1.03072 3.46872 0 0 0 255 0 255 255
3.9321 1.02554 3.47082 0 0 0 255 0 255 255
3.93512 1.03612 3.47082 0 0 0 255 0 255 255
3.93498 1.04864 3.47431 0 0 0 255 0 255 255
3.92068 1.01944 3.4799 0 0 0 255 0 255 255
4.06897 1.55116 3.4834 0 0 0 255 0 255 255
3.93442 1.09872 3.48829 0 0 0 255 0 255 255
3.91696 1.04547 3.49039 0 0 0 255 0 255 255
3.9149 1.04086 3.49108 0 0 0 255 0 255 255
3.91518 1.04182 3.49108 0 0 0 255 0 255 255
3.92782 1.10165 3.49528 0 0 0 255 0 255 255
3.89511 0.992432 3.49667 0 0 0 255 0 255 255
4.03652 1.48972 3.49737 0 0 0 255 0 255 255
4.03694 1.49376 3.49807 0 0 0 255 0 255 255
4.03886 1.50049 3.49807 0 0 0 255 0 255 255
3.89854 1.02265 3.50157 0 0 0 255 0 255 255
3.91833 1.09188 3.50157 0 0 0 255 0 255 255
3.89263 1.00458 3.50227 0 0 0 255 0 255 255
3.9153 1.0865 3.50296 0 0 0 255 0 255 255
3.92987 1.13746 3.50296 0 0 0 255 0 255 255
3.92588 1.13652 3.50646 0 0 0 255 0 255 255
3.92217 1.13654 3.50995 0 0 0 255 0 255 255
3.88011 1.00504 3.51415 0 0 0 255 0 255 255
3.96793 1.32003 3.51624 0 0 0 255 0 255 255
4.03472 1.55887 3.51764 0 0 0 255 0 255 255
3.89028 1.05622 3.51834 0 0 0 255 0 255 255
3.90388 1.11161 3.52044 0 0 0 255 0 255 255
3.87379 1.00893 3.52113 0 0 0 255 0 255 255
3.90375 1.11893 3.52253 0 0 0 255 0 255 255
4.03444 1.57872 3.52323 0 0 0 255 0 255 255
4.0343 1.58084 3.52393 0 0 0 255 0 255 255
4.00503 1.48104 3.52463 0 0 0 255 0 255 255
3.89192 1.08799 3.52533 0 0 0 255 0 255 255
3.8933 1.09279 3.52533 0 0 0 255 0 255 255
4.02716 1.56104 3.52533 0 0 0 255 0 255 255
3.8922 1.09415 3.52673 0 0 0 255 0 255 255
3.86608 1.02361 3.53232 0 0 0 255 0 255 255
3.98139 1.42955 3.53302 0 0 0 255 0 255 255
3.97946 1.43322 3.53581 0 0 0 255 0 255 255
3.85728 1.00845 3.53651 0 0 0 255 0 255 255
3.89205 1.13787 3.53861 0 0 0 255 0 255 255
3.84684 0.98231 3.53931 0 0 0 255 0 255 255
3.88147 1.10346 3.53931 0 0 0 255 0 255 255
3.88463 1.11711 3.54 0 0 0 255 0 255 255
3.87954 1.11233 3.5435 0 0 0 255 0 255 255
3.83955 0.985434 3.54699 0 0 0 255 0 255 255
3.95664 1.39503 3.54699 0 0 0 255 0 255 255
3.95416 1.39157 3.54839 0 0 0 255 0 255 255
3.85136 1.03718 3.54979 0 0 0 255 0 255 255
3.83308 0.975841 3.55049 0 0 0 255 0 255 255
4.0538 1.74791 3.55049 0 0 0 255 0 255 255
3.8335 0.979884 3.55119 0 0 0 255 0 255 255
3.96309 1.44622 3.55468 0 0 0 255 0 255 255
3.87046 1.13781 3.55887 0 0 0 255 0 255 255
3.87376 1.15454 3.56027 0 0 0 255 0 255 255
3.76188 0.768422 3.56167 0 0 0 255 0 255 255
3.94329 1.403 3.56167 0 0 0 255 0 255 255
3.84118 1.04841 3.56237 0 0 0 255 0 255 255
3.76491 0.784199 3.56307 0 0 0 255 0 255 255
3.75487 0.756906 3.56516 0 0 0 255 0 255 255
3.75308 0.758457 3.56726 0 0 0 255 0 255 255
3.85712 1.12498 3.56796 0 0 0 255 0 255 255
3.82496 1.01769 3.56936 0 0 0 255 0 255 255
4.04375 1.78303 3.56936 0 0 0 255 0 255 255
3.8376 1.06711 3.57075 0 0 0 255 0 255 255
3.83142 1.04808 3.57145 0 0 0 255 0 255 255
3.83527 1.06154 3.57145 0 0 0 255 0 255 255
3.82949 1.05175 3.57425 0 0 0 255 0 255 255
4.04416 1.80787 3.57565 0 0 0 255 0 255 255
3.74552 0.76582 3.57634 0 0 0 255 0 255 255
3.82427 1.04389 3.57704 0 0 0 255 0 255 255
3.83361 1.10258 3.58403 0 0 0 255 0 255 255
3.83636 1.11219 3.58403 0 0 0 255 0 255 255
3.82797 1.08547 3.58473 0 0 0 255 0 255 255
3.7495 0.813565 3.58543 0 0 0 255 0 255 255
3.83553 1.11451 3.58543 0 0 0 255 0 255 255
3.72778 0.742809 3.58683 0 0 0 255 0 255 255
3.74042 0.792238 3.58823 0 0 0 255 0 255 255
3.73575 0.786294 3.59102 0 0 0 255 0 255 255
3.75994 0.881305 3.59382 0 0 0 255 0 255 255
3.72846 0.773816 3.59452 0 0 0 255 0 255 255
3.74454 0.837864 3.59661 0 0 0 255 0 255 255
3.81848 1.0965 3.59661 0 0 0 255 0 255 255
3.82453 1.11766 3.59661 0 0 0 255 0 255 255
4.01954 1.80243 3.59731 0 0 0 255 0 255 255
3.8215 1.11228 3.59801 0 0 0 255 0 255 255
3.71444 0.745583 3.60011 0 0 0 255 0 255 255
4.01871 1.81515 3.6015 0 0 0 255 0 255 255
3.73615 0.831941 3.6029 0 0 0 255 0 255 255
3.75182 0.886746 3.6029 0 0 0 255 0 255 255
3.74467 0.866948 3.6043 0 0 0 255 0 255 255
3.73711 0.858709 3.60919 0 0 0 255 0 255 255
4.00593 1.79904 3.60919 0 0 0 255 0 255 255
3.73738 0.864871 3.61059 0 0 0 255 0 255 255
3.70564 0.75642 3.61129 0 0 0 255 0 255 255
4.01871 1.85155 3.61129 0 0 0 255 0 255 255
4.01348 1.83848 3.61269 0 0 0 255 0 255 255
3.70151 0.752399 3.61408 0 0 0 255 0 255 255
3.98819 1.77603 3.61967 0 0 0 255 0 255 255
3.76692 1.00724 3.62107 0 0 0 255 0 255 255
3.75002 0.950704 3.62177 0 0 0 255 0 255 255
3.98379 1.77625 3.62387 0 0 0 255 0 255 255
3.98818 1.80203 3.62666 0 0 0 255 0 255 255
3.73654 0.929595 3.62876 0 0 0 255 0 255 255
3.80306 1.16227 3.62876 0 0 0 255 0 255 255
3.68295 0.747306 3.63016 0 0 0 255 0 255 255
3.97897 1.78282 3.63016 0 0 0 255 0 255 255
3.6993 0.807115 3.63086 0 0 0 255 0 255 255
3.80237 1.18847 3.63645 0 0 0 255 0 255 255
3.76155 1.04829 3.63715 0 0 0 255 0 255 255
3.71166 0.881585 3.63924 0 0 0 255 0 255 255
3.7107 0.88082 3.63994 0 0 0 255 0 255 255
3.69805 0.846993 3.64274 0 0 0 255 0 255 255
3.74711 1.04722 3.65042 0 0 0 255 0 255 255
3.71454 0.935886 3.65112 0 0 0 255 0 255 255
3.78463 1.19147 3.65392 0 0 0 255 0 255 255
3.67812 0.821491 3.65462 0 0 0 255 0 255 255
4.01221 1.99277 3.65532 0 0 0 255 0 255 255
3.67509 0.816115 3.65602 0 0 0 255 0 255 255
3.74504 1.06341 3.65671 0 0 0 255 0 255 255
3.67495 0.828636 3.65951 0 0 0 255 0 255 255
3.7012 0.923058 3.66021 0 0 0 255 0 255 255
4.01234 2.02706 3.6644 0 0 0 255 0 255 255
3.67728 0.860211 3.6658 0 0 0 255 0 255 255
3.61626 0.657163 3.66859 0 0 0 255 0 255 255
3.66752 0.83908 3.66929 0 0 0 255 0 255 255
3.69075 0.928126 3.67139 0 0 0 255 0 255 255
3.72909 1.06485 3.67209 0 0 0 255 0 255 255
3.94541 1.82154 3.67209 0 0 0 255 0 255 255
3.70146 0.976025 3.67419 0 0 0 255 0 255 255
3.94444 1.82598 3.67419 0 0 0 255 0 255 255
3.69418 0.958347 3.67628 0 0 0 255 0 255 255
4.00903 2.06753 3.67838 0 0 0 255 0 255 255
3.67686 0.908175 3.67908 0 0 0 255 0 255 255
3.70586 1.01741 3.68117 0 0 0 255 0 255 255
3.93042 1.80814 3.68257 0 0 0 255 0 255 255
3.65116 0.836478 3.68397 0 0 0 255 0 255 255
3.82102 1.44108 3.68676 0 0 0 255 0 255 255
3.82088 1.4692 3.69445 0 0 0 255 0 255 255
3.73388 1.16749 3.69515 0 0 0 255 0 255 255
3.69471 1.05388 3.70144 0 0 0 255 0 255 255
3.94634 1.94712 3.70494 0 0 0 255 0 255 255
3.59974 0.755493 3.71053 0 0 0 255 0 255 255
3.95101 1.98427 3.71053 0 0 0 255 0 255 255
3.70666 1.13471 3.71192 0 0 0 255 0 255 255
3.68178 1.0503 3.71262 0 0 0 255 0 255 255
3.71476 1.16567 3.71262 0 0 0 255 0 255 255
3.93548 1.93775 3.71262 0 0 0 255 0 255 255
3.71421 1.16895 3.71402 0 0 0 255 0 255 255
3.67477 1.03358 3.71472 0 0 0 255 0 255 255
3.70542 1.14859 3.71682 0 0 0 255 0 255 255
3.70473 1.15398 3.71891 0 0 0 255 0 255 255
3.67971 1.07169 3.72031 0 0 0 255 0 255 255
3.59849 0.79017 3.72101 0 0 0 255 0 255 255
3.67738 1.07132 3.72241 0 0 0 255 0 255 255
3.70995 1.18785 3.72311 0 0 0 255 0 255 255
3.80409 1.51976 3.7238 0 0 0 255 0 255 255
3.92777 1.95243 3.7238 0 0 0 255 0 255 255
3.69648 1.14594 3.7245 0 0 0 255 0 255 255
3.70115 1.16229 3.7245 0 0 0 255 0 255 255
3.92709 1.95263 3.7245 0 0 0 255 0 255 255
3.79653 1.50632 3.7273 0 0 0 255 0 255 255
3.69606 1.1575 3.728 0 0 0 255 0 255 255
3.66596 1.05482 3.7287 0 0 0 255 0 255 255
3.91361 1.95232 3.73708 0 0 0 255 0 255 255
3.75487 1.44127 3.74896 0 0 0 255 0 255 255
3.65426 1.09977 3.75176 0 0 0 255 0 255 255
3.65715 1.11246 3.75246 0 0 0 255 0 255 255
3.66443 1.14054 3.75316 0 0 0 255 0 255 255
3.66429 1.14266 3.75386 0 0 0 255 0 255 255
3.66099 1.14152 3.75665 0 0 0 255 0 255 255
3.73136 1.38766 3.75665 0 0 0 255 0 255 255
3.65811 1.13923 3.75875 0 0 0 255 0 255 255
3.64725 1.10385 3.75945 0 0 0 255 0 255 255
3.72393 1.38251 3.76224 0 0 0 255 0 255 255
3.58993 0.931985 3.76713 0 0 0 255 0 255 255
3.71775 1.37907 3.76713 0 0 0 255 0 255 255
3.50184 0.642031 3.77203 0 0 0 255 0 255 255
3.57014 0.888761 3.77412 0 0 0 255 0 255 255
3.599 0.994917 3.77552 0 0 0 255 0 255 255
3.63844 1.13549 3.77622 0 0 0 255 0 255 255
3.69533 1.37612 3.7874 0 0 0 255 0 255 255
3.53206 0.810202 3.7888 0 0 0 255 0 255 255
3.69725 1.39325 3.7902 0 0 0 255 0 255 255
3.69931 1.40307 3.7909 0 0 0 255 0 255 255
3.69491 1.39288 3.79229 0 0 0 255 0 255 255
3.47887 0.642357 3.79369 0 0 0 255 0 255 255
3.61204 1.1264 3.79858 0 0 0 255 0 255 255
3.51885 0.810856 3.80138 0 0 0 255 0 255 255
3.58317 1.03584 3.80138 0 0 0 255 0 255 255
3.54469 0.911637 3.80417 0 0 0 255 0 255 255
3.54373 0.916073 3.80627 0 0 0 255 0 255 255
3.55211 0.953199 3.80837 0 0 0 255 0 255 255
3.45577 0.618799 3.80907 0 0 0 255 0 255 255
3.54083 0.934581 3.81396 0 0 0 255 0 255 255
3.54674 0.957853 3.81466 0 0 0 255 0 255 255
3.80703 1.89958 3.82304 0 0 0 255 0 255 255
3.5613 1.05042 3.82584 0 0 0 255 0 255 255
3.48997 0.813913 3.82933 0 0 0 255 0 255 255
3.56817 1.09006 3.83003 0 0 0 255 0 255 255
3.57009 1.09679 3.83003 0 0 0 255 0 255 255
3.79356 1.88887 3.83283 0 0 0 255 0 255 255
3.80043 1.91291 3.83283 0 0 0 255 0 255 255
3.49725 0.857594 3.83422 0 0 0 255 0 255 255
3.45726 0.720299 3.83492 0 0 0 255 0 255 255
3.49024 0.840877 3.83632 0 0 0 255 0 255 255
3.79259 1.89851 3.83632 0 0 0 255 0 255 255
3.45492 0.74593 3.84401 0 0 0 255 0 255 255
3.49175 0.87997 3.84541 0 0 0 255 0 255 255
3.53036 1.03846 3.8517 0 0 0 255 0 255 255
3.42518 0.881318 3.9083 0 0 0 255 0 255 255
3.59958 1.49918 3.9104 0 0 0 255 0 255 255
3.46448 1.05001 3.91669 0 0 0 255 0 255 255
3.57827 1.45847 3.91949 0 0 0 255 0 255 255
3.58816 1.50868 3.92368 0 0 0 255 0 255 255
3.45622 1.06277 3.92787 0 0 0 255 0 255 255
3.56919 1.46835 3.93067 0 0 0 255 0 255 255
3.46021 1.08972 3.93137 0 0 0 255 0 255 255
3.57922 1.51644 3.93416 0 0 0 255 0 255 255
3.5597 1.46378 3.93836 0 0 0 255 0 255 255
3.5542 1.44975 3.93975 0 0 0 255 0 255 255
3.36907 0.856796 3.95443 0 0 0 255 0 255 255
3.55652 1.53333 3.96002 0 0 0 255 0 255 255
3.2304 0.400331 3.96212 0 0 0 255 0 255 255
3.23685 0.430727 3.96421 0 0 0 255 0 255 255
3.51597 1.42531 3.96911 0 0 0 255 0 255 255
3.61575 1.77953 3.9705 0 0 0 255 0 255 255
3.2363 0.454807 3.9712 0 0 0 255 0 255 255
3.21802 0.398669 3.9733 0 0 0 255 0 255 255
3.33346 0.818094 3.97749 0 0 0 255 0 255 255
3.21925 0.421198 3.97819 0 0 0 255 0 255 255
3.61492 1.80785 3.97889 0 0 0 255 0 255 255
3.62564 1.85055 3.98029 0 0 0 255 0 255 255
3.2209 0.437368 3.98099 0 0 0 255 0 255 255
3.24619 0.525824 3.98099 0 0 0 255 0 255 255
3.24481 0.526217 3.98238 0 0 0 255 0 255 255
3.2422 0.535286 3.98728 0 0 0 255 0 255 255
3.57451 1.69772 3.98728 0 0 0 255 0 255 255
3.20248 0.404152 3.98937 0 0 0 255 0 255 255
3.58797 1.76043 3.99147 0 0 0 255 0 255 255
3.57711 1.72506 3.99217 0 0 0 255 0 255 255
3.57258 1.71179 3.99287 0 0 0 255 0 255 255
3.19477 0.403234 3.99636 0 0 0 255 0 255 255
3.20027 0.427664 3.99776 0 0 0 255 0 255 255
3.56598 1.71472 3.99986 0 0 0 255 0 255 255
3.23641 0.567101 4.00125 0 0 0 255 0 255 255
3.57326 1.748 4.00195 0 0 0 255 0 255 255
3.56006 1.71225 4.00475 0 0 0 255 0 255 255
3.23297 0.573284 4.00614 0 0 0 255 0 255 255
3.56239 1.74382 4.01104 0 0 0 255 0 255 255
3.21263 0.538539 4.01593 0 0 0 255 0 255 255
3.22829 0.593343 4.01593 0 0 0 255 0 255 255
3.53628 1.67849 4.01803 0 0 0 255 0 255 255
3.55084 1.72944 4.01803 0 0 0 255 0 255 255
3.53614 1.68581 4.02012 0 0 0 255 0 255 255
3.43375 1.33025 4.02082 0 0 0 255 0 255 255
3.19585 0.500691 4.02152 0 0 0 255 0 255 255
3.22527 0.603569 4.02152 0 0 0 255 0 255 255
3.43773 1.3468 4.02152 0 0 0 255 0 255 255
3.43402 1.34162 4.02362 0 0 0 255 0 255 255
3.23103 0.639362 4.02571 0 0 0 255 0 255 255
3.53187 1.70471 4.02921 0 0 0 255 0 255 255
3.21701 0.605929 4.02991 0 0 0 255 0 255 255
3.41024 1.28705 4.0313 0 0 0 255 0 255 255
3.14953 0.377685 4.032 0 0 0 255 0 255 255
3.53297 1.71895 4.032 0 0 0 255 0 255 255
3.53242 1.72223 4.0334 0 0 0 255 0 255 255
3.22415 0.65693 4.03689 0 0 0 255 0 255 255
3.48857 1.58188 4.03689 0 0 0 255 0 255 255
3.21632 0.632128 4.03759 0 0 0 255 0 255 255
3.48459 1.57054 4.03759 0 0 0 255 0 255 255
3.26222 0.797897 4.03899 0 0 0 255 0 255 255
3.52224 1.70746 4.03899 0 0 0 255 0 255 255
3.21041 0.619257 4.03969 0 0 0 255 0 255 255
3.21123 0.622142 4.03969 0 0 0 255 0 255 255
3.40226 1.29557 4.04109 0 0 0 255 0 255 255
3.40364 1.30038 4.04109 0 0 0 255 0 255 255
3.43799 1.42577 4.04249 0 0 0 255 0 255 255
3.12561 0.340842 4.04458 0 0 0 255 0 255 255
3.22786 0.698514 4.04458 0 0 0 255 0 255 255
3.15997 0.466228 4.04598 0 0 0 255 0 255 255
3.22538 0.695061 4.04598 0 0 0 255 0 255 255
3.39113 1.27484 4.04598 0 0 0 255 0 255 255
3.40322 1.31714 4.04598 0 0 0 255 0 255 255
3.15735 0.459694 4.04668 0 0 0 255 0 255 255
3.21755 0.67546 4.04808 0 0 0 255 0 255 255
3.11901 0.338569 4.05017 0 0 0 255 0 255 255
3.39057 1.29371 4.05157 0 0 0 255 0 255 255
3.21919 0.702031 4.05367 0 0 0 255 0 255 255
3.20861 0.678015 4.05716 0 0 0 255 0 255 255
3.21465 0.730372 4.06555 0 0 0 255 0 255 255
3.41791 1.44399 4.06625 0 0 0 255 0 255 255
3.42052 1.45572 4.06695 0 0 0 255 0 255 255
3.41557 1.44362 4.06834 0 0 0 255 0 255 255
3.41983 1.46632 4.07044 0 0 0 255 0 255 255
3.35743 1.25326 4.07184 0 0 0 255 0 255 255
3.35194 1.23924 4.07324 0 0 0 255 0 255 255
3.35152 1.24559 4.07533 0 0 0 255 0 255 255
3.35262 1.24944 4.07533 0 0 0 255 0 255 255
3.23773 0.857942 4.07813 0 0 0 255 0 255 255
3.35083 1.25619 4.07883 0 0 0 255 0 255 255
3.34822 1.24966 4.07952 0 0 0 255 0 255 255
3.33267 1.27594 4.10119 0 0 0 255 0 255 255
3.19122 0.950281 4.14662 0 0 0 255 0 255 255
3.17938 1.01815 4.17597 0 0 0 255 0 255 255
3.24808 1.30533 4.18855 0 0 0 255 0 255 255
3.3697 1.76459 4.19763 0 0 0 255 0 255 255
3.35802 1.73673 4.20113 0 0 0 255 0 255 255
3.18869 1.19646 4.2151 0 0 0 255 0 255 255
3.33203 1.74208 4.22698 0 0 0 255 0 255 255
3.18717 1.24578 4.22978 0 0 0 255 0 255 255
3.18937 1.25347 4.22978 0 0 0 255 0 255 255
3.33326 1.76461 4.23188 0 0 0 255 0 255 255
3.32872 1.76174 4.23537 0 0 0 255 0 255 255
3.36816 1.90232 4.23607 0 0 0 255 0 255 255
3.36816 1.90752 4.23747 0 0 0 255 0 255 255
3.3246 1.75772 4.23817 0 0 0 255 0 255 255
3.36582 1.90194 4.23817 0 0 0 255 0 255 255
3.36582 1.90714 4.23956 0 0 0 255 0 255 255
3.37146 1.92946 4.24026 0 0 0 255 0 255 255
3.3202 1.75274 4.24096 0 0 0 255 0 255 255
3.35688 1.9149 4.25005 0 0 0 255 0 255 255
3.18083 1.33287 4.25913 0 0 0 255 0 255 255
3.17078 1.34719 4.27241 0 0 0 255 0 255 255
3.14425 1.30901 4.28709 0 0 0 255 0 255 255
3.12591 1.5025 4.35627 0 0 0 255 0 255 255
3.06815 1.49301 4.40799 0 0 0 255 0 255 255
3.01927 1.741 4.52051 0 0 0 255 0 255 255
2.97056 1.87245 4.60157 0 0 0 255 0 255 255
