ply
format ascii 1.0
comment VCGLIB generated
element vertex 1030
property float x
property float y
property float z
property float nx
property float ny
property float nz
property uchar red
property uchar green
property uchar blue
property uchar alpha
element face 0
property list uchar int vertex_indices
end_header
1.13161 2.54868 3.38277 0 0 0 255 255 255 255
1.30737 2.40035 3.40715 0 0 0 255 255 255 255
1.10388 2.54532 3.10641 0 0 0 255 255 255 255
1.03513 2.34318 2.94899 0 0 0 255 255 255 255
-0.403046 1.46652 4.50302 0 0 0 255 255 255 255
-0.869753 1.75502 4.47668 0 0 0 255 255 255 255
-0.110717 1.55299 4.05006 0 0 0 255 255 255 255
0.0869406 1.68922 4.02619 0 0 0 255 255 255 255
-0.145461 1.64679 4.12293 0 0 0 255 255 255 255
-0.120188 1.50766 4.16818 0 0 0 255 255 255 255
-0.398461 1.45874 4.08016 0 0 0 255 255 255 255
-0.873674 1.75734 4.47724 0 0 0 255 255 255 255
-0.30447 1.4408 4.25918 0 0 0 255 255 255 255
0.0640439 1.48198 4.18725 0 0 0 255 255 255 255
-0.0293883 1.76181 4.03878 0 0 0 255 255 255 255
0.022976 1.51363 4.99056 0 0 0 255 255 255 255
-0.342217 1.19955 4.95472 0 0 0 255 255 255 255
-0.87254 1.55887 4.66611 0 0 0 255 255 255 255
-0.944951 1.56962 4.78396 0 0 0 255 255 255 255
0.575125 1.56576 3.96036 0 0 0 255 255 255 255
0.524776 1.60721 4.02132 0 0 0 255 255 255 255
0.636932 1.59166 3.99378 0 0 0 255 255 255 255
0.65116 1.559 4.00476 0 0 0 255 255 255 255
0.529713 1.65675 3.72702 0 0 0 255 255 255 255
0.447931 1.47448 3.93185 0 0 0 255 255 255 255
0.347775 1.52342 4.0086 0 0 0 255 255 255 255
0.423354 1.47957 4.02405 0 0 0 255 255 255 255
0.52437 1.67892 3.68265 0 0 0 255 255 255 255
0.54382 1.64335 3.75551 0 0 0 255 255 255 255
0.303537 1.18228 4.58852 0 0 0 255 255 255 255
0.345341 1.62587 4.28543 0 0 0 255 255 255 255
0.39752 1.59855 4.27476 0 0 0 255 255 255 255
0.617054 1.63104 4.31865 0 0 0 255 255 255 255
0.421964 1.61411 4.28389 0 0 0 255 255 255 255
0.581538 1.65123 4.10381 0 0 0 255 255 255 255
0.519118 1.59821 4.06153 0 0 0 255 255 255 255
0.38664 1.67715 4.526 0 0 0 255 255 255 255
0.410377 1.59151 4.35137 0 0 0 255 255 255 255
0.441118 1.61056 4.2681 0 0 0 255 255 255 255
0.315365 1.6011 4.18593 0 0 0 255 255 255 255
0.676458 1.76196 3.88104 0 0 0 255 255 255 255
0.710098 1.75702 3.49981 0 0 0 255 255 255 255
0.659624 1.77587 3.85129 0 0 0 255 255 255 255
0.712645 1.77244 3.86662 0 0 0 255 255 255 255
0.642973 1.7682 3.84772 0 0 0 255 255 255 255
0.633136 1.76395 3.85138 0 0 0 255 255 255 255
0.660197 1.75295 3.87267 0 0 0 255 255 255 255
0.410138 1.76563 4.3409 0 0 0 255 255 255 255
0.403693 1.74738 4.32729 0 0 0 255 255 255 255
0.809988 1.66904 3.82098 0 0 0 255 255 255 255
0.903309 1.74875 3.85352 0 0 0 255 255 255 255
1.20283 1.81931 3.49036 0 0 0 255 255 255 255
1.20452 1.57902 4.62302 0 0 0 255 255 255 255
0.720695 2.63208 3.71251 0 0 0 255 255 255 255
0.992133 2.41771 3.67849 0 0 0 255 255 255 255
1.27808 2.34877 3.67664 0 0 0 255 255 255 255
0.712948 2.58678 3.53133 0 0 0 255 255 255 255
0.814466 2.32921 3.73918 0 0 0 255 255 255 255
1.16978 2.43292 3.58681 0 0 0 255 255 255 255
2.36683 2.13161 3.3068 0 0 0 255 255 255 255
1.65211 2.16941 2.63351 0 0 0 255 255 255 255
1.50261 2.73837 2.28269 0 0 0 255 255 255 255
1.96136 2.62736 2.35058 0 0 0 255 255 255 255
1.33083 2.51912 2.33872 0 0 0 255 255 255 255
1.43811 2.58926 2.24284 0 0 0 255 255 255 255
1.92823 2.61046 2.32411 0 0 0 255 255 255 255
1.32334 2.65736 1.92567 0 0 0 255 255 255 255
1.41327 2.55458 2.42885 0 0 0 255 255 255 255
1.43522 2.54205 2.45227 0 0 0 255 255 255 255
1.4346 2.52578 2.64481 0 0 0 255 255 255 255
1.50594 2.54344 2.9143 0 0 0 255 255 255 255
1.47454 2.53078 2.64475 0 0 0 255 255 255 255
1.65197 2.44784 2.50672 0 0 0 255 255 255 255
1.76246 2.49874 2.36968 0 0 0 255 255 255 255
1.66812 2.58281 2.36762 0 0 0 255 255 255 255
1.76165 2.45391 2.84553 0 0 0 255 255 255 255
1.76432 2.46785 2.87145 0 0 0 255 255 255 255
1.64561 2.48361 2.75251 0 0 0 255 255 255 255
1.72741 2.52382 2.65127 0 0 0 255 255 255 255
1.70359 2.50995 2.81543 0 0 0 255 255 255 255
1.75752 2.46076 2.85341 0 0 0 255 255 255 255
1.77112 2.46721 2.85217 0 0 0 255 255 255 255
1.61917 2.76785 2.39872 0 0 0 255 255 255 255
1.65421 2.67362 2.60931 0 0 0 255 255 255 255
1.82422 2.60987 2.49644 0 0 0 255 255 255 255
1.75251 2.85119 2.60094 0 0 0 255 255 255 255
1.68569 2.80688 2.76037 0 0 0 255 255 255 255
1.73017 2.65068 2.66146 0 0 0 255 255 255 255
1.79995 2.6245 2.68276 0 0 0 255 255 255 255
1.6156 2.60145 2.79225 0 0 0 255 255 255 255
1.78414 2.69233 2.73414 0 0 0 255 255 255 255
1.42338 2.37621 3.07154 0 0 0 255 255 255 255
1.55796 2.34458 3.09253 0 0 0 255 255 255 255
1.55289 2.38315 3.11746 0 0 0 255 255 255 255
1.50007 2.46222 3.33809 0 0 0 255 255 255 255
1.41838 2.53751 3.31847 0 0 0 255 255 255 255
1.75119 2.37339 3.39056 0 0 0 255 255 255 255
1.6648 2.38103 3.41542 0 0 0 255 255 255 255
1.45074 2.54697 3.36605 0 0 0 255 255 255 255
1.54101 2.33709 3.1002 0 0 0 255 255 255 255
1.54648 2.35688 3.1283 0 0 0 255 255 255 255
1.54581 2.37757 3.11497 0 0 0 255 255 255 255
1.55078 2.37901 3.10972 0 0 0 255 255 255 255
1.34276 3.04396 2.66608 0 0 0 255 255 255 255
1.89434 2.61251 2.5354 0 0 0 255 255 255 255
1.89722 2.64753 2.56321 0 0 0 255 255 255 255
1.93084 2.61332 2.56063 0 0 0 255 255 255 255
1.89797 2.61071 2.53925 0 0 0 255 255 255 255
1.98362 2.73997 2.39809 0 0 0 255 255 255 255
1.96636 2.57029 2.58363 0 0 0 255 255 255 255
1.92757 2.76986 2.45934 0 0 0 255 255 255 255
1.9843 2.41565 3.02964 0 0 0 255 255 255 255
2.2807 2.54716 2.96779 0 0 0 255 255 255 255
2.38813 2.41743 3.15943 0 0 0 255 255 255 255
2.43239 2.4081 3.17455 0 0 0 255 255 255 255
2.41196 2.45445 3.18776 0 0 0 255 255 255 255
2.97215 2.18289 2.95513 0 0 0 255 255 255 255
2.78331 2.56193 2.67133 0 0 0 255 255 255 255
2.75967 2.55438 2.66253 0 0 0 255 255 255 255
2.59926 2.43416 3.3789 0 0 0 255 255 255 255
2.62382 2.43821 3.40104 0 0 0 255 255 255 255
2.71465 2.51076 3.41756 0 0 0 255 255 255 255
2.84774 2.40714 3.39436 0 0 0 255 255 255 255
2.83961 2.40306 3.39694 0 0 0 255 255 255 255
2.83252 2.4135 3.38241 0 0 0 255 255 255 255
2.93307 2.53465 3.38723 0 0 0 255 255 255 255
2.59667 2.40257 3.25432 0 0 0 255 255 255 255
2.96366 2.43934 3.24571 0 0 0 255 255 255 255
3.00445 2.44822 3.29925 0 0 0 255 255 255 255
2.98852 2.43863 3.30218 0 0 0 255 255 255 255
2.58524 2.42001 3.37267 0 0 0 255 255 255 255
2.60668 2.46311 3.38357 0 0 0 255 255 255 255
2.60261 2.39965 3.47216 0 0 0 255 255 255 255
2.893 2.43932 3.22711 0 0 0 255 255 255 255
2.98475 2.43917 3.30289 0 0 0 255 255 255 255
2.65895 2.43392 3.42474 0 0 0 255 255 255 255
2.5942 2.39977 3.36254 0 0 0 255 255 255 255
3.04238 2.59647 3.02116 0 0 0 255 255 255 255
3.05827 2.61048 3.0057 0 0 0 255 255 255 255
3.04339 2.4272 3.37828 0 0 0 255 255 255 255
3.07113 2.54211 3.01593 0 0 0 255 255 255 255
3.09638 2.6066 3.06084 0 0 0 255 255 255 255
3.07532 2.45864 3.43472 0 0 0 255 255 255 255
3.13966 2.35315 3.22613 0 0 0 255 255 255 255
3.03459 2.57773 3.00751 0 0 0 255 255 255 255
3.08378 2.53336 3.03128 0 0 0 255 255 255 255
3.05094 2.54545 2.98427 0 0 0 255 255 255 255
1.40504 1.6348 3.83384 0 0 0 255 255 255 255
1.32707 1.68371 3.97343 0 0 0 255 255 255 255
1.33035 1.68422 3.96991 0 0 0 255 255 255 255
1.72476 1.46388 3.69377 0 0 0 255 255 255 255
1.42328 1.53575 3.62451 0 0 0 255 255 255 255
1.40872 1.32415 4.42596 0 0 0 255 255 255 255
1.87309 1.28852 4.55114 0 0 0 255 255 255 255
1.86175 1.28719 4.49582 0 0 0 255 255 255 255
1.46518 1.79216 3.7529 0 0 0 255 255 255 255
1.43634 2.26931 4.01323 0 0 0 255 255 255 255
1.68842 2.26607 4.02493 0 0 0 255 255 255 255
1.46245 1.80564 3.76836 0 0 0 255 255 255 255
1.68113 1.81585 3.76979 0 0 0 255 255 255 255
1.45959 1.80412 3.78267 0 0 0 255 255 255 255
1.81443 2.14159 3.89114 0 0 0 255 255 255 255
2.01609 1.23281 3.57288 0 0 0 255 255 255 255
1.89794 1.23263 4.32793 0 0 0 255 255 255 255
2.01367 1.45747 4.30804 0 0 0 255 255 255 255
1.9839 1.45156 4.27893 0 0 0 255 255 255 255
1.88724 1.30555 4.44108 0 0 0 255 255 255 255
2.15778 1.28502 4.44776 0 0 0 255 255 255 255
2.13134 1.30869 4.4615 0 0 0 255 255 255 255
2.10856 1.29958 4.42924 0 0 0 255 255 255 255
2.03267 1.66671 4.26076 0 0 0 255 255 255 255
1.89187 1.57372 4.32538 0 0 0 255 255 255 255
2.06408 1.54804 4.49537 0 0 0 255 255 255 255
2.05972 1.49771 4.4975 0 0 0 255 255 255 255
2.43258 1.40301 4.29213 0 0 0 255 255 255 255
2.38463 1.38922 4.30947 0 0 0 255 255 255 255
2.21455 1.20924 4.35255 0 0 0 255 255 255 255
2.40274 1.44468 4.53813 0 0 0 255 255 255 255
2.25461 1.18296 4.34957 0 0 0 255 255 255 255
2.17077 1.29289 4.44509 0 0 0 255 255 255 255
2.40895 1.65382 4.31988 0 0 0 255 255 255 255
2.39055 1.63361 4.30947 0 0 0 255 255 255 255
2.43986 1.5361 4.30648 0 0 0 255 255 255 255
2.36714 1.58477 4.33775 0 0 0 255 255 255 255
2.3769 1.57539 4.42248 0 0 0 255 255 255 255
2.20449 1.531 4.43937 0 0 0 255 255 255 255
2.21955 1.53584 4.42326 0 0 0 255 255 255 255
2.434 1.62265 4.36162 0 0 0 255 255 255 255
2.30356 1.54891 4.44071 0 0 0 255 255 255 255
2.43274 1.5662 4.33741 0 0 0 255 255 255 255
2.40505 1.65217 4.35925 0 0 0 255 255 255 255
2.00003 2.20334 3.84065 0 0 0 255 255 255 255
2.01049 2.18172 3.81615 0 0 0 255 255 255 255
2.02123 2.20011 3.83044 0 0 0 255 255 255 255
2.1223 2.21813 3.80535 0 0 0 255 255 255 255
2.13878 2.30641 3.81769 0 0 0 255 255 255 255
2.12875 2.27653 3.98993 0 0 0 255 255 255 255
2.23124 2.2427 3.67601 0 0 0 255 255 255 255
2.22409 2.18865 3.8548 0 0 0 255 255 255 255
2.26077 2.22818 3.86522 0 0 0 255 255 255 255
2.39225 2.16955 4.04998 0 0 0 255 255 255 255
2.23824 2.22197 3.85503 0 0 0 255 255 255 255
2.1892 2.2153 3.74426 0 0 0 255 255 255 255
2.26687 1.96012 3.90704 0 0 0 255 255 255 255
2.22991 2.24108 3.67725 0 0 0 255 255 255 255
2.23684 2.16704 4.07133 0 0 0 255 255 255 255
2.13746 2.00289 4.34472 0 0 0 255 255 255 255
2.10504 2.00305 4.35136 0 0 0 255 255 255 255
2.11997 2.01342 4.34237 0 0 0 255 255 255 255
1.89946 2.2112 4.39027 0 0 0 255 255 255 255
2.2492 2.21571 4.27431 0 0 0 255 255 255 255
2.23745 2.19931 4.07456 0 0 0 255 255 255 255
2.1296 2.0313 4.37429 0 0 0 255 255 255 255
1.90926 1.26028 4.77861 0 0 0 255 255 255 255
1.87634 1.32093 4.70867 0 0 0 255 255 255 255
2.22442 1.18506 4.71036 0 0 0 255 255 255 255
1.85408 1.31044 4.72062 0 0 0 255 255 255 255
2.08796 1.55729 4.696 0 0 0 255 255 255 255
2.11018 2.13296 4.6434 0 0 0 255 255 255 255
1.84078 1.27395 4.76088 0 0 0 255 255 255 255
1.83959 1.28047 4.7573 0 0 0 255 255 255 255
1.82414 2.74184 3.73082 0 0 0 255 255 255 255
2.24128 2.38127 3.77723 0 0 0 255 255 255 255
2.03645 2.33183 5.17431 0 0 0 255 255 255 255
2.88116 1.24364 3.83372 0 0 0 255 255 255 255
2.95646 1.32903 4.00304 0 0 0 255 255 255 255
2.97105 1.33783 3.99017 0 0 0 255 255 255 255
2.87411 1.24187 3.8366 0 0 0 255 255 255 255
2.77091 1.34084 4.21554 0 0 0 255 255 255 255
2.95245 1.22081 4.43782 0 0 0 255 255 255 255
2.8098 1.70726 4.09473 0 0 0 255 255 255 255
2.51839 1.41501 4.33628 0 0 0 255 255 255 255
2.64107 1.33009 4.23682 0 0 0 255 255 255 255
2.8596 1.62138 4.12715 0 0 0 255 255 255 255
2.50405 1.72339 4.37255 0 0 0 255 255 255 255
2.46644 1.50293 4.3575 0 0 0 255 255 255 255
2.4787 1.70499 4.38355 0 0 0 255 255 255 255
2.48568 1.7274 4.32001 0 0 0 255 255 255 255
2.51633 1.4137 4.33565 0 0 0 255 255 255 255
2.59485 1.32062 4.22615 0 0 0 255 255 255 255
2.8123 2.30439 3.71086 0 0 0 255 255 255 255
2.97717 2.29614 3.78024 0 0 0 255 255 255 255
2.88966 2.30748 3.84642 0 0 0 255 255 255 255
3.41951 1.6918 3.86581 0 0 0 255 255 255 255
3.50696 1.71347 3.69805 0 0 0 255 255 255 255
3.40853 1.56309 3.93854 0 0 0 255 255 255 255
3.53754 1.5693 3.61513 0 0 0 255 255 255 255
3.02809 1.27496 3.94544 0 0 0 255 255 255 255
3.50548 1.54635 3.91078 0 0 0 255 255 255 255
3.11745 1.29989 4.07824 0 0 0 255 255 255 255
3.22199 1.34954 4.35136 0 0 0 255 255 255 255
3.53797 1.31677 4.2878 0 0 0 255 255 255 255
3.34796 1.58992 4.11608 0 0 0 255 255 255 255
3.45495 1.44611 4.07796 0 0 0 255 255 255 255
3.53537 1.32341 4.2721 0 0 0 255 255 255 255
3.23158 1.19813 4.31238 0 0 0 255 255 255 255
3.06476 1.28916 4.21131 0 0 0 255 255 255 255
3.11695 1.29716 4.07855 0 0 0 255 255 255 255
3.21294 1.18395 4.38085 0 0 0 255 255 255 255
3.45848 1.61346 4.08884 0 0 0 255 255 255 255
3.4567 1.61193 4.08911 0 0 0 255 255 255 255
3.40922 2.14944 3.89072 0 0 0 255 255 255 255
3.55557 1.77239 3.59514 0 0 0 255 255 255 255
3.57746 1.82007 3.84543 0 0 0 255 255 255 255
3.54092 1.78172 3.64513 0 0 0 255 255 255 255
3.02848 2.2184 4.49993 0 0 0 255 255 255 255
3.04625 2.00596 4.19787 0 0 0 255 255 255 255
2.67071 1.9264 4.76186 0 0 0 255 255 255 255
3.14964 2.23422 4.88207 0 0 0 255 255 255 255
2.86014 2.48365 3.57366 0 0 0 255 255 255 255
2.91946 2.4759 3.6249 0 0 0 255 255 255 255
3.17767 2.38437 3.58819 0 0 0 255 255 255 255
3.0184 2.35406 3.81764 0 0 0 255 255 255 255
3.49982 2.55135 3.63262 0 0 0 255 255 255 255
3.53422 2.55094 3.62036 0 0 0 255 255 255 255
2.85704 2.47721 3.5708 0 0 0 255 255 255 255
3.03317 2.31056 3.81545 0 0 0 255 255 255 255
3.01802 2.41602 3.86015 0 0 0 255 255 255 255
3.18678 2.35195 3.65603 0 0 0 255 255 255 255
3.17227 2.38543 3.60217 0 0 0 255 255 255 255
3.15738 2.38173 3.61794 0 0 0 255 255 255 255
2.99614 2.37064 3.834 0 0 0 255 255 255 255
2.88483 2.33468 3.80832 0 0 0 255 255 255 255
3.00844 2.48529 3.71634 0 0 0 255 255 255 255
2.91435 2.47538 3.6249 0 0 0 255 255 255 255
3.21527 2.42544 4.99494 0 0 0 255 255 255 255
3.92499 0.818438 3.12872 0 0 0 255 255 255 255
4.19353 0.610471 3.42592 0 0 0 255 255 255 255
4.22629 0.641452 3.4264 0 0 0 255 255 255 255
3.99195 0.468349 3.98528 0 0 0 255 255 255 255
3.76744 0.46318 3.8428 0 0 0 255 255 255 255
3.71044 0.4337 4.04877 0 0 0 255 255 255 255
3.76207 0.379781 4.03019 0 0 0 255 255 255 255
3.78257 0.331113 4.34221 0 0 0 255 255 255 255
3.7609 0.384886 4.07011 0 0 0 255 255 255 255
3.66846 0.37468 4.2618 0 0 0 255 255 255 255
3.64904 0.380057 4.31086 0 0 0 255 255 255 255
3.68353 0.347861 4.21486 0 0 0 255 255 255 255
3.58738 0.857111 3.9056 0 0 0 255 255 255 255
3.59569 0.807725 4.02648 0 0 0 255 255 255 255
3.86481 0.987253 3.4994 0 0 0 255 255 255 255
3.67723 0.910367 3.80387 0 0 0 255 255 255 255
3.65869 1.00977 3.97301 0 0 0 255 255 255 255
4.12316 1.15116 3.5421 0 0 0 255 255 255 255
3.62579 -0.046569 8.01088 0 0 0 255 255 255 255
3.60888 -0.0796694 7.54417 0 0 0 255 255 255 255
3.65964 -0.0810719 7.56238 0 0 0 255 255 255 255
3.70575 -0.0693317 8.16192 0 0 0 255 255 255 255
4.33105 -0.276235 8.75828 0 0 0 255 255 255 255
4.13112 -0.408203 8.44169 0 0 0 255 255 255 255
4.32611 -0.357136 8.87487 0 0 0 255 255 255 255
3.80404 -0.0924906 8.55733 0 0 0 255 255 255 255
4.12315 -0.149757 8.45848 0 0 0 255 255 255 255
4.24403 -0.315892 8.72134 0 0 0 255 255 255 255
3.81744 -0.136947 8.5174 0 0 0 255 255 255 255
4.09631 -0.39585 8.38072 0 0 0 255 255 255 255
4.27896 -0.314151 8.71813 0 0 0 255 255 255 255
4.17931 -0.570587 8.71362 0 0 0 255 255 255 255
4.31878 -0.328437 8.91216 0 0 0 255 255 255 255
3.94149 -0.379714 8.08211 0 0 0 255 255 255 255
4.14785 -0.0477628 8.57818 0 0 0 255 255 255 255
3.93911 -0.182182 8.851 0 0 0 255 255 255 255
4.35895 -0.611973 8.8353 0 0 0 255 255 255 255
4.17045 -0.547803 8.73504 0 0 0 255 255 255 255
3.9247 -0.519546 8.83483 0 0 0 255 255 255 255
4.22816 -0.683202 8.88136 0 0 0 255 255 255 255
4.43066 -0.0970994 9.27811 0 0 0 255 255 255 255
4.43318 -0.0931533 9.27682 0 0 0 255 255 255 255
4.35233 -0.194187 9.26841 0 0 0 255 255 255 255
5.09566 0.000513709 8.69909 0 0 0 255 255 255 255
4.74822 -0.104543 9.47874 0 0 0 255 255 255 255
4.96537 0.0624856 8.44047 0 0 0 255 255 255 255
4.09514 1.2014 3.48378 0 0 0 255 255 255 255
3.93108 2.9256 3.17464 0 0 0 255 255 255 255
3.85805 2.83201 3.07074 0 0 0 255 255 255 255
3.79461 1.75567 3.38849 0 0 0 255 255 255 255
3.89558 1.74065 3.43163 0 0 0 255 255 255 255
3.73651 1.42591 3.69357 0 0 0 255 255 255 255
3.6159 1.82924 3.7262 0 0 0 255 255 255 255
3.93903 1.77261 3.48865 0 0 0 255 255 255 255
3.66304 1.83091 3.83352 0 0 0 255 255 255 255
3.82949 1.82444 3.54024 0 0 0 255 255 255 255
3.62978 1.82102 3.80546 0 0 0 255 255 255 255
4.39732 1.80168 3.96254 0 0 0 255 255 255 255
4.66956 1.92749 4.3281 0 0 0 255 255 255 255
4.29944 1.7913 3.84349 0 0 0 255 255 255 255
4.27933 1.78947 3.8202 0 0 0 255 255 255 255
4.28292 1.71467 3.81077 0 0 0 255 255 255 255
3.63497 1.7919 3.89934 0 0 0 255 255 255 255
3.67723 1.41654 3.49945 0 0 0 255 255 255 255
3.62036 1.83318 3.71945 0 0 0 255 255 255 255
3.82374 1.80479 3.53018 0 0 0 255 255 255 255
3.58809 1.81901 3.8669 0 0 0 255 255 255 255
5.33739 2.18568 5.39031 0 0 0 255 255 255 255
5.40827 2.24498 5.31216 0 0 0 255 255 255 255
5.41128 2.22989 5.34232 0 0 0 255 255 255 255
5.09339 2.07328 4.86777 0 0 0 255 255 255 255
5.36629 2.12696 5.45639 0 0 0 255 255 255 255
5.34347 2.1872 5.39269 0 0 0 255 255 255 255
5.45308 2.2278 5.3619 0 0 0 255 255 255 255
5.33728 2.22483 5.29883 0 0 0 255 255 255 255
5.14315 2.0899 4.92329 0 0 0 255 255 255 255
5.23763 2.20477 4.76554 0 0 0 255 255 255 255
0.839351 0.67271 3.23938 0 0 0 255 255 255 255
0.801615 0.687322 3.21222 0 0 0 255 255 255 255
0.8943 0.697336 3.21222 0 0 0 255 255 255 255
0.930145 0.690022 3.42037 0 0 0 255 255 255 255
0.983542 0.785755 3.34223 0 0 0 255 255 255 255
-0.417882 0.93911 3.85366 0 0 0 255 255 255 255
-0.453144 0.963986 3.98068 0 0 0 255 255 255 255
-0.459177 0.997349 4.03969 0 0 0 255 255 255 255
-0.432209 0.965598 3.94781 0 0 0 255 255 255 255
-0.435176 0.967889 4.01511 0 0 0 255 255 255 255
-0.434042 0.977591 3.99346 0 0 0 255 255 255 255
-0.53723 0.830616 4.06036 0 0 0 255 255 255 255
-0.436963 1.11399 4.13575 0 0 0 255 255 255 255
0.13612 0.5925 3.83293 0 0 0 255 255 255 255
0.136504 0.59415 3.83639 0 0 0 255 255 255 255
-0.183118 0.590341 4.22886 0 0 0 255 255 255 255
-0.240371 0.586575 4.10941 0 0 0 255 255 255 255
0.0295618 0.788787 3.90308 0 0 0 255 255 255 255
0.135429 0.629272 3.89004 0 0 0 255 255 255 255
-0.0102935 1.09081 4.03387 0 0 0 255 255 255 255
0.0526545 0.959224 4.01879 0 0 0 255 255 255 255
0.0995724 1.06386 4.02162 0 0 0 255 255 255 255
-0.0222216 1.10217 3.9982 0 0 0 255 255 255 255
-0.348388 0.875388 4.15136 0 0 0 255 255 255 255
-0.322485 1.12239 4.1472 0 0 0 255 255 255 255
-0.07622 0.9023 4.25598 0 0 0 255 255 255 255
0.139609 1.05518 4.21949 0 0 0 255 255 255 255
0.423068 0.210395 4.38695 0 0 0 255 255 255 255
0.188019 0.605935 4.35758 0 0 0 255 255 255 255
0.399206 1.13663 4.574 0 0 0 255 255 255 255
0.739996 1.07585 4.17119 0 0 0 255 255 255 255
1.06463 0.486567 4.27352 0 0 0 255 255 255 255
1.11544 0.608864 4.28498 0 0 0 255 255 255 255
1.0999 0.607669 4.30911 0 0 0 255 255 255 255
1.12551 0.544153 4.22681 0 0 0 255 255 255 255
1.05688 0.476038 4.31626 0 0 0 255 255 255 255
1.12286 0.594936 4.21743 0 0 0 255 255 255 255
1.09361 0.493419 4.30738 0 0 0 255 255 255 255
1.09155 0.531657 4.34413 0 0 0 255 255 255 255
1.09132 0.571472 4.37151 0 0 0 255 255 255 255
1.21337 0.561033 4.51648 0 0 0 255 255 255 255
0.867576 1.03326 4.52143 0 0 0 255 255 255 255
0.976968 1.05241 4.36944 0 0 0 255 255 255 255
1.08882 0.688805 4.25573 0 0 0 255 255 255 255
1.28006 0.623708 4.16257 0 0 0 255 255 255 255
1.08857 0.723792 4.15472 0 0 0 255 255 255 255
1.27887 0.625861 4.30164 0 0 0 255 255 255 255
1.04289 0.698722 4.36646 0 0 0 255 255 255 255
1.06887 0.691118 4.37935 0 0 0 255 255 255 255
1.1814 0.612877 4.37869 0 0 0 255 255 255 255
0.677409 0.835424 4.68297 0 0 0 255 255 255 255
0.939015 0.683627 5.01646 0 0 0 255 255 255 255
0.202546 0.763995 4.80355 0 0 0 255 255 255 255
0.503713 0.82579 4.87207 0 0 0 255 255 255 255
1.21032 0.616704 5.73162 0 0 0 255 255 255 255
0.78437 0.787311 4.74408 0 0 0 255 255 255 255
1.26672 0.736662 5.23089 0 0 0 255 255 255 255
1.6165 0.468904 3.70537 0 0 0 255 255 255 255
1.46814 0.610276 4.23901 0 0 0 255 255 255 255
1.33188 0.607925 4.50308 0 0 0 255 255 255 255
1.54189 0.571818 4.3958 0 0 0 255 255 255 255
1.53436 0.55399 4.39887 0 0 0 255 255 255 255
1.51049 0.560085 4.37131 0 0 0 255 255 255 255
1.72494 0.121318 4.57263 0 0 0 255 255 255 255
1.53051 0.749572 3.9908 0 0 0 255 255 255 255
1.52936 0.611445 4.02638 0 0 0 255 255 255 255
1.43995 0.714959 4.04566 0 0 0 255 255 255 255
1.5588 0.75786 4.03018 0 0 0 255 255 255 255
1.38309 0.896051 4.04631 0 0 0 255 255 255 255
1.6344 0.727775 3.50223 0 0 0 255 255 255 255
1.77314 1.01653 3.94691 0 0 0 255 255 255 255
1.49 0.703954 4.31456 0 0 0 255 255 255 255
1.59649 0.760837 4.12337 0 0 0 255 255 255 255
1.43373 0.634883 4.18459 0 0 0 255 255 255 255
1.53737 0.634084 4.07564 0 0 0 255 255 255 255
1.33894 0.625207 4.49301 0 0 0 255 255 255 255
1.34592 0.621901 4.49104 0 0 0 255 255 255 255
1.41359 0.626875 4.49491 0 0 0 255 255 255 255
1.47888 0.626853 4.37129 0 0 0 255 255 255 255
1.39756 0.896682 4.12954 0 0 0 255 255 255 255
1.59335 0.941636 4.52177 0 0 0 255 255 255 255
1.78479 0.853722 4.09128 0 0 0 255 255 255 255
2.1062 0.193398 4.60333 0 0 0 255 255 255 255
1.90396 0.125374 4.57096 0 0 0 255 255 255 255
1.93829 0.148452 4.60719 0 0 0 255 255 255 255
1.93885 0.148503 4.48981 0 0 0 255 255 255 255
2.08755 0.176777 4.5871 0 0 0 255 255 255 255
2.03163 0.230039 4.43123 0 0 0 255 255 255 255
2.02272 0.225341 4.43443 0 0 0 255 255 255 255
1.91829 0.141108 4.48667 0 0 0 255 255 255 255
2.09623 0.179905 4.56495 0 0 0 255 255 255 255
2.05712 0.192443 4.44332 0 0 0 255 255 255 255
2.08708 1.1151 4.1219 0 0 0 255 255 255 255
2.13653 1.15119 4.27321 0 0 0 255 255 255 255
2.02285 1.0207 4.49864 0 0 0 255 255 255 255
2.00633 1.01754 4.50685 0 0 0 255 255 255 255
2.35428 0.697151 4.29633 0 0 0 255 255 255 255
2.34191 0.774807 4.32076 0 0 0 255 255 255 255
2.44958 0.838196 4.44755 0 0 0 255 255 255 255
2.35087 0.774741 4.33417 0 0 0 255 255 255 255
2.18244 1.07746 4.57504 0 0 0 255 255 255 255
1.77595 0.119618 4.64071 0 0 0 255 255 255 255
1.73403 0.096008 4.66549 0 0 0 255 255 255 255
2.00921 0.153304 4.74778 0 0 0 255 255 255 255
2.15285 0.170065 4.66841 0 0 0 255 255 255 255
2.03954 0.117889 4.82254 0 0 0 255 255 255 255
1.94241 0.131453 4.61736 0 0 0 255 255 255 255
2.4267 0.0954859 5.32473 0 0 0 255 255 255 255
2.15016 0.0473255 5.21271 0 0 0 255 255 255 255
2.40571 0.0587269 5.48549 0 0 0 255 255 255 255
2.42136 0.0636701 5.49293 0 0 0 255 255 255 255
2.34353 0.0721271 5.35772 0 0 0 255 255 255 255
2.90276 0.790302 4.03788 0 0 0 255 255 255 255
2.99058 0.791583 3.96842 0 0 0 255 255 255 255
2.45413 0.740165 4.11968 0 0 0 255 255 255 255
2.59759 0.711168 4.30782 0 0 0 255 255 255 255
2.65872 0.845887 4.28997 0 0 0 255 255 255 255
2.8067 0.785296 4.09522 0 0 0 255 255 255 255
2.82443 0.863344 4.1433 0 0 0 255 255 255 255
2.8481 0.862067 4.19372 0 0 0 255 255 255 255
2.76642 0.875414 4.22493 0 0 0 255 255 255 255
2.88628 0.785156 4.1248 0 0 0 255 255 255 255
2.81899 0.947599 4.1193 0 0 0 255 255 255 255
2.96102 0.95949 4.07664 0 0 0 255 255 255 255
3.28861 0.327001 4.37681 0 0 0 255 255 255 255
3.1951 0.336119 4.19694 0 0 0 255 255 255 255
3.24713 0.348066 4.16666 0 0 0 255 255 255 255
3.27919 0.545159 4.18125 0 0 0 255 255 255 255
3.27031 0.346339 4.2783 0 0 0 255 255 255 255
3.25793 0.334111 4.22695 0 0 0 255 255 255 255
3.27187 0.459163 4.10728 0 0 0 255 255 255 255
3.23709 0.354772 4.1328 0 0 0 255 255 255 255
3.27234 0.454612 4.11485 0 0 0 255 255 255 255
3.28119 0.361366 4.3701 0 0 0 255 255 255 255
3.28399 0.333109 4.40064 0 0 0 255 255 255 255
3.41936 0.280545 4.41602 0 0 0 255 255 255 255
3.4085 0.283975 4.39909 0 0 0 255 255 255 255
3.439 0.302275 4.38584 0 0 0 255 255 255 255
3.47561 0.28915 4.42396 0 0 0 255 255 255 255
3.56953 0.336214 4.1084 0 0 0 255 255 255 255
3.5652 0.335749 4.11822 0 0 0 255 255 255 255
3.33064 0.353674 4.38584 0 0 0 255 255 255 255
3.55695 0.338084 4.48732 0 0 0 255 255 255 255
3.07073 1.16952 4.05085 0 0 0 255 255 255 255
3.56387 0.688148 3.85939 0 0 0 255 255 255 255
3.55202 0.892323 3.89163 0 0 0 255 255 255 255
3.46971 1.05721 4.20372 0 0 0 255 255 255 255
2.80151 0.0990578 5.67592 0 0 0 255 255 255 255
2.7061 0.092304 5.60382 0 0 0 255 255 255 255
2.74192 -0.0499922 6.36563 0 0 0 255 255 255 255
2.83363 0.0711379 5.81032 0 0 0 255 255 255 255
2.24991 -0.0641389 6.26815 0 0 0 255 255 255 255
3.58034 -0.0679613 7.98729 0 0 0 255 255 255 255
3.31537 -0.357172 8.13763 0 0 0 255 255 255 255
3.32295 -0.324838 8.02806 0 0 0 255 255 255 255
3.41277 -0.421441 8.36171 0 0 0 255 255 255 255
2.51409 -0.0737241 6.60248 0 0 0 255 255 255 255
2.89477 -0.188012 7.61089 0 0 0 255 255 255 255
3.44684 -0.400081 8.33291 0 0 0 255 255 255 255
3.35566 -0.328442 8.19179 0 0 0 255 255 255 255
3.33727 -0.314683 7.99489 0 0 0 255 255 255 255
3.55037 -0.052417 7.54635 0 0 0 255 255 255 255
3.22365 -0.167214 7.98645 0 0 0 255 255 255 255
3.31436 -0.311455 8.11445 0 0 0 255 255 255 255
0.452688 1.58726 3.0819 0 0 0 255 255 255 255
0.468435 1.69253 2.96687 0 0 0 255 255 255 255
0.469519 1.71681 3.01276 0 0 0 255 255 255 255
0.350299 1.63265 3.12258 0 0 0 255 255 255 255
0.468309 1.68063 2.9673 0 0 0 255 255 255 255
0.241654 1.54688 3.415 0 0 0 255 255 255 255
0.303389 1.60624 3.29557 0 0 0 255 255 255 255
0.300361 1.64705 3.32451 0 0 0 255 255 255 255
0.28832 1.65053 3.30544 0 0 0 255 255 255 255
0.305488 1.67617 3.31445 0 0 0 255 255 255 255
0.284036 1.6146 3.25175 0 0 0 255 255 255 255
0.273793 1.64405 3.28451 0 0 0 255 255 255 255
0.312916 1.68006 3.28497 0 0 0 255 255 255 255
0.308826 1.64496 3.22559 0 0 0 255 255 255 255
0.478398 1.67066 3.0831 0 0 0 255 255 255 255
0.479597 1.74218 2.95114 0 0 0 255 255 255 255
0.496029 1.69752 3.05791 0 0 0 255 255 255 255
0.50384 1.71762 3.22245 0 0 0 255 255 255 255
0.564329 1.668 3.40205 0 0 0 255 255 255 255
0.620838 2.20568 2.52778 0 0 0 255 255 255 255
0.51247 2.18653 2.65426 0 0 0 255 255 255 255
0.635818 2.20575 2.54898 0 0 0 255 255 255 255
0.574543 2.20741 2.59567 0 0 0 255 255 255 255
0.502168 1.92637 2.87187 0 0 0 255 255 255 255
0.724871 2.24176 2.73945 0 0 0 255 255 255 255
0.691417 2.27903 2.68585 0 0 0 255 255 255 255
0.374478 2.1429 2.85394 0 0 0 255 255 255 255
0.588925 2.20554 2.62533 0 0 0 255 255 255 255
0.319504 2.27122 2.89098 0 0 0 255 255 255 255
0.481912 2.19054 2.7259 0 0 0 255 255 255 255
0.385881 1.74499 3.04855 0 0 0 255 255 255 255
0.459817 1.79243 3.19818 0 0 0 255 255 255 255
0.415154 1.75364 3.19447 0 0 0 255 255 255 255
0.43422 1.79186 3.19884 0 0 0 255 255 255 255
0.452667 1.90945 3.34862 0 0 0 255 255 255 255
0.443512 2.06609 3.04655 0 0 0 255 255 255 255
0.497997 1.93744 2.93775 0 0 0 255 255 255 255
0.472585 1.82022 3.15559 0 0 0 255 255 255 255
0.512508 1.77185 3.0559 0 0 0 255 255 255 255
0.496548 1.93449 2.94865 0 0 0 255 255 255 255
0.484011 1.79711 3.21029 0 0 0 255 255 255 255
0.708542 1.95483 3.46372 0 0 0 255 255 255 255
0.709018 1.95375 3.46323 0 0 0 255 255 255 255
0.714057 1.9085 3.46247 0 0 0 255 255 255 255
0.716641 1.93992 3.46156 0 0 0 255 255 255 255
0.602672 2.13286 3.1869 0 0 0 255 255 255 255
0.658548 2.17349 3.06215 0 0 0 255 255 255 255
0.688333 2.26958 3.15184 0 0 0 255 255 255 255
0.673941 2.2876 3.18124 0 0 0 255 255 255 255
0.662348 2.27681 3.16505 0 0 0 255 255 255 255
0.563384 2.26704 3.24014 0 0 0 255 255 255 255
0.966081 2.26054 2.78425 0 0 0 255 255 255 255
1.1244 2.25156 2.85539 0 0 0 255 255 255 255
0.762449 2.27 3.02531 0 0 0 255 255 255 255
0.887156 2.25865 3.3294 0 0 0 255 255 255 255
0.861081 2.23572 3.32692 0 0 0 255 255 255 255
0.901481 2.2082 3.3184 0 0 0 255 255 255 255
0.905752 2.19615 3.3201 0 0 0 255 255 255 255
1.09677 2.22139 3.02241 0 0 0 255 255 255 255
1.09846 2.18623 2.93416 0 0 0 255 255 255 255
1.2911 2.22786 2.95939 0 0 0 255 255 255 255
1.18236 2.22048 3.33949 0 0 0 255 255 255 255
1.19454 2.1859 3.48028 0 0 0 255 255 255 255
0.825636 2.42663 2.34985 0 0 0 255 255 255 255
0.876665 2.58502 2.28418 0 0 0 255 255 255 255
1.24522 2.59421 2.31502 0 0 0 255 255 255 255
0.565125 2.41027 2.41123 0 0 0 255 255 255 255
0.570679 2.4293 2.70419 0 0 0 255 255 255 255
0.345216 2.34843 2.96223 0 0 0 255 255 255 255
0.367344 2.33589 2.986 0 0 0 255 255 255 255
0.399059 2.47853 3.20581 0 0 0 255 255 255 255
0.202135 2.61791 3.19986 0 0 0 255 255 255 255
0.485401 2.44455 3.0199 0 0 0 255 255 255 255
0.497157 2.32541 3.06382 0 0 0 255 255 255 255
0.618262 2.33324 3.41619 0 0 0 255 255 255 255
0.70928 2.37989 3.31056 0 0 0 255 255 255 255
0.80156 2.36587 2.62806 0 0 0 255 255 255 255
0.797191 2.52589 2.60231 0 0 0 255 255 255 255
0.99548 2.53097 2.36527 0 0 0 255 255 255 255
1.00904 2.54922 2.36791 0 0 0 255 255 255 255
0.987839 2.56806 2.55803 0 0 0 255 255 255 255
0.822336 2.41059 2.65304 0 0 0 255 255 255 255
0.858662 2.49792 2.6551 0 0 0 255 255 255 255
1.01124 2.34398 2.66607 0 0 0 255 255 255 255
0.939226 2.44775 2.91753 0 0 0 255 255 255 255
1.02656 2.51678 2.7668 0 0 0 255 255 255 255
0.943193 2.52508 2.74116 0 0 0 255 255 255 255
1.15363 2.38733 2.37292 0 0 0 255 255 255 255
1.09746 2.56401 2.53513 0 0 0 255 255 255 255
1.30442 2.37813 2.48523 0 0 0 255 255 255 255
1.17791 2.33601 2.60669 0 0 0 255 255 255 255
1.31266 2.51254 2.57838 0 0 0 255 255 255 255
1.13601 2.48123 2.74698 0 0 0 255 255 255 255
1.27254 2.37258 2.67315 0 0 0 255 255 255 255
1.18901 2.37018 2.88317 0 0 0 255 255 255 255
1.28855 2.43472 2.7812 0 0 0 255 255 255 255
1.23093 2.45325 2.69551 0 0 0 255 255 255 255
1.30275 2.7062 2.64101 0 0 0 255 255 255 255
1.30014 2.66892 2.63737 0 0 0 255 255 255 255
1.11868 2.85436 2.68568 0 0 0 255 255 255 255
0.830432 2.34042 3.1092 0 0 0 255 255 255 255
0.821237 2.44969 3.15394 0 0 0 255 255 255 255
0.975609 2.41357 2.98854 0 0 0 255 255 255 255
0.976084 2.42433 2.97297 0 0 0 255 255 255 255
1.02839 2.39985 3.19497 0 0 0 255 255 255 255
0.757082 2.32775 3.29077 0 0 0 255 255 255 255
0.917267 2.35328 3.32921 0 0 0 255 255 255 255
0.915622 2.3472 3.33783 0 0 0 255 255 255 255
1.06581 2.43186 3.00968 0 0 0 255 255 255 255
1.12827 2.40916 3.02112 0 0 0 255 255 255 255
1.10762 2.44153 3.03739 0 0 0 255 255 255 255
1.07744 2.41641 3.02872 0 0 0 255 255 255 255
1.14075 2.42816 3.03575 0 0 0 255 255 255 255
1.10627 2.42575 3.04808 0 0 0 255 255 255 255
1.09371 2.46602 3.03547 0 0 0 255 255 255 255
1.24149 2.41481 3.1085 0 0 0 255 255 255 255
1.24231 2.43003 3.12812 0 0 0 255 255 255 255
1.06864 2.4573 3.29674 0 0 0 255 255 255 255
1.3031 2.33767 3.21167 0 0 0 255 255 255 255
1.27834 2.371 3.46092 0 0 0 255 255 255 255
1.28053 2.5482 3.20686 0 0 0 255 255 255 255
-0.463922 1.49289 4.00907 0 0 0 255 255 255 255
-0.934457 1.81483 4.43727 0 0 0 255 255 255 255
-0.930758 1.79091 4.43306 0 0 0 255 255 255 255
-0.144258 1.3358 4.01555 0 0 0 255 255 255 255
-0.101518 1.55859 4.0181 0 0 0 255 255 255 255
-0.105053 1.56316 4.09071 0 0 0 255 255 255 255
-0.274014 1.53211 4.46984 0 0 0 255 255 255 255
0.0245937 1.42637 4.10252 0 0 0 255 255 255 255
-0.0185903 1.7498 4.0157 0 0 0 255 255 255 255
-0.449682 1.21926 5.192 0 0 0 255 255 255 255
-0.343271 1.20145 4.96795 0 0 0 255 255 255 255
-0.916099 1.56829 4.74926 0 0 0 255 255 255 255
-0.931574 1.56655 4.76901 0 0 0 255 255 255 255
0.436198 1.5711 3.99952 0 0 0 255 255 255 255
0.358859 1.52628 3.96962 0 0 0 255 255 255 255
0.557029 1.5658 3.76105 0 0 0 255 255 255 255
0.500906 1.64704 3.75753 0 0 0 255 255 255 255
0.593081 1.55089 4.0033 0 0 0 255 255 255 255
0.494385 1.54687 4.0126 0 0 0 255 255 255 255
0.302461 1.17675 4.57119 0 0 0 255 255 255 255
0.29287 1.32423 4.60005 0 0 0 255 255 255 255
0.295494 1.56526 4.21945 0 0 0 255 255 255 255
0.397207 1.51507 4.13483 0 0 0 255 255 255 255
0.388996 1.51259 4.13167 0 0 0 255 255 255 255
0.306102 1.55184 4.3059 0 0 0 255 255 255 255
0.426542 1.58947 4.05853 0 0 0 255 255 255 255
0.454403 1.60882 4.24037 0 0 0 255 255 255 255
0.347804 1.61877 4.32194 0 0 0 255 255 255 255
0.437108 1.51886 4.10322 0 0 0 255 255 255 255
0.405763 1.58648 4.60926 0 0 0 255 255 255 255
0.387852 1.70387 4.53223 0 0 0 255 255 255 255
0.74241 1.17713 4.48552 0 0 0 255 255 255 255
0.514684 1.5876 4.06842 0 0 0 255 255 255 255
0.50398 1.56482 4.08137 0 0 0 255 255 255 255
0.652044 1.59549 4.13199 0 0 0 255 255 255 255
0.521145 1.72742 4.1813 0 0 0 255 255 255 255
0.481206 1.53343 4.07345 0 0 0 255 255 255 255
0.588086 1.54635 4.37629 0 0 0 255 255 255 255
0.61086 1.61951 4.34458 0 0 0 255 255 255 255
0.702555 1.96561 3.49488 0 0 0 255 255 255 255
0.705311 1.96109 3.49314 0 0 0 255 255 255 255
0.657517 1.74611 3.49999 0 0 0 255 255 255 255
0.62591 1.7689 3.81095 0 0 0 255 255 255 255
0.664562 1.78741 3.84777 0 0 0 255 255 255 255
0.687184 2.03159 4.14542 0 0 0 255 255 255 255
0.485691 1.74294 4.21618 0 0 0 255 255 255 255
0.778381 1.68889 3.76589 0 0 0 255 255 255 255
0.82636 1.7069 3.90063 0 0 0 255 255 255 255
0.819341 1.70024 3.87092 0 0 0 255 255 255 255
1.15456 1.72128 3.84247 0 0 0 255 255 255 255
1.15309 1.73458 3.83553 0 0 0 255 255 255 255
1.29718 1.68163 3.91957 0 0 0 255 255 255 255
0.984885 1.39294 4.40529 0 0 0 255 255 255 255
0.798439 1.53436 4.31235 0 0 0 255 255 255 255
0.774865 1.5234 4.54151 0 0 0 255 255 255 255
0.785819 1.58151 4.50003 0 0 0 255 255 255 255
1.30697 1.2904 4.26703 0 0 0 255 255 255 255
1.04673 1.38733 4.39141 0 0 0 255 255 255 255
1.02019 2.24162 3.5573 0 0 0 255 255 255 255
0.921315 2.2612 3.72849 0 0 0 255 255 255 255
1.14883 1.77394 3.9127 0 0 0 255 255 255 255
1.24671 1.8774 3.95324 0 0 0 255 255 255 255
1.18728 1.8659 4.05064 0 0 0 255 255 255 255
1.22008 1.92947 4.03559 0 0 0 255 255 255 255
1.11087 2.18448 3.63894 0 0 0 255 255 255 255
1.07803 2.19421 3.63892 0 0 0 255 255 255 255
1.08097 2.25175 3.81746 0 0 0 255 255 255 255
0.631321 1.32052 4.80498 0 0 0 255 255 255 255
0.239239 1.89555 4.81744 0 0 0 255 255 255 255
1.30155 1.56288 4.67727 0 0 0 255 255 255 255
0.288871 1.33154 4.61781 0 0 0 255 255 255 255
0.20191 1.89921 4.78588 0 0 0 255 255 255 255
0.682792 2.67236 3.81797 0 0 0 255 255 255 255
1.22944 2.40254 3.55373 0 0 0 255 255 255 255
1.08097 2.31672 3.58555 0 0 0 255 255 255 255
1.25569 2.5858 3.50449 0 0 0 255 255 255 255
1.23477 2.43939 3.64771 0 0 0 255 255 255 255
1.47621 1.71129 3.48251 0 0 0 255 255 255 255
1.53574 1.88852 3.48351 0 0 0 255 255 255 255
1.46216 2.14694 3.33241 0 0 0 255 255 255 255
2.37104 2.1439 3.29322 0 0 0 255 255 255 255
2.3719 2.14376 3.32451 0 0 0 255 255 255 255
2.26626 2.22658 3.33149 0 0 0 255 255 255 255
1.55774 2.4524 1.97198 0 0 0 255 255 255 255
1.40142 2.4841 2.15011 0 0 0 255 255 255 255
1.32567 2.64811 1.92873 0 0 0 255 255 255 255
1.56169 2.72208 2.32392 0 0 0 255 255 255 255
1.50791 2.61907 2.28792 0 0 0 255 255 255 255
1.55714 2.77239 2.34675 0 0 0 255 255 255 255
1.6652 2.45773 2.3198 0 0 0 255 255 255 255
1.35328 2.37324 2.41627 0 0 0 255 255 255 255
1.32936 2.47613 2.5635 0 0 0 255 255 255 255
1.5582 2.36997 2.59003 0 0 0 255 255 255 255
1.58316 2.50732 2.52848 0 0 0 255 255 255 255
1.44285 2.4168 2.87263 0 0 0 255 255 255 255
1.34879 2.55808 2.80805 0 0 0 255 255 255 255
1.54359 2.50778 2.90187 0 0 0 255 255 255 255
1.49481 2.50115 2.87039 0 0 0 255 255 255 255
1.73606 2.44988 2.38022 0 0 0 255 255 255 255
1.72966 2.4553 2.37243 0 0 0 255 255 255 255
1.73288 2.49429 2.633 0 0 0 255 255 255 255
1.77394 2.45415 2.85099 0 0 0 255 255 255 255
1.77192 2.4685 2.87406 0 0 0 255 255 255 255
1.76096 2.46992 2.83926 0 0 0 255 255 255 255
1.76303 2.46076 2.84679 0 0 0 255 255 255 255
1.85711 2.5974 2.52688 0 0 0 255 255 255 255
1.84819 2.81872 2.79656 0 0 0 255 255 255 255
1.44777 2.39953 3.06042 0 0 0 255 255 255 255
1.37036 2.57182 3.07317 0 0 0 255 255 255 255
1.5611 2.36767 3.09064 0 0 0 255 255 255 255
1.5476 2.37638 3.11512 0 0 0 255 255 255 255
1.55484 2.36731 3.11783 0 0 0 255 255 255 255
1.52259 2.37912 3.10108 0 0 0 255 255 255 255
1.555 2.35818 3.12737 0 0 0 255 255 255 255
1.55808 2.34654 3.09323 0 0 0 255 255 255 255
1.55605 2.34497 3.10917 0 0 0 255 255 255 255
1.53529 2.54965 2.94947 0 0 0 255 255 255 255
1.5202 2.48818 3.33208 0 0 0 255 255 255 255
1.33497 2.49531 3.2326 0 0 0 255 255 255 255
1.52722 2.79591 3.16684 0 0 0 255 255 255 255
1.55665 2.63234 3.48463 0 0 0 255 255 255 255
1.74072 2.38694 3.36149 0 0 0 255 255 255 255
1.71915 2.41269 3.36825 0 0 0 255 255 255 255
1.69766 2.49039 3.27622 0 0 0 255 255 255 255
1.73977 2.67367 2.93832 0 0 0 255 255 255 255
1.82442 2.76312 3.36332 0 0 0 255 255 255 255
1.93502 2.63928 2.57158 0 0 0 255 255 255 255
1.89505 2.60628 2.56266 0 0 0 255 255 255 255
1.97108 2.65057 2.61652 0 0 0 255 255 255 255
1.96727 2.60448 2.37006 0 0 0 255 255 255 255
2.01573 2.44767 3.03965 0 0 0 255 255 255 255
2.02014 2.46827 3.03576 0 0 0 255 255 255 255
2.02547 2.45293 3.03481 0 0 0 255 255 255 255
2.01732 2.46936 3.03607 0 0 0 255 255 255 255
1.96663 2.85279 3.02196 0 0 0 255 255 255 255
2.34884 2.40057 3.01852 0 0 0 255 255 255 255
2.39478 2.44344 3.17291 0 0 0 255 255 255 255
2.48865 1.60489 2.62045 0 0 0 255 255 255 255
2.65703 2.5948 2.53241 0 0 0 255 255 255 255
2.72772 2.71594 2.80086 0 0 0 255 255 255 255
2.67414 2.71307 2.72261 0 0 0 255 255 255 255
2.85196 2.56333 2.86396 0 0 0 255 255 255 255
2.8473 2.57611 2.86938 0 0 0 255 255 255 255
2.76901 2.61906 2.68239 0 0 0 255 255 255 255
2.52997 2.44633 3.26813 0 0 0 255 255 255 255
2.5843 2.44691 3.36307 0 0 0 255 255 255 255
2.59174 2.42361 3.37609 0 0 0 255 255 255 255
2.59289 2.44821 3.36523 0 0 0 255 255 255 255
2.54439 2.51507 3.33943 0 0 0 255 255 255 255
2.6237 2.44593 3.40033 0 0 0 255 255 255 255
2.64717 2.418 3.38438 0 0 0 255 255 255 255
2.66037 2.42461 3.37759 0 0 0 255 255 255 255
2.59746 2.39033 3.47087 0 0 0 255 255 255 255
2.62405 2.44859 3.40074 0 0 0 255 255 255 255
2.61066 2.5024 3.39774 0 0 0 255 255 255 255
2.60147 2.49491 3.37206 0 0 0 255 255 255 255
2.85546 2.53969 3.16716 0 0 0 255 255 255 255
2.90675 2.53682 3.02135 0 0 0 255 255 255 255
2.90186 2.57023 3.03587 0 0 0 255 255 255 255
2.90032 2.5724 3.04384 0 0 0 255 255 255 255
2.88185 2.50603 3.11964 0 0 0 255 255 255 255
2.84384 2.40616 3.39342 0 0 0 255 255 255 255
2.83693 2.40398 3.39224 0 0 0 255 255 255 255
2.80785 2.42864 3.37221 0 0 0 255 255 255 255
2.82668 2.40462 3.39312 0 0 0 255 255 255 255
2.96633 2.58449 3.24423 0 0 0 255 255 255 255
2.9664 2.45232 3.29437 0 0 0 255 255 255 255
2.90029 2.53721 3.35372 0 0 0 255 255 255 255
2.83141 2.62778 3.04405 0 0 0 255 255 255 255
2.83041 2.63005 3.05117 0 0 0 255 255 255 255
2.84893 2.621 3.08252 0 0 0 255 255 255 255
3.08118 2.57327 3.03626 0 0 0 255 255 255 255
3.07222 2.54562 3.03687 0 0 0 255 255 255 255
3.07075 2.55297 3.03005 0 0 0 255 255 255 255
3.14814 2.34348 3.25982 0 0 0 255 255 255 255
3.03804 2.41815 3.35158 0 0 0 255 255 255 255
3.03408 2.48781 3.37457 0 0 0 255 255 255 255
3.03457 2.60007 3.02628 0 0 0 255 255 255 255
3.0411 2.59575 3.02702 0 0 0 255 255 255 255
3.06511 2.60293 3.02558 0 0 0 255 255 255 255
3.04842 2.59849 3.02265 0 0 0 255 255 255 255
1.42817 1.29647 3.69481 0 0 0 255 255 255 255
1.46482 1.26174 3.62948 0 0 0 255 255 255 255
1.68347 1.45677 3.76104 0 0 0 255 255 255 255
1.67991 1.47096 3.77169 0 0 0 255 255 255 255
1.38425 1.34461 4.43651 0 0 0 255 255 255 255
1.39575 1.35502 4.44036 0 0 0 255 255 255 255
1.42591 1.35117 4.42102 0 0 0 255 255 255 255
1.87021 1.29178 4.46448 0 0 0 255 255 255 255
1.85105 1.28743 4.47176 0 0 0 255 255 255 255
1.45958 1.80596 3.75694 0 0 0 255 255 255 255
1.46463 1.80253 3.74789 0 0 0 255 255 255 255
1.46445 1.79783 3.75544 0 0 0 255 255 255 255
1.45664 1.80264 3.78024 0 0 0 255 255 255 255
1.59946 1.8445 3.8475 0 0 0 255 255 255 255
1.42576 2.12422 3.67764 0 0 0 255 255 255 255
1.4494 2.15377 3.68247 0 0 0 255 255 255 255
1.35489 2.30189 3.72527 0 0 0 255 255 255 255
1.42948 2.2403 3.65553 0 0 0 255 255 255 255
1.81474 2.25585 4.02492 0 0 0 255 255 255 255
1.81378 2.14126 3.89246 0 0 0 255 255 255 255
1.46911 2.23255 4.17374 0 0 0 255 255 255 255
1.38049 2.13829 4.58294 0 0 0 255 255 255 255
1.8268 1.76881 4.13184 0 0 0 255 255 255 255
2.4384 1.60018 4.04437 0 0 0 255 255 255 255
1.98491 1.44937 4.27932 0 0 0 255 255 255 255
1.95316 1.41129 4.23333 0 0 0 255 255 255 255
2.12124 1.2475 4.3271 0 0 0 255 255 255 255
2.14705 1.28451 4.45141 0 0 0 255 255 255 255
2.09328 1.30204 4.35995 0 0 0 255 255 255 255
2.09081 1.52251 4.51595 0 0 0 255 255 255 255
2.0834 1.5322 4.51822 0 0 0 255 255 255 255
2.06473 1.51948 4.48632 0 0 0 255 255 255 255
2.0618 1.506 4.49387 0 0 0 255 255 255 255
2.24307 1.18495 4.58053 0 0 0 255 255 255 255
2.40437 1.42538 4.3427 0 0 0 255 255 255 255
2.43863 1.53246 4.3058 0 0 0 255 255 255 255
2.42687 1.66353 4.30904 0 0 0 255 255 255 255
2.43047 1.6909 4.28817 0 0 0 255 255 255 255
2.2975 1.55088 4.34929 0 0 0 255 255 255 255
2.35375 1.55433 4.40172 0 0 0 255 255 255 255
2.40164 1.62299 4.33612 0 0 0 255 255 255 255
1.91429 2.2363 3.74255 0 0 0 255 255 255 255
2.04638 2.18143 3.81404 0 0 0 255 255 255 255
2.07758 2.20968 3.80439 0 0 0 255 255 255 255
2.21362 2.22434 3.66963 0 0 0 255 255 255 255
2.21694 2.22728 3.85768 0 0 0 255 255 255 255
2.22376 2.2 3.84347 0 0 0 255 255 255 255
2.21033 2.29636 3.871 0 0 0 255 255 255 255
2.42903 2.18045 3.99384 0 0 0 255 255 255 255
2.44185 2.22437 4.00613 0 0 0 255 255 255 255
2.16724 2.18028 4.37216 0 0 0 255 255 255 255
2.1277 2.05217 4.35776 0 0 0 255 255 255 255
2.31897 2.15127 4.11597 0 0 0 255 255 255 255
2.43203 2.23257 4.09888 0 0 0 255 255 255 255
2.41231 2.2848 4.08055 0 0 0 255 255 255 255
2.41472 2.20941 4.3973 0 0 0 255 255 255 255
1.8786 1.32074 4.72934 0 0 0 255 255 255 255
1.86518 1.30901 4.72534 0 0 0 255 255 255 255
1.85713 1.31614 4.73087 0 0 0 255 255 255 255
2.07953 1.24062 4.6856 0 0 0 255 255 255 255
2.08333 1.5329 4.61771 0 0 0 255 255 255 255
2.21397 1.18876 4.72685 0 0 0 255 255 255 255
2.35452 1.59752 4.71113 0 0 0 255 255 255 255
2.12423 1.79453 4.91844 0 0 0 255 255 255 255
1.39906 2.41863 3.48843 0 0 0 255 255 255 255
2.21479 2.33044 3.92179 0 0 0 255 255 255 255
2.86979 1.25306 3.82833 0 0 0 255 255 255 255
2.9388 1.62221 3.98479 0 0 0 255 255 255 255
2.87701 1.23781 3.83473 0 0 0 255 255 255 255
2.58156 1.22085 4.31701 0 0 0 255 255 255 255
2.67912 1.23583 4.23138 0 0 0 255 255 255 255
2.66839 1.31916 4.26076 0 0 0 255 255 255 255
2.51654 1.40495 4.39435 0 0 0 255 255 255 255
2.48031 1.64582 4.06112 0 0 0 255 255 255 255
2.50057 1.73556 4.31002 0 0 0 255 255 255 255
2.51751 1.72882 4.38053 0 0 0 255 255 255 255
2.52578 1.73243 4.37421 0 0 0 255 255 255 255
2.50863 1.73001 4.33631 0 0 0 255 255 255 255
2.51232 1.7303 4.3811 0 0 0 255 255 255 255
2.75093 1.25768 4.10371 0 0 0 255 255 255 255
2.93224 2.22769 3.61485 0 0 0 255 255 255 255
2.71278 2.24055 4.41471 0 0 0 255 255 255 255
3.48372 1.41832 3.656 0 0 0 255 255 255 255
3.4757 1.42194 3.6591 0 0 0 255 255 255 255
3.57288 1.42291 4.0062 0 0 0 255 255 255 255
3.38678 1.5844 3.81353 0 0 0 255 255 255 255
3.57597 1.46219 3.9745 0 0 0 255 255 255 255
3.45462 1.66264 3.76804 0 0 0 255 255 255 255
3.45371 1.66392 3.76917 0 0 0 255 255 255 255
3.09937 1.27757 4.13248 0 0 0 255 255 255 255
3.12304 1.29789 4.07674 0 0 0 255 255 255 255
3.05357 1.29765 4.23131 0 0 0 255 255 255 255
3.04177 1.32173 4.19401 0 0 0 255 255 255 255
3.23913 1.19933 4.32282 0 0 0 255 255 255 255
3.2286 1.18512 4.25412 0 0 0 255 255 255 255
3.44424 1.60399 4.09503 0 0 0 255 255 255 255
3.43089 1.61388 4.06444 0 0 0 255 255 255 255
3.37039 1.59368 4.05429 0 0 0 255 255 255 255
3.43325 1.61985 4.07348 0 0 0 255 255 255 255
3.46203 1.60565 4.08755 0 0 0 255 255 255 255
3.53529 1.79466 3.65566 0 0 0 255 255 255 255
3.48016 1.98128 3.82256 0 0 0 255 255 255 255
3.46955 1.99373 3.79982 0 0 0 255 255 255 255
3.47984 1.95793 3.83204 0 0 0 255 255 255 255
3.57441 1.83811 3.84307 0 0 0 255 255 255 255
3.46531 1.98864 3.78472 0 0 0 255 255 255 255
3.4715 1.94982 3.85337 0 0 0 255 255 255 255
3.4723 1.96512 3.78157 0 0 0 255 255 255 255
3.57249 1.83448 3.86586 0 0 0 255 255 255 255
3.56443 2.21881 3.93291 0 0 0 255 255 255 255
3.54121 2.21675 3.89125 0 0 0 255 255 255 255
3.40956 2.15017 3.88861 0 0 0 255 255 255 255
3.05704 2.01642 4.19667 0 0 0 255 255 255 255
3.06092 2.02913 4.28041 0 0 0 255 255 255 255
3.06919 2.0397 4.32791 0 0 0 255 255 255 255
3.07307 2.02628 4.33009 0 0 0 255 255 255 255
2.866 2.49098 3.51401 0 0 0 255 255 255 255
2.92896 2.38132 3.49871 0 0 0 255 255 255 255
3.00083 2.40795 3.52183 0 0 0 255 255 255 255
2.91003 2.35325 3.72457 0 0 0 255 255 255 255
3.01727 2.51676 3.50791 0 0 0 255 255 255 255
2.8862 2.4732 3.64168 0 0 0 255 255 255 255
2.88518 2.46659 3.65295 0 0 0 255 255 255 255
2.87191 2.3275 3.8135 0 0 0 255 255 255 255
2.98756 2.47024 3.79252 0 0 0 255 255 255 255
2.99456 2.44984 3.77595 0 0 0 255 255 255 255
3.0135 2.42648 3.9139 0 0 0 255 255 255 255
2.86272 2.33097 3.80018 0 0 0 255 255 255 255
3.01696 2.39444 4.08516 0 0 0 255 255 255 255
3.15377 2.38535 3.61487 0 0 0 255 255 255 255
3.24174 2.46869 3.50027 0 0 0 255 255 255 255
3.29949 2.47757 3.74773 0 0 0 255 255 255 255
3.11769 2.40039 4.04433 0 0 0 255 255 255 255
3.02226 2.3475 3.79378 0 0 0 255 255 255 255
3.07524 2.45727 3.82684 0 0 0 255 255 255 255
3.56422 2.54334 3.66849 0 0 0 255 255 255 255
3.99148 0.661762 3.17856 0 0 0 255 255 255 255
4.16532 0.6487 3.40803 0 0 0 255 255 255 255
4.11629 0.846472 3.43153 0 0 0 255 255 255 255
4.1779 0.63925 3.41676 0 0 0 255 255 255 255
4.18086 0.625992 3.41688 0 0 0 255 255 255 255
3.6951 0.451958 3.82585 0 0 0 255 255 255 255
3.99267 0.434691 3.99365 0 0 0 255 255 255 255
3.76825 0.385831 4.10689 0 0 0 255 255 255 255
3.65333 0.350674 4.17441 0 0 0 255 255 255 255
3.70414 0.325517 4.28163 0 0 0 255 255 255 255
3.66356 0.381754 4.25156 0 0 0 255 255 255 255
3.78441 0.388025 4.0831 0 0 0 255 255 255 255
3.71185 0.341315 4.32703 0 0 0 255 255 255 255
3.69851 0.749629 3.66759 0 0 0 255 255 255 255
3.6663 0.907963 3.76747 0 0 0 255 255 255 255
3.81918 0.972005 3.54154 0 0 0 255 255 255 255
3.80725 0.965796 3.53651 0 0 0 255 255 255 255
4.05854 1.17553 3.53378 0 0 0 255 255 255 255
4.12242 1.15709 3.54378 0 0 0 255 255 255 255
4.18815 0.545649 3.6877 0 0 0 255 255 255 255
4.38976 1.0269 3.711 0 0 0 255 255 255 255
4.46816 0.839255 3.74481 0 0 0 255 255 255 255
4.4544 0.832319 3.73049 0 0 0 255 255 255 255
4.1385 -0.442168 8.50842 0 0 0 255 255 255 255
3.77629 -0.193747 8.31271 0 0 0 255 255 255 255
4.05232 -0.403389 8.33069 0 0 0 255 255 255 255
3.80015 -0.0904318 8.54894 0 0 0 255 255 255 255
3.67578 -0.0417102 8.10101 0 0 0 255 255 255 255
3.92647 -0.479505 8.82281 0 0 0 255 255 255 255
3.89036 -0.169599 8.74276 0 0 0 255 255 255 255
3.85759 -0.19502 8.96979 0 0 0 255 255 255 255
3.98661 -0.272975 8.81876 0 0 0 255 255 255 255
3.9817 -0.30859 8.73102 0 0 0 255 255 255 255
3.92838 -0.474379 8.82519 0 0 0 255 255 255 255
4.26772 -0.611515 8.82445 0 0 0 255 255 255 255
4.28505 -0.606366 8.82962 0 0 0 255 255 255 255
4.22153 -0.690505 8.88076 0 0 0 255 255 255 255
4.28012 -0.605218 8.83569 0 0 0 255 255 255 255
4.30153 -0.523775 8.76056 0 0 0 255 255 255 255
4.17773 -0.493983 8.72758 0 0 0 255 255 255 255
4.29716 -0.20802 8.98938 0 0 0 255 255 255 255
4.3207 -0.328656 8.9087 0 0 0 255 255 255 255
4.36445 -0.295606 8.97139 0 0 0 255 255 255 255
4.16383 -0.335479 8.76947 0 0 0 255 255 255 255
4.20983 -0.514541 8.72473 0 0 0 255 255 255 255
4.16136 -0.329096 8.771 0 0 0 255 255 255 255
4.21658 -0.438142 8.60125 0 0 0 255 255 255 255
4.40947 -0.0427119 8.70136 0 0 0 255 255 255 255
4.42746 -0.13955 9.27788 0 0 0 255 255 255 255
4.4257 -0.137694 9.27962 0 0 0 255 255 255 255
4.71031 -0.221287 9.70129 0 0 0 255 255 255 255
4.53253 -0.321202 9.49115 0 0 0 255 255 255 255
4.52134 -0.338954 9.46607 0 0 0 255 255 255 255
4.95858 0.0595727 8.46061 0 0 0 255 255 255 255
8.11232 0.0508508 8.84674 0 0 0 255 255 255 255
3.91672 2.90437 3.15019 0 0 0 255 255 255 255
3.84537 2.81427 3.05364 0 0 0 255 255 255 255
3.78463 1.79543 3.40262 0 0 0 255 255 255 255
3.63383 1.38247 3.58538 0 0 0 255 255 255 255
3.76935 1.41517 3.70224 0 0 0 255 255 255 255
3.8212 1.42212 3.68106 0 0 0 255 255 255 255
3.68124 1.50471 3.49595 0 0 0 255 255 255 255
4.14537 1.20805 3.52713 0 0 0 255 255 255 255
3.92472 1.18626 4.42755 0 0 0 255 255 255 255
3.81764 1.8019 3.53486 0 0 0 255 255 255 255
