ply
format ascii 1.0
comment VCGLIB generated
element vertex 982
property float x
property float y
property float z
property float nx
property float ny
property float nz
property uchar red
property uchar green
property uchar blue
property uchar alpha
element face 0
property list uchar int vertex_indices
end_header
0.330585 -0.332563 5.58308 0 0 0 128 128 128 255
0.380781 -0.134246 5.59857 0 0 0 128 128 128 255
0.69336 0.942873 5.68666 0 0 0 128 128 128 255
0.485177 0.237228 5.6286 0 0 0 128 128 128 255
0.484115 0.240673 5.62868 0 0 0 128 128 128 255
0.56458 0.520447 5.65148 0 0 0 128 128 128 255
0.31799 -0.304808 5.58327 0 0 0 128 128 128 255
0.748701 1.16567 5.70393 0 0 0 128 128 128 255
0.567035 0.549905 5.65327 0 0 0 128 128 128 255
0.552648 0.501141 5.64926 0 0 0 128 128 128 255
0.384134 -0.0665288 5.60245 0 0 0 128 128 128 255
0.367099 -0.120741 5.59788 0 0 0 128 128 128 255
0.360893 -0.141777 5.59615 0 0 0 128 128 128 255
0.301788 -0.32803 5.58041 0 0 0 128 128 128 255
0.914662 1.75286 5.75149 0 0 0 128 128 128 255
0.902988 1.71681 5.74842 0 0 0 128 128 128 255
0.604537 0.705196 5.6652 0 0 0 128 128 128 255
0.636307 0.816399 5.67424 0 0 0 128 128 128 255
0.69854 1.03087 5.69177 0 0 0 128 128 128 255
0.625827 0.791448 5.67186 0 0 0 128 128 128 255
0.543739 0.513206 5.64897 0 0 0 128 128 128 255
0.600613 0.709506 5.66501 0 0 0 128 128 128 255
0.36355 -0.0905095 5.59909 0 0 0 128 128 128 255
0.675717 0.971114 5.68632 0 0 0 128 128 128 255
0.657274 0.91212 5.68136 0 0 0 128 128 128 255
0.356241 -0.0976728 5.59796 0 0 0 128 128 128 255
0.340726 -0.150262 5.59364 0 0 0 128 128 128 255
0.322284 -0.209255 5.58867 0 0 0 128 128 128 255
0.542489 0.540661 5.65026 0 0 0 128 128 128 255
0.524462 0.497163 5.64614 0 0 0 128 128 128 255
0.287789 -0.305053 5.58014 0 0 0 128 128 128 255
0.363738 -0.0405772 5.60168 0 0 0 128 128 128 255
0.301638 -0.240505 5.58491 0 0 0 128 128 128 255
0.69991 1.12002 5.69651 0 0 0 128 128 128 255
0.658442 0.979461 5.68494 0 0 0 128 128 128 255
0.875155 1.72106 5.74573 0 0 0 128 128 128 255
0.887177 1.76533 5.74927 0 0 0 128 128 128 255
0.270138 -0.322628 5.57738 0 0 0 128 128 128 255
0.611079 0.836523 5.67263 0 0 0 128 128 128 255
0.308678 -0.188478 5.58831 0 0 0 128 128 128 255
0.646514 0.960157 5.6827 0 0 0 128 128 128 255
0.363645 0.00840026 5.60418 0 0 0 128 128 128 255
0.68445 1.10282 5.69399 0 0 0 128 128 128 255
0.520555 0.547294 5.64829 0 0 0 128 128 128 255
0.29714 -0.209983 5.58599 0 0 0 128 128 128 255
0.59312 0.800297 5.66888 0 0 0 128 128 128 255
0.515827 0.538309 5.64733 0 0 0 128 128 128 255
0.286663 -0.234934 5.5836 0 0 0 128 128 128 255
0.502636 0.50064 5.64401 0 0 0 128 128 128 255
0.873263 1.76746 5.74789 0 0 0 128 128 128 255
0.56134 0.717218 5.66127 0 0 0 128 128 128 255
0.311301 -0.126781 5.59172 0 0 0 128 128 128 255
0.680624 1.1321 5.69507 0 0 0 128 128 128 255
0.594828 0.851855 5.67168 0 0 0 128 128 128 255
0.331708 -0.0329698 5.59866 0 0 0 128 128 128 255
0.34334 0.0135033 5.60225 0 0 0 128 128 128 255
0.250212 -0.291602 5.57681 0 0 0 128 128 128 255
0.485261 0.512148 5.64271 0 0 0 128 128 128 255
0.291183 -0.145689 5.58859 0 0 0 128 128 128 255
0.846297 1.74646 5.74392 0 0 0 128 128 128 255
0.476935 0.498004 5.64109 0 0 0 128 128 128 255
0.307963 -0.0747346 5.59398 0 0 0 128 128 128 255
0.489133 0.546389 5.64485 0 0 0 128 128 128 255
0.299569 -0.0961493 5.59199 0 0 0 128 128 128 255
0.304112 -0.063153 5.59413 0 0 0 128 128 128 255
0.608555 0.975812 5.67938 0 0 0 128 128 128 255
0.270612 -0.169665 5.58514 0 0 0 128 128 128 255
0.82735 1.72095 5.74056 0 0 0 128 128 128 255
0.649527 1.12173 5.69115 0 0 0 128 128 128 255
0.571562 0.860983 5.66959 0 0 0 128 128 128 255
0.528014 0.716892 5.65762 0 0 0 128 128 128 255
0.57417 0.876858 5.67066 0 0 0 128 128 128 255
0.464506 0.512183 5.64043 0 0 0 128 128 128 255
0.309247 -0.0105454 5.59731 0 0 0 128 128 128 255
0.471626 0.543358 5.64277 0 0 0 128 128 128 255
0.277266 -0.115434 5.58857 0 0 0 128 128 128 255
0.307344 -0.00996858 5.59713 0 0 0 128 128 128 255
0.298774 -0.0354962 5.59491 0 0 0 128 128 128 255
0.273104 -0.122507 5.58775 0 0 0 128 128 128 255
0.585477 0.960929 5.67608 0 0 0 128 128 128 255
0.281666 -0.0688531 5.59136 0 0 0 128 128 128 255
0.820244 1.76372 5.74189 0 0 0 128 128 128 255
0.242028 -0.189129 5.581 0 0 0 128 128 128 255
0.803808 1.72912 5.73834 0 0 0 128 128 128 255
0.511241 0.748014 5.65727 0 0 0 128 128 128 255
0.452849 0.55009 5.64099 0 0 0 128 128 128 255
0.27813 -0.0386149 5.59244 0 0 0 128 128 128 255
0.210428 -0.268093 5.57356 0 0 0 128 128 128 255
0.254046 -0.116731 5.5859 0 0 0 128 128 128 255
0.541955 0.862663 5.66635 0 0 0 128 128 128 255
0.796291 1.72828 5.73745 0 0 0 128 128 128 255
0.276964 -0.032011 5.59263 0 0 0 128 128 128 255
0.511061 0.772028 5.65842 0 0 0 128 128 128 255
0.78476 1.70677 5.73509 0 0 0 128 128 128 255
0.52615 0.837246 5.66332 0 0 0 128 128 128 255
0.793994 1.75918 5.73869 0 0 0 128 128 128 255
0.606686 1.12429 5.68646 0 0 0 128 128 128 255
0.222831 -0.169768 5.57976 0 0 0 128 128 128 255
0.607776 1.13855 5.68727 0 0 0 128 128 128 255
0.518918 0.837356 5.66249 0 0 0 128 128 128 255
0.312532 0.162418 5.60613 0 0 0 128 128 128 255
0.415105 0.513617 5.6349 0 0 0 128 128 128 255
0.55086 0.9808 5.6731 0 0 0 128 128 128 255
0.513059 0.852675 5.66256 0 0 0 128 128 128 255
0.422403 0.548905 5.63744 0 0 0 128 128 128 255
0.307875 0.160705 5.60551 0 0 0 128 128 128 255
0.610628 1.19393 5.69027 0 0 0 128 128 128 255
0.414186 0.531605 5.63566 0 0 0 128 128 128 255
0.196025 -0.204347 5.57499 0 0 0 128 128 128 255
0.509496 0.865215 5.66274 0 0 0 128 128 128 255
0.24546 -0.0297485 5.58911 0 0 0 128 128 128 255
0.761368 1.72949 5.73348 0 0 0 128 128 128 255
0.602551 1.19118 5.68919 0 0 0 128 128 128 255
0.347542 0.326809 5.61808 0 0 0 128 128 128 255
0.583825 1.13123 5.68414 0 0 0 128 128 128 255
0.248138 -0.00660053 5.59053 0 0 0 128 128 128 255
0.18421 -0.198678 5.57388 0 0 0 128 128 128 255
0.203851 -0.12859 5.57952 0 0 0 128 128 128 255
0.753819 1.73908 5.73305 0 0 0 128 128 128 255
0.743664 1.70465 5.73022 0 0 0 128 128 128 255
0.542426 1.02607 5.67427 0 0 0 128 128 128 255
0.220562 -0.0649045 5.58452 0 0 0 128 128 128 255
0.751809 1.74281 5.73299 0 0 0 128 128 128 255
0.351805 0.38698 5.62145 0 0 0 128 128 128 255
0.284668 0.159414 5.60272 0 0 0 128 128 128 255
0.501665 0.901971 5.66357 0 0 0 128 128 128 255
0.334845 0.340039 5.61721 0 0 0 128 128 128 255
0.192107 -0.143777 5.57741 0 0 0 128 128 128 255
0.161641 -0.247042 5.56892 0 0 0 128 128 128 255
0.393871 0.547148 5.63401 0 0 0 128 128 128 255
0.741865 1.7302 5.73122 0 0 0 128 128 128 255
0.381141 0.514549 5.63096 0 0 0 128 128 128 255
0.491685 0.899792 5.66228 0 0 0 128 128 128 255
0.155715 -0.238992 5.56859 0 0 0 128 128 128 255
0.331706 0.368079 5.61816 0 0 0 128 128 128 255
0.735833 1.74141 5.73102 0 0 0 128 128 128 255
0.159523 -0.212019 5.57031 0 0 0 128 128 128 255
0.528674 1.04275 5.67342 0 0 0 128 128 128 255
0.16975 -0.170327 5.5735 0 0 0 128 128 128 255
0.730333 1.73683 5.73015 0 0 0 128 128 128 255
0.379696 0.548326 5.63237 0 0 0 128 128 128 255
0.499478 0.957851 5.66594 0 0 0 128 128 128 255
0.495142 0.946666 5.66489 0 0 0 128 128 128 255
0.364146 0.506167 5.62852 0 0 0 128 128 128 255
0.324371 0.371349 5.61743 0 0 0 128 128 128 255
0.191579 -0.0717306 5.58073 0 0 0 128 128 128 255
0.173772 -0.121539 5.57626 0 0 0 128 128 128 255
0.140555 -0.227094 5.56732 0 0 0 128 128 128 255
0.162171 -0.150312 5.57351 0 0 0 128 128 128 255
0.193554 -0.0369076 5.58259 0 0 0 128 128 128 255
0.193272 -0.0378637 5.58251 0 0 0 128 128 128 255
0.161678 -0.144953 5.5737 0 0 0 128 128 128 255
0.578219 1.27045 5.69002 0 0 0 128 128 128 255
0.363549 0.542814 5.63016 0 0 0 128 128 128 255
0.511649 1.07293 5.67276 0 0 0 128 128 128 255
0.460873 0.900818 5.6586 0 0 0 128 128 128 255
0.339787 0.511486 5.62581 0 0 0 128 128 128 255
0.198178 0.0314943 5.58632 0 0 0 128 128 128 255
0.2339 0.156084 5.59644 0 0 0 128 128 128 255
0.126494 -0.200941 5.56681 0 0 0 128 128 128 255
0.568213 1.30683 5.69047 0 0 0 128 128 128 255
0.495998 1.06206 5.67033 0 0 0 128 128 128 255
0.448783 0.905535 5.65733 0 0 0 128 128 128 255
0.221598 0.138985 5.59414 0 0 0 128 128 128 255
0.131787 -0.161915 5.56925 0 0 0 128 128 128 255
0.495578 1.07469 5.67086 0 0 0 128 128 128 255
0.232071 0.192065 5.59786 0 0 0 128 128 128 255
0.56032 1.30819 5.68955 0 0 0 128 128 128 255
0.138878 -0.120309 5.57203 0 0 0 128 128 128 255
0.56078 1.31326 5.68984 0 0 0 128 128 128 255
0.32661 0.53008 5.62502 0 0 0 128 128 128 255
0.120017 -0.16667 5.56757 0 0 0 128 128 128 255
0.224565 0.191222 5.59688 0 0 0 128 128 128 255
0.282854 0.392305 5.6133 0 0 0 128 128 128 255
0.113567 -0.17096 5.56657 0 0 0 128 128 128 255
0.211911 0.165897 5.59415 0 0 0 128 128 128 255
0.439171 0.939717 5.65768 0 0 0 128 128 128 255
0.17531 0.0488682 5.58426 0 0 0 128 128 128 255
0.522459 1.22906 5.68123 0 0 0 128 128 128 255
0.311173 0.512894 5.62231 0 0 0 128 128 128 255
0.139737 -0.0611787 5.57482 0 0 0 128 128 128 255
0.459029 1.03162 5.66433 0 0 0 128 128 128 255
0.314003 0.550587 5.62436 0 0 0 128 128 128 255
0.174368 0.0772888 5.58542 0 0 0 128 128 128 255
0.1091 -0.140426 5.56738 0 0 0 128 128 128 255
0.197048 0.178755 5.59285 0 0 0 128 128 128 255
0.102619 -0.134285 5.56683 0 0 0 128 128 128 255
0.11454 -0.0868545 5.57047 0 0 0 128 128 128 255
0.208935 0.236616 5.59695 0 0 0 128 128 128 255
0.166622 0.0931928 5.58515 0 0 0 128 128 128 255
0.113025 -0.0884773 5.5702 0 0 0 128 128 128 255
0.102378 -0.117539 5.56754 0 0 0 128 128 128 255
0.0435354 -0.292402 5.55223 0 0 0 128 128 128 255
0.195196 0.225169 5.59468 0 0 0 128 128 128 255
0.135675 0.0234199 5.57808 0 0 0 128 128 128 255
0.208244 0.276425 5.59862 0 0 0 128 128 128 255
0.282966 0.540237 5.61993 0 0 0 128 128 128 255
0.26999 0.496254 5.61631 0 0 0 128 128 128 255
0.152537 0.10165 5.58371 0 0 0 128 128 128 255
0.278809 0.533166 5.61908 0 0 0 128 128 128 255
0.274295 0.517868 5.61782 0 0 0 128 128 128 255
0.0935477 -0.0877562 5.56772 0 0 0 128 128 128 255
0.188403 0.240785 5.59448 0 0 0 128 128 128 255
0.0136851 -0.347919 5.54592 0 0 0 128 128 128 255
0.399199 0.962307 5.65357 0 0 0 128 128 128 255
0.0188367 -0.323436 5.54766 0 0 0 128 128 128 255
0.203784 0.306962 5.59939 0 0 0 128 128 128 255
0.274202 0.549159 5.61918 0 0 0 128 128 128 255
0.166621 0.188022 5.58933 0 0 0 128 128 128 255
0.146143 0.143198 5.58469 0 0 0 128 128 128 255
0.406942 1.04123 5.65803 0 0 0 128 128 128 255
0.0887446 -0.0373135 5.5693 0 0 0 128 128 128 255
0.249223 0.517171 5.61451 0 0 0 128 128 128 255
0.0842001 -0.0421814 5.56849 0 0 0 128 128 128 255
0.254478 0.538496 5.61612 0 0 0 128 128 128 255
0.152644 0.193323 5.58773 0 0 0 128 128 128 255
0.0759906 -0.0594796 5.56665 0 0 0 128 128 128 255
0.385414 0.999856 5.65339 0 0 0 128 128 128 255
0.438905 1.18468 5.66846 0 0 0 128 128 128 255
0.0942656 0.023532 5.57266 0 0 0 128 128 128 255
0.392613 1.03831 5.65601 0 0 0 128 128 128 255
0.168069 0.277204 5.59339 0 0 0 128 128 128 255
0.384684 1.02196 5.65425 0 0 0 128 128 128 255
0.0818967 -0.000834942 5.56997 0 0 0 128 128 128 255
0.171215 0.305425 5.59502 0 0 0 128 128 128 255
0.212862 0.450094 5.60679 0 0 0 128 128 128 255
0.0946664 0.0494641 5.57383 0 0 0 128 128 128 255
0.201652 0.419121 5.60396 0 0 0 128 128 128 255
0.419782 1.1655 5.66509 0 0 0 128 128 128 255
0.0852971 0.0387733 5.57211 0 0 0 128 128 128 255
0.11048 0.131143 5.57944 0 0 0 128 128 128 255
0.230797 0.553012 5.61358 0 0 0 128 128 128 255
0.215282 0.500424 5.60926 0 0 0 128 128 128 255
0.127834 0.204015 5.58487 0 0 0 128 128 128 255
0.106292 0.134505 5.57902 0 0 0 128 128 128 255
0.22005 0.527109 5.61103 0 0 0 128 128 128 255
0.183171 0.409125 5.60105 0 0 0 128 128 128 255
0.366037 1.03599 5.65234 0 0 0 128 128 128 255
0.222735 0.550261 5.61238 0 0 0 128 128 128 255
0.365832 1.0423 5.65258 0 0 0 128 128 128 255
0.1329 0.259792 5.58792 0 0 0 128 128 128 255
0.138973 0.294417 5.5902 0 0 0 128 128 128 255
0.205163 0.522272 5.60881 0 0 0 128 128 128 255
0.0897576 0.141635 5.57707 0 0 0 128 128 128 255
0.0545452 0.0398191 5.56798 0 0 0 128 128 128 255
0.172071 0.441695 5.6009 0 0 0 128 128 128 255
0.0434381 0.00568745 5.56503 0 0 0 128 128 128 255
0.349301 1.04944 5.65062 0 0 0 128 128 128 255
0.468464 1.47791 5.68487 0 0 0 128 128 128 255
0.0564049 0.0882384 5.57025 0 0 0 128 128 128 255
0.175063 0.493939 5.60348 0 0 0 128 128 128 255
0.14975 0.415158 5.59672 0 0 0 128 128 128 255
0.0331438 0.0234228 5.56435 0 0 0 128 128 128 255
0.0213724 -0.0094623 5.56135 0 0 0 128 128 128 255
0.320746 1.01229 5.64512 0 0 0 128 128 128 255
0.150928 0.436687 5.59777 0 0 0 128 128 128 255
0.00272799 -0.0621377 5.55659 0 0 0 128 128 128 255
0.470046 1.52537 5.68704 0 0 0 128 128 128 255
0.179493 0.540532 5.60602 0 0 0 128 128 128 255
0.11987 0.341941 5.58954 0 0 0 128 128 128 255
0.0994574 0.276256 5.58399 0 0 0 128 128 128 255
0.11643 0.351331 5.58944 0 0 0 128 128 128 255
0.154975 0.485482 5.60033 0 0 0 128 128 128 255
-0.00168753 -0.0420266 5.55679 0 0 0 128 128 128 255
0.141688 0.450976 5.59706 0 0 0 128 128 128 255
0.0800637 0.256123 5.58044 0 0 0 128 128 128 255
0.0869869 0.293617 5.58295 0 0 0 128 128 128 255
-0.00384605 -0.0142656 5.55762 0 0 0 128 128 128 255
0.0667267 0.242479 5.578 0 0 0 128 128 128 255
0.325581 1.12339 5.65033 0 0 0 128 128 128 255
0.306117 1.05742 5.6449 0 0 0 128 128 128 255
0.143633 0.506669 5.59959 0 0 0 128 128 128 255
0.267088 0.928624 5.63416 0 0 0 128 128 128 255
0.284267 0.997382 5.63938 0 0 0 128 128 128 255
0.0295401 0.133972 5.56834 0 0 0 128 128 128 255
0.0943958 0.36432 5.58685 0 0 0 128 128 128 255
0.0554674 0.23237 5.57599 0 0 0 128 128 128 255
0.150712 0.55871 5.60269 0 0 0 128 128 128 255
0.311118 1.10592 5.64757 0 0 0 128 128 128 255
0.0882415 0.36099 5.58583 0 0 0 128 128 128 255
0.0584152 0.266911 5.5778 0 0 0 128 128 128 255
0.0615944 0.284702 5.57897 0 0 0 128 128 128 255
-0.000104666 0.0825772 5.56204 0 0 0 128 128 128 255
0.322017 1.18494 5.65229 0 0 0 128 128 128 255
0.0979358 0.428911 5.58994 0 0 0 128 128 128 255
0.298679 1.11285 5.64605 0 0 0 128 128 128 255
0.0941637 0.41964 5.58902 0 0 0 128 128 128 255
0.116503 0.512881 5.59595 0 0 0 128 128 128 255
0.0284915 0.21456 5.5714 0 0 0 128 128 128 255
0.036569 0.245448 5.5738 0 0 0 128 128 128 255
0.00497484 0.138358 5.56499 0 0 0 128 128 128 255
0.028285 0.220878 5.57162 0 0 0 128 128 128 255
0.00515366 0.142474 5.56517 0 0 0 128 128 128 255
0.312528 1.18784 5.65103 0 0 0 128 128 128 255
0.00241184 0.140185 5.56469 0 0 0 128 128 128 255
0.0937054 0.453139 5.59028 0 0 0 128 128 128 255
0.288425 1.12016 5.64486 0 0 0 128 128 128 255
0.114093 0.529256 5.59624 0 0 0 128 128 128 255
0.218827 0.891264 5.62572 0 0 0 128 128 128 255
0.115864 0.542267 5.59701 0 0 0 128 128 128 255
0.251627 1.00945 5.63514 0 0 0 128 128 128 255
-0.0256672 0.0695487 5.55782 0 0 0 128 128 128 255
0.0487 0.325134 5.57869 0 0 0 128 128 128 255
0.0689094 0.397136 5.58447 0 0 0 128 128 128 255
-0.0383867 0.0369544 5.55468 0 0 0 128 128 128 255
0.0326762 0.288338 5.57491 0 0 0 128 128 128 255
0.0111362 0.218829 5.56904 0 0 0 128 128 128 255
0.253403 1.06103 5.63742 0 0 0 128 128 128 255
0.24653 1.04124 5.63564 0 0 0 128 128 128 255
0.0719945 0.456657 5.58724 0 0 0 128 128 128 255
-0.0531735 0.0393963 5.5526 0 0 0 128 128 128 255
0.257305 1.09529 5.63932 0 0 0 128 128 128 255
-0.187858 -0.403099 5.51559 0 0 0 128 128 128 255
0.221635 0.988401 5.62991 0 0 0 128 128 128 255
-0.0207812 0.17022 5.56245 0 0 0 128 128 128 255
-0.00631666 0.226258 5.56675 0 0 0 128 128 128 255
-0.177827 -0.355086 5.51892 0 0 0 128 128 128 255
0.245489 1.08327 5.6371 0 0 0 128 128 128 255
0.232513 1.03928 5.63348 0 0 0 128 128 128 255
0.251874 1.10842 5.63902 0 0 0 128 128 128 255
-0.000800371 0.258974 5.56883 0 0 0 128 128 128 255
-0.0752156 0.0242538 5.54874 0 0 0 128 128 128 255
-0.024563 0.209954 5.5634 0 0 0 128 128 128 255
0.0636281 0.51239 5.58813 0 0 0 128 128 128 255
-0.212538 -0.423688 5.51112 0 0 0 128 128 128 255
-0.00314581 0.293055 5.56977 0 0 0 128 128 128 255
0.118049 0.707362 5.6037 0 0 0 128 128 128 255
-0.0413315 0.167133 5.55926 0 0 0 128 128 128 255
-0.226383 -0.460107 5.50765 0 0 0 128 128 128 255
0.0437585 0.459051 5.58312 0 0 0 128 128 128 255
-0.0899521 0.00583249 5.54583 0 0 0 128 128 128 255
-0.0522532 0.137116 5.55648 0 0 0 128 128 128 255
-0.047277 0.157486 5.558 0 0 0 128 128 128 255
0.0633823 0.539574 5.58912 0 0 0 128 128 128 255
0.191067 0.975872 5.62486 0 0 0 128 128 128 255
-0.0264243 0.238675 5.56421 0 0 0 128 128 128 255
-0.00283206 0.322151 5.57092 0 0 0 128 128 128 255
-0.0339626 0.220133 5.56237 0 0 0 128 128 128 255
-0.0746853 0.0856051 5.55115 0 0 0 128 128 128 255
0.0627722 0.558528 5.58974 0 0 0 128 128 128 255
0.0663388 0.574117 5.59087 0 0 0 128 128 128 255
-0.0199807 0.281533 5.5668 0 0 0 128 128 128 255
0.114656 0.744894 5.6046 0 0 0 128 128 128 255
-0.102938 0.0108554 5.54406 0 0 0 128 128 128 255
0.200389 1.046 5.6289 0 0 0 128 128 128 255
-0.0503887 0.195974 5.55897 0 0 0 128 128 128 255
-0.0917777 0.062694 5.54769 0 0 0 128 128 128 255
-0.238282 -0.430393 5.50697 0 0 0 128 128 128 255
-0.0476913 0.219129 5.56025 0 0 0 128 128 128 255
-0.0970571 0.051801 5.54648 0 0 0 128 128 128 255
-0.309672 -0.661868 5.48745 0 0 0 128 128 128 255
0.0010891 0.394977 5.57424 0 0 0 128 128 128 255
-0.119081 -0.0123467 5.54073 0 0 0 128 128 128 255
0.0426365 0.542806 5.58609 0 0 0 128 128 128 255
0.201352 1.08428 5.63048 0 0 0 128 128 128 255
0.0884132 0.704978 5.59911 0 0 0 128 128 128 255
-0.0773745 0.150031 5.55314 0 0 0 128 128 128 255
-0.126861 -0.00370398 5.53986 0 0 0 128 128 128 255
0.0868599 0.724223 5.59958 0 0 0 128 128 128 255
-0.0997022 0.0953619 5.54769 0 0 0 128 128 128 255
-0.106853 0.0746163 5.54582 0 0 0 128 128 128 255
-0.117009 0.0401947 5.54299 0 0 0 128 128 128 255
-0.0405848 0.309747 5.56469 0 0 0 128 128 128 255
0.0820242 0.728835 5.59901 0 0 0 128 128 128 255
-0.113746 0.0652611 5.54442 0 0 0 128 128 128 255
-0.0938195 0.136308 5.5501 0 0 0 128 128 128 255
0.172374 1.04208 5.62446 0 0 0 128 128 128 255
0.0289721 0.55951 5.5846 0 0 0 128 128 128 255
0.0156128 0.51773 5.581 0 0 0 128 128 128 255
0.0212344 0.547286 5.58295 0 0 0 128 128 128 255
0.0122075 0.516689 5.58043 0 0 0 128 128 128 255
-0.18582 -0.154533 5.52521 0 0 0 128 128 128 255
-0.095935 0.15364 5.55041 0 0 0 128 128 128 255
-0.160736 -0.0590014 5.53259 0 0 0 128 128 128 255
0.166672 1.05426 5.62402 0 0 0 128 128 128 255
0.0142419 0.541091 5.58164 0 0 0 128 128 128 255
-0.138651 0.0228533 5.539 0 0 0 128 128 128 255
-0.190273 -0.152124 5.52461 0 0 0 128 128 128 255
0.176061 1.09308 5.62689 0 0 0 128 128 128 255
-0.047455 0.338966 5.56469 0 0 0 128 128 128 255
-0.0990976 0.174423 5.55067 0 0 0 128 128 128 255
-0.178647 -0.0952132 5.52849 0 0 0 128 128 128 255
-0.0789099 0.25686 5.5568 0 0 0 128 128 128 255
-0.113043 0.141165 5.54728 0 0 0 128 128 128 255
0.136125 0.992726 5.61702 0 0 0 128 128 128 255
0.165927 1.09724 5.62545 0 0 0 128 128 128 255
-0.0419732 0.39255 5.56748 0 0 0 128 128 128 255
0.0789425 0.805901 5.60132 0 0 0 128 128 128 255
-0.139395 0.0658346 5.54044 0 0 0 128 128 128 255
0.13667 1.00507 5.61755 0 0 0 128 128 128 255
-0.176732 -0.0572188 5.53015 0 0 0 128 128 128 255
-0.0795106 0.275814 5.55739 0 0 0 128 128 128 255
-0.189526 -0.0970871 5.52671 0 0 0 128 128 128 255
0.160911 1.09774 5.62468 0 0 0 128 128 128 255
-0.0430607 0.416867 5.56818 0 0 0 128 128 128 255
-0.04449 0.422521 5.56815 0 0 0 128 128 128 255
-0.0355626 0.456277 5.57077 0 0 0 128 128 128 255
-0.103363 0.229958 5.55199 0 0 0 128 128 128 255
-0.13665 0.117131 5.5427 0 0 0 128 128 128 255
0.0818695 0.861312 5.60376 0 0 0 128 128 128 255
-0.0879486 0.285705 5.55641 0 0 0 128 128 128 255
-0.18952 -0.0480775 5.52846 0 0 0 128 128 128 255
-0.198367 -0.0745584 5.52611 0 0 0 128 128 128 255
-0.0579861 0.404767 5.56539 0 0 0 128 128 128 255
0.118968 1.01155 5.61498 0 0 0 128 128 128 255
-0.0289487 0.513685 5.57385 0 0 0 128 128 128 255
0.126384 1.04369 5.61729 0 0 0 128 128 128 255
-0.105776 0.25677 5.55255 0 0 0 128 128 128 255
0.0635586 0.837739 5.60002 0 0 0 128 128 128 255
-0.130801 0.178946 5.54582 0 0 0 128 128 128 255
-0.342369 -0.538172 5.48682 0 0 0 128 128 128 255
-0.0293486 0.526322 5.57423 0 0 0 128 128 128 255
-0.0984797 0.302498 5.55532 0 0 0 128 128 128 255
0.147768 1.14766 5.62436 0 0 0 128 128 128 255
0.0820408 0.924873 5.60603 0 0 0 128 128 128 255
-0.0754657 0.394496 5.56223 0 0 0 128 128 128 255
-0.199867 -0.02717 5.52754 0 0 0 128 128 128 255
-0.0264804 0.564026 5.57601 0 0 0 128 128 128 255
-0.0782043 0.392209 5.56171 0 0 0 128 128 128 255
0.0813578 0.936554 5.60633 0 0 0 128 128 128 255
0.16071 1.21251 5.6287 0 0 0 128 128 128 255
0.116037 1.0646 5.61636 0 0 0 128 128 128 255
-0.0362916 0.54827 5.57389 0 0 0 128 128 128 255
0.11086 1.05054 5.61504 0 0 0 128 128 128 255
-0.131455 0.229204 5.54747 0 0 0 128 128 128 255
-0.186745 0.0417971 5.53206 0 0 0 128 128 128 255
-0.397466 -0.672453 5.47329 0 0 0 128 128 128 255
-0.140016 0.203678 5.54521 0 0 0 128 128 128 255
-0.158451 0.144687 5.54019 0 0 0 128 128 128 255
-0.0680021 0.454774 5.56553 0 0 0 128 128 128 255
-0.374168 -0.579498 5.48027 0 0 0 128 128 128 255
0.238149 1.49948 5.65114 0 0 0 128 128 128 255
-0.18555 0.0633301 5.53299 0 0 0 128 128 128 255
0.235508 1.49403 5.65053 0 0 0 128 128 128 255
-0.196936 0.028244 5.52994 0 0 0 128 128 128 255
-0.0417008 0.561405 5.57347 0 0 0 128 128 128 255
-0.385286 -0.603196 5.47766 0 0 0 128 128 128 255
0.0876784 1.00344 5.60967 0 0 0 128 128 128 255
-0.107528 0.34178 5.55523 0 0 0 128 128 128 255
-0.387925 -0.608641 5.47704 0 0 0 128 128 128 255
-0.401848 -0.652333 5.47328 0 0 0 128 128 128 255
-0.158885 0.178193 5.54127 0 0 0 128 128 128 255
0.142287 1.20253 5.62538 0 0 0 128 128 128 255
0.0523828 0.90479 5.60055 0 0 0 128 128 128 255
-0.398115 -0.622195 5.47492 0 0 0 128 128 128 255
-0.060936 0.527689 5.56919 0 0 0 128 128 128 255
0.121179 1.15896 5.62045 0 0 0 128 128 128 255
0.0645635 0.974048 5.6049 0 0 0 128 128 128 255
-0.149543 0.248324 5.54519 0 0 0 128 128 128 255
0.0503592 0.929399 5.60106 0 0 0 128 128 128 255
-0.411523 -0.632671 5.47238 0 0 0 128 128 128 255
-0.200899 0.0847374 5.53123 0 0 0 128 128 128 255
-0.0689822 0.535379 5.56813 0 0 0 128 128 128 255
-0.0637221 0.556706 5.56972 0 0 0 128 128 128 255
-0.0925938 0.462337 5.56179 0 0 0 128 128 128 255
0.067818 1.00955 5.60664 0 0 0 128 128 128 255
-0.0678672 0.549637 5.5688 0 0 0 128 128 128 255
0.100721 1.12458 5.61593 0 0 0 128 128 128 255
-0.123739 0.370753 5.55358 0 0 0 128 128 128 255
-0.19013 0.149216 5.53518 0 0 0 128 128 128 255
-0.0888733 0.50291 5.56377 0 0 0 128 128 128 255
0.0728468 1.05806 5.6091 0 0 0 128 128 128 255
0.0930425 1.1405 5.6152 0 0 0 128 128 128 255
0.116806 1.23853 5.62241 0 0 0 128 128 128 255
-0.189543 0.200141 5.53698 0 0 0 128 128 128 255
0.0374393 0.973008 5.60039 0 0 0 128 128 128 255
-0.132097 0.398357 5.55312 0 0 0 128 128 128 255
-0.179868 0.239925 5.53991 0 0 0 128 128 128 255
0.0454236 1.00706 5.60285 0 0 0 128 128 128 255
-0.0902616 0.547143 5.56501 0 0 0 128 128 128 255
-0.167836 0.2842 5.54338 0 0 0 128 128 128 255
0.0614029 1.06472 5.60742 0 0 0 128 128 128 255
-0.0968496 0.528311 5.56329 0 0 0 128 128 128 255
-0.185806 0.230281 5.53861 0 0 0 128 128 128 255
-0.163721 0.312137 5.545 0 0 0 128 128 128 255
0.0782152 1.13568 5.61258 0 0 0 128 128 128 255
-0.126598 0.451944 5.55581 0 0 0 128 128 128 255
0.105747 1.24298 5.62071 0 0 0 128 128 128 255
-0.127274 0.463625 5.55608 0 0 0 128 128 128 255
0.0119791 0.939127 5.59502 0 0 0 128 128 128 255
0.102151 1.24826 5.62028 0 0 0 128 128 128 255
-0.0981331 0.569384 5.56443 0 0 0 128 128 128 255
-0.11393 0.51584 5.56003 0 0 0 128 128 128 255
-0.168656 0.330345 5.54477 0 0 0 128 128 128 255
0.00970936 0.941912 5.59473 0 0 0 128 128 128 255
-0.114833 0.554711 5.56114 0 0 0 128 128 128 255
-0.124904 0.527565 5.55856 0 0 0 128 128 128 255
0.0126578 0.997329 5.59703 0 0 0 128 128 128 255
0.0358615 1.09344 5.60407 0 0 0 128 128 128 255
-0.000246048 0.971056 5.594 0 0 0 128 128 128 255
0.0419681 1.11764 5.60588 0 0 0 128 128 128 255
-0.121362 0.564024 5.56034 0 0 0 128 128 128 255
-0.185961 0.345064 5.54232 0 0 0 128 128 128 255
0.0334926 1.09939 5.60386 0 0 0 128 128 128 255
0.00357985 1.00847 5.59585 0 0 0 128 128 128 255
-0.185138 0.368802 5.54322 0 0 0 128 128 128 255
-0.147439 0.500087 5.55385 0 0 0 128 128 128 255
-0.184772 0.377034 5.54355 0 0 0 128 128 128 255
0.0365448 1.15165 5.60604 0 0 0 128 128 128 255
0.0304012 1.15876 5.60521 0 0 0 128 128 128 255
-0.0140195 1.04311 5.59392 0 0 0 128 128 128 255
-0.0349916 0.97551 5.58818 0 0 0 128 128 128 255
-0.0227876 1.03434 5.59212 0 0 0 128 128 128 255
-0.0305228 1.03255 5.59072 0 0 0 128 128 128 255
-0.12306 0.729367 5.56524 0 0 0 128 128 128 255
-0.0462422 0.996717 5.58687 0 0 0 128 128 128 255
-0.0223731 1.09159 5.59395 0 0 0 128 128 128 255
-0.192221 0.547285 5.54755 0 0 0 128 128 128 255
-0.0275773 1.10884 5.59356 0 0 0 128 128 128 255
-0.040467 1.07213 5.59018 0 0 0 128 128 128 255
-0.143904 0.728499 5.56154 0 0 0 128 128 128 255
-0.202969 0.542258 5.54549 0 0 0 128 128 128 255
-0.161802 0.702729 5.5576 0 0 0 128 128 128 255
-0.145352 0.765462 5.56239 0 0 0 128 128 128 255
-0.217012 0.533033 5.54272 0 0 0 128 128 128 255
-0.0577377 1.08686 5.58754 0 0 0 128 128 128 255
-0.166155 0.722854 5.55741 0 0 0 128 128 128 255
-0.16672 0.720941 5.55726 0 0 0 128 128 128 255
-0.0700597 1.05206 5.58431 0 0 0 128 128 128 255
-0.0817221 1.01602 5.58116 0 0 0 128 128 128 255
-0.0596466 1.11875 5.58814 0 0 0 128 128 128 255
0.00925779 1.3802 5.60816 0 0 0 128 128 128 255
-0.0987827 1.01399 5.57803 0 0 0 128 128 128 255
-0.100862 1.02089 5.57786 0 0 0 128 128 128 255
-0.253585 0.527645 5.53597 0 0 0 128 128 128 255
-0.0820804 1.11942 5.58409 0 0 0 128 128 128 255
-0.0831176 1.12288 5.584 0 0 0 128 128 128 255
-0.0828422 1.13427 5.58437 0 0 0 128 128 128 255
-0.0604681 1.21708 5.59081 0 0 0 128 128 128 255
-0.0911309 1.13057 5.58275 0 0 0 128 128 128 255
-0.400308 0.0930595 5.49683 0 0 0 128 128 128 255
-0.0726153 1.20727 5.58831 0 0 0 128 128 128 255
-0.0807959 1.17955 5.58602 0 0 0 128 128 128 255
-0.0844631 1.16712 5.585 0 0 0 128 128 128 255
-0.280622 0.526619 5.53098 0 0 0 128 128 128 255
-0.410858 0.0921507 5.49486 0 0 0 128 128 128 255
-0.419798 0.0792658 5.49285 0 0 0 128 128 128 255
-0.416136 0.102132 5.49416 0 0 0 128 128 128 255
-0.434293 0.0649708 5.48976 0 0 0 128 128 128 255
-0.0893919 1.23751 5.58603 0 0 0 128 128 128 255
-0.297672 0.535028 5.52805 0 0 0 128 128 128 255
-0.429972 0.0865903 5.49116 0 0 0 128 128 128 255
-0.181828 0.931169 5.56045 0 0 0 128 128 128 255
-0.0933504 1.245 5.5855 0 0 0 128 128 128 255
-0.194248 0.909971 5.55755 0 0 0 128 128 128 255
-0.209763 0.857382 5.55322 0 0 0 128 128 128 255
-0.200455 0.899372 5.5561 0 0 0 128 128 128 255
-0.144794 1.09501 5.57181 0 0 0 128 128 128 255
-0.19416 0.927684 5.55804 0 0 0 128 128 128 255
-0.456786 0.037501 5.48481 0 0 0 128 128 128 255
-0.167738 1.02072 5.5655 0 0 0 128 128 128 255
-0.400276 0.236009 5.50075 0 0 0 128 128 128 255
-0.223881 0.851321 5.55041 0 0 0 128 128 128 255
-0.153549 1.09668 5.57021 0 0 0 128 128 128 255
-0.174141 1.02688 5.56446 0 0 0 128 128 128 255
-0.177339 1.01952 5.56366 0 0 0 128 128 128 255
-0.176304 1.02651 5.56404 0 0 0 128 128 128 255
-0.222849 0.868741 5.55106 0 0 0 128 128 128 255
-0.149415 1.12462 5.57173 0 0 0 128 128 128 255
-0.152521 1.13497 5.57141 0 0 0 128 128 128 255
-0.415993 0.241923 5.49794 0 0 0 128 128 128 255
-0.156852 1.13423 5.57057 0 0 0 128 128 128 255
-0.136732 1.21983 5.57663 0 0 0 128 128 128 255
-0.142658 1.21019 5.57525 0 0 0 128 128 128 255
-0.181869 1.07728 5.56432 0 0 0 128 128 128 255
-0.215531 0.966659 5.55502 0 0 0 128 128 128 255
-0.18469 1.07816 5.5638 0 0 0 128 128 128 255
-0.248255 0.866182 5.54616 0 0 0 128 128 128 255
-0.215345 0.981212 5.55543 0 0 0 128 128 128 255
-0.215534 0.987533 5.55556 0 0 0 128 128 128 255
-0.433026 0.250335 5.49491 0 0 0 128 128 128 255
-0.154698 1.20766 5.57288 0 0 0 128 128 128 255
-0.207169 1.082 5.55957 0 0 0 128 128 128 255
-0.453247 0.251391 5.49104 0 0 0 128 128 128 255
-0.448827 0.280286 5.49262 0 0 0 128 128 128 255
-0.180936 1.1918 5.56741 0 0 0 128 128 128 255
-0.187612 1.18656 5.56598 0 0 0 128 128 128 255
-0.244874 1.02377 5.55078 0 0 0 128 128 128 255
-0.273929 0.925289 5.54268 0 0 0 128 128 128 255
-0.251549 1.01854 5.54934 0 0 0 128 128 128 255
-0.252205 1.03023 5.5495 0 0 0 128 128 128 255
-0.200112 1.21028 5.56411 0 0 0 128 128 128 255
-0.175756 1.31022 5.57132 0 0 0 128 128 128 255
-0.289715 0.944806 5.54004 0 0 0 128 128 128 255
-0.263573 1.03689 5.54742 0 0 0 128 128 128 255
-0.300141 0.951177 5.53812 0 0 0 128 128 128 255
-0.325055 0.880633 5.5315 0 0 0 128 128 128 255
-0.332483 0.858934 5.52951 0 0 0 128 128 128 255
-0.319881 0.905121 5.53311 0 0 0 128 128 128 255
-0.262428 1.10334 5.54921 0 0 0 128 128 128 255
-0.179869 1.38665 5.57231 0 0 0 128 128 128 255
-0.313952 0.935637 5.535 0 0 0 128 128 128 255
-0.292226 1.03014 5.54154 0 0 0 128 128 128 255
-0.780144 -0.616739 5.40564 0 0 0 128 128 128 255
-0.35964 0.812053 5.52298 0 0 0 128 128 128 255
-0.475107 0.424144 5.49087 0 0 0 128 128 128 255
-0.284879 1.08631 5.54431 0 0 0 128 128 128 255
-0.290233 1.07858 5.54305 0 0 0 128 128 128 255
-0.339881 0.910296 5.52921 0 0 0 128 128 128 255
-0.3977 0.735159 5.51356 0 0 0 128 128 128 255
-0.381806 0.795981 5.51814 0 0 0 128 128 128 255
-0.386031 0.792076 5.5172 0 0 0 128 128 128 255
-0.800421 -0.612519 5.40164 0 0 0 128 128 128 255
-0.387252 0.791413 5.51694 0 0 0 128 128 128 255
-0.342486 0.95704 5.52973 0 0 0 128 128 128 255
-0.291232 1.14466 5.54433 0 0 0 128 128 128 255
-0.394006 0.799778 5.51575 0 0 0 128 128 128 255
-0.375098 0.874278 5.52125 0 0 0 128 128 128 255
-0.292257 1.15855 5.54442 0 0 0 128 128 128 255
-0.437245 0.677521 5.50422 0 0 0 128 128 128 255
-0.820315 -0.610503 5.39763 0 0 0 128 128 128 255
-0.800358 -0.508142 5.40394 0 0 0 128 128 128 255
-0.831479 -0.610158 5.39534 0 0 0 128 128 128 255
-0.797723 -0.492258 5.40482 0 0 0 128 128 128 255
-0.313648 1.15895 5.54003 0 0 0 128 128 128 255
-0.800818 -0.492338 5.40418 0 0 0 128 128 128 255
-0.270571 1.31884 5.55234 0 0 0 128 128 128 255
-0.402673 0.884953 5.51579 0 0 0 128 128 128 255
-0.846118 -0.618127 5.39214 0 0 0 128 128 128 255
-0.820049 -0.502007 5.39999 0 0 0 128 128 128 255
-0.820697 -0.49032 5.40009 0 0 0 128 128 128 255
-0.824646 -0.503706 5.39899 0 0 0 128 128 128 255
-0.830833 -0.503866 5.3977 0 0 0 128 128 128 255
-0.419074 0.895285 5.51259 0 0 0 128 128 128 255
-0.825375 -0.478421 5.39936 0 0 0 128 128 128 255
-0.322216 1.23052 5.53974 0 0 0 128 128 128 255
-0.33753 1.19249 5.53575 0 0 0 128 128 128 255
-0.342217 1.19395 5.53479 0 0 0 128 128 128 255
-0.863981 -0.567663 5.38944 0 0 0 128 128 128 255
-0.339758 1.21616 5.53576 0 0 0 128 128 128 255
-0.876814 -0.562616 5.38682 0 0 0 128 128 128 255
-0.867369 -0.49247 5.3902 0 0 0 128 128 128 255
-0.898479 -0.584048 5.38179 0 0 0 128 128 128 255
-0.916316 -0.620248 5.37728 0 0 0 128 128 128 255
-0.893159 -0.520967 5.38412 0 0 0 128 128 128 255
-0.709555 0.146406 5.43616 0 0 0 128 128 128 255
-0.905489 -0.500407 5.38184 0 0 0 128 128 128 255
-0.896271 -0.465693 5.38447 0 0 0 128 128 128 255
-0.909811 -0.511589 5.3807 0 0 0 128 128 128 255
-0.92117 -0.536236 5.37778 0 0 0 128 128 128 255
-0.775121 -0.0273468 5.41876 0 0 0 128 128 128 255
-0.909085 -0.460645 5.38177 0 0 0 128 128 128 255
-0.351201 1.4338 5.5374 0 0 0 128 128 128 255
-0.351749 1.44232 5.53743 0 0 0 128 128 128 255
-0.923827 -0.496765 5.3779 0 0 0 128 128 128 255
-0.77628 0.0137441 5.41923 0 0 0 128 128 128 255
-0.781727 -0.00126211 5.41777 0 0 0 128 128 128 255
-0.366757 1.41568 5.53367 0 0 0 128 128 128 255
-0.792278 0.0114361 5.41567 0 0 0 128 128 128 255
-0.974121 -0.598008 5.36508 0 0 0 128 128 128 255
-0.820509 -0.0392636 5.40855 0 0 0 128 128 128 255
-0.818799 -0.0230876 5.4092 0 0 0 128 128 128 255
-0.817088 -0.00691187 5.40985 0 0 0 128 128 128 255
-0.405889 1.39033 5.52457 0 0 0 128 128 128 255
-0.811252 0.0163279 5.41154 0 0 0 128 128 128 255
-0.380871 1.47859 5.53161 0 0 0 128 128 128 255
-0.818199 -0.00029783 5.40971 0 0 0 128 128 128 255
-1.00625 -0.630777 5.35739 0 0 0 128 128 128 255
-0.978124 -0.532001 5.36529 0 0 0 128 128 128 255
-0.990627 -0.57091 5.36186 0 0 0 128 128 128 255
-0.397001 1.44812 5.5275 0 0 0 128 128 128 255
-0.817597 0.0224917 5.41022 0 0 0 128 128 128 255
-0.397265 1.45761 5.5276 0 0 0 128 128 128 255
-1.0109 -0.618877 5.35654 0 0 0 128 128 128 255
-1.00825 -0.602993 5.35739 0 0 0 128 128 128 255
-0.402218 1.45811 5.5265 0 0 0 128 128 128 255
-0.786512 0.158986 5.41939 0 0 0 128 128 128 255
-0.785734 0.175454 5.41982 0 0 0 128 128 128 255
-0.976991 -0.472821 5.36649 0 0 0 128 128 128 255
-0.787301 0.187434 5.41966 0 0 0 128 128 128 255
-0.989646 -0.49497 5.36329 0 0 0 128 128 128 255
-0.991709 -0.498502 5.36277 0 0 0 128 128 128 255
-0.857892 -0.0380047 5.40019 0 0 0 128 128 128 255
-0.862754 -0.0406602 5.39905 0 0 0 128 128 128 255
-0.349436 1.70271 5.54224 0 0 0 128 128 128 255
-0.3625 1.66189 5.53865 0 0 0 128 128 128 255
-0.31548 1.82472 5.55182 0 0 0 128 128 128 255
-0.994752 -0.477703 5.3624 0 0 0 128 128 128 255
-1.02973 -0.596267 5.35265 0 0 0 128 128 128 255
-0.993691 -0.460278 5.36291 0 0 0 128 128 128 255
-0.995666 -0.466971 5.36235 0 0 0 128 128 128 255
-0.860632 -0.00581069 5.40006 0 0 0 128 128 128 255
-1.02845 -0.564286 5.35342 0 0 0 128 128 128 255
-0.370598 1.67591 5.53702 0 0 0 128 128 128 255
-0.857485 0.0255848 5.40125 0 0 0 128 128 128 255
-1.00997 -0.47398 5.35899 0 0 0 128 128 128 255
-0.350526 1.76468 5.54293 0 0 0 128 128 128 255
-0.35005 1.76975 5.54311 0 0 0 128 128 128 255
-0.874802 0.00489821 5.39699 0 0 0 128 128 128 255
-0.882222 -0.0168011 5.39497 0 0 0 128 128 128 255
-0.871308 0.0236502 5.39806 0 0 0 128 128 128 255
-0.879098 0.00415577 5.39599 0 0 0 128 128 128 255
-0.349702 1.80203 5.54366 0 0 0 128 128 128 255
-0.323358 1.89823 5.55111 0 0 0 128 128 128 255
-0.966738 -0.251452 5.37214 0 0 0 128 128 128 255
-0.970405 -0.263882 5.37112 0 0 0 128 128 128 255
-0.976697 -0.281757 5.36942 0 0 0 128 128 128 255
-0.84982 0.162114 5.40499 0 0 0 128 128 128 255
-0.955125 -0.191372 5.37568 0 0 0 128 128 128 255
-0.976846 -0.264996 5.36962 0 0 0 128 128 128 255
-0.954364 -0.185343 5.37594 0 0 0 128 128 128 255
-1.07256 -0.585973 5.34298 0 0 0 128 128 128 255
-0.947768 -0.156072 5.37787 0 0 0 128 128 128 255
-0.851074 0.18549 5.40503 0 0 0 128 128 128 255
-1.04966 -0.487645 5.34965 0 0 0 128 128 128 255
-0.850964 0.192768 5.40515 0 0 0 128 128 128 255
-0.958135 -0.160132 5.37541 0 0 0 128 128 128 255
-0.960956 -0.169694 5.37462 0 0 0 128 128 128 255
-0.913907 0.00358413 5.38793 0 0 0 128 128 128 255
-1.0525 -0.462728 5.34933 0 0 0 128 128 128 255
-0.909848 0.0242493 5.38915 0 0 0 128 128 128 255
-0.993629 -0.25973 5.36579 0 0 0 128 128 128 255
-1.08954 -0.584823 5.33904 0 0 0 128 128 128 255
-0.933016 -0.030116 5.38301 0 0 0 128 128 128 255
-1.09183 -0.568433 5.33872 0 0 0 128 128 128 255
-0.974261 -0.156115 5.37169 0 0 0 128 128 128 255
-1.00309 -0.240043 5.36383 0 0 0 128 128 128 255
-0.885521 0.172275 5.39679 0 0 0 128 128 128 255
-0.928852 0.0323054 5.3848 0 0 0 128 128 128 255
-0.941887 0.00192257 5.38134 0 0 0 128 128 128 255
-1.08965 -0.478226 5.34039 0 0 0 128 128 128 255
-1.02485 -0.255148 5.35851 0 0 0 128 128 128 255
-0.388628 1.90827 5.53601 0 0 0 128 128 128 255
-0.947448 0.0141176 5.38018 0 0 0 128 128 128 255
-1.10062 -0.505076 5.33746 0 0 0 128 128 128 255
-0.896446 0.200782 5.39457 0 0 0 128 128 128 255
-1.04787 -0.291795 5.35259 0 0 0 128 128 128 255
-0.910102 0.182088 5.39109 0 0 0 128 128 128 255
-0.972219 -0.0146663 5.37394 0 0 0 128 128 128 255
-1.05016 -0.275405 5.35224 0 0 0 128 128 128 255
-1.05109 -0.275112 5.35202 0 0 0 128 128 128 255
-1.11823 -0.502678 5.3333 0 0 0 128 128 128 255
-0.918311 0.1784 5.38909 0 0 0 128 128 128 255
-0.973036 -0.0070951 5.37383 0 0 0 128 128 128 255
-1.03092 -0.189507 5.35785 0 0 0 128 128 128 255
-1.02762 -0.174872 5.35881 0 0 0 128 128 128 255
-1.0499 -0.250409 5.3526 0 0 0 128 128 128 255
-1.1193 -0.485623 5.33325 0 0 0 128 128 128 255
-1.04218 -0.217313 5.35483 0 0 0 128 128 128 255
-0.927167 0.17596 5.38694 0 0 0 128 128 128 255
-1.14043 -0.546896 5.32747 0 0 0 128 128 128 255
-1.14982 -0.575288 5.32489 0 0 0 128 128 128 255
-0.932215 0.169188 5.38565 0 0 0 128 128 128 255
-1.15281 -0.578527 5.32414 0 0 0 128 128 128 255
-0.736811 0.834967 5.44018 0 0 0 128 128 128 255
-1.03298 -0.15856 5.35771 0 0 0 128 128 128 255
-1.03653 -0.163711 5.3568 0 0 0 128 128 128 255
-1.12443 -0.454754 5.33236 0 0 0 128 128 128 255
-1.12499 -0.456666 5.33221 0 0 0 128 128 128 255
-0.9341 0.193814 5.38548 0 0 0 128 128 128 255
-1.03904 -0.161877 5.35622 0 0 0 128 128 128 255
-1.12835 -0.457701 5.33139 0 0 0 128 128 128 255
-0.696157 1.01757 5.45202 0 0 0 128 128 128 255
-1.00775 -0.0317039 5.36521 0 0 0 128 128 128 255
-1.00831 -0.0336161 5.36505 0 0 0 128 128 128 255
-0.751133 0.841562 5.4368 0 0 0 128 128 128 255
-1.00543 -0.00317497 5.36608 0 0 0 128 128 128 255
-1.14535 -0.477429 5.32706 0 0 0 128 128 128 255
-0.772312 0.79389 5.43116 0 0 0 128 128 128 255
-0.999477 0.0273443 5.36785 0 0 0 128 128 128 255
-0.550807 1.56535 5.49314 0 0 0 128 128 128 255
-1.00373 0.037042 5.36692 0 0 0 128 128 128 255
-1.07019 -0.181333 5.34845 0 0 0 128 128 128 255
-0.554214 1.57792 5.49244 0 0 0 128 128 128 255
-1.02583 -0.010337 5.36104 0 0 0 128 128 128 255
-1.02529 0.0156157 5.36143 0 0 0 128 128 128 255
-0.56311 1.58908 5.49038 0 0 0 128 128 128 255
-1.09457 -0.21232 5.34218 0 0 0 128 128 128 255
-1.10255 -0.235932 5.33999 0 0 0 128 128 128 255
-0.985167 0.17227 5.37282 0 0 0 128 128 128 255
-0.805526 0.794943 5.42305 0 0 0 128 128 128 255
-0.747829 1.00772 5.4393 0 0 0 128 128 128 255
-1.12253 -0.258899 5.33485 0 0 0 128 128 128 255
-0.740544 1.04618 5.44146 0 0 0 128 128 128 255
-0.994225 0.189754 5.37076 0 0 0 128 128 128 255
-1.1048 -0.18506 5.33992 0 0 0 128 128 128 255
-1.22446 -0.57687 5.30668 0 0 0 128 128 128 255
-1.13935 -0.284949 5.33045 0 0 0 128 128 128 255
-1.06468 -0.0284061 5.3513 0 0 0 128 128 128 255
-1.00843 0.169148 5.36705 0 0 0 128 128 128 255
-1.05175 0.0291778 5.35503 0 0 0 128 128 128 255
-1.22842 -0.566216 5.3058 0 0 0 128 128 128 255
-1.00658 0.192603 5.36772 0 0 0 128 128 128 255
-0.777407 0.976282 5.43169 0 0 0 128 128 128 255
-1.13715 -0.239658 5.3314 0 0 0 128 128 128 255
-0.832013 0.798066 5.41652 0 0 0 128 128 128 255
-0.780755 0.975248 5.43085 0 0 0 128 128 128 255
-1.22364 -0.52592 5.30735 0 0 0 128 128 128 255
-0.840441 0.779821 5.41426 0 0 0 128 128 128 255
-1.1557 -0.281884 5.32641 0 0 0 128 128 128 255
-1.23795 -0.553804 5.30353 0 0 0 128 128 128 255
-1.08877 -0.0343962 5.34525 0 0 0 128 128 128 255
-1.12617 -0.154286 5.33488 0 0 0 128 128 128 255
-1.08845 -0.0230005 5.34543 0 0 0 128 128 128 255
-1.15539 -0.246449 5.32679 0 0 0 128 128 128 255
-1.14681 -0.210485 5.32924 0 0 0 128 128 128 255
-1.24429 -0.534037 5.30211 0 0 0 128 128 128 255
-1.08866 -0.00307689 5.34554 0 0 0 128 128 128 255
-1.16584 -0.257786 5.32407 0 0 0 128 128 128 255
-1.08637 0.0150124 5.34626 0 0 0 128 128 128 255
-1.22375 -0.450636 5.30795 0 0 0 128 128 128 255
-1.08718 0.022584 5.34612 0 0 0 128 128 128 255
-0.756611 1.1568 5.43841 0 0 0 128 128 128 255
-0.842367 0.86613 5.41449 0 0 0 128 128 128 255
-1.17805 -0.271698 5.32089 0 0 0 128 128 128 255
-0.867554 0.784193 5.4075 0 0 0 128 128 128 255
-0.844786 0.864803 5.41388 0 0 0 128 128 128 255
-1.15674 -0.182268 5.32697 0 0 0 128 128 128 255
-1.24709 -0.485078 5.3018 0 0 0 128 128 128 255
-0.677631 1.44857 5.46062 0 0 0 128 128 128 255
-1.10951 -0.0153111 5.34019 0 0 0 128 128 128 255
-1.1868 -0.277298 5.31863 0 0 0 128 128 128 255
-1.10846 -0.00832496 5.34051 0 0 0 128 128 128 255
-1.15457 -0.147416 5.32778 0 0 0 128 128 128 255
-0.746465 1.23931 5.44161 0 0 0 128 128 128 255
-0.882715 0.777481 5.40361 0 0 0 128 128 128 255
-1.19064 -0.259365 5.3178 0 0 0 128 128 128 255
-0.554969 1.90214 5.49511 0 0 0 128 128 128 255
-0.623799 1.66883 5.47591 0 0 0 128 128 128 255
-1.28461 -0.564164 5.29169 0 0 0 128 128 128 255
-1.07019 0.172955 5.35156 0 0 0 128 128 128 255
-0.836134 0.969728 5.41685 0 0 0 128 128 128 255
-0.758358 1.23679 5.43856 0 0 0 128 128 128 255
-1.16287 -0.134341 5.32576 0 0 0 128 128 128 255
-1.26338 -0.471573 5.29776 0 0 0 128 128 128 255
-1.13313 -0.0266671 5.33411 0 0 0 128 128 128 255
-0.75747 1.2501 5.43888 0 0 0 128 128 128 255
-0.594222 1.80687 5.48443 0 0 0 128 128 128 255
-0.874619 0.856453 5.40624 0 0 0 128 128 128 255
-1.29473 -0.564105 5.28911 0 0 0 128 128 128 255
-1.25633 -0.423627 5.29989 0 0 0 128 128 128 255
-1.07615 0.190518 5.35016 0 0 0 128 128 128 255
-1.18955 -0.193857 5.31854 0 0 0 128 128 128 255
-1.25528 -0.416642 5.30021 0 0 0 128 128 128 255
-1.20064 -0.227986 5.31547 0 0 0 128 128 128 255
-0.767102 1.25523 5.43646 0 0 0 128 128 128 255
-1.25766 -0.407528 5.29966 0 0 0 128 128 128 255
-0.886506 0.853936 5.40318 0 0 0 128 128 128 255
-0.637219 1.70234 5.47272 0 0 0 128 128 128 255
-0.891825 0.846209 5.40177 0 0 0 128 128 128 255
-0.917011 0.764272 5.39477 0 0 0 128 128 128 255
-1.20652 -0.213584 5.31406 0 0 0 128 128 128 255
-0.809696 1.13489 5.42474 0 0 0 128 128 128 255
-1.14083 0.0228024 5.33246 0 0 0 128 128 128 255
-0.923699 0.762205 5.39303 0 0 0 128 128 128 255
-0.767742 1.30456 5.43661 0 0 0 128 128 128 255
-0.776967 1.29389 5.43416 0 0 0 128 128 128 255
-1.16146 -0.00935525 5.32695 0 0 0 128 128 128 255
-1.16633 -0.0224489 5.32561 0 0 0 128 128 128 255
-1.26543 -0.354898 5.298 0 0 0 128 128 128 255
-1.26397 -0.339678 5.29846 0 0 0 128 128 128 255
-1.27667 -0.382705 5.29492 0 0 0 128 128 128 255
-1.2649 -0.339385 5.29822 0 0 0 128 128 128 255
-0.949196 0.740995 5.38632 0 0 0 128 128 128 255
-0.949435 0.750479 5.38631 0 0 0 128 128 128 255
-0.839015 1.13162 5.41714 0 0 0 128 128 128 255
-1.29881 -0.40288 5.28905 0 0 0 128 128 128 255
-1.26089 -0.267476 5.29966 0 0 0 128 128 128 255
-0.728463 1.54407 5.44817 0 0 0 128 128 128 255
-0.805473 1.28304 5.4267 0 0 0 128 128 128 255
-0.850687 1.13322 5.4141 0 0 0 128 128 128 255
-0.881153 1.02995 5.40561 0 0 0 128 128 128 255
-0.726646 1.55709 5.44871 0 0 0 128 128 128 255
-1.1337 0.177352 5.3352 0 0 0 128 128 128 255
-1.29945 -0.37759 5.28902 0 0 0 128 128 128 255
-1.18867 0.00134143 5.31993 0 0 0 128 128 128 255
-1.19769 -0.0292554 5.31741 0 0 0 128 128 128 255
-0.726962 1.56973 5.4487 0 0 0 128 128 128 255
-0.699195 1.67072 5.45647 0 0 0 128 128 128 255
-1.36029 -0.56324 5.27216 0 0 0 128 128 128 255
-1.19232 0.0129525 5.31903 0 0 0 128 128 128 255
-0.78417 1.41011 5.43291 0 0 0 128 128 128 255
-1.19569 0.0255204 5.3182 0 0 0 128 128 128 255
-0.987385 0.738443 5.37632 0 0 0 128 128 128 255
-1.19557 0.0327984 5.31827 0 0 0 128 128 128 255
-1.25009 -0.148578 5.30308 0 0 0 128 128 128 255
-0.967188 0.824049 5.38203 0 0 0 128 128 128 255
-0.79378 1.41525 5.4304 0 0 0 128 128 128 255
-1.26995 -0.198746 5.29762 0 0 0 128 128 128 255
-1.25508 -0.144909 5.30178 0 0 0 128 128 128 255
-0.831455 1.2944 5.41993 0 0 0 128 128 128 255
-0.966294 0.837357 5.38232 0 0 0 128 128 128 255
-1.16009 0.180477 5.32828 0 0 0 128 128 128 255
-1.26398 -0.168228 5.29933 0 0 0 128 128 128 255
-1.15714 0.197317 5.32913 0 0 0 128 128 128 255
-0.922475 1.00644 5.39463 0 0 0 128 128 128 255
-0.974256 0.837788 5.38022 0 0 0 128 128 128 255
-1.21306 0.0352009 5.31365 0 0 0 128 128 128 255
-1.22332 0.017542 5.31086 0 0 0 128 128 128 255
-1.27748 -0.16604 5.29575 0 0 0 128 128 128 255
-0.96275 0.904193 5.38353 0 0 0 128 128 128 255
-1.38145 -0.511584 5.26679 0 0 0 128 128 128 255
-1.27498 -0.143833 5.29651 0 0 0 128 128 128 255
-0.966447 0.905364 5.38255 0 0 0 128 128 128 255
-1.24136 -0.0196107 5.30592 0 0 0 128 128 128 255
-0.775017 1.57136 5.436 0 0 0 128 128 128 255
-0.840695 1.35901 5.41772 0 0 0 128 128 128 255
-1.04416 0.672785 5.36099 0 0 0 128 128 128 255
-1.04452 0.67499 5.3609 0 0 0 128 128 128 255
-1.31999 -0.251897 5.28411 0 0 0 128 128 128 255
-1.23629 0.0352431 5.30746 0 0 0 128 128 128 255
-0.84583 1.36901 5.41638 0 0 0 128 128 128 255
-0.758176 1.66953 5.44083 0 0 0 128 128 128 255
-0.812773 1.49132 5.42563 0 0 0 128 128 128 255
-0.903042 1.18535 5.40045 0 0 0 128 128 128 255
-0.762667 1.67827 5.43965 0 0 0 128 128 128 255
-0.9858 0.921954 5.37743 0 0 0 128 128 128 255
-0.802469 1.55706 5.42859 0 0 0 128 128 128 255
-1.3974 -0.459479 5.26269 0 0 0 128 128 128 255
-0.8017 1.56309 5.42882 0 0 0 128 128 128 255
-1.25699 0.0198491 5.30186 0 0 0 128 128 128 255
-1.25812 0.0160245 5.30154 0 0 0 128 128 128 255
-0.948899 1.07441 5.3878 0 0 0 128 128 128 255
-1.31562 -0.168592 5.28554 0 0 0 128 128 128 255
-1.03566 0.787196 5.36362 0 0 0 128 128 128 255
-1.00865 0.882148 5.37116 0 0 0 128 128 128 255
-1.02276 0.83434 5.36723 0 0 0 128 128 128 255
-0.807035 1.56896 5.42739 0 0 0 128 128 128 255
-0.877276 1.33088 5.40781 0 0 0 128 128 128 255
-1.31987 -0.169332 5.28439 0 0 0 128 128 128 255
-0.818679 1.53292 5.42415 0 0 0 128 128 128 255
-1.03589 0.79668 5.36358 0 0 0 128 128 128 255
-1.40212 -0.441252 5.26147 0 0 0 128 128 128 255
-1.31772 -0.144921 5.28503 0 0 0 128 128 128 255
-0.865402 1.39508 5.41118 0 0 0 128 128 128 255
-1.04122 0.802554 5.36215 0 0 0 128 128 128 255
-1.32987 -0.172434 5.28167 0 0 0 128 128 128 255
-1.33185 -0.179127 5.28112 0 0 0 128 128 128 255
-1.36373 -0.287173 5.27223 0 0 0 128 128 128 255
-0.864502 1.40839 5.41145 0 0 0 128 128 128 255
-1.2265 0.184799 5.31051 0 0 0 128 128 128 255
-1.04435 0.805638 5.36131 0 0 0 128 128 128 255
-0.889635 1.33689 5.40447 0 0 0 128 128 128 255
-0.832446 1.53415 5.42043 0 0 0 128 128 128 255
-0.837242 1.5179 5.41909 0 0 0 128 128 128 255
-1.35629 -0.241432 5.27435 0 0 0 128 128 128 255
-1.23373 0.180819 5.30854 0 0 0 128 128 128 255
-1.44615 -0.539168 5.24931 0 0 0 128 128 128 255
-1.05186 0.800702 5.35926 0 0 0 128 128 128 255
-1.23437 0.182068 5.30837 0 0 0 128 128 128 255
-1.00144 0.975015 5.37333 0 0 0 128 128 128 255
-1.00237 0.975309 5.37308 0 0 0 128 128 128 255
-1.03227 0.873956 5.36474 0 0 0 128 128 128 255
-0.894965 1.34277 5.40303 0 0 0 128 128 128 255
-1.42642 -0.458635 5.25483 0 0 0 128 128 128 255
-1.44709 -0.525274 5.24908 0 0 0 128 128 128 255
-1.34408 -0.165836 5.27782 0 0 0 128 128 128 255
-0.964176 1.12527 5.38376 0 0 0 128 128 128 255
-1.42624 -0.440917 5.25492 0 0 0 128 128 128 255
-1.06157 0.798557 5.35661 0 0 0 128 128 128 255
-1.33802 -0.138478 5.27952 0 0 0 128 128 128 255
-0.810429 1.68402 5.4267 0 0 0 128 128 128 255
-0.974117 1.13261 5.38105 0 0 0 128 128 128 255
-1.35945 -0.173502 5.2736 0 0 0 128 128 128 255
-1.37899 -0.236316 5.26816 0 0 0 128 128 128 255
-1.37822 -0.230287 5.26838 0 0 0 128 128 128 255
-1.03528 0.935563 5.36402 0 0 0 128 128 128 255
-1.31575 -0.0116966 5.28581 0 0 0 128 128 128 255
-1.48279 -0.55054 5.23926 0 0 0 128 128 128 255
-1.3312 -0.016202 5.28155 0 0 0 128 128 128 255
-1.36956 -0.146239 5.27085 0 0 0 128 128 128 255
-1.31978 0.0293223 5.28474 0 0 0 128 128 128 255
-0.90885 1.42561 5.39933 0 0 0 128 128 128 255
-1.38293 -0.160816 5.26714 0 0 0 128 128 128 255
-1.37913 -0.141106 5.26821 0 0 0 128 128 128 255
-1.50163 -0.552917 5.23405 0 0 0 128 128 128 255
-1.43683 -0.32984 5.25212 0 0 0 128 128 128 255
-1.33495 0.0393749 5.28053 0 0 0 128 128 128 255
-1.49039 -0.487468 5.23719 0 0 0 128 128 128 255
-1.05745 0.983395 5.35792 0 0 0 128 128 128 255
-1.35288 -0.0145405 5.27554 0 0 0 128 128 128 255
-0.896887 1.53789 5.40269 0 0 0 128 128 128 255
-0.945407 1.37343 5.38916 0 0 0 128 128 128 255
-0.991387 1.21758 5.37634 0 0 0 128 128 128 255
-0.853388 1.69558 5.41482 0 0 0 128 128 128 255
-0.853461 1.69874 5.4148 0 0 0 128 128 128 255
-0.942319 1.39755 5.39002 0 0 0 128 128 128 255
-1.11483 0.819659 5.34192 0 0 0 128 128 128 255
-1.07576 0.958888 5.35281 0 0 0 128 128 128 255
-1.35419 0.0151604 5.27517 0 0 0 128 128 128 255
-0.903632 1.55258 5.4008 0 0 0 128 128 128 255
-1.00576 1.22006 5.37232 0 0 0 128 128 128 255
