ply
format ascii 1.0
comment VCGLIB generated
element vertex 118
property float x
property float y
property float z
property float nx
property float ny
property float nz
property uchar red
property uchar green
property uchar blue
property uchar alpha
element face 0
property list uchar int vertex_indices
end_header
-1.12948 -0.485288 5.06793 0 0 0 128 128 0 255
-1.14028 -0.466546 5.06717 0 0 0 128 128 0 255
-1.14205 -0.564482 5.03155 0 0 0 128 128 0 255
-1.15922 -0.493741 5.04479 0 0 0 128 128 0 255
-1.16728 -0.560428 5.01584 0 0 0 128 128 0 255
-1.17481 -0.52051 5.02479 0 0 0 128 128 0 255
-1.19123 -0.383667 5.0614 0 0 0 128 128 0 255
-1.19757 -0.392101 5.05416 0 0 0 128 128 0 255
-1.20488 -0.266934 5.09225 0 0 0 128 128 0 255
-1.20144 -0.399987 5.0488 0 0 0 128 128 0 255
-1.20861 -0.387484 5.04825 0 0 0 128 128 0 255
-1.2408 -0.438065 5.0087 0 0 0 128 128 0 255
-1.2401 -0.535466 4.97498 0 0 0 128 128 0 255
-1.2411 -0.531529 4.97569 0 0 0 128 128 0 255
-1.24812 -0.442551 5.00213 0 0 0 128 128 0 255
-1.25388 -0.444454 4.99753 0 0 0 128 128 0 255
-1.26079 -0.267376 5.05401 0 0 0 128 128 0 255
-1.25758 -0.435347 4.99817 0 0 0 128 128 0 255
-1.26089 -0.456548 4.9885 0 0 0 128 128 0 255
-1.26462 -0.546596 4.95425 0 0 0 128 128 0 255
-1.26539 -0.528542 4.96011 0 0 0 128 128 0 255
-1.27965 -0.506399 4.95814 0 0 0 128 128 0 255
-1.28917 -0.266562 5.03489 0 0 0 128 128 0 255
-1.29011 -0.263566 5.03526 0 0 0 128 128 0 255
-1.29063 -0.272007 5.03202 0 0 0 128 128 0 255
-1.2806 -0.543061 4.94454 0 0 0 128 128 0 255
-1.30368 -0.0195189 5.1082 0 0 0 128 128 0 255
-1.29929 -0.534362 4.93478 0 0 0 128 128 0 255
-1.30599 -0.433162 4.96575 0 0 0 128 128 0 255
-1.30836 -0.415764 4.9702 0 0 0 128 128 0 255
-1.31098 -0.433297 4.96228 0 0 0 128 128 0 255
-1.31524 -0.550643 4.91805 0 0 0 128 128 0 255
-1.32511 -0.494287 4.93116 0 0 0 128 128 0 255
-1.34489 -0.0337086 5.07528 0 0 0 128 128 0 255
-1.34524 -0.168377 5.02985 0 0 0 128 128 0 255
-1.34845 -0.262599 4.99557 0 0 0 128 128 0 255
-1.35838 -0.150117 5.027 0 0 0 128 128 0 255
-1.3611 -0.143984 5.0272 0 0 0 128 128 0 255
-1.35032 -0.508117 4.90891 0 0 0 128 128 0 255
-1.36692 -0.143979 5.0232 0 0 0 128 128 0 255
-1.36128 -0.424153 4.93084 0 0 0 128 128 0 255
-1.36329 -0.535256 4.89035 0 0 0 128 128 0 255
-1.36852 -0.450373 4.91667 0 0 0 128 128 0 255
-1.38498 -0.0300159 5.04898 0 0 0 128 128 0 255
-1.37599 -0.430256 4.91855 0 0 0 128 128 0 255
-1.38292 -0.423451 4.91614 0 0 0 128 128 0 255
-1.39998 -0.328949 4.93721 0 0 0 128 128 0 255
-1.39949 -0.484971 4.88308 0 0 0 128 128 0 255
-1.42188 -0.0211267 5.02652 0 0 0 128 128 0 255
-1.40817 -0.495821 4.87324 0 0 0 128 128 0 255
-1.4169 -0.425447 4.89193 0 0 0 128 128 0 255
-1.4416 -0.0283375 5.01052 0 0 0 128 128 0 255
-1.44764 0.162745 5.06926 0 0 0 128 128 0 255
-1.4432 -0.0299721 5.00886 0 0 0 128 128 0 255
-1.44579 -0.21636 4.94419 0 0 0 128 128 0 255
-1.44638 -0.200157 4.94931 0 0 0 128 128 0 255
-1.44958 -0.134233 4.96945 0 0 0 128 128 0 255
-1.45436 -0.140089 4.96417 0 0 0 128 128 0 255
-1.45458 -0.157113 4.95825 0 0 0 128 128 0 255
-1.44032 -0.539618 4.8354 0 0 0 128 128 0 255
-1.44562 -0.413169 4.8763 0 0 0 128 128 0 255
-1.46156 -0.0279036 4.99686 0 0 0 128 128 0 255
-1.44963 -0.456908 4.85817 0 0 0 128 128 0 255
-1.44831 -0.508107 4.84102 0 0 0 128 128 0 255
-1.46201 -0.204222 4.93709 0 0 0 128 128 0 255
-1.45317 -0.451604 4.85757 0 0 0 128 128 0 255
-1.46993 -0.302326 4.89793 0 0 0 128 128 0 255
-1.4865 0.155814 5.04016 0 0 0 128 128 0 255
-1.4758 -0.322171 4.88699 0 0 0 128 128 0 255
-1.46954 -0.515939 4.82347 0 0 0 128 128 0 255
-1.48818 -0.0263729 4.97892 0 0 0 128 128 0 255
-1.48768 -0.293721 4.88855 0 0 0 128 128 0 255
-1.50408 0.188208 5.03853 0 0 0 128 128 0 255
-1.49284 -0.474339 4.82192 0 0 0 128 128 0 255
-1.52731 0.159694 5.01315 0 0 0 128 128 0 255
-1.52428 0.0109158 4.96628 0 0 0 128 128 0 255
-1.50537 -0.587363 4.773 0 0 0 128 128 0 255
-1.50579 -0.577868 4.7761 0 0 0 128 128 0 255
-1.51893 -0.4247 4.82117 0 0 0 128 128 0 255
-1.53524 0.0165281 4.96051 0 0 0 128 128 0 255
-1.54028 0.0696115 4.97459 0 0 0 128 128 0 255
-1.53179 -0.414074 4.81591 0 0 0 128 128 0 255
-1.53009 -0.58987 4.75479 0 0 0 128 128 0 255
-1.55411 -0.0145254 4.93703 0 0 0 128 128 0 255
-1.56514 0.14883 4.9833 0 0 0 128 128 0 255
-1.55326 -0.494549 4.7725 0 0 0 128 128 0 255
-1.57437 -0.00357819 4.92656 0 0 0 128 128 0 255
-1.58424 0.150098 4.9704 0 0 0 128 128 0 255
-1.5971 0.219783 4.98412 0 0 0 128 128 0 255
-1.59746 0.176068 4.96966 0 0 0 128 128 0 255
-1.58215 -0.590658 4.71793 0 0 0 128 128 0 255
-1.59122 -0.417437 4.77306 0 0 0 128 128 0 255
-1.62261 0.185959 4.95532 0 0 0 128 128 0 255
-1.62275 0.163153 4.94778 0 0 0 128 128 0 255
-1.60434 -0.536999 4.72149 0 0 0 128 128 0 255
-1.62758 0.0280533 4.89986 0 0 0 128 128 0 255
-1.63545 0.0160732 4.89035 0 0 0 128 128 0 255
-1.63939 -0.014595 4.87735 0 0 0 128 128 0 255
-1.62407 -0.462005 4.73421 0 0 0 128 128 0 255
-1.66353 0.343232 4.97742 0 0 0 128 128 0 255
-1.66454 0.290048 4.95966 0 0 0 128 128 0 255
-1.65813 0.0265045 4.8779 0 0 0 128 128 0 255
-1.66311 0.184153 4.92636 0 0 0 128 128 0 255
-1.66844 0.168868 4.91763 0 0 0 128 128 0 255
-1.67039 0.178707 4.91947 0 0 0 128 128 0 255
-1.68733 0.462602 4.9986 0 0 0 128 128 0 255
-1.69821 0.467285 4.99245 0 0 0 128 128 0 255
-1.70879 0.460467 4.98288 0 0 0 128 128 0 255
-1.71325 0.258204 4.91518 0 0 0 128 128 0 255
-1.72588 0.325084 4.92783 0 0 0 128 128 0 255
-1.73937 0.275915 4.9025 0 0 0 128 128 0 255
-1.75319 0.240161 4.88117 0 0 0 128 128 0 255
-1.77552 0.518443 4.95414 0 0 0 128 128 0 255
-1.77865 0.51133 4.94971 0 0 0 128 128 0 255
-1.77994 0.431396 4.9236 0 0 0 128 128 0 255
-1.80734 0.437927 4.9063 0 0 0 128 128 0 255
-1.87779 0.111939 4.7506 0 0 0 128 128 0 255
-1.90162 0.216751 4.76805 0 0 0 128 128 0 255
