ply
format ascii 1.0
comment VCGLIB generated
element vertex 1009
property float x
property float y
property float z
property float nx
property float ny
property float nz
property uchar red
property uchar green
property uchar blue
property uchar alpha
element face 0
property list uchar int vertex_indices
end_header
-0.69921 -0.542366 3.48722 0 0 0 81 107 100 255
-0.518371 -0.554351 3.57211 0 0 0 110 126 126 255
-0.500203 -0.563864 3.6078 0 0 0 109 115 115 255
-0.496133 -0.528108 3.60959 0 0 0 79 94 89 255
-0.516185 -0.519167 3.57934 0 0 0 112 124 122 255
-0.495084 -0.487485 3.59842 0 0 0 85 106 104 255
-0.516376 -0.477349 3.57795 0 0 0 60 84 79 255
-0.487512 -0.462056 3.59885 0 0 0 154 161 161 255
-0.503271 -0.453478 3.5853 0 0 0 117 142 131 255
-0.530576 -0.443155 3.56878 0 0 0 145 153 148 255
-0.635352 -0.427909 3.50174 0 0 0 128 159 139 255
-0.763715 -0.409821 3.49137 0 0 0 120 151 124 255
-0.624709 -0.398084 3.50563 0 0 0 135 159 151 255
-0.699059 -0.37746 3.4889 0 0 0 110 127 126 255
-0.760298 -0.366291 3.49069 0 0 0 159 160 160 255
-0.544522 -0.329657 3.54667 0 0 0 137 146 137 255
-0.755468 -0.313983 3.4899 0 0 0 78 126 87 255
-0.581633 -0.29489 3.52672 0 0 0 139 151 133 255
-0.540072 -0.281198 3.54861 0 0 0 132 148 111 255
-0.499361 -0.278822 3.58285 0 0 0 126 142 115 255
-0.667039 -0.243551 3.49804 0 0 0 41 86 111 255
-0.587927 -0.246528 3.52586 0 0 0 55 110 139 255
-0.620585 -0.225118 3.50941 0 0 0 112 129 82 255
-0.560081 -0.219305 3.53237 0 0 0 129 143 115 255
-0.5824 -0.199289 3.52269 0 0 0 10 64 109 255
-0.553909 -0.200595 3.53654 0 0 0 64 83 51 255
-0.515485 -0.194709 3.56967 0 0 0 81 111 85 255
-0.780619 -0.153907 3.50117 0 0 0 93 83 90 255
-0.58379 -0.157369 3.52188 0 0 0 97 85 23 255
-0.747706 -0.152125 3.49723 0 0 0 97 89 103 255
-0.663049 -0.152795 3.49989 0 0 0 91 80 27 255
-0.552214 -0.0367294 3.53622 0 0 0 96 137 123 255
-0.626822 -0.032755 3.51474 0 0 0 105 130 112 255
-0.588775 -0.0221447 3.52523 0 0 0 111 122 120 255
-0.568681 -0.0248802 3.53456 0 0 0 101 115 110 255
-0.551251 -0.013542 3.53525 0 0 0 149 156 154 255
-0.625219 -0.00940162 3.51677 0 0 0 131 145 137 255
-0.425882 -0.00799194 3.85252 0 0 0 82 112 95 255
0.195616 0.0696519 4.25157 0 0 0 45 41 40 255
0.236913 0.0711679 4.25163 0 0 0 46 44 43 255
0.216111 0.0811179 4.25335 0 0 0 143 144 150 255
0.130877 0.103615 4.22202 0 0 0 124 93 88 255
0.171065 0.104544 4.2838 0 0 0 135 80 83 255
0.218151 0.140784 4.21366 0 0 0 75 58 62 255
0.0466012 0.179124 4.29787 0 0 0 97 97 99 255
0.326008 0.181012 4.31135 0 0 0 72 75 74 255
0.0522086 0.20841 4.29813 0 0 0 154 154 154 255
0.222778 0.278061 4.27922 0 0 0 236 236 238 255
0.357853 0.303082 4.3121 0 0 0 127 129 129 255
0.0147945 0.316951 4.31559 0 0 0 74 69 69 255
0.226761 0.315244 4.27294 0 0 0 196 193 194 255
-0.422926 0.302878 3.86705 0 0 0 124 130 135 255
0.113799 0.395977 4.12742 0 0 0 128 128 128 255
0.145905 0.395773 4.12291 0 0 0 77 72 71 255
0.246838 0.393285 4.10714 0 0 0 138 132 125 255
0.184727 0.4137 4.10878 0 0 0 67 48 44 255
0.228436 0.40893 4.10402 0 0 0 115 77 33 255
0.289448 0.40938 4.10716 0 0 0 93 96 102 255
0.235703 0.423943 4.09919 0 0 0 140 119 91 255
-0.0494987 0.467496 4.27997 0 0 0 99 99 99 255
2.13411 0.710571 6.11987 0 0 0 124 116 110 255
-0.504744 0.42015 3.58188 0 0 0 111 106 119 255
0.266455 0.482005 4.09288 0 0 0 115 117 121 255
0.347754 0.481357 4.12045 0 0 0 97 110 115 255
-0.54852 0.423629 3.56153 0 0 0 72 88 129 255
-0.521369 0.418011 3.57366 0 0 0 97 102 126 255
0.307412 0.486686 4.11183 0 0 0 123 128 128 255
-0.645751 0.423923 3.52355 0 0 0 102 114 142 255
-0.627308 0.426075 3.52954 0 0 0 101 102 109 255
0.0513175 0.499563 4.12293 0 0 0 114 122 126 255
0.0876146 0.492192 4.10645 0 0 0 104 109 115 255
0.153836 0.486588 4.08459 0 0 0 105 110 112 255
0.16531 0.49359 4.08584 0 0 0 137 141 144 255
0.27219 0.488469 4.09504 0 0 0 144 146 146 255
-0.792697 0.430493 3.53279 0 0 0 121 124 112 255
-0.700117 0.429065 3.52262 0 0 0 124 126 124 255
-0.673152 0.427676 3.52227 0 0 0 82 96 123 255
-0.582928 0.429633 3.54139 0 0 0 123 121 133 255
0.0344122 0.505338 4.13276 0 0 0 35 40 39 255
0.323645 0.501394 4.11125 0 0 0 88 86 86 255
-0.756635 0.429432 3.5269 0 0 0 102 110 127 255
-0.725521 0.43263 3.52482 0 0 0 119 122 127 255
-0.616124 0.435236 3.53215 0 0 0 118 108 96 255
0.258647 0.502253 4.09112 0 0 0 75 54 43 255
-0.800879 0.440348 3.53379 0 0 0 88 105 140 255
-0.777112 0.437283 3.52976 0 0 0 143 135 90 255
-0.794601 0.445781 3.53555 0 0 0 132 126 96 255
-0.702282 0.444906 3.52416 0 0 0 25 52 101 255
-0.591473 0.447931 3.53469 0 0 0 19 58 102 255
-0.572668 0.443823 3.5469 0 0 0 84 72 52 255
-0.546684 0.449716 3.55919 0 0 0 151 129 96 255
-0.526973 0.445247 3.57119 0 0 0 89 77 75 255
0.033513 0.519653 4.13301 0 0 0 41 44 44 255
0.345855 0.520047 4.11814 0 0 0 54 48 41 255
-0.738014 0.450773 3.52447 0 0 0 37 43 75 255
-0.723708 0.449848 3.52317 0 0 0 144 134 102 255
-0.63751 0.454164 3.52316 0 0 0 74 60 52 255
-0.611861 0.448724 3.53208 0 0 0 77 57 29 255
-0.572948 0.459433 3.54623 0 0 0 140 121 93 255
-0.790805 0.464445 3.53352 0 0 0 102 107 107 255
-0.698812 0.464272 3.52078 0 0 0 125 129 136 255
-0.625581 0.460792 3.52908 0 0 0 135 116 88 255
0.0646549 0.540972 4.11411 0 0 0 52 46 48 255
-0.737693 0.465016 3.52359 0 0 0 123 119 106 255
-0.648046 0.464136 3.52119 0 0 0 124 107 89 255
0.155111 0.543996 4.08409 0 0 0 93 80 73 255
-0.835161 0.475563 3.54951 0 0 0 95 114 139 255
-0.469019 0.483611 3.62763 0 0 0 32 94 135 255
2.12915 0.815459 6.10818 0 0 0 108 99 93 255
0.0335786 0.559835 4.13073 0 0 0 44 49 47 255
0.325101 0.561857 4.1094 0 0 0 99 97 93 255
-0.53186 0.490981 3.57112 0 0 0 89 126 159 255
-0.557594 0.497149 3.56096 0 0 0 10 82 131 255
-0.828414 0.49509 3.54927 0 0 0 60 94 123 255
-0.80946 0.497601 3.54612 0 0 0 88 116 142 255
-0.632785 0.493163 3.52963 0 0 0 50 110 161 255
-0.614615 0.494726 3.53315 0 0 0 8 80 129 255
-0.597372 0.494787 3.53455 0 0 0 60 116 161 255
-0.419109 0.525914 3.73322 0 0 0 45 90 124 255
-0.0485357 0.622404 4.28496 0 0 0 86 87 84 255
0.0386603 0.577012 4.12866 0 0 0 42 44 46 255
0.155927 0.574959 4.08233 0 0 0 54 49 45 255
-0.481335 0.512107 3.61299 0 0 0 53 63 79 255
-0.471276 0.516635 3.62076 0 0 0 155 159 169 255
-0.45184 0.515467 3.64074 0 0 0 97 101 114 255
0.112023 0.580157 4.09471 0 0 0 50 44 41 255
0.255814 0.579781 4.09111 0 0 0 46 54 57 255
-0.532251 0.513171 3.57327 0 0 0 51 81 116 255
-0.0455858 0.624024 4.28155 0 0 0 72 73 71 255
0.0143746 0.601814 4.17875 0 0 0 96 102 103 255
0.214792 0.584712 4.07441 0 0 0 84 84 86 255
0.356647 0.588537 4.11965 0 0 0 141 148 148 255
-0.581246 0.513274 3.54684 0 0 0 37 100 134 255
-0.561076 0.5191 3.56069 0 0 0 156 165 174 255
-0.469911 0.519871 3.62122 0 0 0 157 160 170 255
0.0509018 0.597636 4.12033 0 0 0 113 118 116 255
0.272177 0.59392 4.09577 0 0 0 101 110 112 255
0.307664 0.593797 4.10679 0 0 0 146 149 150 255
0.0877592 0.601064 4.09906 0 0 0 121 120 120 255
0.200001 0.593751 4.0725 0 0 0 143 152 154 255
-0.589732 0.526739 3.54187 0 0 0 123 168 188 255
-0.415157 0.556996 3.77126 0 0 0 35 69 107 255
-0.414413 0.559604 3.79795 0 0 0 22 74 118 255
0.129413 0.602269 4.08599 0 0 0 138 137 135 255
-0.602883 0.531387 3.53593 0 0 0 63 93 102 255
-0.548472 0.533262 3.56463 0 0 0 161 166 168 255
-0.524572 0.533365 3.57567 0 0 0 139 148 161 255
-0.495652 0.538236 3.60026 0 0 0 158 162 166 255
-0.511774 0.542085 3.58767 0 0 0 91 99 108 255
-0.602049 0.54183 3.53611 0 0 0 45 90 106 255
-0.571848 0.539721 3.55146 0 0 0 63 98 123 255
-0.470886 0.551589 3.61717 0 0 0 74 78 109 255
-0.54242 0.55077 3.56543 0 0 0 118 125 134 255
-0.503311 0.555688 3.59527 0 0 0 26 66 116 255
-0.580249 0.553276 3.54718 0 0 0 130 171 188 255
-0.563327 0.553313 3.55584 0 0 0 28 106 148 255
-0.658564 0.558872 3.52641 0 0 0 133 154 149 255
-0.477483 0.578235 3.6164 0 0 0 81 118 145 255
-0.423175 0.586392 3.69967 0 0 0 64 100 136 255
-0.679863 0.568613 3.52529 0 0 0 118 136 127 255
-0.589492 0.569066 3.5413 0 0 0 61 101 125 255
-0.463172 0.585418 3.62677 0 0 0 65 90 118 255
1.07681 0.596656 3.59227 0 0 0 110 131 127 255
-0.700526 0.589088 3.5241 0 0 0 97 115 128 255
1.1913 0.5915 3.50577 0 0 0 54 59 52 255
1.02052 0.621316 3.64232 0 0 0 117 133 119 255
1.11143 0.600229 3.54557 0 0 0 77 108 98 255
0.221137 0.716264 4.09055 0 0 0 112 88 64 255
1.0962 0.616121 3.53624 0 0 0 87 79 64 255
-0.499884 0.635026 3.59761 0 0 0 157 164 171 255
0.143875 0.722301 4.09398 0 0 0 107 97 81 255
1.18638 0.620184 3.5104 0 0 0 153 156 158 255
1.03604 0.636222 3.58138 0 0 0 124 122 112 255
-0.802907 0.638044 3.54585 0 0 0 133 147 161 255
1.08331 0.635365 3.53003 0 0 0 152 116 95 255
-0.772314 0.640819 3.54831 0 0 0 121 131 157 255
-0.635478 0.641375 3.53494 0 0 0 140 158 185 255
0.199781 0.744994 4.09053 0 0 0 111 97 80 255
1.0155 0.6464 3.58102 0 0 0 90 102 89 255
1.3033 0.631287 3.47013 0 0 0 127 129 117 255
1.30671 0.629812 3.46701 0 0 0 127 129 117 255
-0.822848 0.657754 3.56364 0 0 0 31 53 98 255
-0.754822 0.656856 3.53575 0 0 0 52 65 81 255
-0.538858 0.667321 3.57651 0 0 0 115 115 116 255
-0.415109 0.697453 3.79018 0 0 0 96 116 144 255
1.11485 0.645331 3.48669 0 0 0 98 89 90 255
1.15383 0.643027 3.48021 0 0 0 98 89 97 255
-0.698978 0.667281 3.52647 0 0 0 160 164 167 255
-0.592703 0.672344 3.55187 0 0 0 92 92 96 255
-0.417128 0.717576 3.76647 0 0 0 120 121 125 255
1.05782 0.679692 3.50415 0 0 0 128 107 97 255
-0.878741 0.700179 3.60756 0 0 0 98 99 103 255
1.07078 0.678656 3.48935 0 0 0 151 149 152 255
-0.535552 0.702343 3.57544 0 0 0 122 121 124 255
-0.433218 0.72099 3.66049 0 0 0 134 136 138 255
-0.864815 0.711729 3.59438 0 0 0 148 150 154 255
-0.69612 0.697128 3.52583 0 0 0 164 165 166 255
1.11317 0.681393 3.44887 0 0 0 88 74 80 255
-0.590094 0.709534 3.55068 0 0 0 95 98 102 255
-0.497446 0.72616 3.61157 0 0 0 162 164 166 255
1.07338 0.690859 3.4776 0 0 0 91 94 101 255
1.35598 0.687253 3.42495 0 0 0 102 94 74 255
-0.804189 0.721541 3.56361 0 0 0 88 89 96 255
-0.414844 0.747527 3.75608 0 0 0 120 121 122 255
1.1021 0.693492 3.4502 0 0 0 128 140 146 255
-0.487119 0.733045 3.62932 0 0 0 55 72 107 255
-0.473742 0.747298 3.63318 0 0 0 114 126 149 255
-0.432698 0.759228 3.66492 0 0 0 118 124 131 255
0.955763 0.728473 3.54654 0 0 0 90 82 77 255
-0.884548 0.753185 3.60211 0 0 0 138 149 153 255
-0.699483 0.738823 3.53096 0 0 0 129 141 150 255
1.09657 0.713919 3.44125 0 0 0 137 134 135 255
-0.810124 0.757278 3.56471 0 0 0 112 121 125 255
-0.635692 0.745293 3.53595 0 0 0 164 166 179 255
-0.413221 0.783351 3.73497 0 0 0 112 116 120 255
-0.883576 0.760873 3.60059 0 0 0 148 154 155 255
-0.546745 0.763256 3.56626 0 0 0 167 169 170 255
-0.574619 0.767124 3.55962 0 0 0 155 165 178 255
-0.50462 0.784744 3.60318 0 0 0 106 106 110 255
-0.43217 0.798786 3.66386 0 0 0 88 94 110 255
0.761741 1.13101 5.18902 0 0 0 152 149 143 255
0.773686 1.08601 4.95022 0 0 0 131 125 122 255
-0.510044 0.786157 3.59528 0 0 0 83 89 99 255
-0.764785 0.780973 3.55133 0 0 0 123 124 134 255
-0.742227 0.778948 3.53324 0 0 0 107 112 121 255
-0.667642 0.78131 3.53617 0 0 0 128 146 176 255
-0.42029 0.813144 3.68993 0 0 0 154 157 170 255
0.90355 0.79206 3.58367 0 0 0 150 127 103 255
-0.818652 0.79108 3.56604 0 0 0 89 95 99 255
0.941927 0.7821 3.50696 0 0 0 77 78 89 255
-0.461793 0.819603 3.64665 0 0 0 88 93 96 255
0.923884 0.789622 3.51557 0 0 0 141 139 130 255
1.14384 0.758043 3.38511 0 0 0 157 155 156 255
1.15594 0.757687 3.38049 0 0 0 125 120 121 255
1.25724 0.767493 3.40712 0 0 0 134 90 80 255
1.28838 0.764209 3.39456 0 0 0 70 66 55 255
0.767767 1.11481 4.86562 0 0 0 81 78 78 255
-0.61236 0.808685 3.54397 0 0 0 74 80 102 255
0.94468 0.798058 3.49736 0 0 0 146 142 141 255
1.3268 0.766797 3.38885 0 0 0 94 109 108 255
-0.769916 0.81359 3.54401 0 0 0 120 126 131 255
-0.624643 0.814775 3.54331 0 0 0 73 83 93 255
-0.504231 0.826576 3.59882 0 0 0 133 136 141 255
-0.447035 0.836398 3.65433 0 0 0 164 164 170 255
1.16998 0.772274 3.36622 0 0 0 123 105 88 255
1.2948 0.776787 3.38308 0 0 0 127 137 120 255
-0.509439 0.833584 3.59752 0 0 0 84 89 97 255
0.205557 0.949114 4.1054 0 0 0 105 106 103 255
-0.456823 0.849009 3.64846 0 0 0 69 73 102 255
1.29061 0.783121 3.37844 0 0 0 131 121 97 255
1.37129 0.78807 3.39326 0 0 0 124 123 123 255
-0.754477 0.82759 3.53807 0 0 0 106 110 129 255
1.24634 0.791424 3.36301 0 0 0 118 104 105 255
1.36151 0.798783 3.3926 0 0 0 88 92 85 255
-0.896664 0.862315 3.62875 0 0 0 101 117 145 255
1.15075 0.801204 3.36357 0 0 0 79 64 60 255
1.31388 0.80004 3.36704 0 0 0 131 140 142 255
-0.612085 0.85185 3.54404 0 0 0 147 147 147 255
-0.484841 0.866158 3.61995 0 0 0 157 159 161 255
-0.623889 0.86204 3.54368 0 0 0 81 87 94 255
-0.501742 0.870483 3.59696 0 0 0 152 153 156 255
-0.864652 0.890579 3.59488 0 0 0 74 78 92 255
-0.809521 0.873616 3.56271 0 0 0 75 83 100 255
0.975972 0.835649 3.44344 0 0 0 102 97 96 255
1.06378 0.824692 3.39437 0 0 0 114 77 81 255
1.36713 0.818103 3.38492 0 0 0 139 135 134 255
0.891951 0.860384 3.51682 0 0 0 71 107 122 255
-0.54248 0.88168 3.56942 0 0 0 166 166 166 255
-0.681829 0.88384 3.53714 0 0 0 43 69 114 255
-0.570305 0.884887 3.56427 0 0 0 168 172 172 255
-0.570596 0.893778 3.56366 0 0 0 168 169 169 255
-0.692419 0.90064 3.53677 0 0 0 165 173 175 255
0.946832 0.872898 3.45312 0 0 0 47 46 65 255
1.2214 0.842484 3.33474 0 0 0 132 115 102 255
0.90773 0.883228 3.48679 0 0 0 61 72 80 255
-0.680575 0.911988 3.53694 0 0 0 123 128 138 255
-0.664372 0.918204 3.53808 0 0 0 153 155 167 255
-0.446571 0.950823 3.65951 0 0 0 117 147 169 255
-0.586611 0.929878 3.55497 0 0 0 103 119 143 255
-0.458464 0.967604 3.6598 0 0 0 27 106 144 255
1.23907 0.875036 3.32408 0 0 0 120 123 122 255
-0.808735 0.953224 3.56611 0 0 0 78 82 107 255
1.29389 0.888 3.32532 0 0 0 69 63 59 255
0.938455 0.927216 3.46021 0 0 0 134 128 115 255
-0.825778 0.966014 3.57405 0 0 0 158 160 161 255
-0.534584 0.975119 3.58761 0 0 0 49 108 152 255
1.21978 0.913559 3.32742 0 0 0 123 116 116 255
1.16435 0.922827 3.34217 0 0 0 98 87 84 255
1.10813 0.935392 3.3542 0 0 0 117 97 81 255
-0.620243 0.991047 3.54954 0 0 0 64 115 150 255
-0.453047 1.026 3.66544 0 0 0 29 89 132 255
-0.536898 1.00611 3.58647 0 0 0 79 109 136 255
1.22873 0.934611 3.32888 0 0 0 134 131 132 255
-0.490608 1.02282 3.60702 0 0 0 7 112 153 255
-0.416258 1.04041 3.68008 0 0 0 96 127 146 255
1.06036 0.955773 3.37501 0 0 0 99 92 86 255
1.19167 0.946296 3.33123 0 0 0 85 78 80 255
-0.465145 1.04598 3.66216 0 0 0 111 143 163 255
0.231867 1.18336 4.10546 0 0 0 104 103 107 255
-0.42091 1.06427 3.68285 0 0 0 118 125 134 255
1.16876 0.971998 3.34552 0 0 0 93 103 111 255
-0.614774 1.05348 3.54627 0 0 0 67 109 132 255
-0.793706 1.07047 3.5604 0 0 0 68 135 176 255
0.888295 1.09235 3.67916 0 0 0 104 113 113 255
-0.632127 1.06554 3.54498 0 0 0 79 131 177 255
-0.831053 1.08039 3.5709 0 0 0 25 89 129 255
-0.625691 1.08319 3.54539 0 0 0 75 85 111 255
-0.833368 1.09221 3.57129 0 0 0 52 101 138 255
-0.645073 1.08912 3.54323 0 0 0 159 167 170 255
-0.697088 1.09116 3.53845 0 0 0 122 110 126 255
-0.771849 1.10208 3.54786 0 0 0 103 107 121 255
1.0309 1.0597 3.40117 0 0 0 62 81 91 255
1.28663 1.03544 3.33948 0 0 0 92 81 87 255
1.3238 1.03454 3.33043 0 0 0 105 103 103 255
1.29578 1.06769 3.3371 0 0 0 86 81 83 255
1.29628 1.07342 3.33894 0 0 0 79 73 81 255
1.27297 1.08854 3.34307 0 0 0 95 103 112 255
-0.452097 1.20766 3.64747 0 0 0 95 135 171 255
1.25277 1.10843 3.34498 0 0 0 68 74 83 255
1.3092 1.11491 3.35021 0 0 0 85 80 82 255
-0.813212 1.20121 3.5549 0 0 0 82 133 166 255
-0.4503 1.23346 3.65415 0 0 0 161 164 173 255
-0.778382 1.20318 3.5534 0 0 0 63 121 167 255
-0.506763 1.21624 3.60146 0 0 0 129 158 181 255
-0.506368 1.23604 3.60142 0 0 0 167 169 172 255
-0.536866 1.24459 3.59777 0 0 0 86 126 155 255
-0.813295 1.24119 3.55151 0 0 0 110 122 134 255
1.33372 1.17805 3.40497 0 0 0 46 65 84 255
-0.779949 1.24573 3.54501 0 0 0 111 131 145 255
1.31705 1.1997 3.42663 0 0 0 123 134 142 255
1.33595 1.19992 3.42653 0 0 0 125 129 134 255
-0.658924 -0.820862 3.49336 0 0 0 142 149 149 255
-0.726506 -0.744036 3.48151 0 0 0 106 32 37 255
-0.696505 -0.746509 3.48575 0 0 0 111 41 51 255
-0.650664 -0.740677 3.49547 0 0 0 113 49 55 255
-0.640688 -0.73514 3.49961 0 0 0 123 51 59 255
-0.603723 -0.736976 3.51913 0 0 0 159 158 158 255
-0.682088 -0.720832 3.48825 0 0 0 134 63 70 255
-0.544033 -0.731443 3.55615 0 0 0 128 130 132 255
-0.688249 -0.697343 3.48671 0 0 0 139 50 55 255
-0.575595 -0.701838 3.53755 0 0 0 132 39 50 255
-0.599981 -0.687908 3.51918 0 0 0 163 153 154 255
-0.757629 -0.59949 3.48853 0 0 0 100 119 104 255
-0.638141 -0.607906 3.50228 0 0 0 158 160 154 255
-0.642893 -0.586418 3.50054 0 0 0 154 163 163 255
-0.615716 -0.572082 3.50964 0 0 0 158 162 161 255
-0.537013 -0.589398 3.55528 0 0 0 34 91 63 255
-0.557619 -0.576792 3.54821 0 0 0 139 161 147 255
-0.622419 -0.566796 3.50625 0 0 0 156 160 159 255
-0.704182 -0.542481 3.48555 0 0 0 92 117 112 255
-0.493817 -0.507815 3.60573 0 0 0 157 161 162 255
-0.634595 -0.430374 3.50203 0 0 0 108 140 119 255
-0.504853 -0.276157 3.57656 0 0 0 129 134 113 255
-0.560348 -0.225647 3.5327 0 0 0 119 140 94 255
-0.707152 -0.169154 3.49365 0 0 0 72 111 63 255
-0.662878 -0.15241 3.49999 0 0 0 91 80 27 255
-0.632194 -0.152369 3.50186 0 0 0 96 90 38 255
-0.703412 -0.0974552 3.49655 0 0 0 77 107 83 255
-0.623807 -0.027871 3.5148 0 0 0 135 149 136 255
0.18244 0.0737654 4.25867 0 0 0 43 40 41 255
0.0586545 0.0793674 4.30575 0 0 0 106 103 104 255
0.0453444 0.172804 4.29822 0 0 0 140 140 142 255
0.107805 0.423978 4.12455 0 0 0 120 100 76 255
0.426785 0.442737 4.29842 0 0 0 62 67 70 255
0.422914 0.488279 4.28615 0 0 0 82 84 88 255
0.0137596 0.498195 4.17748 0 0 0 99 108 110 255
0.259735 0.480636 4.09286 0 0 0 110 112 116 255
2.13049 0.718854 6.11759 0 0 0 116 108 102 255
0.0876671 0.497296 4.10547 0 0 0 125 131 135 255
0.224662 0.490659 4.07861 0 0 0 60 67 72 255
-0.700796 0.428167 3.52315 0 0 0 124 126 124 255
0.238682 0.503292 4.08046 0 0 0 136 142 142 255
-0.583831 0.458543 3.5404 0 0 0 136 116 98 255
-0.843811 0.475475 3.55756 0 0 0 86 113 142 255
0.0656684 0.543773 4.11407 0 0 0 52 46 48 255
-0.417951 0.520531 3.79951 0 0 0 55 92 119 255
0.0373117 0.571984 4.13039 0 0 0 45 48 47 255
0.1137 0.58004 4.09282 0 0 0 41 47 52 255
0.249444 0.572623 4.08049 0 0 0 54 49 49 255
0.32918 0.572969 4.10943 0 0 0 44 41 38 255
0.156687 0.585065 4.08209 0 0 0 48 46 44 255
0.303996 0.594696 4.1061 0 0 0 132 132 132 255
-0.61993 0.521336 3.53141 0 0 0 125 150 152 255
-0.562841 0.519042 3.55872 0 0 0 156 165 174 255
0.219318 0.598423 4.07346 0 0 0 74 68 68 255
0.254869 0.598819 4.09021 0 0 0 143 146 152 255
-0.509702 0.554734 3.58732 0 0 0 35 79 126 255
-0.639086 0.559361 3.5285 0 0 0 43 99 91 255
-0.615747 0.55862 3.53179 0 0 0 159 164 162 255
-0.431922 0.592846 3.66675 0 0 0 103 128 147 255
1.11193 0.602847 3.54275 0 0 0 110 135 119 255
0.149852 0.723501 4.09381 0 0 0 112 97 73 255
-0.506185 0.640312 3.59651 0 0 0 163 168 170 255
-0.799443 0.637531 3.54494 0 0 0 133 147 161 255
-0.414321 0.677166 3.82195 0 0 0 22 69 113 255
0.149261 0.728616 4.09256 0 0 0 112 97 73 255
-0.636441 0.644233 3.53461 0 0 0 140 158 185 255
1.30477 0.633667 3.46696 0 0 0 126 130 118 255
1.14772 0.642193 3.47991 0 0 0 108 85 90 255
-0.539459 0.6692 3.57076 0 0 0 90 94 106 255
-0.422338 0.699555 3.76098 0 0 0 150 155 164 255
1.07748 0.655237 3.50502 0 0 0 103 81 75 255
-0.701636 0.669 3.52675 0 0 0 160 164 167 255
-0.588516 0.675811 3.55104 0 0 0 78 82 99 255
1.04409 0.668014 3.5285 0 0 0 137 132 133 255
-0.452715 0.705132 3.65245 0 0 0 57 80 125 255
-0.697623 0.692771 3.52564 0 0 0 164 166 168 255
-0.855556 0.725716 3.58258 0 0 0 54 57 83 255
0.927494 0.737672 3.59722 0 0 0 126 125 111 255
-0.63583 0.73901 3.53553 0 0 0 164 166 180 255
-0.47792 0.74674 3.63114 0 0 0 153 163 173 255
0.941639 0.735982 3.54845 0 0 0 107 52 50 255
-0.706774 0.745351 3.53167 0 0 0 165 170 168 255
1.09663 0.718614 3.43899 0 0 0 153 154 153 255
-0.818164 0.786105 3.56551 0 0 0 99 105 108 255
-0.585693 0.777611 3.5581 0 0 0 168 173 172 255
-0.462206 0.80455 3.64668 0 0 0 76 78 89 255
-0.668397 0.783806 3.53584 0 0 0 128 146 176 255
0.903207 0.795429 3.57007 0 0 0 133 130 109 255
1.3541 0.764755 3.39624 0 0 0 36 72 60 255
-0.447507 0.829574 3.65501 0 0 0 164 165 174 255
0.712063 1.28478 5.65661 0 0 0 126 125 119 255
-0.476856 0.859323 3.63751 0 0 0 164 168 169 255
1.25278 0.792634 3.35599 0 0 0 78 79 73 255
-0.61122 0.854972 3.54465 0 0 0 92 96 111 255
-0.866394 0.892285 3.59587 0 0 0 120 125 126 255
-0.801128 0.88001 3.56032 0 0 0 50 67 106 255
-0.538123 0.87599 3.57041 0 0 0 170 172 171 255
-0.584618 0.895484 3.56041 0 0 0 167 170 169 255
-0.809204 0.909104 3.56449 0 0 0 65 78 103 255
-0.705332 0.901895 3.53406 0 0 0 169 171 171 255
-0.620012 0.905837 3.54342 0 0 0 128 128 130 255
-0.680765 0.913432 3.53723 0 0 0 92 97 114 255
-0.710494 0.92621 3.53515 0 0 0 168 168 168 255
-0.524386 0.950094 3.58978 0 0 0 153 160 169 255
-0.780971 0.951233 3.55535 0 0 0 162 164 164 255
-0.416767 1.04631 3.68139 0 0 0 125 137 144 255
-0.606035 1.04991 3.54716 0 0 0 20 119 157 255
0.858768 1.09453 3.70668 0 0 0 50 60 60 255
-0.631072 1.05842 3.5449 0 0 0 151 161 170 255
-0.655402 1.05622 3.54335 0 0 0 33 96 141 255
-0.737669 1.08045 3.54294 0 0 0 27 92 136 255
0.253234 1.32817 4.26512 0 0 0 185 190 195 255
0.269681 1.32654 4.2629 0 0 0 213 216 225 255
1.27417 1.03773 3.34329 0 0 0 81 78 88 255
-0.768634 1.11386 3.54415 0 0 0 85 93 112 255
-0.718629 1.13194 3.5404 0 0 0 163 166 168 255
1.27834 1.07208 3.34279 0 0 0 99 107 111 255
-0.628382 1.14185 3.54443 0 0 0 87 111 134 255
1.29523 1.07803 3.34102 0 0 0 80 74 82 255
-0.786909 1.16657 3.55611 0 0 0 129 134 137 255
1.25585 1.10104 3.34518 0 0 0 65 66 71 255
-0.506662 1.22675 3.60303 0 0 0 168 168 170 255
1.32927 1.14171 3.36355 0 0 0 145 150 151 255
-0.545172 1.24171 3.59496 0 0 0 75 123 153 255
1.31992 1.20829 3.43035 0 0 0 140 149 149 255
1.31781 1.19578 3.42407 0 0 0 123 134 142 255
-0.661997 -0.819217 3.49491 0 0 0 150 152 152 255
-0.556793 -0.754991 3.55202 0 0 0 162 145 145 255
-0.680743 -0.716021 3.48836 0 0 0 137 77 84 255
-0.573543 -0.72831 3.54003 0 0 0 140 84 89 255
-0.702894 -0.700153 3.48332 0 0 0 126 43 53 255
-0.576414 -0.701446 3.53686 0 0 0 132 39 50 255
-0.627194 -0.691877 3.50671 0 0 0 128 80 89 255
-0.742872 -0.595809 3.49197 0 0 0 157 157 157 255
-0.688005 -0.598299 3.48931 0 0 0 161 163 162 255
-0.625811 -0.598713 3.50822 0 0 0 155 162 163 255
-0.630991 -0.575614 3.50201 0 0 0 160 165 165 255
-0.747401 -0.556469 3.4894 0 0 0 154 161 163 255
-0.501759 -0.577347 3.60664 0 0 0 156 159 158 255
-0.546768 -0.529628 3.55221 0 0 0 69 94 88 255
-0.488892 -0.468043 3.60061 0 0 0 137 142 140 255
-0.699544 -0.4467 3.48689 0 0 0 51 102 65 255
-0.530288 -0.450123 3.57006 0 0 0 138 146 139 255
-0.631656 -0.42793 3.50174 0 0 0 160 163 157 255
-0.757495 -0.422675 3.49381 0 0 0 81 106 88 255
-0.621278 -0.409823 3.50698 0 0 0 159 164 162 255
-0.676377 -0.385987 3.49229 0 0 0 158 163 163 255
-0.756609 -0.374335 3.49223 0 0 0 152 159 157 255
-0.547865 -0.326449 3.54634 0 0 0 130 142 124 255
-0.503764 -0.27601 3.5771 0 0 0 129 134 113 255
-0.598473 -0.265358 3.51926 0 0 0 19 102 140 255
-0.625389 -0.21981 3.50663 0 0 0 111 132 92 255
-0.587292 -0.208453 3.52277 0 0 0 10 69 118 255
-0.583432 -0.154581 3.52028 0 0 0 81 77 29 255
-0.506993 -0.144324 3.57748 0 0 0 165 139 53 255
-0.703197 -0.100035 3.49618 0 0 0 77 107 83 255
-0.763722 -0.0774804 3.49827 0 0 0 130 134 129 255
-0.553861 -0.0291961 3.53776 0 0 0 146 154 152 255
-0.622445 -0.0252965 3.51533 0 0 0 155 163 158 255
-0.437844 -0.0155829 3.85 0 0 0 71 108 89 255
0.0823769 0.0700986 4.30441 0 0 0 61 61 61 255
0.297452 0.0681264 4.30832 0 0 0 82 82 82 255
0.210241 0.113997 4.25314 0 0 0 151 102 105 255
0.317966 0.154991 4.315 0 0 0 70 74 77 255
0.310099 0.186123 4.31097 0 0 0 50 54 55 255
0.220402 0.231126 4.2732 0 0 0 186 184 185 255
0.297673 0.226724 4.30902 0 0 0 125 125 125 255
0.226174 0.298102 4.27672 0 0 0 254 254 254 255
0.0269283 0.321585 4.31377 0 0 0 63 63 63 255
-0.42891 0.324512 3.86684 0 0 0 41 64 106 255
0.114328 0.402055 4.12709 0 0 0 205 198 193 255
0.215357 0.400921 4.10796 0 0 0 143 109 71 255
0.109087 0.421187 4.12386 0 0 0 145 129 116 255
0.217855 0.42095 4.10247 0 0 0 167 135 93 255
0.300563 0.425622 4.11829 0 0 0 101 104 109 255
0.42896 0.446724 4.29484 0 0 0 68 72 75 255
-0.52565 0.429127 3.57086 0 0 0 155 128 98 255
0.238711 0.488228 4.08441 0 0 0 94 105 115 255
-0.791005 0.43497 3.53169 0 0 0 143 138 103 255
-0.750995 0.436366 3.52577 0 0 0 123 116 114 255
-0.692201 0.435173 3.52389 0 0 0 122 111 69 255
-0.65129 0.434468 3.52243 0 0 0 83 74 67 255
-0.627154 0.435033 3.53004 0 0 0 147 133 95 255
0.158629 0.501749 4.08449 0 0 0 140 146 146 255
0.195856 0.50252 4.07957 0 0 0 43 47 48 255
-0.725767 0.44324 3.52398 0 0 0 135 129 114 255
0.313324 0.515141 4.11072 0 0 0 139 143 144 255
-0.792232 0.463845 3.53406 0 0 0 102 107 107 255
-0.489928 0.4576 3.59811 0 0 0 32 62 109 255
0.216079 0.525754 4.07469 0 0 0 147 150 153 255
-0.416738 0.511257 3.81696 0 0 0 23 78 122 255
0.110571 0.553631 4.09354 0 0 0 45 44 39 255
-0.811307 0.489417 3.5422 0 0 0 10 68 120 255
0.251833 0.575881 4.08561 0 0 0 58 59 60 255
0.311698 0.56466 4.10905 0 0 0 143 149 150 255
0.352217 0.583761 4.12072 0 0 0 138 144 144 255
0.0151412 0.588501 4.17403 0 0 0 92 101 101 255
0.129302 0.590964 4.08662 0 0 0 117 120 121 255
0.192317 0.597252 4.07391 0 0 0 146 149 147 255
-0.6176 0.530924 3.53246 0 0 0 161 164 166 255
-0.416494 0.582932 3.8089 0 0 0 34 88 134 255
-0.616825 0.560851 3.53108 0 0 0 159 164 162 255
-0.439869 0.570821 3.65759 0 0 0 154 161 165 255
1.12278 0.60155 3.53954 0 0 0 125 137 119 255
1.20538 0.595255 3.50798 0 0 0 41 52 46 255
1.18209 0.612533 3.50647 0 0 0 140 144 146 255
-0.504742 0.641679 3.59651 0 0 0 163 168 170 255
0.147825 0.726333 4.09263 0 0 0 112 97 73 255
0.216958 0.732852 4.08719 0 0 0 121 92 61 255
-0.837858 0.655062 3.56981 0 0 0 21 59 105 255
-0.790404 0.648365 3.54543 0 0 0 160 162 161 255
-0.632941 0.647534 3.53648 0 0 0 160 163 176 255
-0.741023 0.656286 3.53595 0 0 0 30 61 108 255
1.3153 0.635506 3.46075 0 0 0 143 143 126 255
-0.429828 0.699534 3.6803 0 0 0 135 151 172 255
-0.441326 0.705066 3.65867 0 0 0 159 165 171 255
-0.705937 0.678765 3.5268 0 0 0 165 168 167 255
-0.0329463 0.850576 4.31103 0 0 0 60 60 60 255
-0.554799 0.703255 3.56709 0 0 0 105 110 125 255
-0.481291 0.717197 3.62595 0 0 0 45 66 109 255
-0.73551 0.717056 3.52631 0 0 0 60 75 98 255
-0.86621 0.735242 3.59103 0 0 0 25 57 98 255
1.35605 0.715382 3.41441 0 0 0 138 136 121 255
-0.709392 0.748509 3.53242 0 0 0 167 170 169 255
-0.653366 0.748592 3.53561 0 0 0 33 73 121 255
-0.488495 0.772918 3.63152 0 0 0 167 170 170 255
-0.812396 0.779912 3.56397 0 0 0 66 71 96 255
0.771642 1.0935 4.99732 0 0 0 138 134 129 255
-0.660604 0.786856 3.53695 0 0 0 165 171 176 255
-0.589322 0.788429 3.55757 0 0 0 170 175 173 255
-0.431782 0.818429 3.66139 0 0 0 49 62 96 255
1.35508 0.746634 3.41259 0 0 0 32 68 56 255
0.768086 1.11341 4.87493 0 0 0 111 109 107 255
-0.750733 0.828825 3.53693 0 0 0 79 86 103 255
1.34264 0.784111 3.38539 0 0 0 141 120 127 255
1.17452 0.787517 3.35736 0 0 0 161 166 174 255
1.1422 0.801086 3.36754 0 0 0 86 81 69 255
1.195 0.810408 3.34414 0 0 0 95 54 54 255
1.36347 0.812244 3.38585 0 0 0 125 122 121 255
-0.688455 0.862256 3.53432 0 0 0 41 74 116 255
-0.532815 0.881704 3.57243 0 0 0 166 171 169 255
-0.803522 0.88314 3.56168 0 0 0 51 66 106 255
-0.589615 0.883536 3.55969 0 0 0 171 174 174 255
1.1524 0.827112 3.35304 0 0 0 134 131 132 255
-0.649567 0.910065 3.53787 0 0 0 168 170 170 255
1.06512 0.875131 3.38342 0 0 0 97 96 97 255
-0.707177 0.92328 3.53422 0 0 0 167 169 168 255
-0.445966 0.95444 3.66092 0 0 0 117 147 169 255
-0.745415 0.933604 3.54838 0 0 0 69 77 97 255
-0.836567 0.954667 3.57912 0 0 0 159 162 162 255
-0.520585 0.990075 3.58824 0 0 0 151 158 165 255
1.09078 0.937038 3.36241 0 0 0 105 74 55 255
-0.615696 1.00152 3.54989 0 0 0 148 163 178 255
-0.434627 1.04233 3.67614 0 0 0 147 159 159 255
-0.629347 1.04619 3.54463 0 0 0 128 144 161 255
-0.592111 1.04347 3.54667 0 0 0 17 115 155 255
0.861486 1.0951 3.70528 0 0 0 50 60 60 255
1.17033 0.986932 3.34167 0 0 0 86 75 77 255
-0.807164 1.08255 3.56196 0 0 0 99 140 170 255
-0.687008 1.07054 3.54061 0 0 0 92 130 159 255
-0.426413 1.10617 3.68391 0 0 0 159 154 140 255
-0.787952 1.16246 3.55712 0 0 0 133 139 143 255
-0.685276 1.16356 3.5368 0 0 0 135 139 149 255
1.25349 1.09928 3.34505 0 0 0 65 66 71 255
-0.814274 1.21741 3.557 0 0 0 100 130 154 255
1.33467 1.14195 3.36296 0 0 0 148 152 153 255
-0.667737 -0.819053 3.49268 0 0 0 143 143 143 255
-0.70034 -0.70839 3.48278 0 0 0 131 41 47 255
-0.576958 -0.719712 3.53764 0 0 0 131 61 67 255
-0.668735 -0.699256 3.49271 0 0 0 167 142 146 255
-0.537333 -0.67312 3.55898 0 0 0 136 137 134 255
-0.704811 -0.590472 3.48172 0 0 0 158 163 160 255
-0.626152 -0.576088 3.5068 0 0 0 158 164 163 255
-0.710436 -0.442723 3.48568 0 0 0 48 98 65 255
-0.487946 -0.477594 3.60093 0 0 0 124 144 143 255
-0.75145 -0.385658 3.49437 0 0 0 155 159 158 255
-0.503811 -0.268456 3.57707 0 0 0 124 134 109 255
-0.597143 -0.208467 3.51842 0 0 0 14 72 120 255
-0.765564 -0.172073 3.50141 0 0 0 134 144 127 255
-0.649468 -0.160286 3.50156 0 0 0 123 112 56 255
-0.51546 -0.131727 3.57413 0 0 0 160 128 41 255
0.0663963 0.0795089 4.30433 0 0 0 70 67 68 255
0.29543 0.0801309 4.30885 0 0 0 55 55 55 255
-0.462755 0.112613 3.82298 0 0 0 172 170 170 255
0.0490369 0.219482 4.3016 0 0 0 153 153 153 255
0.149512 0.227278 4.24118 0 0 0 114 116 120 255
0.217979 0.220179 4.24812 0 0 0 99 98 101 255
0.033837 0.246744 4.3077 0 0 0 154 156 155 255
0.353062 0.3128 4.3109 0 0 0 63 61 60 255
0.0273076 0.316515 4.3151 0 0 0 63 63 63 255
0.0385926 0.496664 4.12923 0 0 0 60 60 58 255
2.13348 0.766738 6.11187 0 0 0 52 41 38 255
-0.454409 0.48783 3.63993 0 0 0 110 139 157 255
0.259108 0.53432 4.08747 0 0 0 43 49 49 255
0.338693 0.564301 4.10866 0 0 0 133 139 140 255
-0.840793 0.507292 3.56331 0 0 0 107 112 119 255
-0.808136 0.473848 3.53881 0 0 0 15 58 109 255
-0.693291 0.559201 3.52384 0 0 0 150 157 154 255
-0.608976 0.539797 3.53408 0 0 0 80 122 136 255
-0.450381 0.568854 3.63996 0 0 0 149 156 162 255
1.12889 0.604983 3.53107 0 0 0 131 142 120 255
1.21476 0.60151 3.51148 0 0 0 43 65 60 255
-0.83873 0.641129 3.56635 0 0 0 16 70 113 255
-0.518294 0.665268 3.59466 0 0 0 167 170 170 255
-0.413878 0.675793 3.82574 0 0 0 22 69 113 255
-0.62782 0.652578 3.53725 0 0 0 164 168 169 255
-0.611962 0.693392 3.53758 0 0 0 169 171 173 255
-0.869051 0.736142 3.59232 0 0 0 25 57 98 255
-0.710685 0.716515 3.52798 0 0 0 44 59 93 255
-0.720261 0.78183 3.53206 0 0 0 165 170 170 255
-0.412974 0.823437 3.71871 0 0 0 103 109 122 255
0.8636 0.857793 3.86185 0 0 0 111 97 100 255
-0.631094 0.869832 3.54274 0 0 0 140 151 163 255
0.942354 0.876572 3.45603 0 0 0 51 49 60 255
-0.508644 0.942742 3.59144 0 0 0 133 157 171 255
-0.823146 0.964114 3.57232 0 0 0 158 160 161 255
-0.475427 1.00965 3.65062 0 0 0 4 110 156 255
-0.472051 1.02304 3.6555 0 0 0 6 104 150 255
-0.57439 1.03639 3.54111 0 0 0 3 115 159 255
-0.798 1.08577 3.56068 0 0 0 147 151 155 255
-0.724612 1.0644 3.54119 0 0 0 24 91 137 255
-0.443652 1.13244 3.68035 0 0 0 161 146 99 255
-0.820455 1.13146 3.56572 0 0 0 149 160 171 255
1.25038 1.07528 3.3471 0 0 0 68 84 92 255
-0.732003 1.15695 3.53944 0 0 0 40 85 131 255
-0.578449 1.165 3.56221 0 0 0 173 164 128 255
-0.805246 1.2222 3.55649 0 0 0 108 137 156 255
-0.721007 -0.575141 3.48813 0 0 0 155 162 162 255
-0.509935 -0.578594 3.59138 0 0 0 153 159 157 255
-0.496372 -0.512758 3.60577 0 0 0 150 156 155 255
-0.731344 -0.404527 3.50111 0 0 0 157 162 160 255
-0.54897 -0.317058 3.54724 0 0 0 120 136 94 255
-0.658174 -0.277559 3.50653 0 0 0 132 142 120 255
-0.596809 -0.201783 3.51828 0 0 0 12 68 117 255
-0.520096 -0.163622 3.57113 0 0 0 163 141 53 255
-0.760732 -0.0830778 3.49683 0 0 0 136 133 134 255
-0.450668 -0.0248378 3.83911 0 0 0 59 104 80 255
0.0815135 0.0932534 4.30099 0 0 0 82 52 55 255
0.294097 0.0864255 4.30972 0 0 0 52 52 52 255
0.089817 0.178497 4.29077 0 0 0 41 47 52 255
0.278417 0.184192 4.29332 0 0 0 53 54 52 255
0.215721 0.289155 4.27888 0 0 0 192 194 198 255
0.355309 0.335985 4.31031 0 0 0 53 57 63 255
0.119188 0.407893 4.12444 0 0 0 171 163 157 255
0.0734306 0.521299 4.11154 0 0 0 51 54 53 255
0.321431 0.523795 4.11045 0 0 0 120 122 123 255
-0.453238 0.496357 3.64341 0 0 0 139 156 164 255
0.188964 0.569165 4.07703 0 0 0 141 149 153 255
0.279876 0.557743 4.10121 0 0 0 41 49 55 255
-0.869361 0.515794 3.59081 0 0 0 138 116 107 255
1.07211 0.577123 3.78667 0 0 0 112 115 111 255
-0.423369 0.661547 3.80776 0 0 0 36 92 129 255
0.149805 0.73083 4.09303 0 0 0 115 95 72 255
0.228645 0.730547 4.08875 0 0 0 111 92 70 255
-0.886369 0.679491 3.61809 0 0 0 150 155 153 255
-0.612885 0.686319 3.53689 0 0 0 168 171 171 255
-0.490226 0.689252 3.61309 0 0 0 109 117 124 255
0.400524 0.838638 4.2585 0 0 0 50 55 59 255
-0.875339 0.744697 3.59682 0 0 0 27 58 94 255
0.132086 0.922827 4.12231 0 0 0 130 133 131 255
0.265017 0.918469 4.11965 0 0 0 137 141 140 255
0.860298 0.875308 3.8835 0 0 0 108 103 105 255
-0.415117 0.839132 3.69519 0 0 0 38 73 113 255
-0.474008 0.848414 3.64194 0 0 0 164 168 169 255
1.12259 0.806379 3.37078 0 0 0 85 89 86 255
-0.839637 0.962153 3.58197 0 0 0 158 161 160 255
-0.797606 0.945401 3.55665 0 0 0 154 155 157 255
-0.451283 1.01665 3.66449 0 0 0 18 90 137 255
-0.613414 1.00952 3.54888 0 0 0 152 155 163 255
-0.451681 1.07359 3.67624 0 0 0 140 122 113 255
-0.62036 -0.204767 3.50869 0 0 0 72 97 70 255
-0.463869 -0.0364409 3.75843 0 0 0 52 100 72 255
-0.702077 -0.00613991 3.48645 0 0 0 26 67 39 255
0.255908 0.0924722 4.24015 0 0 0 102 50 48 255
0.0556002 0.080137 4.30531 0 0 0 106 103 104 255
0.257442 0.139296 4.18692 0 0 0 50 42 45 255
0.0157653 0.325356 4.31392 0 0 0 61 64 67 255
0.343849 0.364349 4.29154 0 0 0 52 51 56 255
-0.456291 0.351882 3.82259 0 0 0 22 69 117 255
-0.814204 0.540133 3.5539 0 0 0 157 140 91 255
-0.462027 0.653616 3.61945 0 0 0 19 72 123 255
-0.7863 0.736377 3.55291 0 0 0 161 163 168 255
0.00342995 0.846567 4.30752 0 0 0 40 45 46 255
0.344707 0.828248 4.25236 0 0 0 39 44 46 255
-0.681937 0.721184 3.52821 0 0 0 35 66 115 255
-0.682273 0.788343 3.53481 0 0 0 41 68 109 255
0.192775 0.92048 4.09322 0 0 0 138 144 147 255
-0.421541 0.861238 3.66628 0 0 0 42 78 117 255
-0.749451 -0.831333 3.48697 0 0 0 122 130 124 255
-0.790425 -0.823089 3.47825 0 0 0 81 101 87 255
-0.763228 -0.820994 3.48253 0 0 0 145 146 145 255
-0.750172 -0.820665 3.48462 0 0 0 154 155 154 255
-0.828902 -0.821151 3.47495 0 0 0 80 106 89 255
-0.741562 -0.809843 3.4881 0 0 0 107 121 119 255
-0.690946 -0.808432 3.50499 0 0 0 53 76 70 255
-0.877441 -0.812581 3.48401 0 0 0 71 89 69 255
-0.800108 -0.806019 3.47544 0 0 0 136 137 135 255
-0.766821 -0.803126 3.48181 0 0 0 72 92 80 255
-0.749103 -0.803623 3.48543 0 0 0 120 120 120 255
-0.720436 -0.81201 3.49866 0 0 0 70 80 72 255
-0.679431 -0.809612 3.51146 0 0 0 141 139 137 255
-0.93536 -0.822058 3.53284 0 0 0 81 82 74 255
-0.897534 -0.802756 3.49313 0 0 0 53 51 49 255
-0.794384 -0.794646 3.47647 0 0 0 105 122 118 255
-0.959899 -0.814511 3.54617 0 0 0 116 115 113 255
-0.832969 -0.786611 3.47241 0 0 0 101 100 92 255
-0.863888 -0.777532 3.48078 0 0 0 83 96 91 255
-0.911796 -0.784547 3.50425 0 0 0 120 125 123 255
-0.642317 -0.759136 3.52364 0 0 0 155 149 137 255
-0.770788 -0.744311 3.49005 0 0 0 99 90 88 255
-0.822475 -0.729357 3.48621 0 0 0 81 56 56 255
-0.816172 -0.726512 3.48559 0 0 0 116 64 63 255
-0.892677 -0.721731 3.50331 0 0 0 68 54 52 255
-0.769592 -0.715316 3.48585 0 0 0 169 133 136 255
-0.858699 -0.713564 3.48946 0 0 0 86 71 73 255
-0.845181 -0.712687 3.49069 0 0 0 150 148 148 255
-0.8099 -0.709668 3.48835 0 0 0 158 147 151 255
-0.791381 -0.709253 3.48831 0 0 0 93 55 58 255
-0.941405 -0.713092 3.52732 0 0 0 73 52 49 255
-0.809388 -0.687948 3.48791 0 0 0 112 57 62 255
-0.762266 -0.685037 3.48494 0 0 0 128 41 45 255
-0.915091 -0.695279 3.51479 0 0 0 120 102 105 255
-0.835033 -0.673484 3.48893 0 0 0 109 49 54 255
-0.880769 -0.671561 3.49727 0 0 0 106 81 85 255
-0.944306 -0.616414 3.5589 0 0 0 120 121 114 255
-0.806381 -0.594043 3.48547 0 0 0 135 141 134 255
-0.795079 -0.59199 3.48625 0 0 0 149 156 155 255
-0.762776 -0.585521 3.48682 0 0 0 153 154 151 255
-0.900342 -0.562097 3.52906 0 0 0 113 123 116 255
-0.759566 -0.543564 3.4816 0 0 0 151 152 145 255
-0.926447 -0.531066 3.53136 0 0 0 51 78 71 255
-0.561396 -0.374895 3.53858 0 0 0 66 117 87 255
-0.618113 -0.356299 3.50252 0 0 0 68 112 88 255
-0.463894 -0.353532 3.78242 0 0 0 122 137 87 255
-0.885707 -0.334753 3.52213 0 0 0 125 125 120 255
-0.454646 -0.340565 3.82429 0 0 0 141 139 84 255
-0.871698 -0.305544 3.51889 0 0 0 136 137 134 255
-0.55203 -0.241501 3.53844 0 0 0 64 88 82 255
-0.680619 -0.191351 3.49248 0 0 0 79 109 55 255
-0.768747 -0.184076 3.49757 0 0 0 99 126 78 255
-0.867904 -0.17117 3.53223 0 0 0 130 134 118 255
-0.925328 -0.167429 3.57657 0 0 0 50 86 62 255
-0.931678 -0.133141 3.56768 0 0 0 93 99 102 255
-0.746247 -0.0979257 3.48684 0 0 0 110 104 113 255
-0.812764 -0.0866859 3.50208 0 0 0 77 99 82 255
-0.441734 -0.0726181 3.80662 0 0 0 132 133 86 255
-0.945929 0.0301537 3.61305 0 0 0 43 82 70 255
0.316487 0.0828197 4.35905 0 0 0 83 78 78 255
0.0495429 0.0961896 4.30781 0 0 0 106 107 108 255
0.250222 0.167521 4.32242 0 0 0 107 113 112 255
0.167355 0.395169 4.14072 0 0 0 85 87 83 255
0.327935 0.41824 4.16523 0 0 0 92 100 105 255
0.434027 0.458275 4.32243 0 0 0 72 73 75 255
0.403071 0.488984 4.30968 0 0 0 71 75 82 255
-0.662046 0.452334 3.50999 0 0 0 34 55 81 255
-0.905082 0.476921 3.61876 0 0 0 91 108 132 255
-0.433197 0.500795 3.66194 0 0 0 111 75 98 255
-0.501322 0.513566 3.5926 0 0 0 52 77 110 255
-0.430765 0.524864 3.66226 0 0 0 115 91 111 255
-0.635267 0.512582 3.52064 0 0 0 66 104 99 255
-0.537978 0.515366 3.55816 0 0 0 52 82 113 255
1.35395 0.571508 3.77852 0 0 0 104 103 88 255
-0.464702 0.537248 3.6218 0 0 0 112 111 116 255
-0.405236 0.547699 3.69352 0 0 0 31 70 110 255
-0.444226 0.544824 3.64116 0 0 0 112 120 128 255
-0.428592 0.557379 3.65857 0 0 0 123 113 118 255
-0.516434 0.561703 3.56371 0 0 0 36 74 122 255
-0.484968 0.57162 3.5996 0 0 0 130 131 138 255
-0.643586 0.565733 3.51581 0 0 0 73 99 91 255
-0.624352 0.567277 3.5185 0 0 0 72 104 102 255
-0.54574 0.577439 3.54752 0 0 0 36 87 128 255
-0.909697 0.58933 3.62967 0 0 0 91 103 131 255
1.32183 0.622576 3.51785 0 0 0 59 78 71 255
1.26015 0.649015 3.6511 0 0 0 92 128 124 255
1.34259 0.642356 3.51486 0 0 0 99 98 81 255
1.06124 0.656753 3.5684 0 0 0 139 120 124 255
-0.902364 0.646747 3.61607 0 0 0 111 123 144 255
1.18328 0.668433 3.52608 0 0 0 146 150 151 255
1.19161 0.682235 3.53185 0 0 0 77 91 84 255
1.15032 0.681605 3.49387 0 0 0 108 76 73 255
-0.422838 0.716807 3.73715 0 0 0 109 112 121 255
1.33461 0.695379 3.48874 0 0 0 30 49 43 255
-0.879568 0.703735 3.58503 0 0 0 111 107 119 255
-0.419633 0.749528 3.73299 0 0 0 85 95 108 255
1.1268 0.716873 3.46972 0 0 0 91 88 97 255
1.24561 0.731925 3.51926 0 0 0 119 93 91 255
-0.879877 0.734802 3.57383 0 0 0 102 115 129 255
1.14119 0.744281 3.44263 0 0 0 123 110 113 255
1.06766 0.762679 3.45756 0 0 0 155 149 151 255
-0.880061 0.778742 3.57235 0 0 0 103 104 107 255
1.38735 0.771968 3.39218 0 0 0 136 139 111 255
1.05842 0.786889 3.44449 0 0 0 118 110 113 255
1.03477 0.794779 3.44357 0 0 0 136 111 108 255
0.46826 1.08918 4.86494 0 0 0 155 151 147 255
1.16802 0.801662 3.38824 0 0 0 150 151 157 255
0.263962 0.953787 4.12006 0 0 0 94 96 97 255
0.208164 0.96832 4.10623 0 0 0 101 107 106 255
0.468546 1.11452 4.77564 0 0 0 112 112 112 255
0.83873 0.924068 3.85452 0 0 0 174 175 171 255
-0.480206 0.890897 3.5877 0 0 0 69 95 137 255
1.35537 0.874971 3.3131 0 0 0 96 102 111 255
-0.609225 0.934464 3.53514 0 0 0 116 132 170 255
1.05075 0.922265 3.3969 0 0 0 101 100 100 255
0.940473 0.948034 3.47746 0 0 0 90 90 92 255
-0.42239 1.02764 3.66872 0 0 0 28 76 121 255
1.26431 0.947896 3.30647 0 0 0 119 104 97 255
1.10586 0.966237 3.36926 0 0 0 95 84 81 255
0.269874 1.18094 4.12778 0 0 0 96 97 98 255
1.13804 1.01652 3.35434 0 0 0 135 132 116 255
1.2328 1.0026 3.3016 0 0 0 111 86 81 255
1.33903 1.00563 3.21927 0 0 0 114 112 111 255
1.2693 1.04143 3.26986 0 0 0 134 140 143 255
1.27164 1.08852 3.25444 0 0 0 125 129 135 255
-0.46073 1.21961 3.64439 0 0 0 118 123 145 255
-0.73746 1.21273 3.50486 0 0 0 37 87 124 255
-0.713344 1.22678 3.49866 0 0 0 80 103 141 255
-0.987485 -0.896753 3.55302 0 0 0 37 73 61 255
-0.76127 -0.806437 3.48202 0 0 0 77 92 84 255
-0.797579 -0.802976 3.47782 0 0 0 137 139 139 255
-0.774534 -0.735453 3.48837 0 0 0 112 42 50 255
-0.823672 -0.727068 3.48528 0 0 0 81 56 56 255
-0.845524 -0.722427 3.48849 0 0 0 156 141 140 255
-0.765421 -0.716811 3.48565 0 0 0 167 148 150 255
-0.889385 -0.719618 3.49955 0 0 0 68 54 52 255
-0.765153 -0.687867 3.48346 0 0 0 124 37 45 255
-0.926241 -0.701075 3.53906 0 0 0 146 130 132 255
-0.806637 -0.592071 3.4859 0 0 0 143 146 139 255
-0.757305 -0.545537 3.48074 0 0 0 151 151 151 255
-0.901157 -0.550882 3.52935 0 0 0 135 134 131 255
-0.467634 -0.349934 3.80822 0 0 0 137 138 81 255
-0.663757 -0.182793 3.49255 0 0 0 152 155 132 255
-0.868896 -0.1693 3.53318 0 0 0 130 134 118 255
-0.808553 -0.0834369 3.50013 0 0 0 57 96 62 255
-0.858014 -0.0765448 3.52211 0 0 0 132 124 125 255
-0.441698 -0.0765735 3.80481 0 0 0 133 134 86 255
0.0629235 0.0598305 4.31187 0 0 0 152 154 153 255
0.301039 0.245391 4.34638 0 0 0 100 102 104 255
-0.93995 0.337918 3.6413 0 0 0 40 57 77 255
0.323382 0.484568 4.13434 0 0 0 87 85 82 255
-0.663791 0.455394 3.50979 0 0 0 34 55 81 255
0.23628 0.519577 4.09654 0 0 0 120 122 122 255
-0.871296 0.480176 3.58526 0 0 0 97 119 139 255
-0.498661 0.474608 3.58068 0 0 0 79 106 139 255
0.237519 0.554018 4.09332 0 0 0 58 52 57 255
-0.689941 0.518699 3.50935 0 0 0 138 138 123 255
-0.404811 0.545878 3.68991 0 0 0 31 70 110 255
-0.489788 0.597604 3.59586 0 0 0 50 109 151 255
1.34819 0.646268 3.51756 0 0 0 91 104 95 255
-0.88364 0.657625 3.59981 0 0 0 126 134 138 255
1.33221 0.683366 3.4925 0 0 0 37 44 39 255
1.24092 0.73104 3.51138 0 0 0 120 89 88 255
1.3625 0.82381 3.36138 0 0 0 98 91 91 255
0.839412 0.923962 3.85442 0 0 0 166 167 163 255
-0.651807 1.06433 3.52891 0 0 0 31 97 139 255
-0.877264 -0.807856 3.48376 0 0 0 94 108 90 255
-0.759449 -0.727686 3.48679 0 0 0 167 144 144 255
-0.705748 -0.692804 3.49975 0 0 0 146 83 90 255
-0.821419 -0.688471 3.48403 0 0 0 117 34 34 255
-0.956492 -0.629803 3.5578 0 0 0 52 81 44 255
-0.804905 -0.58072 3.4879 0 0 0 154 154 151 255
-0.501232 -0.576109 3.63412 0 0 0 152 158 157 255
-0.955344 -0.585192 3.55198 0 0 0 59 81 73 255
-0.901184 -0.531912 3.52819 0 0 0 139 139 139 255
-0.92034 -0.527531 3.53066 0 0 0 36 64 53 255
-0.885092 -0.485285 3.5106 0 0 0 135 140 132 255
-0.751105 -0.413108 3.49504 0 0 0 158 158 158 255
-0.46788 -0.350163 3.80932 0 0 0 137 138 81 255
-0.876736 -0.322359 3.52072 0 0 0 137 140 126 255
-0.658961 -0.23192 3.4927 0 0 0 11 86 129 255
-0.60756 -0.18762 3.50991 0 0 0 10 70 118 255
-0.936333 -0.184049 3.58949 0 0 0 56 85 45 255
-0.507749 -0.156406 3.57365 0 0 0 164 141 61 255
-0.928361 -0.0644331 3.59536 0 0 0 42 80 53 255
0.257628 0.0750907 4.30278 0 0 0 48 44 45 255
0.259524 0.171037 4.32588 0 0 0 101 107 116 255
0.301023 0.243596 4.34635 0 0 0 100 102 104 255
0.131006 0.405857 4.14274 0 0 0 125 122 114 255
-0.49225 0.486703 3.60032 0 0 0 99 140 166 255
-0.413968 0.493442 3.68045 0 0 0 86 122 150 255
0.252816 0.55753 4.10265 0 0 0 43 49 54 255
-0.849421 0.494962 3.55594 0 0 0 113 126 133 255
-0.405217 0.532583 3.71433 0 0 0 80 119 145 255
1.25843 0.66167 3.6628 0 0 0 118 146 146 255
0.242668 0.757635 4.09087 0 0 0 75 68 65 255
1.2032 0.682212 3.55331 0 0 0 62 96 84 255
-0.884958 0.712182 3.58954 0 0 0 62 64 81 255
-0.498036 0.706729 3.6024 0 0 0 165 168 167 255
1.24208 0.726811 3.52527 0 0 0 129 88 88 255
-0.623509 0.72232 3.51776 0 0 0 162 163 170 255
-0.461373 0.790465 3.64836 0 0 0 46 60 86 255
-0.419646 0.799648 3.69522 0 0 0 155 158 167 255
-0.887964 0.821211 3.58764 0 0 0 32 61 92 255
1.24122 0.81029 3.37106 0 0 0 141 142 146 255
-0.522071 0.863028 3.56051 0 0 0 167 171 169 255
-0.694638 0.860055 3.51682 0 0 0 47 70 107 255
0.827875 0.944341 3.82509 0 0 0 171 175 173 255
-0.78795 0.887969 3.52853 0 0 0 46 63 92 255
1.29156 0.897217 3.30702 0 0 0 74 64 68 255
0.42357 1.29771 4.36157 0 0 0 125 128 127 255
1.25506 1.02188 3.27535 0 0 0 92 111 121 255
1.29972 1.09538 3.25539 0 0 0 71 66 74 255
-0.797536 -0.808999 3.47809 0 0 0 146 149 147 255
-0.76422 -0.714808 3.48474 0 0 0 167 148 150 255
-0.55275 -0.514096 3.56974 0 0 0 35 85 74 255
-0.91009 -0.503343 3.52548 0 0 0 35 76 55 255
-0.618591 -0.422795 3.51591 0 0 0 161 162 166 255
-0.5618 -0.331467 3.54696 0 0 0 114 129 89 255
-0.467308 -0.35362 3.80485 0 0 0 137 138 81 255
-0.640542 -0.295027 3.49325 0 0 0 137 145 126 255
-0.94108 -0.1993 3.59527 0 0 0 50 81 50 255
-0.665448 -0.176487 3.4892 0 0 0 156 155 121 255
-0.443281 -0.0806423 3.80287 0 0 0 133 134 86 255
-0.931673 0.00362852 3.61021 0 0 0 26 54 40 255
0.160359 0.0770876 4.21895 0 0 0 52 56 70 255
0.136495 0.301077 4.24669 0 0 0 133 140 140 255
-0.931693 0.344854 3.6401 0 0 0 21 54 89 255
0.12455 0.419795 4.13977 0 0 0 140 119 104 255
0.0694316 0.497602 4.12076 0 0 0 49 59 63 255
0.417319 0.558917 4.35462 0 0 0 70 68 64 255
0.17676 0.556882 4.09464 0 0 0 143 147 149 255
-0.426143 0.503166 3.66712 0 0 0 117 90 107 255
0.231746 0.579371 4.08681 0 0 0 146 150 152 255
-0.829813 0.522345 3.54869 0 0 0 163 145 122 255
0.109244 0.607577 4.10454 0 0 0 126 125 126 255
-0.643824 0.534962 3.51667 0 0 0 41 101 92 255
-0.586904 0.553943 3.52995 0 0 0 112 152 172 255
-0.8326 0.568747 3.55291 0 0 0 161 131 97 255
1.14303 0.618857 3.56397 0 0 0 125 134 110 255
1.26021 0.663712 3.66512 0 0 0 125 149 149 255
-0.872348 0.71875 3.57951 0 0 0 46 58 84 255
-0.628767 0.724308 3.51695 0 0 0 142 138 162 255
1.25527 0.759998 3.48864 0 0 0 158 158 156 255
-0.724973 0.769107 3.52689 0 0 0 164 165 164 255
1.34382 0.8025 3.36176 0 0 0 155 147 149 255
1.38689 0.804651 3.37204 0 0 0 50 72 62 255
-0.697648 0.848371 3.5182 0 0 0 86 96 104 255
-0.724917 0.888202 3.52016 0 0 0 171 168 169 255
-0.609249 0.894233 3.53291 0 0 0 170 170 170 255
-0.511416 0.922665 3.58515 0 0 0 88 101 126 255
-0.432551 1.12144 3.6755 0 0 0 174 154 94 255
-0.782966 1.12501 3.50489 0 0 0 152 157 158 255
-0.841571 -0.72441 3.48601 0 0 0 146 145 136 255
-0.576819 -0.543853 3.56332 0 0 0 159 160 155 255
-0.512781 -0.53129 3.61054 0 0 0 156 161 159 255
-0.744367 -0.499341 3.50086 0 0 0 56 99 52 255
-0.601447 -0.492154 3.55964 0 0 0 159 161 162 255
-0.73651 -0.39114 3.49356 0 0 0 157 161 162 255
-0.857633 -0.340996 3.51075 0 0 0 147 148 147 255
-0.522449 -0.00953612 3.54673 0 0 0 42 100 68 255
-0.470419 -0.00368255 3.86958 0 0 0 88 117 107 255
0.288835 0.134429 4.34556 0 0 0 52 49 47 255
0.287587 0.173509 4.34628 0 0 0 65 69 73 255
0.104671 0.18603 4.29838 0 0 0 49 54 52 255
0.0176999 0.351915 4.30544 0 0 0 46 52 57 255
-0.458888 0.348598 3.87272 0 0 0 14 62 108 255
-0.539745 0.435156 3.55243 0 0 0 99 84 60 255
0.30252 0.545863 4.12242 0 0 0 148 148 152 255
0.0752115 0.579473 4.11586 0 0 0 59 65 64 255
-0.803955 0.523815 3.53336 0 0 0 159 142 91 255
-0.42121 0.53869 3.66752 0 0 0 158 134 144 255
1.24642 0.615912 3.60443 0 0 0 40 56 51 255
1.15488 0.622928 3.5399 0 0 0 139 144 149 255
1.34667 0.658864 3.5013 0 0 0 161 156 134 255
-0.476462 0.696374 3.62067 0 0 0 27 68 114 255
1.2631 0.695585 3.65694 0 0 0 134 152 151 255
-0.431575 0.721072 3.71325 0 0 0 156 158 158 255
-0.66599 0.727094 3.52155 0 0 0 31 69 117 255
0.350323 0.844824 4.2609 0 0 0 35 42 43 255
0.160302 0.910233 4.08883 0 0 0 128 128 128 255
0.282521 0.919443 4.14352 0 0 0 133 134 131 255
-0.887805 0.829964 3.58931 0 0 0 31 63 91 255
-0.497266 0.844666 3.59383 0 0 0 167 170 173 255
-0.614267 0.877698 3.53652 0 0 0 166 171 173 255
-0.76254 0.910142 3.52319 0 0 0 166 166 166 255
-0.46631 1.00817 3.66126 0 0 0 1 97 146 255
-0.643608 -0.259532 3.49768 0 0 0 125 141 113 255
-0.630737 -0.214268 3.49581 0 0 0 46 98 129 255
-0.521002 -0.145109 3.57469 0 0 0 167 133 44 255
