ply
format ascii 1.0
comment VCGLIB generated
element vertex 1010
property float x
property float y
property float z
property float nx
property float ny
property float nz
property uchar red
property uchar green
property uchar blue
property uchar alpha
element face 0
property list uchar int vertex_indices
end_header
-0.528135 -0.577942 3.56221 0 0 0 69 116 105 255
-0.621108 -0.558844 3.509 0 0 0 156 161 159 255
-0.699056 -0.542325 3.48701 0 0 0 81 107 100 255
-0.518263 -0.554581 3.57227 0 0 0 110 126 126 255
-0.500108 -0.563513 3.60724 0 0 0 109 115 115 255
-0.495653 -0.527337 3.608 0 0 0 79 94 89 255
-0.515856 -0.519054 3.57879 0 0 0 112 124 122 255
-0.495286 -0.487725 3.59898 0 0 0 85 106 104 255
-0.516704 -0.47806 3.57927 0 0 0 60 84 79 255
-0.487737 -0.462618 3.59988 0 0 0 154 161 161 255
-0.503224 -0.453892 3.58579 0 0 0 117 142 131 255
-0.530745 -0.443753 3.56977 0 0 0 145 153 148 255
-0.635181 -0.427947 3.50159 0 0 0 128 159 139 255
-0.76337 -0.409346 3.49043 0 0 0 120 151 124 255
-0.624385 -0.398033 3.50518 0 0 0 135 159 151 255
-0.698818 -0.377495 3.48867 0 0 0 110 127 126 255
-0.759719 -0.366022 3.48973 0 0 0 159 160 160 255
-0.545049 -0.329722 3.54743 0 0 0 137 146 137 255
-0.757808 -0.31427 3.49291 0 0 0 78 126 87 255
-0.582168 -0.294764 3.52723 0 0 0 139 151 133 255
-0.540125 -0.281396 3.54895 0 0 0 132 148 111 255
-0.49991 -0.278837 3.58361 0 0 0 126 142 115 255
-0.666412 -0.242925 3.49644 0 0 0 41 86 111 255
-0.588073 -0.246632 3.52619 0 0 0 55 110 139 255
-0.620445 -0.225107 3.50921 0 0 0 112 129 82 255
-0.560418 -0.219602 3.53324 0 0 0 129 143 115 255
-0.582673 -0.199303 3.52307 0 0 0 10 64 109 255
-0.553948 -0.200517 3.53648 0 0 0 64 83 51 255
-0.515371 -0.194297 3.56892 0 0 0 81 111 85 255
-0.780733 -0.153717 3.50105 0 0 0 93 83 90 255
-0.584113 -0.157501 3.5225 0 0 0 97 85 23 255
-0.747818 -0.152118 3.49735 0 0 0 97 89 103 255
-0.662714 -0.152801 3.49948 0 0 0 91 80 27 255
-0.55329 -0.0367075 3.53774 0 0 0 96 137 123 255
-0.626045 -0.0324845 3.51326 0 0 0 105 130 112 255
-0.588512 -0.0220645 3.52473 0 0 0 111 122 120 255
-0.569401 -0.0249 3.53563 0 0 0 101 115 110 255
-0.552098 -0.0136989 3.53674 0 0 0 149 156 154 255
-0.624123 -0.0091917 3.51491 0 0 0 131 145 137 255
-0.426128 -0.00675995 3.85074 0 0 0 82 112 95 255
0.195812 0.0696227 4.25102 0 0 0 45 41 40 255
0.236751 0.0711185 4.25234 0 0 0 46 44 43 255
0.216432 0.08139 4.2514 0 0 0 143 144 150 255
0.131457 0.103122 4.22166 0 0 0 124 93 88 255
0.174387 0.104971 4.27144 0 0 0 135 80 83 255
0.218188 0.14088 4.21322 0 0 0 75 58 62 255
0.0473996 0.179516 4.29419 0 0 0 97 97 99 255
0.325838 0.181161 4.31149 0 0 0 72 75 74 255
0.0528613 0.208488 4.29579 0 0 0 154 154 154 255
0.223094 0.279116 4.27393 0 0 0 236 236 238 255
0.357703 0.30315 4.31255 0 0 0 127 129 129 255
0.0149962 0.317507 4.31308 0 0 0 74 69 69 255
0.227099 0.316173 4.26784 0 0 0 196 193 194 255
-0.422563 0.306795 3.85964 0 0 0 124 130 135 255
0.11425 0.396005 4.12557 0 0 0 128 128 128 255
0.146161 0.395718 4.12209 0 0 0 77 72 71 255
0.246579 0.393078 4.10919 0 0 0 138 132 125 255
0.18478 0.413554 4.10914 0 0 0 67 48 44 255
0.228181 0.408697 4.10615 0 0 0 115 77 33 255
0.288641 0.409143 4.11219 0 0 0 93 96 102 255
0.235366 0.423551 4.10244 0 0 0 140 119 91 255
-0.0479432 0.468414 4.27114 0 0 0 99 99 99 255
2.13411 0.710571 6.11987 0 0 0 124 116 110 255
-0.505095 0.420293 3.58227 0 0 0 111 106 119 255
0.266162 0.481902 4.09489 0 0 0 115 117 121 255
0.347364 0.481024 4.12457 0 0 0 97 110 115 255
-0.548603 0.423766 3.56141 0 0 0 72 88 129 255
-0.521891 0.418278 3.57412 0 0 0 97 102 126 255
0.307276 0.486553 4.11327 0 0 0 123 128 128 255
-0.646328 0.42407 3.52428 0 0 0 102 114 142 255
-0.627308 0.426371 3.52898 0 0 0 101 102 109 255
0.0517077 0.499528 4.1215 0 0 0 114 122 126 255
0.0876055 0.492245 4.10628 0 0 0 104 109 115 255
0.153823 0.486476 4.08511 0 0 0 105 110 112 255
0.165406 0.493567 4.08551 0 0 0 137 141 144 255
0.27195 0.488339 4.09694 0 0 0 144 146 146 255
-0.79244 0.430644 3.53211 0 0 0 121 124 112 255
-0.700304 0.429136 3.52281 0 0 0 124 126 124 255
-0.673501 0.427807 3.52263 0 0 0 82 96 123 255
-0.583001 0.429781 3.54123 0 0 0 123 121 133 255
0.0351657 0.505444 4.12939 0 0 0 35 40 39 255
0.323373 0.501299 4.11335 0 0 0 88 86 86 255
-0.75681 0.429494 3.52708 0 0 0 102 110 127 255
-0.725264 0.432747 3.52417 0 0 0 119 122 127 255
-0.616057 0.435383 3.53174 0 0 0 118 108 96 255
0.258517 0.502048 4.0928 0 0 0 75 54 43 255
-0.800484 0.440463 3.53295 0 0 0 88 105 140 255
-0.776753 0.437319 3.52911 0 0 0 143 135 90 255
-0.794044 0.445922 3.5344 0 0 0 132 126 96 255
-0.7022 0.444891 3.52404 0 0 0 25 52 101 255
-0.591592 0.447962 3.53485 0 0 0 19 58 102 255
-0.572648 0.443833 3.54684 0 0 0 84 72 52 255
-0.546932 0.449703 3.5597 0 0 0 151 129 96 255
-0.527263 0.445299 3.57165 0 0 0 89 77 75 255
0.0342843 0.519721 4.12966 0 0 0 41 44 44 255
0.345457 0.519965 4.1211 0 0 0 54 48 41 255
-0.737895 0.450764 3.52429 0 0 0 37 43 75 255
-0.723311 0.449831 3.52253 0 0 0 144 134 102 255
-0.637579 0.454159 3.5233 0 0 0 74 60 52 255
-0.611543 0.44874 3.53146 0 0 0 77 57 29 255
-0.572914 0.459363 3.5463 0 0 0 140 121 93 255
-0.790355 0.464406 3.53286 0 0 0 102 107 107 255
-0.698816 0.464246 3.52084 0 0 0 125 129 136 255
-0.62524 0.460774 3.5285 0 0 0 135 116 88 255
0.0647476 0.540607 4.11519 0 0 0 52 46 48 255
-0.737538 0.464892 3.52356 0 0 0 123 119 106 255
-0.648108 0.464133 3.52131 0 0 0 124 107 89 255
0.154951 0.543658 4.08636 0 0 0 93 80 73 255
-0.834224 0.475662 3.54782 0 0 0 95 114 139 255
-0.468925 0.483804 3.627 0 0 0 32 94 135 255
2.12915 0.815459 6.10818 0 0 0 108 99 93 255
0.0334497 0.559455 4.13279 0 0 0 44 49 47 255
0.324762 0.561675 4.11264 0 0 0 99 97 93 255
-0.532245 0.491078 3.57168 0 0 0 89 126 159 255
-0.558004 0.497256 3.56154 0 0 0 10 82 131 255
-0.827646 0.495064 3.54806 0 0 0 60 94 123 255
-0.808671 0.497553 3.5449 0 0 0 88 116 142 255
-0.633047 0.493144 3.53015 0 0 0 50 110 161 255
-0.614982 0.494759 3.53378 0 0 0 8 80 129 255
-0.597946 0.494867 3.53547 0 0 0 60 116 161 255
-0.418265 0.525734 3.73168 0 0 0 45 90 124 255
-0.0469273 0.620906 4.28138 0 0 0 86 87 84 255
0.0388716 0.576704 4.12902 0 0 0 42 44 46 255
0.155693 0.574659 4.08488 0 0 0 54 49 45 255
-0.481546 0.512185 3.61327 0 0 0 53 63 79 255
-0.471728 0.516675 3.62165 0 0 0 155 159 169 255
-0.452438 0.515471 3.64205 0 0 0 97 101 114 255
0.112205 0.57986 4.09517 0 0 0 50 44 41 255
0.25597 0.579511 4.09166 0 0 0 46 54 57 255
-0.532398 0.51331 3.57327 0 0 0 51 81 116 255
-0.0440733 0.623354 4.27675 0 0 0 72 73 71 255
0.0136204 0.602123 4.18072 0 0 0 96 102 103 255
0.214666 0.584491 4.07622 0 0 0 84 84 86 255
0.356168 0.58826 4.12488 0 0 0 141 148 148 255
-0.581664 0.513344 3.54751 0 0 0 37 100 134 255
-0.561295 0.519132 3.56106 0 0 0 156 165 174 255
-0.470386 0.519935 3.62211 0 0 0 157 160 170 255
0.0510319 0.597247 4.12141 0 0 0 113 118 116 255
0.272258 0.593562 4.09731 0 0 0 101 110 112 255
0.307518 0.593435 4.10992 0 0 0 146 149 150 255
0.0877072 0.60068 4.10101 0 0 0 121 120 120 255
0.199765 0.593416 4.07546 0 0 0 143 152 154 255
-0.590013 0.526815 3.54226 0 0 0 123 168 188 255
-0.414908 0.557374 3.7697 0 0 0 35 69 107 255
-0.414809 0.560321 3.79711 0 0 0 22 74 118 255
0.129511 0.601833 4.08754 0 0 0 138 137 135 255
-0.603066 0.531462 3.53613 0 0 0 63 93 102 255
-0.548374 0.533244 3.56446 0 0 0 161 166 168 255
-0.524661 0.533378 3.57583 0 0 0 139 148 161 255
-0.495748 0.538293 3.60033 0 0 0 158 162 166 255
-0.511851 0.542127 3.58773 0 0 0 91 99 108 255
-0.602087 0.541898 3.53604 0 0 0 45 90 106 255
-0.571786 0.53965 3.55149 0 0 0 63 98 123 255
-0.471164 0.551506 3.61798 0 0 0 74 78 109 255
-0.542262 0.550717 3.56522 0 0 0 118 125 134 255
-0.503421 0.555603 3.59571 0 0 0 26 66 116 255
-0.580317 0.553237 3.5474 0 0 0 130 171 188 255
-0.563311 0.553182 3.55609 0 0 0 28 106 148 255
-0.65834 0.558875 3.52598 0 0 0 133 154 149 255
-0.477637 0.578031 3.61722 0 0 0 81 118 145 255
-0.422044 0.586243 3.6973 0 0 0 64 100 136 255
-0.679433 0.568512 3.52469 0 0 0 118 136 127 255
-0.589443 0.569001 3.54134 0 0 0 61 101 125 255
-0.463523 0.5853 3.62786 0 0 0 65 90 118 255
1.07681 0.596656 3.59227 0 0 0 110 131 127 255
-0.699609 0.588852 3.52287 0 0 0 97 115 128 255
1.1913 0.5915 3.50577 0 0 0 54 59 52 255
1.02052 0.621316 3.64232 0 0 0 117 133 119 255
1.11143 0.600229 3.54557 0 0 0 77 108 98 255
0.221137 0.715861 4.09309 0 0 0 112 88 64 255
1.0962 0.616121 3.53624 0 0 0 87 79 64 255
-0.50097 0.635106 3.5999 0 0 0 157 164 171 255
0.143747 0.722189 4.09537 0 0 0 107 97 81 255
1.18638 0.620184 3.5104 0 0 0 153 156 158 255
1.03604 0.636222 3.58138 0 0 0 124 122 112 255
-0.802821 0.637894 3.546 0 0 0 133 147 161 255
1.08331 0.635365 3.53003 0 0 0 152 116 95 255
-0.772278 0.640772 3.54834 0 0 0 121 131 157 255
-0.635628 0.641447 3.53509 0 0 0 140 158 185 255
0.200039 0.744624 4.09114 0 0 0 111 97 80 255
1.0155 0.6464 3.58102 0 0 0 90 102 89 255
1.3033 0.631287 3.47013 0 0 0 127 129 117 255
1.30671 0.629812 3.46701 0 0 0 127 129 117 255
-0.821793 0.657587 3.56206 0 0 0 31 53 98 255
-0.754408 0.656591 3.53552 0 0 0 52 65 81 255
-0.541522 0.668091 3.58068 0 0 0 115 115 116 255
-0.414539 0.697934 3.78783 0 0 0 96 116 144 255
1.11485 0.645331 3.48669 0 0 0 98 89 90 255
1.15383 0.643027 3.48021 0 0 0 98 89 97 255
-0.699433 0.66721 3.52752 0 0 0 160 164 167 255
-0.590356 0.671487 3.54879 0 0 0 92 92 96 255
-0.416275 0.717581 3.76411 0 0 0 120 121 125 255
1.05782 0.679692 3.50415 0 0 0 128 107 97 255
-0.877684 0.700155 3.60568 0 0 0 98 99 103 255
1.07078 0.678656 3.48935 0 0 0 151 149 152 255
-0.53748 0.703039 3.5782 0 0 0 122 121 124 255
-0.433829 0.720943 3.66223 0 0 0 134 136 138 255
-0.863915 0.711667 3.59285 0 0 0 148 150 154 255
-0.696507 0.696951 3.527 0 0 0 164 165 166 255
1.11317 0.681393 3.44887 0 0 0 88 74 80 255
-0.588 0.708715 3.54798 0 0 0 95 98 102 255
-0.497403 0.72617 3.61143 0 0 0 162 164 166 255
1.07338 0.690859 3.4776 0 0 0 91 94 101 255
1.35598 0.687253 3.42495 0 0 0 102 94 74 255
-0.803973 0.721542 3.56319 0 0 0 88 89 96 255
-0.414043 0.747566 3.7537 0 0 0 120 121 122 255
1.1021 0.693492 3.4502 0 0 0 128 140 146 255
-0.487077 0.733124 3.629 0 0 0 55 72 107 255
-0.473961 0.747385 3.63351 0 0 0 114 126 149 255
-0.432869 0.759351 3.66503 0 0 0 118 124 131 255
0.955763 0.728473 3.54654 0 0 0 90 82 77 255
-0.884039 0.752968 3.60161 0 0 0 138 149 153 255
-0.699822 0.738759 3.53181 0 0 0 129 141 150 255
1.09657 0.713919 3.44125 0 0 0 137 134 135 255
-0.810042 0.757037 3.56508 0 0 0 112 121 125 255
-0.635466 0.74516 3.53577 0 0 0 164 166 179 255
-0.412978 0.783299 3.73443 0 0 0 112 116 120 255
-0.883015 0.760639 3.60003 0 0 0 148 154 155 255
-0.547285 0.763333 3.56736 0 0 0 167 169 170 255
-0.575023 0.767217 3.56034 0 0 0 155 165 178 255
-0.504889 0.784681 3.60404 0 0 0 106 106 110 255
-0.432945 0.7987 3.66631 0 0 0 88 94 110 255
0.761741 1.13101 5.18902 0 0 0 152 149 143 255
0.773686 1.08601 4.95022 0 0 0 131 125 122 255
-0.51083 0.786329 3.59682 0 0 0 83 89 99 255
-0.76553 0.781068 3.55264 0 0 0 123 124 134 255
-0.742114 0.778898 3.53312 0 0 0 107 112 121 255
-0.667649 0.781279 3.53626 0 0 0 128 146 176 255
-0.420906 0.813027 3.69208 0 0 0 154 157 170 255
0.90355 0.79206 3.58367 0 0 0 150 127 103 255
-0.81936 0.790405 3.56897 0 0 0 89 95 99 255
0.941839 0.781641 3.5014 0 0 0 77 78 89 255
-0.462168 0.819385 3.64834 0 0 0 88 93 96 255
0.923884 0.789622 3.51557 0 0 0 141 139 130 255
1.14384 0.758043 3.38511 0 0 0 157 155 156 255
1.15594 0.757687 3.38049 0 0 0 125 120 121 255
1.25724 0.767493 3.40712 0 0 0 134 90 80 255
1.28838 0.764209 3.39456 0 0 0 70 66 55 255
0.767767 1.11481 4.86562 0 0 0 81 78 78 255
-0.613019 0.808689 3.54552 0 0 0 74 80 102 255
0.94468 0.798058 3.49736 0 0 0 146 142 141 255
1.3268 0.766797 3.38885 0 0 0 94 109 108 255
-0.76996 0.813403 3.54454 0 0 0 120 126 131 255
-0.624996 0.814891 3.54385 0 0 0 73 83 93 255
-0.5043 0.82645 3.59936 0 0 0 133 136 141 255
-0.447241 0.836166 3.65562 0 0 0 164 164 170 255
1.16998 0.772274 3.36622 0 0 0 123 105 88 255
1.2948 0.776787 3.38308 0 0 0 127 137 120 255
-0.509568 0.833605 3.5978 0 0 0 84 89 97 255
0.205336 0.949095 4.10793 0 0 0 105 106 103 255
-0.456931 0.848778 3.64947 0 0 0 69 73 102 255
1.29061 0.783121 3.37844 0 0 0 131 121 97 255
1.37129 0.78807 3.39326 0 0 0 124 123 123 255
-0.75433 0.827375 3.53826 0 0 0 106 110 129 255
1.24634 0.791424 3.36301 0 0 0 118 104 105 255
1.36151 0.798783 3.3926 0 0 0 88 92 85 255
-0.89525 0.862301 3.62591 0 0 0 101 117 145 255
1.15075 0.801204 3.36357 0 0 0 79 64 60 255
1.31388 0.80004 3.36704 0 0 0 131 140 142 255
-0.612421 0.851714 3.54522 0 0 0 147 147 147 255
-0.485019 0.866059 3.62074 0 0 0 157 159 161 255
-0.62388 0.862055 3.54361 0 0 0 81 87 94 255
-0.502067 0.870456 3.59795 0 0 0 152 153 156 255
-0.865078 0.89033 3.59622 0 0 0 74 78 92 255
-0.809431 0.873636 3.56247 0 0 0 75 83 100 255
0.975972 0.835649 3.44344 0 0 0 102 97 96 255
1.06378 0.824692 3.39437 0 0 0 114 77 81 255
1.36713 0.818103 3.38492 0 0 0 139 135 134 255
0.891951 0.860384 3.51682 0 0 0 71 107 122 255
-0.542578 0.881536 3.5701 0 0 0 166 166 166 255
-0.68168 0.883719 3.5371 0 0 0 43 69 114 255
-0.57023 0.884748 3.56446 0 0 0 168 172 172 255
-0.570582 0.893613 3.56409 0 0 0 168 169 169 255
-0.69212 0.900437 3.53658 0 0 0 165 173 175 255
0.946832 0.872898 3.45312 0 0 0 47 46 65 255
1.2214 0.842484 3.33474 0 0 0 132 115 102 255
0.90773 0.883228 3.48679 0 0 0 61 72 80 255
-0.680422 0.911781 3.53712 0 0 0 123 128 138 255
-0.66443 0.918047 3.53865 0 0 0 153 155 167 255
-0.447243 0.951111 3.66071 0 0 0 117 147 169 255
-0.586603 0.929558 3.55587 0 0 0 103 119 143 255
-0.458813 0.967757 3.66041 0 0 0 27 106 144 255
1.23907 0.875036 3.32408 0 0 0 120 123 122 255
-0.808064 0.952921 3.56536 0 0 0 78 82 107 255
1.29389 0.888 3.32532 0 0 0 69 63 59 255
0.938455 0.927216 3.46021 0 0 0 134 128 115 255
-0.825298 0.965746 3.57365 0 0 0 158 160 161 255
-0.535435 0.975399 3.58925 0 0 0 49 108 152 255
1.21978 0.913559 3.32742 0 0 0 123 116 116 255
1.16435 0.922827 3.34217 0 0 0 98 87 84 255
1.10813 0.935392 3.3542 0 0 0 117 97 81 255
-0.620243 0.991047 3.54954 0 0 0 64 115 150 255
-0.453047 1.026 3.66544 0 0 0 29 89 132 255
-0.536898 1.00611 3.58647 0 0 0 79 109 136 255
1.22873 0.934611 3.32888 0 0 0 134 131 132 255
-0.490608 1.02282 3.60702 0 0 0 7 112 153 255
-0.416258 1.04041 3.68008 0 0 0 96 127 146 255
1.06036 0.955773 3.37501 0 0 0 99 92 86 255
1.19167 0.946296 3.33123 0 0 0 85 78 80 255
-0.465145 1.04598 3.66216 0 0 0 111 143 163 255
0.231867 1.18336 4.10546 0 0 0 104 103 107 255
-0.42091 1.06427 3.68285 0 0 0 118 125 134 255
1.16876 0.971998 3.34552 0 0 0 93 103 111 255
-0.614774 1.05348 3.54627 0 0 0 67 109 132 255
-0.793706 1.07047 3.5604 0 0 0 68 135 176 255
0.888295 1.09235 3.67916 0 0 0 104 113 113 255
-0.632127 1.06554 3.54498 0 0 0 79 131 177 255
-0.831053 1.08039 3.5709 0 0 0 25 89 129 255
-0.625691 1.08319 3.54539 0 0 0 75 85 111 255
-0.833368 1.09221 3.57129 0 0 0 52 101 138 255
-0.645073 1.08912 3.54323 0 0 0 159 167 170 255
-0.697088 1.09116 3.53845 0 0 0 122 110 126 255
-0.771849 1.10208 3.54786 0 0 0 103 107 121 255
1.0309 1.0597 3.40117 0 0 0 62 81 91 255
1.28663 1.03544 3.33948 0 0 0 92 81 87 255
1.3238 1.03454 3.33043 0 0 0 105 103 103 255
1.29578 1.06769 3.3371 0 0 0 86 81 83 255
1.29628 1.07342 3.33894 0 0 0 79 73 81 255
1.27297 1.08854 3.34307 0 0 0 95 103 112 255
-0.452097 1.20766 3.64747 0 0 0 95 135 171 255
1.25277 1.10843 3.34498 0 0 0 68 74 83 255
1.30931 1.11508 3.35049 0 0 0 85 80 82 255
-0.813212 1.20121 3.5549 0 0 0 82 133 166 255
-0.4503 1.23346 3.65415 0 0 0 161 164 173 255
-0.778383 1.20318 3.5534 0 0 0 63 121 167 255
-0.506763 1.21624 3.60146 0 0 0 129 158 181 255
-0.506368 1.23604 3.60142 0 0 0 167 169 172 255
-0.536866 1.24459 3.59777 0 0 0 86 126 155 255
-0.813295 1.24119 3.55151 0 0 0 110 122 134 255
1.33372 1.17805 3.40497 0 0 0 46 65 84 255
-0.779949 1.24573 3.54501 0 0 0 111 131 145 255
1.31705 1.1997 3.42663 0 0 0 123 134 142 255
1.33595 1.19992 3.42653 0 0 0 125 129 134 255
-0.6586 -0.821165 3.49336 0 0 0 142 149 149 255
-0.726037 -0.743954 3.48097 0 0 0 106 32 37 255
-0.696676 -0.746641 3.48606 0 0 0 111 41 51 255
-0.65102 -0.741113 3.49631 0 0 0 113 49 55 255
-0.641068 -0.735641 3.50055 0 0 0 123 51 59 255
-0.603937 -0.737554 3.51999 0 0 0 159 158 158 255
-0.681849 -0.720743 3.48791 0 0 0 134 63 70 255
-0.544322 -0.73194 3.55704 0 0 0 128 130 132 255
-0.688593 -0.698048 3.48783 0 0 0 139 50 55 255
-0.575258 -0.702073 3.53745 0 0 0 132 39 50 255
-0.599698 -0.68803 3.51902 0 0 0 163 153 154 255
-0.757396 -0.59928 3.48806 0 0 0 100 119 104 255
-0.637999 -0.607812 3.50201 0 0 0 158 160 154 255
-0.642688 -0.58642 3.50032 0 0 0 154 163 163 255
-0.61569 -0.572374 3.50996 0 0 0 158 162 161 255
-0.537092 -0.589679 3.55571 0 0 0 34 91 63 255
-0.557665 -0.576861 3.54835 0 0 0 139 161 147 255
-0.622513 -0.567115 3.50673 0 0 0 156 160 159 255
-0.704106 -0.542431 3.48541 0 0 0 92 117 112 255
-0.493307 -0.506933 3.60395 0 0 0 157 161 162 255
-0.634372 -0.430355 3.50175 0 0 0 108 140 119 255
-0.50543 -0.276411 3.5777 0 0 0 129 134 113 255
-0.560764 -0.225932 3.53364 0 0 0 119 140 94 255
-0.706996 -0.169032 3.49329 0 0 0 72 111 63 255
-0.662513 -0.152417 3.49954 0 0 0 91 80 27 255
-0.632289 -0.152649 3.50237 0 0 0 96 90 38 255
-0.703972 -0.0974759 3.4973 0 0 0 77 107 83 255
-0.623278 -0.0278297 3.514 0 0 0 135 149 136 255
0.183234 0.0737759 4.25605 0 0 0 43 40 41 255
0.0593341 0.0798907 4.30227 0 0 0 106 103 104 255
0.0461947 0.173173 4.29447 0 0 0 140 140 142 255
0.108334 0.42376 4.12328 0 0 0 120 100 76 255
0.426766 0.442903 4.29753 0 0 0 62 67 70 255
0.422781 0.4883 4.28696 0 0 0 82 84 88 255
0.013648 0.49864 4.17626 0 0 0 99 108 110 255
0.259512 0.480515 4.09457 0 0 0 110 112 116 255
2.13049 0.718854 6.11759 0 0 0 116 108 102 255
0.0876388 0.497337 4.10543 0 0 0 125 131 135 255
0.22442 0.490698 4.07962 0 0 0 60 67 72 255
-0.700955 0.428231 3.5233 0 0 0 124 126 124 255
0.238424 0.503173 4.08233 0 0 0 136 142 142 255
-0.583657 0.458493 3.54017 0 0 0 136 116 98 255
-0.843119 0.475645 3.55614 0 0 0 86 113 142 255
0.0656746 0.543319 4.11588 0 0 0 52 46 48 255
-0.417914 0.521346 3.79742 0 0 0 55 92 119 255
0.037654 0.571603 4.13049 0 0 0 45 48 47 255
0.11383 0.579741 4.09354 0 0 0 41 47 52 255
0.249192 0.572482 4.08267 0 0 0 54 49 49 255
0.328775 0.572722 4.11359 0 0 0 44 41 38 255
0.156419 0.584679 4.08524 0 0 0 48 46 44 255
0.303982 0.59427 4.10875 0 0 0 132 132 132 255
-0.620222 0.521371 3.53189 0 0 0 125 150 152 255
-0.563027 0.519064 3.55904 0 0 0 156 165 174 255
0.21901 0.598159 4.07655 0 0 0 74 68 68 255
0.254939 0.598482 4.09167 0 0 0 143 146 152 255
-0.50989 0.554668 3.58787 0 0 0 35 79 126 255
-0.638926 0.55936 3.5282 0 0 0 43 99 91 255
-0.615719 0.558625 3.53173 0 0 0 159 164 162 255
-0.432102 0.592724 3.66748 0 0 0 103 128 147 255
1.11193 0.602847 3.54275 0 0 0 110 135 119 255
0.149558 0.723427 4.096 0 0 0 112 97 73 255
-0.507129 0.640413 3.59842 0 0 0 163 168 170 255
-0.799377 0.637394 3.5451 0 0 0 133 147 161 255
-0.413814 0.678435 3.81831 0 0 0 22 69 113 255
0.148941 0.728559 4.09482 0 0 0 112 97 73 255
-0.63656 0.644294 3.53472 0 0 0 140 158 185 255
1.30477 0.633667 3.46696 0 0 0 126 130 118 255
1.14772 0.642193 3.47991 0 0 0 108 85 90 255
-0.542137 0.669954 3.57499 0 0 0 90 94 106 255
-0.421328 0.699504 3.7584 0 0 0 150 155 164 255
1.07748 0.655237 3.50502 0 0 0 103 81 75 255
-0.702035 0.668918 3.52772 0 0 0 160 164 167 255
-0.586636 0.675129 3.54854 0 0 0 78 82 99 255
1.04409 0.668014 3.5285 0 0 0 137 132 133 255
-0.453253 0.705299 3.65339 0 0 0 57 80 125 255
-0.698034 0.692588 3.52686 0 0 0 164 166 168 255
-0.854932 0.725577 3.58171 0 0 0 54 57 83 255
0.927077 0.738277 3.59865 0 0 0 126 125 111 255
-0.635552 0.738896 3.53519 0 0 0 164 166 180 255
-0.478149 0.746859 3.63141 0 0 0 153 163 173 255
0.941639 0.735982 3.54845 0 0 0 107 52 50 255
-0.707041 0.745267 3.53242 0 0 0 165 170 168 255
1.09663 0.718614 3.43899 0 0 0 153 154 153 255
-0.818751 0.785526 3.56798 0 0 0 99 105 108 255
-0.586031 0.777654 3.55879 0 0 0 168 173 172 255
-0.462669 0.804308 3.64865 0 0 0 76 78 89 255
-0.668484 0.78377 3.53612 0 0 0 128 146 176 255
0.903207 0.795429 3.57007 0 0 0 133 130 109 255
1.3541 0.764755 3.39624 0 0 0 36 72 60 255
-0.447719 0.829392 3.65616 0 0 0 164 165 174 255
0.712063 1.28478 5.65661 0 0 0 126 125 119 255
-0.47678 0.859197 3.63766 0 0 0 164 168 169 255
1.25278 0.792634 3.35599 0 0 0 78 79 73 255
-0.611533 0.854905 3.5456 0 0 0 92 96 111 255
-0.867021 0.891893 3.59787 0 0 0 120 125 126 255
-0.801196 0.879953 3.5606 0 0 0 50 67 106 255
-0.538269 0.875841 3.57123 0 0 0 170 172 171 255
-0.584551 0.895274 3.56082 0 0 0 167 170 169 255
-0.808697 0.909014 3.5636 0 0 0 65 78 103 255
-0.705261 0.901712 3.53436 0 0 0 169 171 171 255
-0.620593 0.905979 3.5445 0 0 0 128 128 130 255
-0.680548 0.913217 3.53727 0 0 0 92 97 114 255
-0.710413 0.925972 3.53558 0 0 0 168 168 168 255
-0.524721 0.950138 3.59062 0 0 0 153 160 169 255
-0.780725 0.950963 3.55548 0 0 0 162 164 164 255
-0.416767 1.04631 3.68139 0 0 0 125 137 144 255
-0.606035 1.04991 3.54716 0 0 0 20 119 157 255
0.858768 1.09453 3.70668 0 0 0 50 60 60 255
-0.631072 1.05842 3.5449 0 0 0 151 161 170 255
-0.655402 1.05622 3.54335 0 0 0 33 96 141 255
-0.737669 1.08045 3.54294 0 0 0 27 92 136 255
0.253234 1.32817 4.26512 0 0 0 185 190 195 255
0.269681 1.32654 4.2629 0 0 0 213 216 225 255
1.27417 1.03773 3.34329 0 0 0 81 78 88 255
-0.768634 1.11386 3.54415 0 0 0 85 93 112 255
-0.718629 1.13194 3.5404 0 0 0 163 166 168 255
1.27834 1.07208 3.34279 0 0 0 99 107 111 255
-0.628382 1.14185 3.54443 0 0 0 87 111 134 255
1.29523 1.07803 3.34102 0 0 0 80 74 82 255
-0.786909 1.16657 3.55611 0 0 0 129 134 137 255
1.25585 1.10104 3.34518 0 0 0 65 66 71 255
-0.506662 1.22675 3.60303 0 0 0 168 168 170 255
1.32927 1.14171 3.36355 0 0 0 145 150 151 255
-0.545172 1.24171 3.59496 0 0 0 75 123 153 255
1.31992 1.20829 3.43035 0 0 0 140 149 149 255
1.31781 1.19578 3.42407 0 0 0 123 134 142 255
-0.661733 -0.819443 3.49489 0 0 0 150 152 152 255
-0.557011 -0.755241 3.55254 0 0 0 162 145 145 255
-0.680636 -0.716196 3.48845 0 0 0 137 77 84 255
-0.573413 -0.728432 3.54003 0 0 0 140 84 89 255
-0.702715 -0.70029 3.48329 0 0 0 126 43 53 255
-0.575983 -0.701676 3.53666 0 0 0 132 39 50 255
-0.626856 -0.692008 3.5065 0 0 0 128 80 89 255
-0.742658 -0.595425 3.49133 0 0 0 157 157 157 255
-0.687933 -0.598251 3.48918 0 0 0 161 163 162 255
-0.625507 -0.598549 3.5077 0 0 0 155 162 163 255
-0.630826 -0.575777 3.50202 0 0 0 160 165 165 255
-0.746726 -0.556321 3.48853 0 0 0 154 161 163 255
-0.50203 -0.57727 3.60687 0 0 0 156 159 158 255
-0.546716 -0.529964 3.55256 0 0 0 69 94 88 255
-0.489034 -0.468548 3.60145 0 0 0 137 142 140 255
-0.699425 -0.447013 3.48714 0 0 0 51 102 65 255
-0.530245 -0.450526 3.57053 0 0 0 138 146 139 255
-0.631557 -0.428016 3.50173 0 0 0 160 163 157 255
-0.757349 -0.422199 3.49308 0 0 0 81 106 88 255
-0.621202 -0.409978 3.50709 0 0 0 159 164 162 255
-0.67601 -0.386088 3.49199 0 0 0 158 163 163 255
-0.756114 -0.374097 3.49139 0 0 0 152 159 157 255
-0.548195 -0.32632 3.54659 0 0 0 130 142 124 255
-0.504312 -0.276257 3.57819 0 0 0 129 134 113 255
-0.598644 -0.265219 3.51928 0 0 0 19 102 140 255
-0.6255 -0.219977 3.507 0 0 0 111 132 92 255
-0.587487 -0.208698 3.52336 0 0 0 10 69 118 255
-0.583972 -0.154701 3.52117 0 0 0 81 77 29 255
-0.507152 -0.144498 3.57797 0 0 0 165 139 53 255
-0.703848 -0.100123 3.49713 0 0 0 77 107 83 255
-0.763263 -0.0773738 3.49755 0 0 0 130 134 129 255
-0.554619 -0.0292288 3.53891 0 0 0 146 154 152 255
-0.621769 -0.0250969 3.51409 0 0 0 155 163 158 255
-0.437948 -0.014118 3.84757 0 0 0 71 108 89 255
0.0829295 0.0705825 4.30138 0 0 0 61 61 61 255
0.297065 0.0681318 4.30972 0 0 0 82 82 82 255
0.210965 0.114676 4.24845 0 0 0 151 102 105 255
0.317876 0.155265 4.31434 0 0 0 70 74 77 255
0.310029 0.186463 4.30996 0 0 0 50 54 55 255
0.220082 0.231819 4.27194 0 0 0 186 184 185 255
0.297346 0.227435 4.30762 0 0 0 125 125 125 255
0.226563 0.299051 4.27141 0 0 0 254 254 254 255
0.026877 0.322206 4.31188 0 0 0 63 63 63 255
-0.428287 0.328485 3.85872 0 0 0 41 64 106 255
0.114713 0.402006 4.12577 0 0 0 205 198 193 255
0.21538 0.400771 4.10848 0 0 0 143 109 71 255
0.109573 0.420987 4.12269 0 0 0 145 129 116 255
0.217828 0.420619 4.10399 0 0 0 167 135 93 255
0.301021 0.425463 4.11671 0 0 0 101 104 109 255
0.42891 0.446882 4.29421 0 0 0 68 72 75 255
-0.526191 0.429299 3.57155 0 0 0 155 128 98 255
0.238431 0.488249 4.08571 0 0 0 94 105 115 255
-0.790621 0.435087 3.53086 0 0 0 143 138 103 255
-0.751178 0.436347 3.52611 0 0 0 123 116 114 255
-0.692559 0.435276 3.52431 0 0 0 122 111 69 255
-0.651729 0.434586 3.52298 0 0 0 83 74 67 255
-0.627138 0.435191 3.52971 0 0 0 147 133 95 255
0.15855 0.501684 4.08512 0 0 0 140 146 146 255
0.196075 0.502401 4.07906 0 0 0 43 47 48 255
-0.725618 0.44332 3.52358 0 0 0 135 129 114 255
0.313177 0.515043 4.11212 0 0 0 139 143 144 255
-0.791773 0.463834 3.53333 0 0 0 102 107 107 255
-0.4899 0.457702 3.59784 0 0 0 32 62 109 255
0.216016 0.525649 4.0755 0 0 0 147 150 153 255
-0.416891 0.512354 3.81462 0 0 0 23 78 122 255
0.110588 0.55353 4.0939 0 0 0 45 44 39 255
-0.810634 0.489337 3.54124 0 0 0 10 68 120 255
0.251798 0.57564 4.08709 0 0 0 58 59 60 255
0.311601 0.564378 4.1113 0 0 0 143 149 150 255
0.351857 0.583487 4.125 0 0 0 138 144 144 255
0.0146582 0.588749 4.17507 0 0 0 92 101 101 255
0.129368 0.590565 4.08813 0 0 0 117 120 121 255
0.19219 0.59691 4.07631 0 0 0 146 149 147 255
-0.617656 0.530991 3.53243 0 0 0 161 164 166 255
-0.417006 0.583426 3.8089 0 0 0 34 88 134 255
-0.616799 0.560833 3.53107 0 0 0 159 164 162 255
-0.440156 0.570727 3.65849 0 0 0 154 161 165 255
1.12278 0.60155 3.53954 0 0 0 125 137 119 255
1.20538 0.595255 3.50798 0 0 0 41 52 46 255
1.18209 0.612533 3.50647 0 0 0 140 144 146 255
-0.505772 0.641802 3.59857 0 0 0 163 168 170 255
0.147332 0.726367 4.0954 0 0 0 112 97 73 255
0.21701 0.732465 4.08932 0 0 0 121 92 61 255
-0.836513 0.654985 3.56754 0 0 0 21 59 105 255
-0.790301 0.64824 3.5455 0 0 0 160 162 161 255
-0.63299 0.647539 3.53656 0 0 0 160 163 176 255
-0.740652 0.656061 3.53572 0 0 0 30 61 108 255
1.3153 0.635506 3.46075 0 0 0 143 143 126 255
-0.429936 0.699312 3.68119 0 0 0 135 151 172 255
-0.44195 0.705103 3.66018 0 0 0 159 165 171 255
-0.706252 0.678662 3.52764 0 0 0 165 168 167 255
-0.0316339 0.849864 4.30752 0 0 0 60 60 60 255
-0.557062 0.704045 3.57034 0 0 0 105 110 125 255
-0.481383 0.717297 3.62592 0 0 0 45 66 109 255
-0.73545 0.717107 3.52608 0 0 0 60 75 98 255
-0.865235 0.73503 3.58965 0 0 0 25 57 98 255
1.35605 0.715382 3.41441 0 0 0 138 136 121 255
-0.709781 0.748402 3.53347 0 0 0 167 170 169 255
-0.653331 0.748628 3.53545 0 0 0 33 73 121 255
-0.48877 0.773028 3.63193 0 0 0 167 170 170 255
-0.812231 0.779688 3.56414 0 0 0 66 71 96 255
0.771642 1.0935 4.99732 0 0 0 138 134 129 255
-0.660605 0.786821 3.53704 0 0 0 165 171 176 255
-0.589769 0.788447 3.55859 0 0 0 170 175 173 255
-0.432535 0.8183 3.66394 0 0 0 49 62 96 255
1.35508 0.746634 3.41259 0 0 0 32 68 56 255
0.768086 1.11341 4.87493 0 0 0 111 109 107 255
-0.750587 0.828644 3.53704 0 0 0 79 86 103 255
1.34264 0.784111 3.38539 0 0 0 141 120 127 255
1.17452 0.787517 3.35736 0 0 0 161 166 174 255
1.1422 0.801086 3.36754 0 0 0 86 81 69 255
1.195 0.810408 3.34414 0 0 0 95 54 54 255
1.36347 0.812244 3.38585 0 0 0 125 122 121 255
-0.688336 0.862127 3.53437 0 0 0 41 74 116 255
-0.532938 0.881525 3.57328 0 0 0 166 171 169 255
-0.803463 0.883073 3.56171 0 0 0 51 66 106 255
-0.589521 0.88336 3.55993 0 0 0 171 174 174 255
1.1524 0.827112 3.35304 0 0 0 134 131 132 255
-0.64963 0.909974 3.53827 0 0 0 168 170 170 255
1.06512 0.875131 3.38342 0 0 0 97 96 97 255
-0.707252 0.923088 3.5349 0 0 0 167 169 168 255
-0.446189 0.954524 3.66135 0 0 0 117 147 169 255
-0.745543 0.933574 3.54876 0 0 0 69 77 97 255
-0.835982 0.954429 3.57841 0 0 0 159 162 162 255
-0.520585 0.990075 3.58824 0 0 0 151 158 165 255
1.09078 0.937038 3.36241 0 0 0 105 74 55 255
-0.615696 1.00152 3.54989 0 0 0 148 163 178 255
-0.434627 1.04233 3.67614 0 0 0 147 159 159 255
-0.629347 1.04619 3.54463 0 0 0 128 144 161 255
-0.592111 1.04347 3.54667 0 0 0 17 115 155 255
0.861486 1.0951 3.70528 0 0 0 50 60 60 255
1.17033 0.986932 3.34167 0 0 0 86 75 77 255
-0.807164 1.08255 3.56196 0 0 0 99 140 170 255
-0.687008 1.07054 3.54061 0 0 0 92 130 159 255
-0.426413 1.10617 3.68391 0 0 0 159 154 140 255
-0.787952 1.16246 3.55712 0 0 0 133 139 143 255
-0.685276 1.16356 3.5368 0 0 0 135 139 149 255
1.25349 1.09928 3.34505 0 0 0 65 66 71 255
-0.814275 1.21741 3.557 0 0 0 100 130 154 255
1.33467 1.14195 3.36296 0 0 0 148 152 153 255
-0.667519 -0.819288 3.49272 0 0 0 143 143 143 255
-0.70083 -0.709504 3.48448 0 0 0 131 41 47 255
-0.576373 -0.719582 3.53687 0 0 0 131 61 67 255
-0.668681 -0.699726 3.49317 0 0 0 167 142 146 255
-0.537421 -0.673434 3.55945 0 0 0 136 137 134 255
-0.704971 -0.590598 3.48203 0 0 0 158 163 160 255
-0.625798 -0.576154 3.50649 0 0 0 158 164 163 255
-0.710141 -0.442954 3.48563 0 0 0 48 98 65 255
-0.488267 -0.478141 3.60205 0 0 0 124 144 143 255
-0.750968 -0.385412 3.49354 0 0 0 155 159 158 255
-0.504365 -0.268522 3.57792 0 0 0 124 134 109 255
-0.597313 -0.208679 3.51893 0 0 0 14 72 120 255
-0.765632 -0.171831 3.50117 0 0 0 134 144 127 255
-0.648976 -0.160306 3.50096 0 0 0 123 112 56 255
-0.515396 -0.131829 3.57419 0 0 0 160 128 41 255
0.067003 0.080012 4.30111 0 0 0 70 67 68 255
0.295123 0.0801606 4.30989 0 0 0 55 55 55 255
-0.462755 0.112613 3.82298 0 0 0 172 170 170 255
0.0496495 0.219406 4.29985 0 0 0 153 153 153 255
0.1519 0.227356 4.23242 0 0 0 114 116 120 255
0.217583 0.220789 4.24746 0 0 0 99 98 101 255
0.0345259 0.246646 4.30575 0 0 0 154 156 155 255
0.353025 0.31286 4.31081 0 0 0 63 61 60 255
0.0272747 0.317137 4.31316 0 0 0 63 63 63 255
0.0376449 0.497247 4.13076 0 0 0 60 60 58 255
2.13348 0.766738 6.11187 0 0 0 52 41 38 255
-0.454506 0.487979 3.6398 0 0 0 110 139 157 255
0.258918 0.53411 4.08958 0 0 0 43 49 49 255
0.338009 0.564163 4.114 0 0 0 133 139 140 255
-0.840021 0.507467 3.56172 0 0 0 107 112 119 255
-0.807383 0.473811 3.53764 0 0 0 15 58 109 255
-0.692668 0.559177 3.52274 0 0 0 150 157 154 255
-0.609212 0.539837 3.53445 0 0 0 80 122 136 255
-0.451028 0.568725 3.64176 0 0 0 149 156 162 255
1.12889 0.604983 3.53107 0 0 0 131 142 120 255
1.21476 0.60151 3.51148 0 0 0 43 65 60 255
-0.837555 0.641052 3.56441 0 0 0 16 70 113 255
-0.518969 0.665333 3.59606 0 0 0 167 170 170 255
-0.413279 0.677139 3.8216 0 0 0 22 69 113 255
-0.627861 0.652548 3.5374 0 0 0 164 168 169 255
-0.61188 0.693373 3.53745 0 0 0 169 171 173 255
-0.868224 0.735987 3.5911 0 0 0 25 57 98 255
-0.710761 0.716442 3.5283 0 0 0 44 59 93 255
-0.720262 0.781648 3.53248 0 0 0 165 170 170 255
-0.413116 0.822987 3.72053 0 0 0 103 109 122 255
0.8636 0.857793 3.86185 0 0 0 111 97 100 255
-0.631052 0.869886 3.54249 0 0 0 140 151 163 255
0.942354 0.876572 3.45603 0 0 0 51 49 60 255
-0.509345 0.942856 3.59315 0 0 0 133 157 171 255
-0.822365 0.963763 3.57144 0 0 0 158 160 161 255
-0.475427 1.00965 3.65062 0 0 0 4 110 156 255
-0.472051 1.02304 3.6555 0 0 0 6 104 150 255
-0.57439 1.03639 3.54111 0 0 0 3 115 159 255
-0.798 1.08577 3.56068 0 0 0 147 151 155 255
-0.724612 1.0644 3.54119 0 0 0 24 91 137 255
-0.443652 1.13244 3.68035 0 0 0 161 146 99 255
-0.820455 1.13146 3.56572 0 0 0 149 160 171 255
1.25038 1.07528 3.3471 0 0 0 68 84 92 255
-0.732003 1.15695 3.53944 0 0 0 40 85 131 255
-0.578449 1.165 3.56221 0 0 0 173 164 128 255
-0.805247 1.2222 3.55649 0 0 0 108 137 156 255
-0.721677 -0.575171 3.48886 0 0 0 155 162 162 255
-0.510172 -0.578519 3.59157 0 0 0 153 159 157 255
-0.496123 -0.512156 3.60469 0 0 0 150 156 155 255
-0.730947 -0.404117 3.50017 0 0 0 157 162 160 255
-0.549043 -0.316798 3.54698 0 0 0 120 136 94 255
-0.657535 -0.277177 3.50525 0 0 0 132 142 120 255
-0.596937 -0.201832 3.51851 0 0 0 12 68 117 255
-0.52019 -0.16359 3.57122 0 0 0 163 141 53 255
-0.760443 -0.0830381 3.49641 0 0 0 136 133 134 255
-0.450167 -0.0232951 3.83556 0 0 0 59 104 80 255
0.0819534 0.0936505 4.2985 0 0 0 82 52 55 255
0.293836 0.0864535 4.3106 0 0 0 52 52 52 255
0.0902124 0.179067 4.28773 0 0 0 41 47 52 255
0.277807 0.184906 4.29312 0 0 0 53 54 52 255
0.216172 0.290238 4.27292 0 0 0 192 194 198 255
0.355315 0.335874 4.31081 0 0 0 53 57 63 255
0.11966 0.407767 4.12305 0 0 0 171 163 157 255
0.0738016 0.521206 4.11036 0 0 0 51 54 53 255
0.321193 0.523801 4.11185 0 0 0 120 122 123 255
-0.453549 0.496491 3.64378 0 0 0 139 156 164 255
0.188959 0.568911 4.07828 0 0 0 141 149 153 255
0.279974 0.557421 4.10239 0 0 0 41 49 55 255
-0.867806 0.516227 3.58746 0 0 0 138 116 107 255
1.07272 0.577326 3.79847 0 0 0 112 115 111 255
-0.422581 0.662011 3.8044 0 0 0 36 92 129 255
0.149517 0.730751 4.09523 0 0 0 115 95 72 255
0.228572 0.730196 4.09157 0 0 0 111 92 70 255
-0.885107 0.679585 3.61562 0 0 0 150 155 153 255
-0.61274 0.686359 3.53648 0 0 0 168 171 171 255
-0.489224 0.689634 3.60969 0 0 0 109 117 124 255
0.401203 0.838054 4.25632 0 0 0 50 55 59 255
-0.874806 0.744519 3.5962 0 0 0 27 58 94 255
0.13042 0.923914 4.12755 0 0 0 130 133 131 255
0.265078 0.918336 4.1204 0 0 0 137 141 140 255
0.860298 0.875308 3.8835 0 0 0 108 103 105 255
-0.415402 0.838431 3.69824 0 0 0 38 73 113 255
-0.473799 0.848254 3.64183 0 0 0 164 168 169 255
1.12259 0.806379 3.37078 0 0 0 85 89 86 255
-0.839059 0.961875 3.58137 0 0 0 158 161 160 255
-0.79723 0.945152 3.55643 0 0 0 154 155 157 255
-0.451283 1.01665 3.66449 0 0 0 18 90 137 255
-0.613414 1.00952 3.54888 0 0 0 152 155 163 255
-0.451681 1.07359 3.67624 0 0 0 140 122 113 255
-0.620135 -0.204855 3.50853 0 0 0 72 97 70 255
-0.461881 -0.0353492 3.75332 0 0 0 52 100 72 255
-0.705769 -0.00620112 3.49145 0 0 0 26 67 39 255
0.254944 0.0922692 4.24423 0 0 0 102 50 48 255
0.0563035 0.0806954 4.30167 0 0 0 106 103 104 255
0.255204 0.13929 4.19509 0 0 0 50 42 45 255
0.0158894 0.325893 4.31173 0 0 0 61 64 67 255
0.345861 0.365554 4.27636 0 0 0 52 51 56 255
-0.455147 0.355551 3.81394 0 0 0 22 69 117 255
-0.814029 0.540214 3.55345 0 0 0 157 140 91 255
-0.46274 0.65355 3.62134 0 0 0 19 72 123 255
-0.785679 0.736473 3.55148 0 0 0 161 163 168 255
0.00868849 0.844747 4.28401 0 0 0 40 45 46 255
0.344974 0.828579 4.24544 0 0 0 39 44 46 255
-0.682804 0.721183 3.53001 0 0 0 35 66 115 255
-0.682409 0.788283 3.53525 0 0 0 41 68 109 255
0.192413 0.920435 4.09706 0 0 0 138 144 147 255
-0.421916 0.86067 3.66921 0 0 0 42 78 117 255
-0.743522 -0.828406 3.47547 0 0 0 122 130 124 255
-0.788015 -0.822257 3.47395 0 0 0 81 101 87 255
-0.758844 -0.818938 3.47415 0 0 0 145 146 145 255
-0.745146 -0.818343 3.47498 0 0 0 154 155 154 255
-0.828443 -0.82133 3.4744 0 0 0 80 106 89 255
-0.736244 -0.807261 3.47772 0 0 0 107 121 119 255
-0.682739 -0.803942 3.48806 0 0 0 53 76 70 255
-0.87698 -0.813126 3.48375 0 0 0 71 89 69 255
-0.798012 -0.805634 3.47197 0 0 0 136 137 135 255
-0.761369 -0.800506 3.47132 0 0 0 72 92 80 255
-0.741681 -0.799984 3.47096 0 0 0 120 120 120 255
-0.712102 -0.807701 3.48197 0 0 0 70 80 72 255
-0.669783 -0.804121 3.49124 0 0 0 141 139 137 255
-0.931389 -0.819522 3.5252 0 0 0 81 82 74 255
-0.898398 -0.803943 3.49529 0 0 0 53 51 49 255
-0.791998 -0.793954 3.47229 0 0 0 105 122 118 255
-0.963981 -0.815316 3.55262 0 0 0 116 115 113 255
-0.837063 -0.789285 3.48061 0 0 0 101 100 92 255
-0.862791 -0.778144 3.47963 0 0 0 83 96 91 255
-0.91195 -0.785082 3.50488 0 0 0 120 125 123 255
-0.635444 -0.755298 3.50878 0 0 0 155 149 137 255
-0.764745 -0.741033 3.47794 0 0 0 99 90 88 255
-0.818112 -0.727225 3.47785 0 0 0 81 56 56 255
-0.812041 -0.724488 3.47764 0 0 0 116 64 63 255
-0.893433 -0.722456 3.505 0 0 0 68 54 52 255
-0.764859 -0.712951 3.47647 0 0 0 169 133 136 255
-0.857175 -0.713186 3.48686 0 0 0 86 71 73 255
-0.842319 -0.711471 3.48538 0 0 0 150 148 148 255
-0.804269 -0.707183 3.47764 0 0 0 158 147 151 255
-0.782867 -0.703877 3.47066 0 0 0 93 55 58 255
-0.944605 -0.714536 3.53313 0 0 0 73 52 49 255
-0.804193 -0.685938 3.47821 0 0 0 112 57 62 255
-0.758446 -0.683618 3.4777 0 0 0 128 41 45 255
-0.925673 -0.700592 3.53467 0 0 0 120 102 105 255
-0.833773 -0.673534 3.48703 0 0 0 109 49 54 255
-0.88053 -0.67209 3.49732 0 0 0 106 81 85 255
-0.943245 -0.614906 3.5561 0 0 0 120 121 114 255
-0.805698 -0.593545 3.48397 0 0 0 135 141 134 255
-0.794583 -0.591588 3.48512 0 0 0 149 156 155 255
-0.76174 -0.584969 3.48466 0 0 0 153 154 151 255
-0.901529 -0.56303 3.53166 0 0 0 113 123 116 255
-0.759021 -0.543224 3.4804 0 0 0 151 152 145 255
-0.930515 -0.533208 3.53939 0 0 0 51 78 71 255
-0.563571 -0.375576 3.54354 0 0 0 66 117 87 255
-0.619848 -0.357256 3.50673 0 0 0 68 112 88 255
-0.462433 -0.351811 3.77713 0 0 0 122 137 87 255
-0.885816 -0.332197 3.52011 0 0 0 125 125 120 255
-0.448807 -0.336912 3.80652 0 0 0 141 139 84 255
-0.874319 -0.305849 3.52356 0 0 0 136 137 134 255
-0.553634 -0.242509 3.54281 0 0 0 64 88 82 255
-0.680779 -0.191247 3.49268 0 0 0 79 109 55 255
-0.772071 -0.184491 3.50401 0 0 0 99 126 78 255
-0.872536 -0.17181 3.54092 0 0 0 130 134 118 255
-0.929235 -0.16662 3.58258 0 0 0 50 86 62 255
-0.934809 -0.132884 3.57287 0 0 0 93 99 102 255
-0.749249 -0.0982198 3.49279 0 0 0 110 104 113 255
-0.818035 -0.0874259 3.51243 0 0 0 77 99 82 255
-0.43825 -0.0702649 3.79472 0 0 0 132 133 86 255
-0.951249 0.0314518 3.62151 0 0 0 43 82 70 255
0.319947 0.0834187 4.33211 0 0 0 83 78 78 255
0.0526992 0.0969942 4.29042 0 0 0 106 107 108 255
0.25405 0.16871 4.2922 0 0 0 107 113 112 255
0.171216 0.393881 4.11863 0 0 0 85 87 83 255
0.329913 0.416955 4.15206 0 0 0 92 100 105 255
0.436477 0.457027 4.29497 0 0 0 72 73 75 255
0.405627 0.487753 4.28216 0 0 0 71 75 82 255
-0.665902 0.453057 3.51838 0 0 0 34 55 81 255
-0.912797 0.479907 3.63192 0 0 0 91 108 132 255
-0.438411 0.501792 3.67647 0 0 0 111 75 98 255
-0.503428 0.514385 3.59744 0 0 0 52 77 110 255
-0.434567 0.525342 3.6734 0 0 0 115 91 111 255
-0.639788 0.51366 3.53064 0 0 0 66 104 99 255
-0.541868 0.516473 3.56732 0 0 0 52 82 113 255
1.35395 0.571508 3.77852 0 0 0 104 103 88 255
-0.465977 0.537681 3.62498 0 0 0 112 111 116 255
-0.411709 0.54951 3.71166 0 0 0 31 70 110 255
-0.447658 0.545757 3.65033 0 0 0 112 120 128 255
-0.432128 0.558124 3.66861 0 0 0 123 113 118 255
-0.519557 0.562581 3.57137 0 0 0 36 74 122 255
-0.487114 0.572104 3.60527 0 0 0 130 131 138 255
-0.647397 0.566731 3.52423 0 0 0 73 99 91 255
-0.627848 0.568233 3.52631 0 0 0 72 104 102 255
-0.548556 0.57816 3.55438 0 0 0 36 87 128 255
-0.916887 0.592045 3.64247 0 0 0 91 103 131 255
1.32183 0.622576 3.51785 0 0 0 59 78 71 255
1.26015 0.649015 3.6511 0 0 0 92 128 124 255
1.34259 0.642356 3.51486 0 0 0 99 98 81 255
1.06124 0.656753 3.5684 0 0 0 139 120 124 255
-0.91262 0.649743 3.63572 0 0 0 111 123 144 255
1.18328 0.668433 3.52608 0 0 0 146 150 151 255
1.19161 0.682235 3.53185 0 0 0 77 91 84 255
1.15032 0.681605 3.49387 0 0 0 108 76 73 255
-0.420901 0.716589 3.7307 0 0 0 109 112 121 255
1.33461 0.695379 3.48874 0 0 0 30 49 43 255
-0.891203 0.707444 3.60753 0 0 0 111 107 119 255
-0.417698 0.749256 3.72652 0 0 0 85 95 108 255
1.1268 0.716873 3.46972 0 0 0 91 88 97 255
1.24561 0.731925 3.51926 0 0 0 119 93 91 255
-0.889865 0.738078 3.59318 0 0 0 102 115 129 255
1.14119 0.744281 3.44263 0 0 0 123 110 113 255
1.06766 0.762679 3.45756 0 0 0 155 149 151 255
-0.887698 0.782172 3.58626 0 0 0 103 104 107 255
1.38735 0.771968 3.39218 0 0 0 136 139 111 255
1.05842 0.786889 3.44449 0 0 0 118 110 113 255
1.03477 0.794779 3.44357 0 0 0 136 111 108 255
0.46826 1.08918 4.86494 0 0 0 155 151 147 255
1.16802 0.801662 3.38824 0 0 0 150 151 157 255
0.263861 0.953674 4.12323 0 0 0 94 96 97 255
0.207419 0.968899 4.11349 0 0 0 101 107 106 255
0.468546 1.11452 4.77564 0 0 0 112 112 112 255
0.838681 0.924265 3.85452 0 0 0 174 175 171 255
-0.487995 0.89507 3.60749 0 0 0 69 95 137 255
1.35537 0.874971 3.3131 0 0 0 96 102 111 255
-0.614363 0.936883 3.54723 0 0 0 116 132 170 255
1.05075 0.922265 3.3969 0 0 0 101 100 100 255
0.940473 0.948034 3.47746 0 0 0 90 90 92 255
-0.42239 1.02764 3.66872 0 0 0 28 76 121 255
1.26431 0.947896 3.30647 0 0 0 119 104 97 255
1.10586 0.966237 3.36926 0 0 0 95 84 81 255
0.269874 1.18094 4.12778 0 0 0 96 97 98 255
1.13804 1.01652 3.35434 0 0 0 135 132 116 255
1.2328 1.0026 3.3016 0 0 0 111 86 81 255
1.33903 1.00563 3.21927 0 0 0 114 112 111 255
1.2693 1.04143 3.26986 0 0 0 134 140 143 255
1.27164 1.08854 3.25444 0 0 0 125 129 135 255
-0.46073 1.21961 3.64439 0 0 0 118 123 145 255
-0.73746 1.21273 3.50486 0 0 0 37 87 124 255
-0.713344 1.22678 3.49866 0 0 0 80 103 141 255
-0.987485 -0.896753 3.55302 0 0 0 37 73 61 255
-0.756536 -0.804289 3.473 0 0 0 77 92 84 255
-0.794496 -0.801793 3.47222 0 0 0 137 139 139 255
-0.768661 -0.732284 3.47662 0 0 0 112 42 50 255
-0.820218 -0.725381 3.47866 0 0 0 81 56 56 255
-0.843677 -0.721643 3.48507 0 0 0 156 141 140 255
-0.760885 -0.714525 3.47663 0 0 0 167 148 150 255
-0.889998 -0.720241 3.50095 0 0 0 68 54 52 255
-0.761889 -0.68665 3.47728 0 0 0 124 37 45 255
-0.905536 -0.692302 3.50137 0 0 0 146 130 132 255
-0.805805 -0.591524 3.48412 0 0 0 143 146 139 255
-0.757919 -0.545761 3.48195 0 0 0 151 151 151 255
-0.90291 -0.552258 3.5332 0 0 0 135 134 131 255
-0.463609 -0.346999 3.79567 0 0 0 137 138 81 255
-0.664914 -0.183039 3.49504 0 0 0 152 155 132 255
-0.873444 -0.169873 3.54167 0 0 0 130 134 118 255
-0.814578 -0.0843485 3.51205 0 0 0 57 96 62 255
-0.861138 -0.0765262 3.52772 0 0 0 132 124 125 255
-0.439354 -0.0747966 3.79658 0 0 0 133 134 86 255
0.0661181 0.0609344 4.29364 0 0 0 152 154 153 255
0.304816 0.246032 4.3133 0 0 0 100 102 104 255
-0.949171 0.340238 3.65744 0 0 0 40 57 77 255
0.324497 0.483511 4.12818 0 0 0 87 85 82 255
-0.668271 0.45631 3.51944 0 0 0 34 55 81 255
0.237829 0.518454 4.08786 0 0 0 120 122 122 255
-0.872045 0.481226 3.58571 0 0 0 97 119 139 255
-0.502648 0.475816 3.59018 0 0 0 79 106 139 255
0.239066 0.552751 4.08495 0 0 0 58 52 57 255
-0.69457 0.519749 3.51924 0 0 0 138 138 123 255
-0.411663 0.547805 3.70906 0 0 0 31 70 110 255
-0.493533 0.598835 3.60525 0 0 0 50 109 151 255
1.34819 0.646268 3.51756 0 0 0 91 104 95 255
-0.895552 0.661382 3.62257 0 0 0 126 134 138 255
1.33221 0.683366 3.4925 0 0 0 37 44 39 255
1.24092 0.73104 3.51138 0 0 0 120 89 88 255
1.3625 0.82381 3.36138 0 0 0 98 91 91 255
0.839364 0.92416 3.85442 0 0 0 166 167 163 255
-0.651807 1.06433 3.52891 0 0 0 31 97 139 255
-0.870657 -0.805511 3.47231 0 0 0 94 108 90 255
-0.757442 -0.727472 3.48345 0 0 0 167 144 144 255
-0.700229 -0.690418 3.48867 0 0 0 146 83 90 255
-0.818918 -0.687814 3.47964 0 0 0 117 34 34 255
-0.956605 -0.62885 3.55722 0 0 0 52 81 44 255
-0.803188 -0.579892 3.48446 0 0 0 154 154 151 255
-0.494657 -0.572073 3.61706 0 0 0 152 158 157 255
-0.952849 -0.582576 3.54613 0 0 0 59 81 73 255
-0.904797 -0.53434 3.53583 0 0 0 139 139 139 255
-0.923538 -0.52941 3.53715 0 0 0 36 64 53 255
-0.88844 -0.485771 3.51632 0 0 0 135 140 132 255
-0.749113 -0.411648 3.4903 0 0 0 158 158 158 255
-0.463679 -0.347142 3.79627 0 0 0 137 138 81 255
-0.877279 -0.321231 3.52065 0 0 0 137 140 126 255
-0.658767 -0.231474 3.49188 0 0 0 11 86 129 255
-0.609274 -0.187903 3.51364 0 0 0 10 70 118 255
-0.939022 -0.18274 3.59293 0 0 0 56 85 45 255
-0.509564 -0.156911 3.57822 0 0 0 164 141 61 255
-0.937096 -0.0644792 3.61094 0 0 0 42 80 53 255
0.26032 0.0759444 4.28287 0 0 0 48 44 45 255
0.261726 0.172554 4.30522 0 0 0 101 107 116 255
0.304768 0.244278 4.31342 0 0 0 100 102 104 255
0.134175 0.404755 4.12568 0 0 0 125 122 114 255
-0.493857 0.487238 3.60414 0 0 0 99 140 166 255
-0.421153 0.49497 3.70062 0 0 0 86 122 150 255
0.254184 0.55626 4.09564 0 0 0 43 49 54 255
-0.856668 0.496807 3.56966 0 0 0 113 126 133 255
-0.413052 0.535307 3.73537 0 0 0 80 119 145 255
1.25843 0.66167 3.6628 0 0 0 118 146 146 255
0.242603 0.756913 4.09615 0 0 0 75 68 65 255
1.2032 0.682212 3.55331 0 0 0 62 96 84 255
-0.894127 0.714983 3.60743 0 0 0 62 64 81 255
-0.498816 0.707116 3.60423 0 0 0 165 168 167 255
1.24208 0.726811 3.52527 0 0 0 129 88 88 255
-0.628155 0.724089 3.52812 0 0 0 162 163 170 255
-0.462992 0.790747 3.65343 0 0 0 46 60 86 255
-0.421928 0.800544 3.7019 0 0 0 155 158 167 255
-0.898665 0.825622 3.60788 0 0 0 32 61 92 255
1.24122 0.81029 3.37106 0 0 0 141 142 146 255
-0.527277 0.865162 3.574 0 0 0 167 171 169 255
-0.699837 0.862288 3.52804 0 0 0 47 70 107 255
0.827817 0.944578 3.8251 0 0 0 171 175 173 255
-0.800711 0.893507 3.55437 0 0 0 46 63 92 255
1.29156 0.897217 3.30702 0 0 0 74 64 68 255
0.42357 1.29771 4.36157 0 0 0 125 128 127 255
1.25506 1.02188 3.27535 0 0 0 92 111 121 255
1.29971 1.09543 3.25538 0 0 0 71 66 74 255
-0.794233 -0.807729 3.4721 0 0 0 146 149 147 255
-0.760095 -0.712801 3.47659 0 0 0 167 148 150 255
-0.546585 -0.510916 3.55483 0 0 0 35 85 74 255
-0.913889 -0.504993 3.53279 0 0 0 35 76 55 255
-0.617001 -0.422285 3.51246 0 0 0 161 162 166 255
-0.562013 -0.331024 3.54692 0 0 0 114 129 89 255
-0.463842 -0.350934 3.79388 0 0 0 137 138 81 255
-0.644735 -0.296354 3.50249 0 0 0 137 145 126 255
-0.9427 -0.197108 3.5961 0 0 0 50 81 50 255
-0.667762 -0.176917 3.4941 0 0 0 156 155 121 255
-0.440751 -0.0788462 3.79416 0 0 0 133 134 86 255
-0.938153 0.00482183 3.62087 0 0 0 26 54 40 255
0.155836 0.0768146 4.24424 0 0 0 52 56 70 255
0.140579 0.301195 4.22093 0 0 0 133 140 140 255
-0.940893 0.347206 3.65627 0 0 0 21 54 89 255
0.127935 0.418451 4.1221 0 0 0 140 119 104 255
0.0711803 0.496676 4.11266 0 0 0 49 59 63 255
0.419937 0.556333 4.33177 0 0 0 70 68 64 255
0.178252 0.555575 4.08791 0 0 0 143 147 149 255
-0.43125 0.50398 3.68174 0 0 0 117 90 107 255
0.232989 0.578169 4.08086 0 0 0 146 150 152 255
-0.834983 0.523874 3.55844 0 0 0 163 145 122 255
0.111486 0.605802 4.09451 0 0 0 126 125 126 255
-0.648784 0.536221 3.52756 0 0 0 41 101 92 255
-0.590687 0.554995 3.5386 0 0 0 112 152 172 255
-0.840532 0.571051 3.56814 0 0 0 161 131 97 255
1.14303 0.618857 3.56397 0 0 0 125 134 110 255
1.26021 0.663712 3.66512 0 0 0 125 149 149 255
-0.883053 0.722091 3.60048 0 0 0 46 58 84 255
-0.633733 0.726186 3.528 0 0 0 142 138 162 255
1.25527 0.759998 3.48864 0 0 0 158 158 156 255
-0.727377 0.76962 3.53247 0 0 0 164 165 164 255
1.34382 0.8025 3.36176 0 0 0 155 147 149 255
1.38689 0.804651 3.37204 0 0 0 50 72 62 255
-0.702265 0.850296 3.52817 0 0 0 86 96 104 255
-0.73118 0.890965 3.53341 0 0 0 171 168 169 255
-0.613984 0.896389 3.54395 0 0 0 170 170 170 255
-0.515494 0.924932 3.5952 0 0 0 88 101 126 255
-0.432551 1.12144 3.6755 0 0 0 174 154 94 255
-0.782966 1.12501 3.50489 0 0 0 152 157 158 255
-0.840838 -0.724211 3.48475 0 0 0 146 145 136 255
-0.56926 -0.539346 3.54488 0 0 0 159 160 155 255
-0.505604 -0.52724 3.5923 0 0 0 156 161 159 255
-0.757118 -0.503756 3.52632 0 0 0 56 99 52 255
-0.601447 -0.492154 3.55964 0 0 0 159 161 162 255
-0.735365 -0.3905 3.49098 0 0 0 157 161 162 255
-0.858892 -0.339944 3.51194 0 0 0 147 148 147 255
-0.525916 -0.0101238 3.5553 0 0 0 42 100 68 255
-0.463829 1.48146e-05 3.84759 0 0 0 88 117 107 255
0.293484 0.135921 4.3071 0 0 0 52 49 47 255
0.292243 0.174527 4.30825 0 0 0 65 69 73 255
0.109064 0.187173 4.27088 0 0 0 49 54 52 255
0.0173894 0.352449 4.30566 0 0 0 46 52 57 255
-0.458888 0.348598 3.87272 0 0 0 14 62 108 255
-0.543325 0.435927 3.56089 0 0 0 99 84 60 255
0.303722 0.544768 4.11537 0 0 0 148 148 152 255
0.0767824 0.578294 4.10918 0 0 0 59 65 64 255
-0.811544 0.52584 3.54811 0 0 0 159 142 91 255
-0.425672 0.539454 3.68048 0 0 0 158 134 144 255
1.24642 0.615912 3.60443 0 0 0 40 56 51 255
1.15488 0.622928 3.5399 0 0 0 139 144 149 255
1.34667 0.658864 3.5013 0 0 0 161 156 134 255
-0.477634 0.696723 3.62387 0 0 0 27 68 114 255
1.2631 0.695585 3.65694 0 0 0 134 152 151 255
-0.429665 0.720585 3.70746 0 0 0 156 158 158 255
-0.670236 0.728502 3.531 0 0 0 31 69 117 255
0.352663 0.842113 4.23666 0 0 0 35 42 43 255
0.157703 0.912854 4.10433 0 0 0 128 128 128 255
0.283598 0.917919 4.13719 0 0 0 133 134 131 255
-0.898782 0.834756 3.60984 0 0 0 31 63 91 255
-0.500224 0.846039 3.60141 0 0 0 167 170 173 255
-0.617641 0.879273 3.54424 0 0 0 166 171 173 255
-0.77358 0.915142 3.5459 0 0 0 166 166 166 255
-0.46631 1.00817 3.66126 0 0 0 1 97 146 255
-0.643892 -0.25916 3.49785 0 0 0 125 141 113 255
-0.632588 -0.214783 3.49994 0 0 0 46 98 129 255
