ply
format ascii 1.0
comment VCGLIB generated
element vertex 1011
property float x
property float y
property float z
property float nx
property float ny
property float nz
property uchar red
property uchar green
property uchar blue
property uchar alpha
element face 0
property list uchar int vertex_indices
end_header
-0.432702 0.797609 3.66578 0 0 0 88 94 110 255
0.759326 1.14865 5.26436 0 0 0 152 149 143 255
0.770004 1.10707 5.05911 0 0 0 131 125 122 255
-0.510203 0.785779 3.59507 0 0 0 83 89 99 255
-0.767591 0.781006 3.55744 0 0 0 123 124 134 255
-0.741835 0.779886 3.53236 0 0 0 107 112 121 255
-0.668189 0.780739 3.53764 0 0 0 128 146 176 255
-0.421938 0.814941 3.69546 0 0 0 154 157 170 255
0.90355 0.79206 3.58367 0 0 0 150 127 103 255
-0.818816 0.787162 3.56762 0 0 0 89 95 99 255
0.941795 0.781639 3.5007 0 0 0 77 78 89 255
-0.461237 0.818617 3.64552 0 0 0 88 93 96 255
0.923884 0.789622 3.51557 0 0 0 141 139 130 255
1.14384 0.758043 3.38511 0 0 0 157 155 156 255
1.15594 0.757687 3.38049 0 0 0 125 120 121 255
1.25724 0.767493 3.40712 0 0 0 134 90 80 255
1.28838 0.764209 3.39456 0 0 0 70 66 55 255
0.767767 1.11481 4.86562 0 0 0 81 78 78 255
-0.612913 0.808409 3.5452 0 0 0 74 80 102 255
0.94468 0.798058 3.49736 0 0 0 146 142 141 255
1.3268 0.766797 3.38885 0 0 0 94 109 108 255
-0.769715 0.81227 3.5438 0 0 0 120 126 131 255
-0.623938 0.814318 3.541 0 0 0 73 83 93 255
-0.504025 0.826188 3.59873 0 0 0 133 136 141 255
-0.447011 0.836211 3.65488 0 0 0 164 164 170 255
1.16998 0.772274 3.36622 0 0 0 123 105 88 255
1.2948 0.776787 3.38308 0 0 0 127 137 120 255
-0.508939 0.833321 3.59608 0 0 0 84 89 97 255
0.205947 0.947452 4.10276 0 0 0 105 106 103 255
-0.456469 0.848896 3.64797 0 0 0 69 73 102 255
1.29061 0.783121 3.37844 0 0 0 131 121 97 255
1.37129 0.78807 3.39326 0 0 0 124 123 123 255
-0.753367 0.828511 3.53571 0 0 0 106 110 129 255
1.24634 0.791424 3.36301 0 0 0 118 104 105 255
1.36151 0.798783 3.3926 0 0 0 88 92 85 255
-0.891946 0.860223 3.61803 0 0 0 101 117 145 255
1.15075 0.801204 3.36357 0 0 0 79 64 60 255
1.31388 0.80004 3.36704 0 0 0 131 140 142 255
-0.612562 0.851582 3.54557 0 0 0 147 147 147 255
-0.484896 0.866097 3.62043 0 0 0 157 159 161 255
-0.623318 0.86174 3.5421 0 0 0 81 87 94 255
-0.502298 0.870584 3.5988 0 0 0 152 153 156 255
-0.865213 0.890409 3.59639 0 0 0 74 78 92 255
-0.809704 0.874037 3.56274 0 0 0 75 83 100 255
0.975972 0.835649 3.44344 0 0 0 102 97 96 255
1.06378 0.824692 3.39437 0 0 0 114 77 81 255
1.36713 0.818103 3.38492 0 0 0 139 135 134 255
0.891951 0.860384 3.51682 0 0 0 71 107 122 255
-0.543493 0.882342 3.57268 0 0 0 166 166 166 255
-0.682258 0.884578 3.5384 0 0 0 43 69 114 255
-0.56963 0.884868 3.56276 0 0 0 168 172 172 255
-0.570145 0.893577 3.56289 0 0 0 168 169 169 255
-0.6915 0.900628 3.53489 0 0 0 165 173 175 255
0.946832 0.872898 3.45312 0 0 0 47 46 65 255
1.2214 0.842484 3.33474 0 0 0 132 115 102 255
0.90773 0.883228 3.48679 0 0 0 61 72 80 255
-0.680465 0.912084 3.53713 0 0 0 123 128 138 255
-0.665612 0.918927 3.54159 0 0 0 153 155 167 255
-0.44633 0.951101 3.65769 0 0 0 117 147 169 255
-0.587071 0.929445 3.55731 0 0 0 103 119 143 255
-0.457132 0.966616 3.65511 0 0 0 27 106 144 255
1.23907 0.875036 3.32408 0 0 0 120 123 122 255
-0.809438 0.954027 3.56817 0 0 0 78 82 107 255
1.29389 0.888 3.32532 0 0 0 69 63 59 255
0.937416 0.923572 3.44258 0 0 0 134 128 115 255
-0.827326 0.966028 3.57821 0 0 0 158 160 161 255
-0.535348 0.975912 3.58883 0 0 0 49 108 152 255
1.21978 0.913559 3.32742 0 0 0 123 116 116 255
1.16435 0.922827 3.34217 0 0 0 98 87 84 255
1.10813 0.935392 3.3542 0 0 0 117 97 81 255
-0.620243 0.991047 3.54954 0 0 0 64 115 150 255
-0.45067 1.02403 3.65879 0 0 0 29 89 132 255
-0.535902 1.00558 3.58395 0 0 0 79 109 136 255
1.22873 0.934611 3.32888 0 0 0 134 131 132 255
-0.490608 1.02282 3.60702 0 0 0 7 112 153 255
-0.42004 1.04407 3.69269 0 0 0 96 127 146 255
1.06036 0.955773 3.37501 0 0 0 99 92 86 255
1.19167 0.946296 3.33123 0 0 0 85 78 80 255
-0.465294 1.04599 3.66256 0 0 0 111 143 163 255
0.231479 1.18339 4.11086 0 0 0 104 103 107 255
-0.425398 1.06932 3.69651 0 0 0 118 125 134 255
1.16876 0.971998 3.34552 0 0 0 93 103 111 255
-0.615569 1.05383 3.54856 0 0 0 67 109 132 255
-0.797278 1.07 3.56922 0 0 0 68 135 176 255
0.888295 1.09235 3.67916 0 0 0 104 113 113 255
-0.632417 1.06528 3.54604 0 0 0 79 131 177 255
-0.831053 1.08039 3.5709 0 0 0 25 89 129 255
-0.626656 1.08382 3.54798 0 0 0 75 85 111 255
-0.833121 1.09228 3.57073 0 0 0 52 101 138 255
-0.645073 1.08912 3.54323 0 0 0 159 167 170 255
-0.701069 1.09298 3.54809 0 0 0 122 110 126 255
-0.770748 1.10088 3.54561 0 0 0 103 107 121 255
1.0309 1.0597 3.40117 0 0 0 62 81 91 255
1.28663 1.03544 3.33948 0 0 0 92 81 87 255
1.3238 1.03454 3.33043 0 0 0 105 103 103 255
1.29578 1.06769 3.3371 0 0 0 86 81 83 255
1.29628 1.07342 3.33894 0 0 0 79 73 81 255
1.27297 1.08854 3.34307 0 0 0 95 103 112 255
-0.452106 1.20827 3.64731 0 0 0 95 135 171 255
1.25277 1.10843 3.34498 0 0 0 68 74 83 255
1.30931 1.11508 3.35049 0 0 0 85 80 82 255
-0.816399 1.20231 3.56271 0 0 0 82 133 166 255
-0.449424 1.23241 3.65177 0 0 0 161 164 173 255
-0.779013 1.20307 3.55547 0 0 0 63 121 167 255
-0.50732 1.21612 3.60311 0 0 0 129 158 181 255
-0.505586 1.23539 3.59935 0 0 0 167 169 172 255
-0.534799 1.24212 3.59267 0 0 0 86 126 155 255
-0.812374 1.23654 3.55082 0 0 0 110 122 134 255
1.33372 1.17805 3.40497 0 0 0 46 65 84 255
-0.777846 1.24069 3.54172 0 0 0 111 131 145 255
1.31705 1.1997 3.42663 0 0 0 123 134 142 255
1.33595 1.19992 3.42653 0 0 0 125 129 134 255
-0.658856 -0.821219 3.49408 0 0 0 142 149 149 255
-0.726528 -0.744352 3.48199 0 0 0 106 32 37 255
-0.696361 -0.746412 3.48533 0 0 0 111 41 51 255
-0.652268 -0.741476 3.49965 0 0 0 113 49 55 255
-0.642135 -0.736059 3.5034 0 0 0 123 51 59 255
-0.603676 -0.737466 3.51933 0 0 0 159 158 158 255
-0.681948 -0.721105 3.48806 0 0 0 134 63 70 255
-0.545522 -0.733064 3.56025 0 0 0 128 130 132 255
-0.688816 -0.698839 3.48808 0 0 0 139 50 55 255
-0.575867 -0.702692 3.53903 0 0 0 132 39 50 255
-0.600563 -0.689031 3.52114 0 0 0 163 153 154 255
-0.75853 -0.599813 3.49066 0 0 0 100 119 104 255
-0.638404 -0.607975 3.50296 0 0 0 158 160 154 255
-0.643007 -0.586974 3.50089 0 0 0 154 163 163 255
-0.616839 -0.573539 3.51272 0 0 0 158 162 161 255
-0.537411 -0.589375 3.55682 0 0 0 34 91 63 255
-0.55709 -0.576179 3.54699 0 0 0 139 161 147 255
-0.623764 -0.568407 3.50965 0 0 0 156 160 159 255
-0.702111 -0.541869 3.48052 0 0 0 92 117 112 255
-0.493738 -0.506276 3.60559 0 0 0 157 161 162 255
-0.635509 -0.430379 3.50482 0 0 0 108 140 119 255
-0.505741 -0.276568 3.57859 0 0 0 129 134 113 255
-0.561022 -0.226049 3.53442 0 0 0 119 140 94 255
-0.706282 -0.168709 3.49158 0 0 0 72 111 63 255
-0.661534 -0.153175 3.49693 0 0 0 91 80 27 255
-0.632643 -0.153311 3.50318 0 0 0 96 90 38 255
-0.703984 -0.0983209 3.49702 0 0 0 77 107 83 255
-0.620632 -0.0279243 3.50709 0 0 0 135 149 136 255
0.184693 0.0737425 4.24347 0 0 0 43 40 41 255
0.0591547 0.0796482 4.30346 0 0 0 106 103 104 255
0.0451928 0.172828 4.30122 0 0 0 140 140 142 255
0.107421 0.424337 4.12986 0 0 0 120 100 76 255
0.426998 0.445267 4.28751 0 0 0 62 67 70 255
0.423163 0.488793 4.27739 0 0 0 82 84 88 255
0.0167886 0.496136 4.15622 0 0 0 99 108 110 255
0.260163 0.479661 4.08852 0 0 0 110 112 116 255
2.13049 0.718854 6.11759 0 0 0 116 108 102 255
0.0875737 0.498309 4.10585 0 0 0 125 131 135 255
0.224469 0.490318 4.0795 0 0 0 60 67 72 255
-0.699716 0.428026 3.52019 0 0 0 124 126 124 255
0.2387 0.502263 4.07994 0 0 0 136 142 142 255
-0.583791 0.458527 3.54054 0 0 0 136 116 98 255
-0.838926 0.47472 3.54639 0 0 0 86 113 142 255
0.0662393 0.543189 4.11222 0 0 0 52 46 48 255
-0.413669 0.51989 3.78259 0 0 0 55 92 119 255
0.0383587 0.570905 4.12616 0 0 0 45 48 47 255
0.113372 0.580269 4.0972 0 0 0 41 47 52 255
0.248706 0.572788 4.08779 0 0 0 54 49 49 255
0.328595 0.573125 4.11608 0 0 0 44 41 38 255
0.156713 0.583468 4.08345 0 0 0 48 46 44 255
0.304038 0.594179 4.10888 0 0 0 132 132 132 255
-0.619581 0.520661 3.53024 0 0 0 125 150 152 255
-0.561474 0.518417 3.55479 0 0 0 156 165 174 255
0.218411 0.598171 4.08238 0 0 0 74 68 68 255
0.254842 0.598031 4.09348 0 0 0 143 146 152 255
-0.510099 0.554588 3.58853 0 0 0 35 79 126 255
-0.638103 0.559257 3.526 0 0 0 43 99 91 255
-0.616266 0.55876 3.53318 0 0 0 159 164 162 255
-0.434878 0.594704 3.67677 0 0 0 103 128 147 255
1.11193 0.602847 3.54275 0 0 0 110 135 119 255
0.149638 0.722912 4.0957 0 0 0 112 97 73 255
-0.505893 0.639989 3.59483 0 0 0 163 168 170 255
-0.797352 0.6364 3.54023 0 0 0 133 147 161 255
-0.413488 0.679784 3.81696 0 0 0 22 69 113 255
0.148847 0.728288 4.09589 0 0 0 112 97 73 255
-0.635892 0.643223 3.53298 0 0 0 140 158 185 255
1.30477 0.633667 3.46696 0 0 0 126 130 118 255
1.14772 0.642193 3.47991 0 0 0 108 85 90 255
-0.544127 0.671251 3.58042 0 0 0 90 94 106 255
-0.421013 0.701502 3.75673 0 0 0 150 155 164 255
1.07748 0.655237 3.50502 0 0 0 103 81 75 255
-0.699958 0.668584 3.52242 0 0 0 160 164 167 255
-0.582759 0.672883 3.53814 0 0 0 78 82 99 255
1.04409 0.668014 3.5285 0 0 0 137 132 133 255
-0.452491 0.704073 3.65109 0 0 0 57 80 125 255
-0.697552 0.692751 3.52549 0 0 0 164 166 168 255
-0.85588 0.72813 3.58346 0 0 0 54 57 83 255
0.927039 0.738274 3.59799 0 0 0 126 125 111 255
-0.636289 0.739899 3.53697 0 0 0 164 166 180 255
-0.47744 0.747251 3.62928 0 0 0 153 163 173 255
0.941639 0.735982 3.54845 0 0 0 107 52 50 255
-0.705408 0.74427 3.5283 0 0 0 165 170 168 255
1.09663 0.718614 3.43899 0 0 0 153 154 153 255
-0.817488 0.784153 3.56484 0 0 0 99 105 108 255
-0.583873 0.776196 3.55298 0 0 0 168 173 172 255
-0.461254 0.802837 3.64441 0 0 0 76 78 89 255
-0.66912 0.783169 3.53776 0 0 0 128 146 176 255
0.903207 0.795429 3.57007 0 0 0 133 130 109 255
1.3541 0.764755 3.39624 0 0 0 36 72 60 255
-0.447558 0.829298 3.65573 0 0 0 164 165 174 255
0.712131 1.28859 5.66658 0 0 0 126 125 119 255
-0.476502 0.859456 3.6368 0 0 0 164 168 169 255
1.25278 0.792634 3.35599 0 0 0 78 79 73 255
-0.611593 0.854817 3.54569 0 0 0 92 96 111 255
-0.867157 0.891972 3.59804 0 0 0 120 125 126 255
-0.800707 0.879758 3.55925 0 0 0 50 67 106 255
-0.539218 0.876609 3.57396 0 0 0 170 172 171 255
-0.583377 0.894711 3.55757 0 0 0 167 170 169 255
-0.81061 0.910825 3.56758 0 0 0 65 78 103 255
-0.703774 0.901231 3.53053 0 0 0 169 171 171 255
-0.619521 0.905255 3.54159 0 0 0 128 128 130 255
-0.6805 0.913394 3.53707 0 0 0 92 97 114 255
-0.709011 0.925103 3.53204 0 0 0 168 168 168 255
-0.523071 0.948284 3.586 0 0 0 153 160 169 255
-0.783483 0.952891 3.5618 0 0 0 162 164 164 255
-0.420923 1.04946 3.69527 0 0 0 125 137 144 255
-0.609923 1.05284 3.55695 0 0 0 20 119 157 255
0.858734 1.09496 3.70674 0 0 0 50 60 60 255
-0.632229 1.05902 3.54795 0 0 0 151 161 170 255
-0.6531 1.05638 3.53766 0 0 0 33 96 141 255
-0.742521 1.08329 3.554 0 0 0 27 92 136 255
0.252444 1.33233 4.26961 0 0 0 185 190 195 255
0.269681 1.32654 4.2629 0 0 0 213 216 225 255
1.27417 1.03773 3.34329 0 0 0 81 78 88 255
-0.762497 1.11038 3.52926 0 0 0 85 93 112 255
-0.718629 1.13194 3.5404 0 0 0 163 166 168 255
1.27834 1.07208 3.34279 0 0 0 99 107 111 255
-0.628382 1.14185 3.54443 0 0 0 87 111 134 255
1.29523 1.07803 3.34102 0 0 0 80 74 82 255
-0.786909 1.16657 3.55611 0 0 0 129 134 137 255
1.25585 1.10104 3.34518 0 0 0 65 66 71 255
-0.507256 1.22685 3.60471 0 0 0 168 168 170 255
1.32927 1.14171 3.36355 0 0 0 145 150 151 255
-0.545172 1.24171 3.59496 0 0 0 75 123 153 255
1.31992 1.20829 3.43035 0 0 0 140 149 149 255
1.31781 1.19578 3.42407 0 0 0 123 134 142 255
-0.661465 -0.819181 3.49435 0 0 0 150 152 152 255
-0.557415 -0.755436 3.55366 0 0 0 162 145 145 255
-0.680884 -0.716565 3.48897 0 0 0 137 77 84 255
-0.573685 -0.728872 3.54068 0 0 0 140 84 89 255
-0.703878 -0.701002 3.48601 0 0 0 126 43 53 255
-0.576413 -0.702221 3.53775 0 0 0 132 39 50 255
-0.627441 -0.692755 3.50787 0 0 0 128 80 89 255
-0.744756 -0.596694 3.49617 0 0 0 157 157 157 255
-0.686436 -0.597975 3.48544 0 0 0 161 163 162 255
-0.625788 -0.598656 3.50843 0 0 0 155 162 163 255
-0.632384 -0.577072 3.50574 0 0 0 160 165 165 255
-0.750287 -0.557452 3.49697 0 0 0 154 161 163 255
-0.50179 -0.577321 3.606 0 0 0 156 159 158 255
-0.54728 -0.530198 3.55427 0 0 0 69 94 88 255
-0.489933 -0.469287 3.60407 0 0 0 137 142 140 255
-0.697038 -0.446623 3.48134 0 0 0 51 102 65 255
-0.530269 -0.451276 3.57059 0 0 0 138 146 139 255
-0.633078 -0.428191 3.50577 0 0 0 160 163 157 255
-0.7567 -0.422013 3.49143 0 0 0 81 106 88 255
-0.622329 -0.41069 3.50993 0 0 0 159 164 162 255
-0.674914 -0.385645 3.48939 0 0 0 158 163 163 255
-0.756399 -0.37362 3.4921 0 0 0 152 159 157 255
-0.548911 -0.325882 3.54878 0 0 0 130 142 124 255
-0.504681 -0.276441 3.57928 0 0 0 129 134 113 255
-0.598936 -0.265758 3.51999 0 0 0 19 102 140 255
-0.625763 -0.219649 3.50785 0 0 0 111 132 92 255
-0.587049 -0.208336 3.5223 0 0 0 10 69 118 255
-0.585229 -0.155424 3.5245 0 0 0 81 77 29 255
-0.506968 -0.144377 3.57756 0 0 0 165 139 53 255
-0.703752 -0.101027 3.49659 0 0 0 77 107 83 255
-0.763741 -0.0774525 3.49851 0 0 0 130 134 129 255
-0.554846 -0.0291007 3.53961 0 0 0 146 154 152 255
-0.619331 -0.0250476 3.50779 0 0 0 155 163 158 255
-0.435025 -0.0137175 3.83706 0 0 0 71 108 89 255
0.0826699 0.0704792 4.30308 0 0 0 61 61 61 255
0.297601 0.0682509 4.3031 0 0 0 82 82 82 255
0.210596 0.114826 4.25162 0 0 0 151 102 105 255
0.318455 0.155814 4.30685 0 0 0 70 74 77 255
0.310314 0.186904 4.30631 0 0 0 50 54 55 255
0.220722 0.231417 4.26535 0 0 0 186 184 185 255
0.297256 0.22787 4.30866 0 0 0 125 125 125 255
0.226868 0.298853 4.26833 0 0 0 254 254 254 255
0.0267098 0.320903 4.31268 0 0 0 63 63 63 255
-0.425196 0.328462 3.84566 0 0 0 41 64 106 255
0.114089 0.402702 4.13018 0 0 0 205 198 193 255
0.215701 0.400479 4.1063 0 0 0 143 109 71 255
0.108606 0.421638 4.12964 0 0 0 145 129 116 255
0.217732 0.420337 4.10551 0 0 0 167 135 93 255
0.301038 0.425078 4.11756 0 0 0 101 104 109 255
0.429048 0.44843 4.29303 0 0 0 68 72 75 255
-0.52606 0.4294 3.57121 0 0 0 155 128 98 255
0.239019 0.487248 4.08037 0 0 0 94 105 115 255
-0.787927 0.43446 3.52443 0 0 0 143 138 103 255
-0.748958 0.436017 3.52067 0 0 0 123 116 114 255
-0.69102 0.434769 3.52036 0 0 0 122 111 69 255
-0.650699 0.434205 3.52027 0 0 0 83 74 67 255
-0.626707 0.435405 3.52855 0 0 0 147 133 95 255
0.159297 0.50076 4.0795 0 0 0 140 146 146 255
0.19626 0.502492 4.07807 0 0 0 43 47 48 255
-0.724348 0.443115 3.52043 0 0 0 135 129 114 255
0.3132 0.514722 4.11268 0 0 0 139 143 144 255
-0.790904 0.463555 3.53106 0 0 0 102 107 107 255
-0.490635 0.458527 3.60003 0 0 0 32 62 109 255
0.215559 0.525775 4.08009 0 0 0 147 150 153 255
-0.412759 0.51098 3.79947 0 0 0 23 78 122 255
0.110223 0.554522 4.0967 0 0 0 45 44 39 255
-0.810821 0.489477 3.54145 0 0 0 10 68 120 255
0.251603 0.575574 4.08967 0 0 0 58 59 60 255
0.311775 0.564629 4.10995 0 0 0 143 149 150 255
0.351649 0.583891 4.12835 0 0 0 138 144 144 255
0.0165248 0.586509 4.16296 0 0 0 92 101 101 255
0.129156 0.590491 4.0902 0 0 0 117 120 121 255
0.191946 0.596556 4.07909 0 0 0 146 149 147 255
-0.617423 0.530594 3.53186 0 0 0 161 164 166 255
-0.41225 0.58087 3.79207 0 0 0 34 88 134 255
-0.617475 0.561076 3.53285 0 0 0 159 164 162 255
-0.441243 0.571462 3.66204 0 0 0 154 161 165 255
1.12278 0.60155 3.53954 0 0 0 125 137 119 255
1.20538 0.595255 3.50798 0 0 0 41 52 46 255
1.18209 0.612533 3.50647 0 0 0 140 144 146 255
-0.504796 0.641476 3.59573 0 0 0 163 168 170 255
0.147233 0.7261 4.09645 0 0 0 112 97 73 255
0.217258 0.731953 4.0878 0 0 0 121 92 61 255
-0.837583 0.656314 3.56964 0 0 0 21 59 105 255
-0.789232 0.647273 3.54284 0 0 0 160 162 161 255
-0.632295 0.646454 3.53476 0 0 0 160 163 176 255
-0.743092 0.657004 3.54135 0 0 0 30 61 108 255
1.3153 0.635506 3.46075 0 0 0 143 143 126 255
-0.430151 0.69924 3.68207 0 0 0 135 151 172 255
-0.441325 0.703566 3.65847 0 0 0 159 165 171 255
-0.70419 0.678058 3.5224 0 0 0 165 168 167 255
-0.0317375 0.849882 4.30802 0 0 0 60 60 60 255
-0.560588 0.706299 3.57996 0 0 0 105 110 125 255
-0.48081 0.717749 3.62424 0 0 0 45 66 109 255
-0.736128 0.717095 3.52768 0 0 0 60 75 98 255
-0.865204 0.736594 3.58913 0 0 0 25 57 98 255
1.35605 0.715382 3.41441 0 0 0 138 136 121 255
-0.7077 0.747265 3.52829 0 0 0 167 170 169 255
-0.653424 0.74891 3.53553 0 0 0 33 73 121 255
-0.487054 0.772299 3.62678 0 0 0 167 170 170 255
-0.810939 0.777373 3.56099 0 0 0 66 71 96 255
0.771642 1.0935 4.99732 0 0 0 138 134 129 255
-0.661566 0.786538 3.53949 0 0 0 165 171 176 255
-0.587429 0.787006 3.55224 0 0 0 170 175 173 255
-0.43295 0.818418 3.66544 0 0 0 49 62 96 255
1.35508 0.746634 3.41259 0 0 0 32 68 56 255
0.768086 1.11341 4.87493 0 0 0 111 109 107 255
-0.74948 0.830121 3.5341 0 0 0 79 86 103 255
1.34264 0.784111 3.38539 0 0 0 141 120 127 255
1.17452 0.787517 3.35736 0 0 0 161 166 174 255
1.1422 0.801086 3.36754 0 0 0 86 81 69 255
1.195 0.810408 3.34414 0 0 0 95 54 54 255
1.36347 0.812244 3.38585 0 0 0 125 122 121 255
-0.689286 0.863134 3.53659 0 0 0 41 74 116 255
-0.53408 0.882239 3.57659 0 0 0 166 171 169 255
-0.802976 0.883021 3.56031 0 0 0 51 66 106 255
-0.58788 0.882663 3.55537 0 0 0 171 174 174 255
1.1524 0.827112 3.35304 0 0 0 134 131 132 255
-0.652789 0.912645 3.54628 0 0 0 168 170 170 255
1.06512 0.875131 3.38342 0 0 0 97 96 97 255
-0.705885 0.922332 3.53146 0 0 0 167 169 168 255
-0.444904 0.954153 3.65713 0 0 0 117 147 169 255
-0.744751 0.932499 3.54662 0 0 0 69 77 97 255
-0.838299 0.955068 3.58347 0 0 0 159 162 162 255
-0.520585 0.990075 3.58824 0 0 0 151 158 165 255
1.09078 0.937038 3.36241 0 0 0 105 74 55 255
-0.617051 1.00074 3.55371 0 0 0 148 163 178 255
-0.437572 1.0434 3.68528 0 0 0 147 159 159 255
-0.628146 1.04663 3.54165 0 0 0 128 144 161 255
-0.593468 1.04466 3.55051 0 0 0 17 115 155 255
0.862358 1.0983 3.71912 0 0 0 50 60 60 255
1.17033 0.986932 3.34167 0 0 0 86 75 77 255
-0.80175 1.07922 3.55057 0 0 0 99 140 170 255
-0.687008 1.07054 3.54061 0 0 0 92 130 159 255
-0.426351 1.1067 3.68416 0 0 0 159 154 140 255
-0.786693 1.16141 3.55449 0 0 0 133 139 143 255
-0.684851 1.16354 3.53577 0 0 0 135 139 149 255
1.25349 1.09928 3.34505 0 0 0 65 66 71 255
-0.811975 1.21429 3.55335 0 0 0 100 130 154 255
1.33467 1.14195 3.36296 0 0 0 148 152 153 255
-0.667764 -0.819337 3.49341 0 0 0 143 143 143 255
-0.701323 -0.710396 3.48541 0 0 0 131 41 47 255
-0.576563 -0.719601 3.53747 0 0 0 131 61 67 255
-0.668618 -0.700058 3.49287 0 0 0 167 142 146 255
-0.539069 -0.674986 3.56392 0 0 0 136 137 134 255
-0.70502 -0.591435 3.48204 0 0 0 158 163 160 255
-0.62647 -0.576989 3.50801 0 0 0 158 164 163 255
-0.70869 -0.442764 3.48215 0 0 0 48 98 65 255
-0.489292 -0.47893 3.60503 0 0 0 124 144 143 255
-0.751573 -0.385144 3.49499 0 0 0 155 159 158 255
-0.504792 -0.268809 3.57917 0 0 0 124 134 109 255
-0.596551 -0.208119 3.51706 0 0 0 14 72 120 255
-0.762797 -0.171648 3.49439 0 0 0 134 144 127 255
-0.648305 -0.160737 3.49921 0 0 0 123 112 56 255
-0.515254 -0.13168 3.57389 0 0 0 160 128 41 255
0.0666062 0.0797983 4.30379 0 0 0 70 67 68 255
0.295653 0.0801449 4.30353 0 0 0 55 55 55 255
-0.465742 0.111658 3.83241 0 0 0 172 170 170 255
0.0489934 0.21879 4.30431 0 0 0 153 153 153 255
0.15507 0.225956 4.20832 0 0 0 114 116 120 255
0.217973 0.220762 4.24357 0 0 0 99 98 101 255
0.0346375 0.245562 4.30513 0 0 0 154 156 155 255
0.353132 0.313295 4.30755 0 0 0 63 61 60 255
0.0273516 0.315727 4.31237 0 0 0 63 63 63 255
0.0373506 0.498086 4.13235 0 0 0 60 60 58 255
2.13348 0.766738 6.11187 0 0 0 52 41 38 255
-0.454587 0.488379 3.6401 0 0 0 110 139 157 255
0.258949 0.533735 4.08981 0 0 0 43 49 49 255
0.337689 0.564948 4.11815 0 0 0 133 139 140 255
-0.837202 0.505895 3.55499 0 0 0 107 112 119 255
-0.806797 0.474038 3.53609 0 0 0 15 58 109 255
-0.691333 0.559039 3.51935 0 0 0 150 157 154 255
-0.609429 0.539647 3.53506 0 0 0 80 122 136 255
-0.451776 0.568894 3.64418 0 0 0 149 156 162 255
1.12889 0.604983 3.53107 0 0 0 131 142 120 255
1.21476 0.60151 3.51148 0 0 0 43 65 60 255
-0.837541 0.642423 3.56403 0 0 0 16 70 113 255
-0.517411 0.664549 3.59157 0 0 0 167 170 170 255
-0.412826 0.678476 3.81979 0 0 0 22 69 113 255
-0.627666 0.651645 3.5369 0 0 0 164 168 169 255
-0.614113 0.693959 3.54339 0 0 0 169 171 173 255
-0.869082 0.737712 3.59252 0 0 0 25 57 98 255
-0.709874 0.716123 3.52599 0 0 0 44 59 93 255
-0.71821 0.782268 3.52729 0 0 0 165 170 170 255
-0.414672 0.825995 3.72552 0 0 0 103 109 122 255
0.8636 0.857793 3.86185 0 0 0 111 97 100 255
-0.630167 0.869365 3.54011 0 0 0 140 151 163 255
0.942354 0.876572 3.45603 0 0 0 51 49 60 255
-0.508521 0.941633 3.5909 0 0 0 133 157 171 255
-0.825017 0.964616 3.57742 0 0 0 158 160 161 255
-0.478078 1.01071 3.65829 0 0 0 4 110 156 255
-0.472051 1.02304 3.6555 0 0 0 6 104 150 255
-0.5784 1.03891 3.55207 0 0 0 3 115 159 255
-0.804798 1.08973 3.57508 0 0 0 147 151 155 255
-0.724612 1.0644 3.54119 0 0 0 24 91 137 255
-0.436785 1.12595 3.66106 0 0 0 161 146 99 255
-0.819656 1.13164 3.56391 0 0 0 149 160 171 255
1.25038 1.07528 3.3471 0 0 0 68 84 92 255
-0.735931 1.15973 3.54803 0 0 0 40 85 131 255
-0.580625 1.16699 3.56749 0 0 0 173 164 128 255
-0.805247 1.2222 3.55649 0 0 0 108 137 156 255
-0.719503 -0.574452 3.48374 0 0 0 155 162 162 255
-0.510759 -0.578732 3.5933 0 0 0 153 159 157 255
-0.496555 -0.51165 3.60633 0 0 0 150 156 155 255
-0.732331 -0.404296 3.50347 0 0 0 157 162 160 255
-0.549161 -0.316433 3.54743 0 0 0 120 136 94 255
-0.656144 -0.276803 3.50173 0 0 0 132 142 120 255
-0.596673 -0.201264 3.51799 0 0 0 12 68 117 255
-0.520522 -0.164087 3.57216 0 0 0 163 141 53 255
-0.761308 -0.0830285 3.49836 0 0 0 136 133 134 255
-0.446958 -0.0227434 3.82439 0 0 0 59 104 80 255
0.0810453 0.0932373 4.30471 0 0 0 82 52 55 255
0.294379 0.0863455 4.30414 0 0 0 52 52 52 255
0.0877883 0.179684 4.30505 0 0 0 41 47 52 255
0.277417 0.185537 4.29762 0 0 0 53 54 52 255
0.216778 0.290014 4.26737 0 0 0 192 194 198 255
0.355405 0.336068 4.30795 0 0 0 53 57 63 255
0.118821 0.408547 4.12915 0 0 0 171 163 157 255
0.0741569 0.521707 4.10807 0 0 0 51 54 53 255
0.321083 0.523958 4.11382 0 0 0 120 122 123 255
-0.452989 0.496425 3.64216 0 0 0 139 156 164 255
0.188981 0.568565 4.0786 0 0 0 141 149 153 255
0.280349 0.556809 4.0993 0 0 0 41 49 55 255
-0.869855 0.517145 3.59171 0 0 0 138 116 107 255
1.07266 0.577315 3.79774 0 0 0 112 115 111 255
-0.421405 0.663619 3.79979 0 0 0 36 92 129 255
0.149475 0.730427 4.09594 0 0 0 115 95 72 255
0.228811 0.729757 4.08975 0 0 0 111 92 70 255
-0.886339 0.678881 3.61801 0 0 0 150 155 153 255
-0.614938 0.687176 3.54232 0 0 0 168 171 171 255
-0.489025 0.691631 3.6091 0 0 0 109 117 124 255
0.401294 0.838956 4.25464 0 0 0 50 55 59 255
-0.875845 0.745959 3.59807 0 0 0 27 58 94 255
0.130049 0.923917 4.12997 0 0 0 130 133 131 255
0.265208 0.918714 4.11948 0 0 0 137 141 140 255
0.860298 0.875308 3.8835 0 0 0 108 103 105 255
-0.418414 0.842233 3.70812 0 0 0 38 73 113 255
-0.472837 0.848214 3.63886 0 0 0 164 168 169 255
1.12259 0.806379 3.37078 0 0 0 85 89 86 255
-0.841208 0.962115 3.58603 0 0 0 158 161 160 255
-0.798944 0.946693 3.56017 0 0 0 154 155 157 255
-0.451283 1.01665 3.66449 0 0 0 18 90 137 255
-0.613414 1.00952 3.54888 0 0 0 152 155 163 255
-0.446476 1.06804 3.66195 0 0 0 140 122 113 255
-0.619933 -0.204394 3.50821 0 0 0 72 97 70 255
-0.459928 -0.0343362 3.74766 0 0 0 52 100 72 255
-0.710058 -0.00521534 3.50016 0 0 0 26 67 39 255
0.252872 0.0924947 4.2646 0 0 0 102 50 48 255
0.0560063 0.0804745 4.30365 0 0 0 106 103 104 255
0.251203 0.140266 4.22998 0 0 0 50 42 45 255
0.0158489 0.324474 4.31184 0 0 0 61 64 67 255
0.34372 0.369069 4.3002 0 0 0 52 51 56 255
-0.452382 0.355189 3.80333 0 0 0 22 69 117 255
-0.815687 0.539723 3.55709 0 0 0 157 140 91 255
-0.46253 0.652513 3.62089 0 0 0 19 72 123 255
-0.785897 0.73679 3.5518 0 0 0 161 163 168 255
0.00635767 0.846609 4.29519 0 0 0 40 45 46 255
0.34438 0.831814 4.25279 0 0 0 39 44 46 255
-0.683955 0.722082 3.53275 0 0 0 35 66 115 255
-0.681973 0.7869 3.53417 0 0 0 41 68 109 255
0.192686 0.919386 4.09486 0 0 0 138 144 147 255
-0.425788 0.86478 3.6821 0 0 0 42 78 117 255
-0.743846 -0.827967 3.47643 0 0 0 122 130 124 255
-0.788518 -0.821968 3.47483 0 0 0 81 101 87 255
-0.760986 -0.820103 3.47908 0 0 0 145 146 145 255
-0.743334 -0.817378 3.47051 0 0 0 154 155 154 255
-0.83157 -0.821068 3.48106 0 0 0 80 106 89 255
-0.737775 -0.80803 3.48117 0 0 0 107 121 119 255
-0.683289 -0.804397 3.48932 0 0 0 53 76 70 255
-0.88313 -0.814756 3.49691 0 0 0 71 89 69 255
-0.805029 -0.809543 3.48749 0 0 0 136 137 135 255
-0.762059 -0.801021 3.47279 0 0 0 72 92 80 255
-0.742328 -0.800478 3.47236 0 0 0 120 120 120 255
-0.713526 -0.808432 3.48526 0 0 0 70 80 72 255
-0.670313 -0.804568 3.49247 0 0 0 141 139 137 255
-0.925843 -0.814859 3.51338 0 0 0 81 82 74 255
-0.902206 -0.805333 3.50307 0 0 0 53 51 49 255
-0.795939 -0.796307 3.48056 0 0 0 105 122 118 255
-0.965227 -0.816109 3.55501 0 0 0 116 115 113 255
-0.841233 -0.791119 3.48919 0 0 0 101 100 92 255
-0.87003 -0.782346 3.49482 0 0 0 83 96 91 255
-0.917793 -0.788118 3.51634 0 0 0 120 125 123 255
-0.634422 -0.754366 3.50671 0 0 0 155 149 137 255
-0.765552 -0.741065 3.47967 0 0 0 99 90 88 255
-0.820971 -0.727938 3.48394 0 0 0 81 56 56 255
-0.81453 -0.72523 3.48288 0 0 0 116 64 63 255
-0.896501 -0.723973 3.51101 0 0 0 68 54 52 255
-0.767351 -0.71401 3.48186 0 0 0 169 133 136 255
-0.860649 -0.714315 3.49402 0 0 0 86 71 73 255
-0.845508 -0.712614 3.49193 0 0 0 150 148 148 255
-0.807249 -0.70883 3.48385 0 0 0 158 147 151 255
-0.789175 -0.706207 3.48436 0 0 0 93 55 58 255
-0.951142 -0.716817 3.54601 0 0 0 73 52 49 255
-0.807521 -0.688607 3.48499 0 0 0 112 57 62 255
-0.761228 -0.685431 3.48358 0 0 0 128 41 45 255
-0.926682 -0.701172 3.53662 0 0 0 120 102 105 255
-0.837823 -0.676453 3.49512 0 0 0 109 49 54 255
-0.888212 -0.676069 3.51271 0 0 0 106 81 85 255
-0.94171 -0.613542 3.55262 0 0 0 120 121 114 255
-0.809434 -0.596151 3.49288 0 0 0 135 141 134 255
-0.79323 -0.591423 3.48206 0 0 0 149 156 155 255
-0.763672 -0.5861 3.48883 0 0 0 153 154 151 255
-0.904774 -0.565253 3.5378 0 0 0 113 123 116 255
-0.764765 -0.545393 3.49306 0 0 0 151 152 145 255
-0.936584 -0.537031 3.5511 0 0 0 51 78 71 255
-0.563727 -0.37499 3.54408 0 0 0 66 117 87 255
-0.622451 -0.359079 3.513 0 0 0 68 112 88 255
-0.462319 -0.352691 3.77644 0 0 0 122 137 87 255
-0.886583 -0.332428 3.5216 0 0 0 125 125 120 255
-0.44476 -0.336908 3.79339 0 0 0 141 139 84 255
-0.880887 -0.305628 3.53701 0 0 0 136 137 134 255
-0.552581 -0.243009 3.54005 0 0 0 64 88 82 255
-0.680099 -0.191001 3.49114 0 0 0 79 109 55 255
-0.766911 -0.183834 3.49246 0 0 0 99 126 78 255
-0.868667 -0.172414 3.53245 0 0 0 130 134 118 255
-0.94233 -0.167618 3.60912 0 0 0 50 86 62 255
-0.949808 -0.134886 3.60286 0 0 0 93 99 102 255
-0.751 -0.097672 3.49669 0 0 0 110 104 113 255
-0.817003 -0.0886667 3.50983 0 0 0 77 99 82 255
-0.437819 -0.0690368 3.79308 0 0 0 132 133 86 255
-0.952016 0.0314071 3.62296 0 0 0 43 82 70 255
0.322137 0.0836371 4.30861 0 0 0 83 78 78 255
0.0507463 0.0965657 4.30237 0 0 0 106 107 108 255
0.254006 0.168634 4.29282 0 0 0 107 113 112 255
0.172413 0.393107 4.11004 0 0 0 85 87 83 255
0.331013 0.415242 4.14255 0 0 0 92 100 105 255
0.435453 0.46111 4.30441 0 0 0 72 73 75 255
0.406981 0.488206 4.26224 0 0 0 71 75 82 255
-0.666003 0.452641 3.51854 0 0 0 34 55 81 255
-0.913379 0.48005 3.63303 0 0 0 91 108 132 255
-0.437386 0.500349 3.67386 0 0 0 111 75 98 255
-0.501791 0.514124 3.5929 0 0 0 52 77 110 255
-0.434736 0.524214 3.67447 0 0 0 115 91 111 255
-0.637401 0.512381 3.52483 0 0 0 66 104 99 255
-0.540951 0.516151 3.56495 0 0 0 52 82 113 255
1.35395 0.571508 3.77852 0 0 0 104 103 88 255
-0.46609 0.538141 3.62535 0 0 0 112 111 116 255
-0.418208 0.552006 3.73183 0 0 0 31 70 110 255
-0.447587 0.54566 3.65019 0 0 0 112 120 128 255
-0.433989 0.558708 3.67459 0 0 0 123 113 118 255
-0.521684 0.563208 3.57726 0 0 0 36 74 122 255
-0.487543 0.571945 3.60663 0 0 0 130 131 138 255
-0.648019 0.567097 3.52566 0 0 0 73 99 91 255
-0.629082 0.568575 3.5293 0 0 0 72 104 102 255
-0.550446 0.578662 3.55939 0 0 0 36 87 128 255
-0.91744 0.592216 3.64351 0 0 0 91 103 131 255
1.32183 0.622576 3.51785 0 0 0 59 78 71 255
1.26015 0.649015 3.6511 0 0 0 92 128 124 255
1.34259 0.642356 3.51486 0 0 0 99 98 81 255
1.06124 0.656753 3.5684 0 0 0 139 120 124 255
-0.913115 0.649916 3.63664 0 0 0 111 123 144 255
1.18328 0.668433 3.52608 0 0 0 146 150 151 255
1.19161 0.682235 3.53185 0 0 0 77 91 84 255
1.15032 0.681605 3.49387 0 0 0 108 76 73 255
-0.4213 0.718346 3.73123 0 0 0 109 112 121 255
1.33461 0.695379 3.48874 0 0 0 30 49 43 255
-0.895847 0.708038 3.61694 0 0 0 111 107 119 255
-0.418059 0.751112 3.72694 0 0 0 85 95 108 255
1.1268 0.716873 3.46972 0 0 0 91 88 97 255
1.24561 0.731925 3.51926 0 0 0 119 93 91 255
-0.895702 0.740904 3.60507 0 0 0 102 115 129 255
1.14119 0.744281 3.44263 0 0 0 123 110 113 255
1.06766 0.762679 3.45756 0 0 0 155 149 151 255
-0.888125 0.782373 3.58704 0 0 0 103 104 107 255
1.38735 0.771968 3.39218 0 0 0 136 139 111 255
1.05842 0.786889 3.44449 0 0 0 118 110 113 255
1.03477 0.794779 3.44357 0 0 0 136 111 108 255
0.46826 1.08918 4.86494 0 0 0 155 151 147 255
1.16802 0.801662 3.38824 0 0 0 150 151 157 255
0.264165 0.952419 4.1217 0 0 0 94 96 97 255
0.209028 0.965459 4.10136 0 0 0 101 107 106 255
0.468546 1.11452 4.77564 0 0 0 112 112 112 255
0.838557 0.924767 3.85452 0 0 0 174 175 171 255
-0.489694 0.896183 3.61232 0 0 0 69 95 137 255
1.35537 0.874971 3.3131 0 0 0 96 102 111 255
-0.614324 0.936172 3.5472 0 0 0 116 132 170 255
1.05075 0.922265 3.3969 0 0 0 101 100 100 255
0.940473 0.948034 3.47746 0 0 0 90 90 92 255
-0.42239 1.02764 3.66872 0 0 0 28 76 121 255
1.26431 0.947896 3.30647 0 0 0 119 104 97 255
1.10586 0.966237 3.36926 0 0 0 95 84 81 255
0.269874 1.18094 4.12778 0 0 0 96 97 98 255
1.13804 1.01652 3.35434 0 0 0 135 132 116 255
1.2328 1.0026 3.3016 0 0 0 111 86 81 255
1.33903 1.00563 3.21927 0 0 0 114 112 111 255
1.2693 1.04143 3.26986 0 0 0 134 140 143 255
1.27162 1.0886 3.25444 0 0 0 125 129 135 255
-0.46073 1.21961 3.64439 0 0 0 118 123 145 255
-0.73746 1.21273 3.50486 0 0 0 37 87 124 255
-0.713344 1.22678 3.49866 0 0 0 80 103 141 255
-0.987485 -0.896753 3.55302 0 0 0 37 73 61 255
-0.757217 -0.804803 3.47445 0 0 0 77 92 84 255
-0.795253 -0.802339 3.47379 0 0 0 137 139 139 255
-0.770132 -0.73241 3.47984 0 0 0 112 42 50 255
-0.823375 -0.726321 3.48533 0 0 0 81 56 56 255
-0.846899 -0.722543 3.49174 0 0 0 156 141 140 255
-0.76346 -0.71561 3.4822 0 0 0 167 148 150 255
-0.893594 -0.722017 3.50811 0 0 0 68 54 52 255
-0.76498 -0.688587 3.48383 0 0 0 124 37 45 255
-0.912317 -0.69547 3.51498 0 0 0 146 130 132 255
-0.803137 -0.590664 3.47836 0 0 0 143 146 139 255
-0.76338 -0.547768 3.49402 0 0 0 151 151 151 255
-0.905562 -0.55514 3.53795 0 0 0 135 134 131 255
-0.459916 -0.346982 3.78394 0 0 0 137 138 81 255
-0.664688 -0.183203 3.49453 0 0 0 152 155 132 255
-0.869559 -0.17046 3.53315 0 0 0 130 134 118 255
-0.813711 -0.0857479 3.50983 0 0 0 57 96 62 255
-0.867424 -0.0759966 3.54072 0 0 0 132 124 125 255
-0.438054 -0.0745393 3.79219 0 0 0 133 134 86 255
0.0644838 0.061045 4.30379 0 0 0 152 154 153 255
0.304773 0.245973 4.31395 0 0 0 100 102 104 255
-0.949852 0.340331 3.65873 0 0 0 40 57 77 255
0.32591 0.481309 4.11465 0 0 0 87 85 82 255
-0.667938 0.455882 3.51856 0 0 0 34 55 81 255
0.23866 0.516927 4.08146 0 0 0 120 122 122 255
-0.873033 0.481122 3.58749 0 0 0 97 119 139 255
-0.502767 0.476294 3.5905 0 0 0 79 106 139 255
0.239298 0.552189 4.08351 0 0 0 58 52 57 255
-0.69338 0.518714 3.51636 0 0 0 138 138 123 255
-0.418528 0.55043 3.73037 0 0 0 31 70 110 255
-0.493963 0.599183 3.60652 0 0 0 50 109 151 255
1.34819 0.646268 3.51756 0 0 0 91 104 95 255
-0.900276 0.660392 3.63209 0 0 0 126 134 138 255
1.33221 0.683366 3.4925 0 0 0 37 44 39 255
1.24092 0.73104 3.51138 0 0 0 120 89 88 255
1.3625 0.82381 3.36138 0 0 0 98 91 91 255
0.83924 0.92466 3.85442 0 0 0 166 167 163 255
-0.651807 1.06433 3.52891 0 0 0 31 97 139 255
-0.875399 -0.80711 3.48222 0 0 0 94 108 90 255
-0.757936 -0.728245 3.48426 0 0 0 167 144 144 255
-0.700422 -0.691063 3.48893 0 0 0 146 83 90 255
-0.823008 -0.690172 3.48807 0 0 0 117 34 34 255
-0.958819 -0.629834 3.56099 0 0 0 52 81 44 255
-0.800907 -0.57958 3.47941 0 0 0 154 154 151 255
-0.494037 -0.572028 3.61531 0 0 0 152 158 157 255
-0.953899 -0.583076 3.54813 0 0 0 59 81 73 255
-0.906456 -0.537692 3.53839 0 0 0 139 139 139 255
-0.92751 -0.533496 3.5444 0 0 0 36 64 53 255
-0.889242 -0.48611 3.51788 0 0 0 135 140 132 255
-0.750619 -0.411901 3.49362 0 0 0 158 158 158 255
-0.459879 -0.347083 3.78422 0 0 0 137 138 81 255
-0.886399 -0.321936 3.53958 0 0 0 137 140 126 255
-0.661164 -0.231909 3.49759 0 0 0 11 86 129 255
-0.609811 -0.187663 3.51508 0 0 0 10 70 118 255
-0.939846 -0.182906 3.59451 0 0 0 56 85 45 255
-0.509077 -0.157146 3.57694 0 0 0 164 141 61 255
-0.937846 -0.0645719 3.61237 0 0 0 42 80 53 255
0.261044 0.0761245 4.27588 0 0 0 48 44 45 255
0.261678 0.172477 4.30589 0 0 0 101 107 116 255
0.304725 0.244218 4.31408 0 0 0 100 102 104 255
0.133267 0.405699 4.13147 0 0 0 125 122 114 255
-0.492759 0.487322 3.60104 0 0 0 99 140 166 255
-0.4268 0.494726 3.71841 0 0 0 86 122 150 255
0.25487 0.555255 4.09067 0 0 0 43 49 54 255
-0.863283 0.498173 3.58329 0 0 0 113 126 133 255
-0.416784 0.537023 3.74687 0 0 0 80 119 145 255
1.25843 0.66167 3.6628 0 0 0 118 146 146 255
0.243212 0.756181 4.09154 0 0 0 75 68 65 255
1.2032 0.682212 3.55331 0 0 0 62 96 84 255
-0.897803 0.715608 3.61477 0 0 0 62 64 81 255
-0.498151 0.707825 3.60232 0 0 0 165 168 167 255
1.24208 0.726811 3.52527 0 0 0 129 88 88 255
-0.631988 0.726709 3.53743 0 0 0 162 163 170 255
-0.460068 0.788392 3.64505 0 0 0 46 60 86 255
-0.420926 0.800813 3.6988 0 0 0 155 158 167 255
-0.899107 0.825831 3.60869 0 0 0 32 61 92 255
1.24122 0.81029 3.37106 0 0 0 141 142 146 255
-0.528734 0.865794 3.57803 0 0 0 167 171 169 255
-0.701362 0.863279 3.53146 0 0 0 47 70 107 255
0.827668 0.945178 3.8251 0 0 0 171 175 173 255
-0.804257 0.895577 3.56185 0 0 0 46 63 92 255
1.29156 0.897217 3.30702 0 0 0 74 64 68 255
0.42357 1.29771 4.36157 0 0 0 125 128 127 255
1.25506 1.02188 3.27535 0 0 0 92 111 121 255
1.29968 1.09554 3.25538 0 0 0 71 66 74 255
-0.79896 -0.810597 3.48231 0 0 0 146 149 147 255
-0.762735 -0.713995 3.48231 0 0 0 167 148 150 255
-0.547305 -0.510459 3.55701 0 0 0 35 85 74 255
-0.91786 -0.504537 3.54064 0 0 0 35 76 55 255
-0.617178 -0.422549 3.51286 0 0 0 161 162 166 255
-0.560828 -0.330168 3.54401 0 0 0 114 129 89 255
-0.460543 -0.3508 3.78342 0 0 0 137 138 81 255
-0.644643 -0.296503 3.50221 0 0 0 137 145 126 255
-0.943563 -0.19729 3.59775 0 0 0 50 81 50 255
-0.667803 -0.17725 3.4942 0 0 0 156 155 121 255
-0.439443 -0.0787173 3.78978 0 0 0 133 134 86 255
-0.93891 0.00476395 3.62231 0 0 0 26 54 40 255
0.158275 0.0770582 4.22662 0 0 0 52 56 70 255
0.13888 0.301507 4.23287 0 0 0 133 140 140 255
-0.941559 0.347301 3.65754 0 0 0 21 54 89 255
0.126567 0.419388 4.13098 0 0 0 140 119 104 255
0.0721366 0.496777 4.10684 0 0 0 49 59 63 255
0.41989 0.556343 4.33248 0 0 0 70 68 64 255
0.179208 0.553878 4.0814 0 0 0 143 147 149 255
-0.432604 0.503175 3.68646 0 0 0 117 90 107 255
0.232742 0.577958 4.08339 0 0 0 146 150 152 255
-0.837782 0.523637 3.56409 0 0 0 163 145 122 255
0.110723 0.606341 4.09978 0 0 0 126 125 126 255
-0.647233 0.535302 3.52377 0 0 0 41 101 92 255
-0.59193 0.555352 3.5418 0 0 0 112 152 172 255
-0.843451 0.572376 3.57401 0 0 0 161 131 97 255
1.14303 0.618857 3.56397 0 0 0 125 134 110 255
1.26021 0.663712 3.66512 0 0 0 125 149 149 255
-0.88509 0.723272 3.60439 0 0 0 46 58 84 255
-0.637074 0.728527 3.53606 0 0 0 142 138 162 255
1.25527 0.759998 3.48864 0 0 0 158 158 156 255
-0.723006 0.768141 3.52224 0 0 0 164 165 164 255
1.34382 0.8025 3.36176 0 0 0 155 147 149 255
1.38689 0.804651 3.37204 0 0 0 50 72 62 255
-0.703443 0.851171 3.53075 0 0 0 86 96 104 255
-0.730793 0.890527 3.53244 0 0 0 171 168 169 255
-0.614251 0.896671 3.54455 0 0 0 170 170 170 255
-0.513883 0.923613 3.59081 0 0 0 88 101 126 255
-0.432551 1.12144 3.6755 0 0 0 174 154 94 255
-0.782966 1.12501 3.50489 0 0 0 152 157 158 255
-0.843947 -0.725039 3.4912 0 0 0 146 145 136 255
-0.569035 -0.537826 3.54468 0 0 0 159 160 155 255
-0.506244 -0.526744 3.59434 0 0 0 156 161 159 255
-0.759029 -0.506996 3.52954 0 0 0 56 99 52 255
-0.601447 -0.492154 3.55964 0 0 0 159 161 162 255
-0.739697 -0.39116 3.50077 0 0 0 157 161 162 255
-0.867582 -0.340263 3.53025 0 0 0 147 148 147 255
-0.526055 -0.00962293 3.55574 0 0 0 42 100 68 255
-0.464142 -2.25127e-05 3.8485 0 0 0 88 117 107 255
0.293455 0.135836 4.30767 0 0 0 52 49 47 255
0.292209 0.174451 4.30885 0 0 0 65 69 73 255
0.105871 0.188394 4.29164 0 0 0 49 54 52 255
0.0163496 0.350593 4.31185 0 0 0 46 52 57 255
-0.458888 0.348598 3.87272 0 0 0 14 62 108 255
-0.543386 0.436058 3.56109 0 0 0 99 84 60 255
0.304451 0.544588 4.10882 0 0 0 148 148 152 255
0.0769275 0.578076 4.10852 0 0 0 59 65 64 255
-0.816249 0.526398 3.55817 0 0 0 159 142 91 255
-0.428633 0.539224 3.68996 0 0 0 158 134 144 255
1.24642 0.615912 3.60443 0 0 0 40 56 51 255
1.15488 0.622928 3.5399 0 0 0 139 144 149 255
1.34667 0.658864 3.5013 0 0 0 161 156 134 255
-0.476274 0.694875 3.62029 0 0 0 27 68 114 255
1.2631 0.695585 3.65694 0 0 0 134 152 151 255
-0.426134 0.718877 3.6966 0 0 0 156 158 158 255
-0.670262 0.728959 3.53092 0 0 0 31 69 117 255
0.352921 0.842962 4.23482 0 0 0 35 42 43 255
0.159786 0.909946 4.09017 0 0 0 128 128 128 255
0.284174 0.917835 4.13172 0 0 0 133 134 131 255
-0.899237 0.834973 3.61067 0 0 0 31 63 91 255
-0.500891 0.846826 3.60335 0 0 0 167 170 173 255
-0.617407 0.879274 3.54356 0 0 0 166 171 173 255
-0.780376 0.919535 3.56076 0 0 0 166 166 166 255
-0.46631 1.00817 3.66126 0 0 0 1 97 146 255
-0.646679 -0.260015 3.50452 0 0 0 125 141 113 255
-0.63412 -0.214305 3.50387 0 0 0 46 98 129 255
-0.519817 -0.145034 3.57158 0 0 0 167 133 44 255
-0.460275 -0.0215968 3.77542 0 0 0 45 96 67 255
0.0714875 0.117109 4.30451 0 0 0 83 51 48 255
0.265874 0.141715 4.30295 0 0 0 44 42 43 255
0.193912 0.292583 4.26303 0 0 0 177 178 178 255
-0.461103 0.348213 3.86959 0 0 0 13 62 109 255
-0.0379267 0.423075 4.31227 0 0 0 117 118 116 255
0.338914 0.34878 4.29582 0 0 0 47 53 58 255
0.302189 0.574125 4.10825 0 0 0 146 147 147 255
-0.457205 0.550552 3.63418 0 0 0 158 155 160 255
0.0127686 0.673913 4.23829 0 0 0 33 39 42 255
1.2544 0.624488 3.61689 0 0 0 43 63 59 255
-0.479851 0.692159 3.61826 0 0 0 34 64 115 255
1.24554 0.748116 3.49775 0 0 0 145 134 131 255
1.33292 0.743824 3.49625 0 0 0 45 86 73 255
-0.680643 0.79952 3.53503 0 0 0 42 66 112 255
0.260996 0.952787 4.11988 0 0 0 119 122 122 255
-2.70964 -1.55764 5.23566 0 0 0 81 80 77 255
-0.772654 -0.799612 3.46081 0 0 0 47 74 67 255
-0.790086 -0.736416 3.48326 0 0 0 139 145 120 255
-0.563779 -0.724046 3.5459 0 0 0 111 48 54 255
-0.86529 -0.689513 3.5029 0 0 0 166 132 136 255
-0.5226 -0.568018 3.56899 0 0 0 155 160 158 255
-0.888722 -0.464684 3.51116 0 0 0 126 144 126 255
-0.730086 -0.329791 3.49651 0 0 0 88 129 88 255
-0.948429 -0.308612 3.59265 0 0 0 109 122 110 255
-0.590157 -0.282867 3.52098 0 0 0 36 93 130 255
-0.622788 -0.186365 3.51341 0 0 0 13 71 115 255
-0.815394 -0.161872 3.5027 0 0 0 67 103 56 255
-0.84261 -0.127068 3.51294 0 0 0 137 82 100 255
-0.857201 -0.0965342 3.53046 0 0 0 133 116 121 255
-0.930125 -0.0804398 3.60608 0 0 0 54 88 66 255
-0.985344 -0.0623208 3.66682 0 0 0 96 110 105 255
0.158727 0.0983665 4.22176 0 0 0 147 86 84 255
0.159227 0.103824 4.21938 0 0 0 138 94 88 255
-2.90956 0.314041 5.3844 0 0 0 79 89 88 255
-2.94223 0.373888 5.61869 0 0 0 93 95 94 255
-2.74122 0.372536 5.61871 0 0 0 41 43 44 255
-0.409904 0.317874 3.83966 0 0 0 98 104 111 255
-0.932211 0.38635 3.66931 0 0 0 58 81 107 255
-0.53757 0.419285 3.564 0 0 0 32 46 70 255
-0.438166 0.48279 3.67644 0 0 0 92 135 172 255
-0.515774 0.480941 3.57902 0 0 0 14 74 127 255
-0.487987 0.553473 3.6072 0 0 0 159 164 164 255
-0.627095 0.588594 3.53193 0 0 0 117 132 139 255
0.165677 0.737272 4.0927 0 0 0 113 89 56 255
1.06884 0.675021 3.34531 0 0 0 98 91 96 255
-2.69619 1.24164 5.22448 0 0 0 111 111 106 255
0.889833 1.24645 5.72135 0 0 0 130 124 120 255
-0.793933 0.890148 3.56794 0 0 0 47 69 107 255
-2.51598 1.22286 4.75068 0 0 0 55 89 57 255
-2.56629 1.26406 4.95828 0 0 0 33 34 38 255
-0.593919 0.901096 3.54958 0 0 0 166 167 167 255
-2.53227 1.28143 4.8503 0 0 0 73 75 73 255
-2.44886 1.24055 4.60497 0 0 0 94 131 122 255
-0.898982 0.975658 3.62676 0 0 0 138 140 150 255
-0.671997 0.95167 3.54735 0 0 0 71 110 153 255
-2.31435 1.2899 4.55293 0 0 0 79 82 84 255
-2.71371 -1.55222 5.2139 0 0 0 86 79 77 255
-0.52284 -0.568223 3.56906 0 0 0 155 160 158 255
-0.518604 -0.464507 3.58189 0 0 0 38 84 78 255
-0.940242 -0.316801 3.57207 0 0 0 121 136 126 255
-0.819095 -0.166872 3.50226 0 0 0 62 101 56 255
-0.95681 0.0191459 3.62687 0 0 0 61 80 75 255
-2.90987 0.309067 5.38274 0 0 0 79 89 88 255
-0.455997 0.470472 3.6418 0 0 0 89 112 139 255
0.213438 0.512965 4.07881 0 0 0 66 72 77 255
0.193577 0.524878 4.07695 0 0 0 49 46 41 255
-0.47022 0.600022 3.62877 0 0 0 18 84 131 255
-0.901802 0.756476 3.61469 0 0 0 128 132 145 255
-0.893099 0.770751 3.59941 0 0 0 143 145 142 255
-0.409625 0.809596 3.74896 0 0 0 147 153 167 255
-2.69563 1.24181 5.22364 0 0 0 111 111 106 255
-2.50941 1.15718 4.74388 0 0 0 89 104 96 255
0.881069 1.24078 5.44084 0 0 0 124 121 116 255
-2.55137 1.26586 4.98153 0 0 0 116 116 119 255
-2.64705 -1.56516 5.29387 0 0 0 91 94 97 255
-2.71515 -1.53431 5.22152 0 0 0 88 88 88 255
-0.998524 -0.91513 3.58971 0 0 0 62 81 74 255
-0.931036 -0.799742 3.5295 0 0 0 105 109 108 255
-0.86221 -0.687895 3.50149 0 0 0 166 132 136 255
-0.937007 -0.524188 3.55812 0 0 0 34 71 56 255
-0.435064 0.329468 3.82777 0 0 0 45 64 89 255
-0.460596 0.473018 3.63713 0 0 0 95 125 147 255
-0.480496 0.467456 3.61137 0 0 0 6 75 127 255
-0.482792 0.536651 3.60973 0 0 0 132 138 145 255
-0.900972 0.671986 3.6318 0 0 0 147 148 146 255
-0.447336 0.716184 3.6536 0 0 0 161 164 166 255
-2.71507 1.11985 5.28421 0 0 0 45 45 44 255
-0.476175 0.762032 3.62929 0 0 0 166 169 170 255
-0.406837 0.797227 3.75146 0 0 0 148 150 152 255
-2.67736 1.16744 5.2534 0 0 0 118 116 110 255
-2.54407 1.24017 5.12691 0 0 0 54 52 53 255
1.03924 0.755879 3.21399 0 0 0 146 149 158 255
-2.54184 1.28975 4.92403 0 0 0 115 118 119 255
-0.684023 -0.392519 3.48592 0 0 0 157 162 160 255
-0.606675 -0.248843 3.51409 0 0 0 16 91 135 255
-0.48083 0.836616 3.63124 0 0 0 166 170 170 255
-0.523208 0.860299 3.59077 0 0 0 169 173 172 255
-0.730284 0.903528 3.53307 0 0 0 167 169 168 255
-2.54572 1.28414 4.92178 0 0 0 96 99 99 255
-0.700108 -0.564341 3.47512 0 0 0 158 161 160 255
-0.509849 -0.543259 3.5903 0 0 0 156 161 159 255
-0.726979 -0.515217 3.47452 0 0 0 51 99 58 255
-0.601734 -0.438461 3.52149 0 0 0 160 162 161 255
-0.853675 -0.355416 3.50318 0 0 0 147 149 148 255
-0.943723 -0.21321 3.5924 0 0 0 54 86 46 255
-0.607149 -0.20397 3.51605 0 0 0 19 75 113 255
0.285527 0.0983408 4.29323 0 0 0 102 58 56 255
0.0766292 0.145862 4.30581 0 0 0 42 44 46 255
0.185546 0.227831 4.23268 0 0 0 151 151 151 255
0.182277 0.301515 4.24747 0 0 0 163 165 167 255
-0.436308 0.33825 3.82768 0 0 0 22 64 109 255
-0.939404 0.359819 3.67132 0 0 0 39 71 102 255
0.410639 0.414765 4.30141 0 0 0 94 84 76 255
-0.664681 0.43753 3.51818 0 0 0 130 122 91 255
-0.447516 0.483221 3.65247 0 0 0 94 128 153 255
0.0651058 0.512601 4.10648 0 0 0 111 117 118 255
0.281847 0.54065 4.0967 0 0 0 41 47 52 255
0.324539 0.543263 4.11188 0 0 0 140 144 147 255
-0.822912 0.682586 3.57021 0 0 0 157 159 160 255
-0.720439 0.685433 3.52061 0 0 0 164 169 167 255
-0.61628 0.656612 3.54458 0 0 0 165 168 167 255
0.385454 0.835194 4.24153 0 0 0 40 49 48 255
0.0290734 0.841343 4.18683 0 0 0 40 42 41 255
0.928777 0.736555 3.51169 0 0 0 115 49 48 255
-0.492896 0.846976 3.6168 0 0 0 165 170 172 255
-0.710286 -0.409177 3.49951 0 0 0 158 161 161 255
-0.736722 -0.36031 3.50323 0 0 0 65 86 82 255
-0.933404 -0.0109379 3.63125 0 0 0 42 67 50 255
0.0409378 0.144912 4.30089 0 0 0 152 152 152 255
-0.0223044 0.354418 4.30098 0 0 0 154 155 152 255
-0.942874 0.426622 3.67915 0 0 0 17 56 94 255
0.142803 0.554217 4.08452 0 0 0 143 140 143 255
-0.783441 0.537296 3.53718 0 0 0 157 149 98 255
1.0608 0.578206 3.80711 0 0 0 133 133 127 255
-0.787248 0.696863 3.54292 0 0 0 160 162 161 255
-0.457775 0.722638 3.63787 0 0 0 26 64 109 255
-0.680064 0.742339 3.53201 0 0 0 34 65 112 255
-0.425982 0.910346 3.80939 0 0 0 14 79 128 255
0.20462 0.88577 4.14461 0 0 0 120 95 63 255
0.234534 0.913376 4.09603 0 0 0 133 135 134 255
-0.873739 -0.794536 3.49964 0 0 0 56 66 63 255
-0.973432 -0.798698 3.57765 0 0 0 98 111 100 255
-0.683588 -0.743549 3.48552 0 0 0 144 71 76 255
-0.873551 -0.73071 3.5036 0 0 0 122 115 118 255
-0.982421 -0.693101 3.57562 0 0 0 75 43 40 255
-0.941562 -0.682733 3.56099 0 0 0 104 54 62 255
-0.936577 -0.56299 3.54977 0 0 0 113 124 120 255
-2.85602 0.289506 5.21839 0 0 0 91 92 92 255
-2.82021 0.332747 5.14916 0 0 0 88 81 84 255
0.2025 0.396413 4.10268 0 0 0 137 118 86 255
0.418239 0.505444 4.26245 0 0 0 75 86 89 255
-0.515834 0.445647 3.5764 0 0 0 61 47 48 255
-0.879218 0.664247 3.62543 0 0 0 28 65 105 255
0.197282 0.715521 4.08553 0 0 0 94 86 69 255
-2.60112 0.999392 4.72583 0 0 0 26 41 38 255
0.221614 0.743938 4.09445 0 0 0 123 93 56 255
-2.60579 1.02695 4.74435 0 0 0 33 44 45 255
-2.60113 1.0982 4.74796 0 0 0 93 124 116 255
-2.6556 1.27864 5.13094 0 0 0 113 115 116 255
0.829342 1.21993 5.61636 0 0 0 126 119 112 255
-2.57408 1.22466 4.88953 0 0 0 90 108 103 255
0.956226 0.725464 3.53442 0 0 0 81 69 64 255
0.709767 1.28065 5.65787 0 0 0 131 125 123 255
0.463913 1.00525 4.446 0 0 0 96 90 83 255
0.514181 1.04849 4.6413 0 0 0 110 108 102 255
0.872575 0.869887 4.01076 0 0 0 173 173 170 255
0.328067 0.947248 4.15603 0 0 0 79 85 90 255
0.293784 0.949769 4.14039 0 0 0 93 95 98 255
0.159536 0.964879 4.14372 0 0 0 80 87 84 255
0.239729 0.943713 4.10125 0 0 0 103 107 107 255
0.293699 0.959918 4.13991 0 0 0 88 90 92 255
0.858726 0.888295 3.96357 0 0 0 168 168 168 255
0.934237 0.796797 3.53318 0 0 0 142 136 134 255
-0.522452 0.934208 3.58005 0 0 0 66 102 137 255
-2.85063 0.288028 5.20663 0 0 0 91 92 92 255
-2.89085 0.303931 5.30943 0 0 0 94 93 91 255
0.0278549 0.599169 4.13865 0 0 0 106 110 109 255
-0.575995 0.585261 3.55279 0 0 0 94 141 164 255
0.20507 0.719749 4.08697 0 0 0 102 87 63 255
-2.59422 0.980639 4.73255 0 0 0 123 142 138 255
-2.60377 1.00623 4.72828 0 0 0 22 37 35 255
-2.61006 1.04436 4.72711 0 0 0 106 113 113 255
-2.60211 1.06292 4.78287 0 0 0 126 133 132 255
0.942304 0.732442 3.54146 0 0 0 97 51 50 255
0.874468 0.86857 4.02441 0 0 0 177 175 171 255
0.715506 1.29338 5.68004 0 0 0 115 110 100 255
0.455708 1.01073 4.4159 0 0 0 145 148 147 255
0.897051 0.785222 3.54725 0 0 0 121 123 110 255
-0.903222 0.965025 3.62563 0 0 0 152 151 154 255
-1.01547 -0.794141 3.65767 0 0 0 50 77 51 255
-2.89555 0.314717 5.28552 0 0 0 90 88 85 255
-3.02435 0.38529 5.70035 0 0 0 101 101 99 255
0.314883 0.257805 4.30211 0 0 0 104 102 105 255
0.233775 0.438277 4.10818 0 0 0 79 62 57 255
-2.57172 0.727772 4.81111 0 0 0 149 153 152 255
0.252592 0.522567 4.08752 0 0 0 52 44 41 255
0.0281491 0.597865 4.13855 0 0 0 106 110 109 255
0.33562 0.593999 4.12299 0 0 0 35 42 48 255
-0.60695 0.564634 3.53852 0 0 0 146 163 170 255
-0.889905 0.584438 3.60924 0 0 0 134 104 98 255
-2.63039 0.903297 4.91628 0 0 0 88 107 95 255
-0.893324 0.641609 3.61707 0 0 0 97 110 128 255
-2.59329 0.986018 4.743 0 0 0 139 139 139 255
-0.559495 0.756899 3.55744 0 0 0 76 96 124 255
-0.664933 0.80444 3.5412 0 0 0 168 170 169 255
0.882314 0.864405 4.06865 0 0 0 174 175 170 255
1.02107 1.24806 5.6194 0 0 0 126 117 107 255
0.517832 1.04834 4.66133 0 0 0 149 147 142 255
0.730077 1.29681 5.69814 0 0 0 112 105 103 255
-2.35595 1.20972 4.45652 0 0 0 136 135 138 255
0.901293 0.783953 3.52901 0 0 0 136 133 127 255
-0.730887 -0.596911 3.52659 0 0 0 157 162 160 255
-0.803969 -0.566322 3.4721 0 0 0 155 156 153 255
-0.955291 -0.0427303 3.65855 0 0 0 23 51 30 255
0.0596541 0.193261 4.31188 0 0 0 70 68 69 255
0.288608 0.242673 4.30126 0 0 0 101 104 104 255
-2.5187 0.36591 4.65662 0 0 0 88 89 89 255
0.139309 0.286845 4.23079 0 0 0 140 142 142 255
0.172167 0.542598 4.08065 0 0 0 143 147 149 255
-0.868301 0.580056 3.60767 0 0 0 153 129 108 255
