ply
format ascii 1.0
comment VCGLIB generated
element vertex 1012
property float x
property float y
property float z
property float nx
property float ny
property float nz
property uchar red
property uchar green
property uchar blue
property uchar alpha
element face 0
property list uchar int vertex_indices
end_header
-0.798712 0.440199 3.52892 0 0 0 88 105 140 255
-0.775017 0.43676 3.52511 0 0 0 143 135 90 255
-0.791803 0.445138 3.52916 0 0 0 132 126 96 255
-0.701384 0.444297 3.52206 0 0 0 25 52 101 255
-0.592649 0.448341 3.53779 0 0 0 19 58 102 255
-0.5723 0.443756 3.54608 0 0 0 84 72 52 255
-0.54739 0.44953 3.56134 0 0 0 151 129 96 255
-0.52739 0.445046 3.57225 0 0 0 89 77 75 255
0.0350336 0.519552 4.12509 0 0 0 41 44 44 255
0.345289 0.520376 4.12315 0 0 0 54 48 41 255
-0.736923 0.450295 3.52202 0 0 0 37 43 75 255
-0.72309 0.44978 3.52201 0 0 0 144 134 102 255
-0.637971 0.454089 3.5244 0 0 0 74 60 52 255
-0.611181 0.4487 3.53069 0 0 0 77 57 29 255
-0.572991 0.459284 3.54666 0 0 0 140 121 93 255
-0.78984 0.464119 3.53146 0 0 0 102 107 107 255
-0.70055 0.464984 3.52498 0 0 0 125 129 136 255
-0.625716 0.460895 3.52983 0 0 0 135 116 88 255
0.0653367 0.540891 4.11109 0 0 0 52 46 48 255
-0.737192 0.464751 3.52271 0 0 0 123 119 106 255
-0.648489 0.463804 3.52243 0 0 0 124 107 89 255
0.155621 0.541964 4.0813 0 0 0 93 80 73 255
-0.832157 0.475371 3.54306 0 0 0 95 114 139 255
-0.468854 0.48455 3.6269 0 0 0 32 94 135 255
2.12915 0.815459 6.10818 0 0 0 108 99 93 255
0.033966 0.558666 4.12966 0 0 0 44 49 47 255
0.324704 0.562228 4.11329 0 0 0 99 97 93 255
-0.532069 0.490939 3.57151 0 0 0 89 126 159 255
-0.557497 0.496971 3.56065 0 0 0 10 82 131 255
-0.827467 0.494747 3.54754 0 0 0 60 94 123 255
-0.809825 0.497859 3.54734 0 0 0 88 116 142 255
-0.631985 0.49224 3.52776 0 0 0 50 110 161 255
-0.614556 0.494017 3.53291 0 0 0 8 80 129 255
-0.598983 0.494827 3.53851 0 0 0 60 116 161 255
-0.41929 0.525122 3.73527 0 0 0 45 90 124 255
-0.0469767 0.620908 4.2816 0 0 0 86 87 84 255
0.0393757 0.576068 4.12589 0 0 0 42 44 46 255
0.156041 0.573561 4.0825 0 0 0 54 49 45 255
-0.481353 0.512399 3.61293 0 0 0 53 63 79 255
-0.471725 0.516517 3.62174 0 0 0 155 159 169 255
-0.452686 0.514995 3.64332 0 0 0 97 101 114 255
0.111961 0.580122 4.09692 0 0 0 50 44 41 255
0.256078 0.578661 4.09144 0 0 0 46 54 57 255
-0.531883 0.513125 3.57217 0 0 0 51 81 116 255
-0.0455435 0.622272 4.28465 0 0 0 72 73 71 255
0.0160312 0.599022 4.16378 0 0 0 96 102 103 255
0.214222 0.584312 4.0805 0 0 0 84 84 86 255
0.355748 0.589027 4.13438 0 0 0 141 148 148 255
-0.581082 0.512943 3.5462 0 0 0 37 100 134 255
-0.559969 0.518464 3.55778 0 0 0 156 165 174 255
-0.470606 0.519774 3.62289 0 0 0 157 160 170 255
0.0507512 0.597199 4.12324 0 0 0 113 118 116 255
0.27226 0.592736 4.09857 0 0 0 101 110 112 255
0.307591 0.593499 4.10969 0 0 0 146 149 150 255
0.0872544 0.600368 4.10441 0 0 0 121 120 120 255
0.199433 0.593136 4.07924 0 0 0 143 152 154 255
-0.589921 0.526418 3.54224 0 0 0 123 168 188 255
-0.412246 0.556204 3.75951 0 0 0 35 69 107 255
-0.409538 0.558322 3.77661 0 0 0 22 74 118 255
0.129362 0.60156 4.08891 0 0 0 138 137 135 255
-0.603661 0.531207 3.538 0 0 0 63 93 102 255
-0.547871 0.53281 3.56339 0 0 0 161 166 168 255
-0.524593 0.533133 3.576 0 0 0 139 148 161 255
-0.495794 0.53854 3.60064 0 0 0 158 162 166 255
-0.51187 0.542205 3.58796 0 0 0 91 99 108 255
-0.602792 0.541776 3.53819 0 0 0 45 90 106 255
-0.571081 0.539176 3.54983 0 0 0 63 98 123 255
-0.471617 0.551875 3.61944 0 0 0 74 78 109 255
-0.542589 0.550633 3.56643 0 0 0 118 125 134 255
-0.503174 0.555142 3.59522 0 0 0 26 66 116 255
-0.580162 0.552927 3.54717 0 0 0 130 171 188 255
-0.563032 0.553001 3.55563 0 0 0 28 106 148 255
-0.658027 0.558988 3.52531 0 0 0 133 154 149 255
-0.477284 0.577155 3.61622 0 0 0 81 118 145 255
-0.427396 0.589355 3.71622 0 0 0 64 100 136 255
-0.678602 0.568054 3.52266 0 0 0 118 136 127 255
-0.590098 0.568763 3.5433 0 0 0 61 101 125 255
-0.464095 0.584908 3.62993 0 0 0 65 90 118 255
1.07681 0.596656 3.59227 0 0 0 110 131 127 255
-0.698718 0.588021 3.52077 0 0 0 97 115 128 255
1.1913 0.5915 3.50577 0 0 0 54 59 52 255
1.02052 0.621316 3.64232 0 0 0 117 133 119 255
1.11143 0.600229 3.54557 0 0 0 77 108 98 255
0.22182 0.714578 4.08748 0 0 0 112 88 64 255
1.0962 0.616121 3.53624 0 0 0 87 79 64 255
-0.50097 0.635302 3.60036 0 0 0 157 164 171 255
0.14403 0.721236 4.09311 0 0 0 107 97 81 255
1.18638 0.620184 3.5104 0 0 0 153 156 158 255
1.03604 0.636222 3.58138 0 0 0 124 122 112 255
-0.801904 0.637378 3.54422 0 0 0 133 147 161 255
1.08331 0.635365 3.53003 0 0 0 152 116 95 255
-0.772409 0.64045 3.54846 0 0 0 121 131 157 255
-0.635547 0.640573 3.53531 0 0 0 140 158 185 255
0.200538 0.743809 4.0879 0 0 0 111 97 80 255
1.0155 0.6464 3.58102 0 0 0 90 102 89 255
1.3033 0.631287 3.47013 0 0 0 127 129 117 255
1.30671 0.629812 3.46701 0 0 0 127 129 117 255
-0.820898 0.657338 3.55967 0 0 0 31 53 98 255
-0.755477 0.656693 3.53799 0 0 0 52 65 81 255
-0.543058 0.669274 3.58519 0 0 0 115 115 116 255
-0.414886 0.700782 3.78845 0 0 0 96 116 144 255
1.11485 0.645331 3.48669 0 0 0 98 89 90 255
1.15383 0.643027 3.48021 0 0 0 98 89 97 255
-0.69848 0.667539 3.5253 0 0 0 160 164 167 255
-0.585062 0.668003 3.53512 0 0 0 92 92 96 255
-0.414118 0.718494 3.75383 0 0 0 120 121 125 255
1.05782 0.679692 3.50415 0 0 0 128 107 97 255
-0.880042 0.700429 3.61088 0 0 0 98 99 103 255
1.07078 0.678656 3.48935 0 0 0 151 149 152 255
-0.541495 0.70611 3.59005 0 0 0 122 121 124 255
-0.434193 0.719886 3.66397 0 0 0 134 136 138 255
-0.864929 0.714793 3.5946 0 0 0 148 150 154 255
-0.696935 0.6977 3.52809 0 0 0 164 165 166 255
1.11317 0.681393 3.44887 0 0 0 88 74 80 255
-0.585637 0.706607 3.5417 0 0 0 95 98 102 255
-0.496818 0.72697 3.61024 0 0 0 162 164 166 255
1.07338 0.690859 3.4776 0 0 0 91 94 101 255
1.35598 0.687253 3.42495 0 0 0 102 94 74 255
-0.80272 0.721935 3.55993 0 0 0 88 89 96 255
-0.411906 0.748518 3.74341 0 0 0 120 121 122 255
1.1021 0.693492 3.4502 0 0 0 128 140 146 255
-0.486576 0.734146 3.62785 0 0 0 55 72 107 255
-0.473988 0.74853 3.63394 0 0 0 114 126 149 255
-0.43252 0.758786 3.66415 0 0 0 118 124 131 255
0.955763 0.728473 3.54654 0 0 0 90 82 77 255
-0.885735 0.755484 3.60524 0 0 0 138 149 153 255
-0.699619 0.738571 3.53157 0 0 0 129 141 150 255
1.09657 0.713919 3.44125 0 0 0 137 134 135 255
-0.809385 0.755976 3.56337 0 0 0 112 121 125 255
-0.636633 0.746159 3.53881 0 0 0 164 166 179 255
-0.412282 0.785756 3.73056 0 0 0 112 116 120 255
-0.885225 0.763052 3.60472 0 0 0 148 154 155 255
-0.547701 0.763103 3.56893 0 0 0 167 169 170 255
-0.574622 0.766938 3.5598 0 0 0 155 165 178 255
-0.505329 0.785214 3.60596 0 0 0 106 106 110 255
-0.43327 0.797654 3.66813 0 0 0 88 94 110 255
0.759351 1.14867 5.26281 0 0 0 152 149 143 255
0.770027 1.10713 5.05774 0 0 0 131 125 122 255
-0.510724 0.786175 3.59685 0 0 0 83 89 99 255
-0.767776 0.780844 3.55797 0 0 0 123 124 134 255
-0.742812 0.780792 3.53499 0 0 0 107 112 121 255
-0.668541 0.780643 3.53872 0 0 0 128 146 176 255
-0.422541 0.816289 3.6975 0 0 0 154 157 170 255
0.90355 0.79206 3.58367 0 0 0 150 127 103 255
-0.818711 0.785957 3.56771 0 0 0 89 95 99 255
0.941776 0.781669 3.50086 0 0 0 77 78 89 255
-0.461475 0.818639 3.6464 0 0 0 88 93 96 255
0.923884 0.789622 3.51557 0 0 0 141 139 130 255
1.14384 0.758043 3.38511 0 0 0 157 155 156 255
1.15594 0.757687 3.38049 0 0 0 125 120 121 255
1.25724 0.767493 3.40712 0 0 0 134 90 80 255
1.28838 0.764209 3.39456 0 0 0 70 66 55 255
0.767767 1.11481 4.86562 0 0 0 81 78 78 255
-0.613183 0.808483 3.546 0 0 0 74 80 102 255
0.94468 0.798058 3.49736 0 0 0 146 142 141 255
1.3268 0.766797 3.38885 0 0 0 94 109 108 255
-0.770374 0.812397 3.54565 0 0 0 120 126 131 255
-0.624522 0.814631 3.54279 0 0 0 73 83 93 255
-0.504927 0.826695 3.60197 0 0 0 133 136 141 255
-0.447445 0.836655 3.65646 0 0 0 164 164 170 255
1.16998 0.772274 3.36622 0 0 0 123 105 88 255
1.2948 0.776787 3.38308 0 0 0 127 137 120 255
-0.50945 0.833485 3.5979 0 0 0 84 89 97 255
0.206103 0.946836 4.10078 0 0 0 105 106 103 255
-0.456327 0.848746 3.64733 0 0 0 69 73 102 255
1.29061 0.783121 3.37844 0 0 0 131 121 97 255
1.37129 0.78807 3.39326 0 0 0 124 123 123 255
-0.754361 0.829638 3.53832 0 0 0 106 110 129 255
1.24634 0.791424 3.36301 0 0 0 118 104 105 255
1.36151 0.798783 3.3926 0 0 0 88 92 85 255
-0.891844 0.86001 3.61775 0 0 0 101 117 145 255
1.15075 0.801204 3.36357 0 0 0 79 64 60 255
1.31388 0.80004 3.36704 0 0 0 131 140 142 255
-0.612855 0.851634 3.54646 0 0 0 147 147 147 255
-0.484836 0.865982 3.62012 0 0 0 157 159 161 255
-0.623891 0.862022 3.54386 0 0 0 81 87 94 255
-0.503074 0.871136 3.60155 0 0 0 152 153 156 255
-0.865288 0.890415 3.59656 0 0 0 74 78 92 255
-0.810608 0.874666 3.56513 0 0 0 75 83 100 255
0.975972 0.835649 3.44344 0 0 0 102 97 96 255
1.06378 0.824692 3.39437 0 0 0 114 77 81 255
1.36713 0.818103 3.38492 0 0 0 139 135 134 255
0.891951 0.860384 3.51682 0 0 0 71 107 122 255
-0.543718 0.882295 3.57342 0 0 0 166 166 166 255
-0.682761 0.885005 3.5398 0 0 0 43 69 114 255
-0.570097 0.885221 3.56423 0 0 0 168 172 172 255
-0.570564 0.893858 3.56421 0 0 0 168 169 169 255
-0.692238 0.901243 3.53697 0 0 0 165 173 175 255
0.946832 0.872898 3.45312 0 0 0 47 46 65 255
1.2214 0.842484 3.33474 0 0 0 132 115 102 255
0.90773 0.883228 3.48679 0 0 0 61 72 80 255
-0.681201 0.912642 3.53925 0 0 0 123 128 138 255
-0.666162 0.919309 3.54318 0 0 0 153 155 167 255
-0.447387 0.952422 3.6616 0 0 0 117 147 169 255
-0.587646 0.929784 3.55914 0 0 0 103 119 143 255
-0.458046 0.96772 3.65845 0 0 0 27 106 144 255
1.23907 0.875036 3.32408 0 0 0 120 123 122 255
-0.810157 0.954706 3.57 0 0 0 78 82 107 255
1.29389 0.888 3.32532 0 0 0 69 63 59 255
0.937405 0.92365 3.44254 0 0 0 134 128 115 255
-0.8286 0.966748 3.58163 0 0 0 158 160 161 255
-0.536032 0.976711 3.59104 0 0 0 49 108 152 255
1.21978 0.913559 3.32742 0 0 0 123 116 116 255
1.16435 0.922827 3.34217 0 0 0 98 87 84 255
1.10813 0.935392 3.3542 0 0 0 117 97 81 255
-0.620243 0.991047 3.54954 0 0 0 64 115 150 255
-0.451704 1.02503 3.66267 0 0 0 29 89 132 255
-0.53673 1.00652 3.58662 0 0 0 79 109 136 255
1.22873 0.934611 3.32888 0 0 0 134 131 132 255
-0.490608 1.02282 3.60702 0 0 0 7 112 153 255
-0.421072 1.04544 3.69657 0 0 0 96 127 146 255
1.06036 0.955773 3.37501 0 0 0 99 92 86 255
1.19167 0.946296 3.33123 0 0 0 85 78 80 255
-0.465635 1.04634 3.66376 0 0 0 111 143 163 255
0.231557 1.18291 4.11076 0 0 0 104 103 107 255
-0.427865 1.07265 3.70584 0 0 0 118 125 134 255
1.16876 0.971998 3.34552 0 0 0 93 103 111 255
-0.616286 1.05443 3.55074 0 0 0 67 109 132 255
-0.797393 1.07005 3.56948 0 0 0 68 135 176 255
0.888295 1.09235 3.67916 0 0 0 104 113 113 255
-0.632506 1.06551 3.54615 0 0 0 79 131 177 255
-0.831053 1.08039 3.5709 0 0 0 25 89 129 255
-0.62668 1.08355 3.54808 0 0 0 75 85 111 255
-0.835285 1.09414 3.57631 0 0 0 52 101 138 255
-0.645073 1.08912 3.54323 0 0 0 159 167 170 255
-0.701161 1.09301 3.54828 0 0 0 122 110 126 255
-0.770927 1.10098 3.546 0 0 0 103 107 121 255
1.0309 1.0597 3.40117 0 0 0 62 81 91 255
1.28663 1.03544 3.33948 0 0 0 92 81 87 255
1.3238 1.03454 3.33043 0 0 0 105 103 103 255
1.29578 1.06769 3.3371 0 0 0 86 81 83 255
1.29628 1.07342 3.33894 0 0 0 79 73 81 255
1.27297 1.08854 3.34307 0 0 0 95 103 112 255
-0.452243 1.20841 3.64769 0 0 0 95 135 171 255
1.25277 1.10843 3.34498 0 0 0 68 74 83 255
1.30931 1.11508 3.35049 0 0 0 85 80 82 255
-0.81662 1.20244 3.56322 0 0 0 82 133 166 255
-0.449566 1.23255 3.65217 0 0 0 161 164 173 255
-0.779228 1.20321 3.55597 0 0 0 63 121 167 255
-0.507479 1.21627 3.60353 0 0 0 129 158 181 255
-0.505747 1.23553 3.59977 0 0 0 167 169 172 255
-0.534968 1.24227 3.5931 0 0 0 86 126 155 255
-0.81259 1.23666 3.55127 0 0 0 110 122 134 255
1.33372 1.17805 3.40497 0 0 0 46 65 84 255
-0.778061 1.24081 3.54217 0 0 0 111 131 145 255
1.31705 1.1997 3.42663 0 0 0 123 134 142 255
1.33595 1.19992 3.42653 0 0 0 125 129 134 255
-0.658605 -0.82103 3.49352 0 0 0 142 149 149 255
-0.725458 -0.743637 3.47908 0 0 0 106 32 37 255
-0.695893 -0.746098 3.4841 0 0 0 111 41 51 255
-0.65139 -0.740706 3.49708 0 0 0 113 49 55 255
-0.641274 -0.735381 3.50087 0 0 0 123 51 59 255
-0.603115 -0.737114 3.51767 0 0 0 159 158 158 255
-0.681376 -0.720759 3.4865 0 0 0 134 63 70 255
-0.544731 -0.732602 3.55768 0 0 0 128 130 132 255
-0.688223 -0.698617 3.48648 0 0 0 139 50 55 255
-0.575195 -0.702222 3.53693 0 0 0 132 39 50 255
-0.599898 -0.688602 3.51912 0 0 0 163 153 154 255
-0.757478 -0.599236 3.48786 0 0 0 100 119 104 255
-0.637677 -0.60741 3.50081 0 0 0 158 160 154 255
-0.642387 -0.586591 3.49909 0 0 0 154 163 163 255
-0.616015 -0.573344 3.51025 0 0 0 158 162 161 255
-0.536863 -0.588854 3.555 0 0 0 34 91 63 255
-0.556941 -0.575759 3.54655 0 0 0 139 161 147 255
-0.623143 -0.568342 3.50784 0 0 0 156 160 159 255
-0.702012 -0.541986 3.48036 0 0 0 92 117 112 255
-0.493145 -0.505532 3.60344 0 0 0 157 161 162 255
-0.634744 -0.430203 3.50254 0 0 0 108 140 119 255
-0.505444 -0.276526 3.57759 0 0 0 129 134 113 255
-0.560842 -0.226336 3.53392 0 0 0 119 140 94 255
-0.706043 -0.168798 3.49096 0 0 0 72 111 63 255
-0.66134 -0.153358 3.49643 0 0 0 91 80 27 255
-0.632416 -0.153478 3.50255 0 0 0 96 90 38 255
-0.703727 -0.0984173 3.49634 0 0 0 77 107 83 255
-0.620701 -0.0281209 3.50737 0 0 0 135 149 136 255
0.184781 0.0739802 4.24242 0 0 0 43 40 41 255
0.0590072 0.079974 4.30517 0 0 0 106 103 104 255
0.0450033 0.173002 4.3034 0 0 0 140 140 142 255
0.107745 0.42419 4.12628 0 0 0 120 100 76 255
0.426788 0.446031 4.27803 0 0 0 62 67 70 255
0.423177 0.488913 4.27728 0 0 0 82 84 88 255
0.0171981 0.495785 4.15268 0 0 0 99 108 110 255
0.260163 0.479758 4.08867 0 0 0 110 112 116 255
2.13049 0.718854 6.11759 0 0 0 116 108 102 255
0.0876535 0.498482 4.10493 0 0 0 125 131 135 255
0.224565 0.490004 4.07841 0 0 0 60 67 72 255
-0.700108 0.428061 3.52134 0 0 0 124 126 124 255
0.238763 0.502135 4.07915 0 0 0 136 142 142 255
-0.584012 0.458479 3.54126 0 0 0 136 116 98 255
-0.839178 0.474837 3.54704 0 0 0 86 113 142 255
0.0663428 0.543176 4.11125 0 0 0 52 46 48 255
-0.411937 0.518774 3.77535 0 0 0 55 92 119 255
0.0384295 0.570844 4.12564 0 0 0 45 48 47 255
0.11351 0.58001 4.09585 0 0 0 41 47 52 255
0.248791 0.572319 4.08702 0 0 0 54 49 49 255
0.32865 0.573059 4.1147 0 0 0 44 41 38 255
0.156795 0.58323 4.08272 0 0 0 48 46 44 255
0.304042 0.5943 4.1089 0 0 0 132 132 132 255
-0.620198 0.520697 3.53221 0 0 0 125 150 152 255
-0.562104 0.518576 3.5569 0 0 0 156 165 174 255
0.218509 0.597847 4.08123 0 0 0 74 68 68 255
0.254943 0.597521 4.0924 0 0 0 143 146 152 255
-0.51036 0.554608 3.58945 0 0 0 35 79 126 255
-0.638559 0.559439 3.52737 0 0 0 43 99 91 255
-0.616619 0.558796 3.53428 0 0 0 159 164 162 255
-0.434897 0.594682 3.6768 0 0 0 103 128 147 255
1.11193 0.602847 3.54275 0 0 0 110 135 119 255
0.149782 0.72259 4.09409 0 0 0 112 97 73 255
-0.506759 0.640617 3.59786 0 0 0 163 168 170 255
-0.798291 0.6367 3.5428 0 0 0 133 147 161 255
-0.413502 0.679805 3.81698 0 0 0 22 69 113 255
0.149012 0.727926 4.09402 0 0 0 112 97 73 255
-0.636592 0.643295 3.5352 0 0 0 140 158 185 255
1.30477 0.633667 3.46696 0 0 0 126 130 118 255
1.14772 0.642193 3.47991 0 0 0 108 85 90 255
-0.545083 0.671993 3.58361 0 0 0 90 94 106 255
-0.419844 0.701586 3.75121 0 0 0 150 155 164 255
1.07748 0.655237 3.50502 0 0 0 103 81 75 255
-0.700779 0.669088 3.52477 0 0 0 160 164 167 255
-0.583108 0.672799 3.5393 0 0 0 78 82 99 255
1.04409 0.668014 3.5285 0 0 0 137 132 133 255
-0.452186 0.703021 3.65012 0 0 0 57 80 125 255
-0.698148 0.693106 3.52719 0 0 0 164 166 168 255
-0.856966 0.729456 3.58612 0 0 0 54 57 83 255
0.927023 0.738304 3.59812 0 0 0 126 125 111 255
-0.63672 0.740152 3.53825 0 0 0 164 166 180 255
-0.478222 0.748249 3.63198 0 0 0 153 163 173 255
0.941639 0.735982 3.54845 0 0 0 107 52 50 255
-0.706409 0.74482 3.53119 0 0 0 165 170 168 255
1.09663 0.718614 3.43899 0 0 0 153 154 153 255
-0.817485 0.783893 3.56484 0 0 0 99 105 108 255
-0.584938 0.776952 3.5564 0 0 0 168 173 172 255
-0.461624 0.802663 3.64592 0 0 0 76 78 89 255
-0.669438 0.783023 3.53874 0 0 0 128 146 176 255
0.903207 0.795429 3.57007 0 0 0 133 130 109 255
1.3541 0.764755 3.39624 0 0 0 36 72 60 255
-0.447858 0.829374 3.65687 0 0 0 164 165 174 255
0.712152 1.28859 5.6651 0 0 0 126 125 119 255
-0.476525 0.859634 3.63672 0 0 0 164 168 169 255
1.25278 0.792634 3.35599 0 0 0 78 79 73 255
-0.611962 0.854952 3.54682 0 0 0 92 96 111 255
-0.867234 0.891979 3.59821 0 0 0 120 125 126 255
-0.801679 0.880401 3.56184 0 0 0 50 67 106 255
-0.539323 0.87638 3.57431 0 0 0 170 172 171 255
-0.584125 0.895363 3.55992 0 0 0 167 170 169 255
-0.811276 0.91152 3.56926 0 0 0 65 78 103 255
-0.704814 0.902054 3.53348 0 0 0 169 171 171 255
-0.62042 0.905884 3.54437 0 0 0 128 128 130 255
-0.681231 0.91393 3.53918 0 0 0 92 97 114 255
-0.709975 0.92579 3.53479 0 0 0 168 168 168 255
-0.523584 0.948455 3.5878 0 0 0 153 160 169 255
-0.784478 0.953847 3.56443 0 0 0 162 164 164 255
-0.420956 1.0495 3.69533 0 0 0 125 137 144 255
-0.610288 1.05287 3.55814 0 0 0 20 119 157 255
0.858721 1.09504 3.70663 0 0 0 50 60 60 255
-0.632303 1.05904 3.5481 0 0 0 151 161 170 255
-0.653254 1.05647 3.53802 0 0 0 33 96 141 255
-0.742615 1.08332 3.55419 0 0 0 27 92 136 255
0.25299 1.32866 4.25606 0 0 0 185 190 195 255
0.269681 1.32654 4.2629 0 0 0 213 216 225 255
1.27417 1.03773 3.34329 0 0 0 81 78 88 255
-0.762612 1.11042 3.52948 0 0 0 85 93 112 255
-0.718629 1.13194 3.5404 0 0 0 163 166 168 255
1.27834 1.07208 3.34279 0 0 0 99 107 111 255
-0.628382 1.14185 3.54443 0 0 0 87 111 134 255
1.29523 1.07803 3.34102 0 0 0 80 74 82 255
-0.786909 1.16657 3.55611 0 0 0 129 134 137 255
1.25585 1.10104 3.34518 0 0 0 65 66 71 255
-0.507416 1.227 3.60514 0 0 0 168 168 170 255
1.32927 1.14171 3.36355 0 0 0 145 150 151 255
-0.545172 1.24171 3.59496 0 0 0 75 123 153 255
1.31992 1.20829 3.43035 0 0 0 140 149 149 255
1.31781 1.19578 3.42407 0 0 0 123 134 142 255
-0.661213 -0.818992 3.49378 0 0 0 150 152 152 255
-0.556782 -0.754888 3.55165 0 0 0 162 145 145 255
-0.680262 -0.716141 3.48726 0 0 0 137 77 84 255
-0.573256 -0.728531 3.53939 0 0 0 140 84 89 255
-0.70294 -0.700465 3.48342 0 0 0 126 43 53 255
-0.575722 -0.701749 3.53559 0 0 0 132 39 50 255
-0.626742 -0.692398 3.50582 0 0 0 128 80 89 255
-0.743424 -0.595966 3.49253 0 0 0 157 157 157 255
-0.68623 -0.597872 3.48499 0 0 0 161 163 162 255
-0.624887 -0.598068 3.5057 0 0 0 155 162 163 255
-0.631515 -0.576641 3.50314 0 0 0 160 165 165 255
-0.748608 -0.556403 3.49234 0 0 0 154 161 163 255
-0.500806 -0.57653 3.60251 0 0 0 156 159 158 255
-0.547039 -0.52944 3.55346 0 0 0 69 94 88 255
-0.489251 -0.469051 3.60167 0 0 0 137 142 140 255
-0.697088 -0.446955 3.48162 0 0 0 51 102 65 255
-0.530109 -0.451255 3.57013 0 0 0 138 146 139 255
-0.632356 -0.42805 3.50362 0 0 0 160 163 157 255
-0.756042 -0.421664 3.48969 0 0 0 81 106 88 255
-0.621696 -0.410743 3.50806 0 0 0 159 164 162 255
-0.674784 -0.385727 3.4891 0 0 0 158 163 163 255
-0.755502 -0.373196 3.48967 0 0 0 152 159 157 255
-0.54862 -0.325527 3.54781 0 0 0 130 142 124 255
-0.504406 -0.276421 3.57836 0 0 0 129 134 113 255
-0.598955 -0.2659 3.52014 0 0 0 19 102 140 255
-0.625468 -0.219725 3.507 0 0 0 111 132 92 255
-0.587022 -0.20847 3.52228 0 0 0 10 69 118 255
-0.585152 -0.155574 3.52432 0 0 0 81 77 29 255
-0.506792 -0.144395 3.57698 0 0 0 165 139 53 255
-0.703499 -0.101142 3.49592 0 0 0 77 107 83 255
-0.763328 -0.0774007 3.49741 0 0 0 130 134 129 255
-0.554979 -0.029202 3.5401 0 0 0 146 154 152 255
-0.619332 -0.0251978 3.50784 0 0 0 155 163 158 255
-0.433062 -0.0127958 3.82869 0 0 0 71 108 89 255
0.082682 0.0707595 4.30317 0 0 0 61 61 61 255
0.297726 0.0686707 4.30023 0 0 0 82 82 82 255
0.210774 0.115079 4.24893 0 0 0 151 102 105 255
0.318631 0.156147 4.302 0 0 0 70 74 77 255
0.31048 0.187215 4.30196 0 0 0 50 54 55 255
0.220872 0.231648 4.26294 0 0 0 186 184 185 255
0.297421 0.228222 4.30454 0 0 0 125 125 125 255
0.227004 0.299102 4.266 0 0 0 254 254 254 255
0.0263608 0.321033 4.31645 0 0 0 63 63 63 255
-0.421959 0.327484 3.82989 0 0 0 41 64 106 255
0.114414 0.402523 4.12656 0 0 0 205 198 193 255
0.215759 0.40037 4.1057 0 0 0 143 109 71 255
0.108933 0.421467 4.12603 0 0 0 145 129 116 255
0.217798 0.420274 4.10469 0 0 0 167 135 93 255
0.301149 0.424661 4.11574 0 0 0 101 104 109 255
0.42907 0.448451 4.29247 0 0 0 68 72 75 255
-0.526547 0.429541 3.57289 0 0 0 155 128 98 255
0.23905 0.487187 4.08013 0 0 0 94 105 115 255
-0.788551 0.434582 3.52614 0 0 0 143 138 103 255
-0.749405 0.436112 3.52193 0 0 0 123 116 114 255
-0.691356 0.434758 3.52136 0 0 0 122 111 69 255
-0.651238 0.434291 3.52191 0 0 0 83 74 67 255
-0.62686 0.43542 3.529 0 0 0 147 133 95 255
0.159349 0.500706 4.079 0 0 0 140 146 146 255
0.196262 0.50234 4.07844 0 0 0 43 47 48 255
-0.724646 0.443157 3.52128 0 0 0 135 129 114 255
0.313238 0.51462 4.11221 0 0 0 139 143 144 255
-0.791088 0.463534 3.53157 0 0 0 102 107 107 255
-0.490685 0.458626 3.60015 0 0 0 32 62 109 255
0.215653 0.52542 4.07912 0 0 0 147 150 153 255
-0.410777 0.509447 3.7905 0 0 0 23 78 122 255
0.110305 0.554359 4.09598 0 0 0 45 44 39 255
-0.811135 0.489635 3.54228 0 0 0 10 68 120 255
0.251682 0.575116 4.089 0 0 0 58 59 60 255
0.311773 0.564845 4.10992 0 0 0 143 149 150 255
0.351633 0.583938 4.12991 0 0 0 138 144 144 255
0.0169949 0.585941 4.15892 0 0 0 92 101 101 255
0.129259 0.590303 4.08917 0 0 0 117 120 121 255
0.191946 0.5965 4.07938 0 0 0 146 149 147 255
-0.617843 0.530593 3.5332 0 0 0 161 164 166 255
-0.410378 0.579975 3.78406 0 0 0 34 88 134 255
-0.617814 0.561108 3.53391 0 0 0 159 164 162 255
-0.44249 0.572389 3.66684 0 0 0 154 161 165 255
1.12278 0.60155 3.53954 0 0 0 125 137 119 255
1.20538 0.595255 3.50798 0 0 0 41 52 46 255
1.18209 0.612533 3.50647 0 0 0 140 144 146 255
-0.505593 0.642055 3.59852 0 0 0 163 168 170 255
0.147385 0.72577 4.09476 0 0 0 112 97 73 255
0.217292 0.731797 4.08761 0 0 0 121 92 61 255
-0.838174 0.656922 3.57111 0 0 0 21 59 105 255
-0.789871 0.647371 3.54461 0 0 0 160 162 161 255
-0.632847 0.64645 3.53651 0 0 0 160 163 176 255
-0.743351 0.657074 3.54205 0 0 0 30 61 108 255
1.3153 0.635506 3.46075 0 0 0 143 143 126 255
-0.430999 0.699846 3.68541 0 0 0 135 151 172 255
-0.442051 0.703518 3.66147 0 0 0 159 165 171 255
-0.704985 0.678463 3.52468 0 0 0 165 168 167 255
-0.031687 0.849882 4.30772 0 0 0 60 60 60 255
-0.560604 0.706395 3.57991 0 0 0 105 110 125 255
-0.481548 0.718477 3.62684 0 0 0 45 66 109 255
-0.737116 0.717508 3.53049 0 0 0 60 75 98 255
-0.865974 0.737645 3.59097 0 0 0 25 57 98 255
1.35605 0.715382 3.41441 0 0 0 138 136 121 255
-0.70857 0.747767 3.53078 0 0 0 167 170 169 255
-0.653955 0.74914 3.53711 0 0 0 33 73 121 255
-0.487798 0.773222 3.62934 0 0 0 167 170 170 255
-0.811275 0.777241 3.56194 0 0 0 66 71 96 255
0.771642 1.0935 4.99732 0 0 0 138 134 129 255
-0.661881 0.786441 3.54046 0 0 0 165 171 176 255
-0.588528 0.787851 3.55575 0 0 0 170 175 173 255
-0.434028 0.819544 3.66957 0 0 0 49 62 96 255
1.35508 0.746634 3.41259 0 0 0 32 68 56 255
0.768086 1.11341 4.87493 0 0 0 111 109 107 255
-0.750628 0.831422 3.53714 0 0 0 79 86 103 255
1.34264 0.784111 3.38539 0 0 0 141 120 127 255
1.17452 0.787517 3.35736 0 0 0 161 166 174 255
1.1422 0.801086 3.36754 0 0 0 86 81 69 255
1.195 0.810408 3.34414 0 0 0 95 54 54 255
1.36347 0.812244 3.38585 0 0 0 125 122 121 255
-0.689855 0.863668 3.53816 0 0 0 41 74 116 255
-0.534066 0.881858 3.57656 0 0 0 166 171 169 255
-0.803863 0.88365 3.56266 0 0 0 51 66 106 255
-0.588763 0.883472 3.55814 0 0 0 171 174 174 255
1.1524 0.827112 3.35304 0 0 0 134 131 132 255
-0.65303 0.912863 3.54691 0 0 0 168 170 170 255
1.06512 0.875131 3.38342 0 0 0 97 96 97 255
-0.7069 0.923072 3.53435 0 0 0 167 169 168 255
-0.44614 0.955646 3.66175 0 0 0 117 147 169 255
-0.74548 0.93285 3.54867 0 0 0 69 77 97 255
-0.839394 0.955769 3.58635 0 0 0 159 162 162 255
-0.520585 0.990075 3.58824 0 0 0 151 158 165 255
1.09078 0.937038 3.36241 0 0 0 105 74 55 255
-0.61775 1.00088 3.55602 0 0 0 148 163 178 255
-0.438668 1.04449 3.68952 0 0 0 147 159 159 255
-0.629231 1.04783 3.54482 0 0 0 128 144 161 255
-0.593998 1.04513 3.55212 0 0 0 17 115 155 255
0.862589 1.09836 3.72074 0 0 0 50 60 60 255
1.17033 0.986932 3.34167 0 0 0 86 75 77 255
-0.801854 1.07926 3.55078 0 0 0 99 140 170 255
-0.687008 1.07054 3.54061 0 0 0 92 130 159 255
-0.42889 1.1099 3.6939 0 0 0 159 154 140 255
-0.786885 1.16152 3.55491 0 0 0 133 139 143 255
-0.685037 1.16365 3.53619 0 0 0 135 139 149 255
1.25349 1.09928 3.34505 0 0 0 65 66 71 255
-0.812199 1.21443 3.55387 0 0 0 100 130 154 255
1.33467 1.14195 3.36296 0 0 0 148 152 153 255
-0.66751 -0.819148 3.49284 0 0 0 143 143 143 255
-0.700607 -0.710165 3.48349 0 0 0 131 41 47 255
-0.575961 -0.7191 3.5356 0 0 0 131 61 67 255
-0.667747 -0.699507 3.49039 0 0 0 167 142 146 255
-0.53856 -0.67471 3.56229 0 0 0 136 137 134 255
-0.706933 -0.592633 3.48774 0 0 0 158 163 160 255
-0.625619 -0.57663 3.50546 0 0 0 158 164 163 255
-0.708537 -0.44296 3.48183 0 0 0 48 98 65 255
-0.488679 -0.478698 3.60289 0 0 0 124 144 143 255
-0.750547 -0.384686 3.49219 0 0 0 155 159 158 255
-0.504613 -0.268748 3.57858 0 0 0 124 134 109 255
-0.596668 -0.208243 3.5175 0 0 0 14 72 120 255
-0.762748 -0.171801 3.49434 0 0 0 134 144 127 255
-0.647993 -0.160841 3.49832 0 0 0 123 112 56 255
-0.515326 -0.131723 3.57419 0 0 0 160 128 41 255
0.0665122 0.0801312 4.30496 0 0 0 70 67 68 255
0.295765 0.0805906 4.30091 0 0 0 55 55 55 255
-0.466508 0.112625 3.8352 0 0 0 172 170 170 255
0.0487733 0.218867 4.30691 0 0 0 153 153 153 255
0.154945 0.226128 4.20991 0 0 0 114 116 120 255
0.217992 0.22104 4.2434 0 0 0 99 98 101 255
0.0343043 0.245564 4.30885 0 0 0 154 156 155 255
0.353221 0.313811 4.30346 0 0 0 63 61 60 255
0.027021 0.315825 4.31598 0 0 0 63 63 63 255
0.0373235 0.49837 4.13258 0 0 0 60 60 58 255
2.13348 0.766738 6.11187 0 0 0 52 41 38 255
-0.454991 0.488574 3.64162 0 0 0 110 139 157 255
0.259011 0.533739 4.08867 0 0 0 43 49 49 255
0.337745 0.564889 4.11655 0 0 0 133 139 140 255
-0.837303 0.50575 3.55529 0 0 0 107 112 119 255
-0.80712 0.474219 3.53694 0 0 0 15 58 109 255
-0.691848 0.559246 3.52083 0 0 0 150 157 154 255
-0.609883 0.539651 3.53652 0 0 0 80 122 136 255
-0.452201 0.569021 3.64581 0 0 0 149 156 162 255
1.12889 0.604983 3.53107 0 0 0 131 142 120 255
1.21476 0.60151 3.51148 0 0 0 43 65 60 255
-0.838225 0.643151 3.56573 0 0 0 16 70 113 255
-0.518511 0.665381 3.59538 0 0 0 167 170 170 255
-0.412838 0.678496 3.8198 0 0 0 22 69 113 255
-0.628084 0.651562 3.53824 0 0 0 164 168 169 255
-0.614275 0.693743 3.54392 0 0 0 169 171 173 255
-0.869776 0.738666 3.59417 0 0 0 25 57 98 255
-0.710734 0.71662 3.52845 0 0 0 44 59 93 255
-0.719052 0.783254 3.52954 0 0 0 165 170 170 255
-0.413202 0.824934 3.71935 0 0 0 103 109 122 255
0.8636 0.857793 3.86185 0 0 0 111 97 100 255
-0.630845 0.869712 3.5422 0 0 0 140 151 163 255
0.942354 0.876572 3.45603 0 0 0 51 49 60 255
-0.508813 0.941531 3.59196 0 0 0 133 157 171 255
-0.826411 0.965462 3.58116 0 0 0 158 160 161 255
-0.478014 1.01013 3.65824 0 0 0 4 110 156 255
-0.472051 1.02304 3.6555 0 0 0 6 104 150 255
-0.578879 1.03915 3.55363 0 0 0 3 115 159 255
-0.804972 1.08981 3.57545 0 0 0 147 151 155 255
-0.724612 1.0644 3.54119 0 0 0 24 91 137 255
-0.436904 1.12606 3.66139 0 0 0 161 146 99 255
-0.819838 1.13173 3.56429 0 0 0 149 160 171 255
1.25038 1.07528 3.3471 0 0 0 68 84 92 255
-0.736121 1.15984 3.54846 0 0 0 40 85 131 255
-0.580792 1.16712 3.5679 0 0 0 173 164 128 255
-0.805247 1.2222 3.55649 0 0 0 108 137 156 255
-0.719292 -0.574357 3.4833 0 0 0 155 162 162 255
-0.509835 -0.577939 3.59006 0 0 0 153 159 157 255
-0.495749 -0.51085 3.60343 0 0 0 150 156 155 255
-0.730834 -0.40358 3.49926 0 0 0 157 162 160 255
-0.548726 -0.316171 3.54599 0 0 0 120 136 94 255
-0.655532 -0.276561 3.49992 0 0 0 132 142 120 255
-0.596745 -0.201298 3.51827 0 0 0 12 68 117 255
-0.520641 -0.164193 3.57264 0 0 0 163 141 53 255
-0.760839 -0.0829612 3.49709 0 0 0 136 133 134 255
-0.445431 -0.0218763 3.818 0 0 0 59 104 80 255
0.0810638 0.0935651 4.3047 0 0 0 82 52 55 255
0.294496 0.0868075 4.3014 0 0 0 52 52 52 255
0.0878646 0.179908 4.30443 0 0 0 41 47 52 255
0.277476 0.185878 4.29646 0 0 0 53 54 52 255
0.216855 0.290269 4.26619 0 0 0 192 194 198 255
0.355498 0.336612 4.30343 0 0 0 53 57 63 255
0.119137 0.408385 4.12558 0 0 0 171 163 157 255
0.0742348 0.521919 4.10717 0 0 0 51 54 53 255
0.321147 0.523892 4.11225 0 0 0 120 122 123 255
-0.453441 0.496514 3.6439 0 0 0 139 156 164 255
0.188972 0.568484 4.07907 0 0 0 141 149 153 255
0.280438 0.55632 4.09833 0 0 0 41 49 55 255
-0.870461 0.517528 3.59326 0 0 0 138 116 107 255
1.07265 0.577346 3.79781 0 0 0 112 115 111 255
-0.42141 0.663629 3.79976 0 0 0 36 92 129 255
0.149632 0.730094 4.09415 0 0 0 115 95 72 255
0.228872 0.729538 4.08907 0 0 0 111 92 70 255
-0.886555 0.678728 3.61861 0 0 0 150 155 153 255
-0.615209 0.687029 3.54319 0 0 0 168 171 171 255
-0.490078 0.692424 3.61283 0 0 0 109 117 124 255
0.401271 0.839476 4.25361 0 0 0 50 55 59 255
-0.876699 0.746876 3.60016 0 0 0 27 58 94 255
0.130213 0.923458 4.12826 0 0 0 130 133 131 255
0.265182 0.918994 4.11989 0 0 0 137 141 140 255
0.860298 0.875308 3.8835 0 0 0 108 103 105 255
-0.418448 0.842246 3.70816 0 0 0 38 73 113 255
-0.473125 0.848681 3.63977 0 0 0 164 168 169 255
1.12259 0.806379 3.37078 0 0 0 85 89 86 255
-0.842282 0.962737 3.58887 0 0 0 158 161 160 255
-0.800098 0.947749 3.5632 0 0 0 154 155 157 255
-0.451283 1.01665 3.66449 0 0 0 18 90 137 255
-0.613414 1.00952 3.54888 0 0 0 152 155 163 255
-0.446547 1.06809 3.66216 0 0 0 140 122 113 255
-0.619605 -0.204404 3.50723 0 0 0 72 97 70 255
-0.461036 -0.0339836 3.752 0 0 0 52 100 72 255
-0.709824 -0.00507035 3.49953 0 0 0 26 67 39 255
0.253084 0.0928847 4.26057 0 0 0 102 50 48 255
0.0558395 0.0808014 4.30554 0 0 0 106 103 104 255
0.251297 0.140368 4.22921 0 0 0 50 42 45 255
0.0154065 0.324684 4.31637 0 0 0 61 64 67 255
0.343737 0.369243 4.30008 0 0 0 52 51 56 255
-0.451636 0.356053 3.7991 0 0 0 22 69 117 255
-0.816037 0.539669 3.55806 0 0 0 157 140 91 255
-0.462625 0.651563 3.62159 0 0 0 19 72 123 255
-0.78662 0.737246 3.55374 0 0 0 161 163 168 255
0.00695324 0.84751 4.29166 0 0 0 40 45 46 255
0.344417 0.831855 4.24924 0 0 0 39 44 46 255
-0.684434 0.722465 3.53409 0 0 0 35 66 115 255
-0.682526 0.786888 3.53587 0 0 0 41 68 109 255
0.192708 0.919262 4.09486 0 0 0 138 144 147 255
-0.425838 0.864802 3.68219 0 0 0 42 78 117 255
-0.743398 -0.827659 3.47549 0 0 0 122 130 124 255
-0.78724 -0.82134 3.47176 0 0 0 81 101 87 255
-0.760327 -0.819733 3.47753 0 0 0 145 146 145 255
-0.742186 -0.816962 3.46768 0 0 0 154 155 154 255
-0.830607 -0.819904 3.47879 0 0 0 80 106 89 255
-0.737338 -0.807736 3.48025 0 0 0 107 121 119 255
-0.682944 -0.804153 3.48856 0 0 0 53 76 70 255
-0.882848 -0.814141 3.49638 0 0 0 71 89 69 255
-0.804699 -0.809234 3.48682 0 0 0 136 137 135 255
-0.761653 -0.800756 3.47196 0 0 0 72 92 80 255
-0.741941 -0.800221 3.47155 0 0 0 120 120 120 255
-0.713104 -0.80814 3.48435 0 0 0 70 80 72 255
-0.669976 -0.804326 3.49172 0 0 0 141 139 137 255
-0.923807 -0.813307 3.50877 0 0 0 81 82 74 255
-0.90181 -0.804978 3.50231 0 0 0 53 51 49 255
-0.79467 -0.795486 3.4775 0 0 0 105 122 118 255
-0.96453 -0.815712 3.55371 0 0 0 116 115 113 255
-0.839853 -0.790067 3.48594 0 0 0 101 100 92 255
-0.869838 -0.78251 3.49458 0 0 0 83 96 91 255
-0.916723 -0.787424 3.51401 0 0 0 120 125 123 255
-0.633803 -0.753868 3.50504 0 0 0 155 149 137 255
-0.764518 -0.740394 3.47712 0 0 0 99 90 88 255
-0.820217 -0.727375 3.4822 0 0 0 81 56 56 255
-0.81366 -0.724655 3.48085 0 0 0 116 64 63 255
-0.896188 -0.723886 3.51046 0 0 0 68 54 52 255
-0.766009 -0.71312 3.4785 0 0 0 169 133 136 255
-0.860161 -0.71397 3.49299 0 0 0 86 71 73 255
-0.844653 -0.711982 3.48997 0 0 0 150 148 148 255
-0.806236 -0.708273 3.48145 0 0 0 158 147 151 255
-0.78787 -0.705221 3.48114 0 0 0 93 55 58 255
-0.950609 -0.716448 3.54496 0 0 0 73 52 49 255
-0.806499 -0.688289 3.48259 0 0 0 112 57 62 255
-0.759803 -0.684658 3.48 0 0 0 128 41 45 255
-0.926131 -0.700892 3.53559 0 0 0 120 102 105 255
-0.836542 -0.675851 3.49211 0 0 0 109 49 54 255
-0.887275 -0.675813 3.51065 0 0 0 106 81 85 255
-0.940449 -0.612756 3.54981 0 0 0 120 121 114 255
-0.810448 -0.596797 3.49562 0 0 0 135 141 134 255
-0.792854 -0.591282 3.48125 0 0 0 149 156 155 255
-0.762564 -0.585512 3.48606 0 0 0 153 154 151 255
-0.90362 -0.565147 3.53525 0 0 0 113 123 116 255
-0.763371 -0.5445 3.48949 0 0 0 151 152 145 255
-0.93624 -0.536996 3.55047 0 0 0 51 78 71 255
-0.563455 -0.374788 3.54329 0 0 0 66 117 87 255
-0.621522 -0.359085 3.51038 0 0 0 68 112 88 255
-0.461655 -0.352517 3.77414 0 0 0 122 137 87 255
-0.886259 -0.332349 3.52099 0 0 0 125 125 120 255
-0.442887 -0.336249 3.78645 0 0 0 141 139 84 255
-0.879437 -0.304492 3.53347 0 0 0 136 137 134 255
-0.552123 -0.243439 3.53876 0 0 0 64 88 82 255
-0.680242 -0.191137 3.49162 0 0 0 79 109 55 255
-0.7673 -0.184092 3.49358 0 0 0 99 126 78 255
-0.869093 -0.172835 3.53365 0 0 0 130 134 118 255
-0.941994 -0.167592 3.60848 0 0 0 50 86 62 255
-0.949492 -0.134874 3.60227 0 0 0 93 99 102 255
-0.750534 -0.0975352 3.49549 0 0 0 110 104 113 255
-0.816803 -0.089014 3.50946 0 0 0 77 99 82 255
-0.437136 -0.0686224 3.79047 0 0 0 132 133 86 255
-0.951761 0.0314047 3.6225 0 0 0 43 82 70 255
0.32243 0.0841606 4.30271 0 0 0 83 78 78 255
0.0504477 0.0970137 4.30508 0 0 0 106 107 108 255
0.254106 0.168687 4.29193 0 0 0 107 113 112 255
0.172638 0.392845 4.10782 0 0 0 85 87 83 255
0.330712 0.415381 4.14989 0 0 0 92 100 105 255
0.435464 0.461652 4.29403 0 0 0 72 73 75 255
0.407006 0.48833 4.26194 0 0 0 71 75 82 255
-0.666619 0.452677 3.5203 0 0 0 34 55 81 255
-0.913332 0.480017 3.63296 0 0 0 91 108 132 255
-0.438609 0.500152 3.67859 0 0 0 111 75 98 255
-0.502233 0.514482 3.59429 0 0 0 52 77 110 255
-0.43618 0.52398 3.68008 0 0 0 115 91 111 255
-0.63829 0.512561 3.52743 0 0 0 66 104 99 255
-0.541658 0.516338 3.56722 0 0 0 52 82 113 255
1.35395 0.571508 3.77852 0 0 0 104 103 88 255
-0.466157 0.538014 3.62558 0 0 0 112 111 116 255
-0.418215 0.551472 3.732 0 0 0 31 70 110 255
-0.447982 0.545442 3.6517 0 0 0 112 120 128 255
-0.435258 0.559369 3.67925 0 0 0 123 113 118 255
-0.522098 0.563265 3.57861 0 0 0 36 74 122 255
-0.487769 0.571948 3.60738 0 0 0 130 131 138 255
-0.648542 0.567287 3.52713 0 0 0 73 99 91 255
-0.629472 0.56866 3.53042 0 0 0 72 104 102 255
-0.550582 0.578633 3.55978 0 0 0 36 87 128 255
-0.917431 0.592191 3.64352 0 0 0 91 103 131 255
1.32183 0.622576 3.51785 0 0 0 59 78 71 255
1.26015 0.649015 3.6511 0 0 0 92 128 124 255
1.34259 0.642356 3.51486 0 0 0 99 98 81 255
1.06124 0.656753 3.5684 0 0 0 139 120 124 255
-0.913147 0.649903 3.63672 0 0 0 111 123 144 255
1.18328 0.668433 3.52608 0 0 0 146 150 151 255
1.19161 0.682235 3.53185 0 0 0 77 91 84 255
1.15032 0.681605 3.49387 0 0 0 108 76 73 255
-0.419577 0.717679 3.72437 0 0 0 109 112 121 255
1.33461 0.695379 3.48874 0 0 0 30 49 43 255
-0.896334 0.708083 3.61816 0 0 0 111 107 119 255
-0.416221 0.750105 3.71969 0 0 0 85 95 108 255
1.1268 0.716873 3.46972 0 0 0 91 88 97 255
1.24561 0.731925 3.51926 0 0 0 119 93 91 255
-0.897291 0.741837 3.60892 0 0 0 102 115 129 255
1.14119 0.744281 3.44263 0 0 0 123 110 113 255
1.06766 0.762679 3.45756 0 0 0 155 149 151 255
-0.888241 0.782389 3.58729 0 0 0 103 104 107 255
1.38735 0.771968 3.39218 0 0 0 136 139 111 255
1.05842 0.786889 3.44449 0 0 0 118 110 113 255
1.03477 0.794779 3.44357 0 0 0 136 111 108 255
0.46826 1.08918 4.86494 0 0 0 155 151 147 255
1.16802 0.801662 3.38824 0 0 0 150 151 157 255
0.26422 0.951996 4.12173 0 0 0 94 96 97 255
0.209213 0.964811 4.0995 0 0 0 101 107 106 255
0.468546 1.11452 4.77564 0 0 0 112 112 112 255
0.838545 0.924816 3.85452 0 0 0 174 175 171 255
-0.489281 0.895601 3.61086 0 0 0 69 95 137 255
1.35537 0.874971 3.3131 0 0 0 96 102 111 255
-0.614891 0.936413 3.54885 0 0 0 116 132 170 255
1.05075 0.922265 3.3969 0 0 0 101 100 100 255
0.940473 0.948034 3.47746 0 0 0 90 90 92 255
-0.42239 1.02764 3.66872 0 0 0 28 76 121 255
1.26431 0.947896 3.30647 0 0 0 119 104 97 255
1.10586 0.966237 3.36926 0 0 0 95 84 81 255
0.269874 1.18094 4.12778 0 0 0 96 97 98 255
1.13804 1.01652 3.35434 0 0 0 135 132 116 255
1.2328 1.0026 3.3016 0 0 0 111 86 81 255
1.33903 1.00563 3.21927 0 0 0 114 112 111 255
1.2693 1.04143 3.26986 0 0 0 134 140 143 255
1.27162 1.08861 3.25444 0 0 0 125 129 135 255
-0.46073 1.21961 3.64439 0 0 0 118 123 145 255
-0.73746 1.21273 3.50486 0 0 0 37 87 124 255
-0.713344 1.22678 3.49866 0 0 0 80 103 141 255
-0.987485 -0.896753 3.55302 0 0 0 37 73 61 255
-0.756814 -0.804537 3.47362 0 0 0 77 92 84 255
-0.794814 -0.802061 3.47291 0 0 0 137 139 139 255
-0.768954 -0.731596 3.47692 0 0 0 112 42 50 255
-0.822544 -0.725728 3.48341 0 0 0 81 56 56 255
-0.846079 -0.721892 3.48987 0 0 0 156 141 140 255
-0.762019 -0.714646 3.47857 0 0 0 167 148 150 255
-0.893433 -0.722064 3.50793 0 0 0 68 54 52 255
-0.763386 -0.687648 3.47981 0 0 0 124 37 45 255
-0.912285 -0.695496 3.5151 0 0 0 146 130 132 255
-0.802753 -0.590496 3.47759 0 0 0 143 146 139 255
-0.761883 -0.546799 3.49018 0 0 0 151 151 151 255
-0.904335 -0.555205 3.53525 0 0 0 135 134 131 255
-0.458758 -0.346621 3.77979 0 0 0 137 138 81 255
-0.664677 -0.183331 3.49457 0 0 0 152 155 132 255
-0.869903 -0.17088 3.53415 0 0 0 130 134 118 255
-0.813519 -0.0860852 3.50947 0 0 0 57 96 62 255
-0.866756 -0.0754656 3.53908 0 0 0 132 124 125 255
-0.437342 -0.0743523 3.78954 0 0 0 133 134 86 255
0.0643319 0.0613932 4.30532 0 0 0 152 154 153 255
0.304864 0.24601 4.31304 0 0 0 100 102 104 255
-0.949714 0.340294 3.65849 0 0 0 40 57 77 255
0.326064 0.480705 4.11269 0 0 0 87 85 82 255
-0.668478 0.455878 3.52011 0 0 0 34 55 81 255
0.238814 0.516733 4.07955 0 0 0 120 122 122 255
-0.874099 0.481401 3.59016 0 0 0 97 119 139 255
-0.50325 0.476566 3.59206 0 0 0 79 106 139 255
0.239515 0.551653 4.08104 0 0 0 58 52 57 255
-0.694256 0.518873 3.51881 0 0 0 138 138 123 255
-0.418639 0.549982 3.73092 0 0 0 31 70 110 255
-0.494246 0.599344 3.60742 0 0 0 50 109 151 255
1.34819 0.646268 3.51756 0 0 0 91 104 95 255
-0.900172 0.659671 3.63197 0 0 0 126 134 138 255
1.33221 0.683366 3.4925 0 0 0 37 44 39 255
1.24092 0.73104 3.51138 0 0 0 120 89 88 255
1.3625 0.82381 3.36138 0 0 0 98 91 91 255
0.839228 0.924709 3.85442 0 0 0 166 167 163 255
-0.651807 1.06433 3.52891 0 0 0 31 97 139 255
-0.874858 -0.806788 3.48118 0 0 0 94 108 90 255
-0.756397 -0.72736 3.48038 0 0 0 167 144 144 255
-0.69921 -0.690467 3.48575 0 0 0 146 83 90 255
-0.821908 -0.689614 3.48548 0 0 0 117 34 34 255
-0.957806 -0.629264 3.55881 0 0 0 52 81 44 255
-0.80053 -0.579418 3.47865 0 0 0 154 154 151 255
-0.493613 -0.571591 3.61394 0 0 0 152 158 157 255
-0.953361 -0.582851 3.54713 0 0 0 59 81 73 255
-0.905139 -0.537913 3.53551 0 0 0 139 139 139 255
-0.926847 -0.533637 3.54305 0 0 0 36 64 53 255
-0.888854 -0.485969 3.51714 0 0 0 135 140 132 255
-0.749854 -0.41141 3.49166 0 0 0 158 158 158 255
-0.458702 -0.346701 3.77999 0 0 0 137 138 81 255
-0.886052 -0.321869 3.53892 0 0 0 137 140 126 255
-0.660788 -0.231806 3.49658 0 0 0 11 86 129 255
-0.609542 -0.187697 3.51434 0 0 0 10 70 118 255
-0.939513 -0.182858 3.59389 0 0 0 56 85 45 255
-0.509099 -0.15744 3.57711 0 0 0 164 141 61 255
-0.937572 -0.0645552 3.61187 0 0 0 42 80 53 255
0.261424 0.0766062 4.27004 0 0 0 48 44 45 255
0.261779 0.172531 4.30497 0 0 0 101 107 116 255
0.304816 0.244256 4.31316 0 0 0 100 102 104 255
0.133793 0.405403 4.12624 0 0 0 125 122 114 255
-0.493358 0.487554 3.60304 0 0 0 99 140 166 255
-0.42788 0.49416 3.72282 0 0 0 86 122 150 255
0.255003 0.554728 4.08944 0 0 0 43 49 54 255
-0.863501 0.498261 3.58382 0 0 0 113 126 133 255
-0.416345 0.536325 3.74531 0 0 0 80 119 145 255
1.25843 0.66167 3.6628 0 0 0 118 146 146 255
0.243362 0.755842 4.08966 0 0 0 75 68 65 255
1.2032 0.682212 3.55331 0 0 0 62 96 84 255
-0.898628 0.715827 3.61681 0 0 0 62 64 81 255
-0.499075 0.708626 3.60531 0 0 0 165 168 167 255
1.24208 0.726811 3.52527 0 0 0 129 88 88 255
-0.632475 0.726892 3.53881 0 0 0 162 163 170 255
-0.460496 0.788545 3.64655 0 0 0 46 60 86 255
-0.421199 0.801681 3.6995 0 0 0 155 158 167 255
-0.899222 0.825853 3.60894 0 0 0 32 61 92 255
1.24122 0.81029 3.37106 0 0 0 141 142 146 255
-0.528648 0.865214 3.5778 0 0 0 167 171 169 255
-0.702266 0.863878 3.53388 0 0 0 47 70 107 255
0.827654 0.945237 3.8251 0 0 0 171 175 173 255
-0.805185 0.89618 3.56417 0 0 0 46 63 92 255
1.29156 0.897217 3.30702 0 0 0 74 64 68 255
0.42357 1.29771 4.36157 0 0 0 125 128 127 255
1.25506 1.02188 3.27535 0 0 0 92 111 121 255
1.29967 1.09555 3.25538 0 0 0 71 66 74 255
-0.797982 -0.81016 3.48003 0 0 0 146 149 147 255
-0.761353 -0.713072 3.47884 0 0 0 167 148 150 255
-0.546972 -0.509252 3.55587 0 0 0 35 85 74 255
-0.916732 -0.503289 3.538 0 0 0 35 76 55 255
-0.616266 -0.422522 3.51028 0 0 0 161 162 166 255
-0.560603 -0.330044 3.54337 0 0 0 114 129 89 255
-0.459472 -0.350695 3.77964 0 0 0 137 138 81 255
-0.644517 -0.296491 3.50192 0 0 0 137 145 126 255
-0.943209 -0.197235 3.59709 0 0 0 50 81 50 255
-0.667955 -0.17742 3.49471 0 0 0 156 155 121 255
-0.439408 -0.0786986 3.78973 0 0 0 133 134 86 255
-0.938652 0.00476688 3.62184 0 0 0 26 54 40 255
0.158184 0.0773061 4.22781 0 0 0 52 56 70 255
0.139182 0.301538 4.22986 0 0 0 133 140 140 255
-0.941429 0.347265 3.65731 0 0 0 21 54 89 255
0.127085 0.419142 4.12587 0 0 0 140 119 104 255
0.072166 0.496938 4.10659 0 0 0 49 59 63 255
0.419953 0.556319 4.33159 0 0 0 70 68 64 255
0.179322 0.553761 4.08027 0 0 0 143 147 149 255
-0.43377 0.502781 3.69107 0 0 0 117 90 107 255
0.232898 0.577443 4.08187 0 0 0 146 150 152 255
-0.837957 0.523537 3.56456 0 0 0 163 145 122 255
0.110917 0.606141 4.09806 0 0 0 126 125 126 255
-0.648053 0.535524 3.52613 0 0 0 41 101 92 255
-0.592222 0.555341 3.54267 0 0 0 112 152 172 255
-0.843568 0.572602 3.57425 0 0 0 161 131 97 255
1.14303 0.618857 3.56397 0 0 0 125 134 110 255
1.26021 0.663712 3.66512 0 0 0 125 149 149 255
-0.885929 0.723841 3.6064 0 0 0 46 58 84 255
-0.637636 0.728748 3.53766 0 0 0 142 138 162 255
1.25527 0.759998 3.48864 0 0 0 158 158 156 255
-0.724343 0.768953 3.52581 0 0 0 164 165 164 255
1.34382 0.8025 3.36176 0 0 0 155 147 149 255
1.38689 0.804651 3.37204 0 0 0 50 72 62 255
-0.704412 0.851833 3.53334 0 0 0 86 96 104 255
-0.731982 0.891224 3.53561 0 0 0 171 168 169 255
-0.614838 0.896973 3.54625 0 0 0 170 170 170 255
-0.514136 0.923652 3.59159 0 0 0 88 101 126 255
-0.432551 1.12144 3.6755 0 0 0 174 154 94 255
-0.782966 1.12501 3.50489 0 0 0 152 157 158 255
-0.843111 -0.724384 3.48929 0 0 0 146 145 136 255
-0.56895 -0.537803 3.54452 0 0 0 159 160 155 255
-0.505422 -0.526031 3.59162 0 0 0 156 161 159 255
-0.754939 -0.505383 3.5188 0 0 0 56 99 52 255
-0.601447 -0.492154 3.55964 0 0 0 159 161 162 255
-0.738199 -0.390476 3.49682 0 0 0 157 161 162 255
-0.867262 -0.34018 3.52963 0 0 0 147 148 147 255
-0.525156 -0.00974163 3.55285 0 0 0 42 100 68 255
-0.463992 -4.23351e-06 3.84807 0 0 0 88 117 107 255
0.29355 0.135899 4.30675 0 0 0 52 49 47 255
0.292303 0.174504 4.30793 0 0 0 65 69 73 255
0.106384 0.188789 4.28656 0 0 0 49 54 52 255
0.015877 0.350824 4.31609 0 0 0 46 52 57 255
-0.458888 0.348598 3.87272 0 0 0 14 62 108 255
-0.543742 0.436052 3.56223 0 0 0 99 84 60 255
0.30443 0.544951 4.10895 0 0 0 148 148 152 255
0.0770447 0.577926 4.10766 0 0 0 59 65 64 255
-0.816511 0.52638 3.55885 0 0 0 159 142 91 255
-0.429665 0.539132 3.69399 0 0 0 158 134 144 255
1.24642 0.615912 3.60443 0 0 0 40 56 51 255
1.15488 0.622928 3.5399 0 0 0 139 144 149 255
1.34667 0.658864 3.5013 0 0 0 161 156 134 255
-0.476786 0.694126 3.62236 0 0 0 27 68 114 255
1.2631 0.695585 3.65694 0 0 0 134 152 151 255
-0.425429 0.718518 3.69382 0 0 0 156 158 158 255
-0.671113 0.729429 3.53328 0 0 0 31 69 117 255
0.352981 0.84305 4.23305 0 0 0 35 42 43 255
0.159643 0.910327 4.09177 0 0 0 128 128 128 255
0.284242 0.917874 4.13031 0 0 0 133 134 131 255
-0.899349 0.834995 3.61091 0 0 0 31 63 91 255
-0.501683 0.847346 3.60597 0 0 0 167 170 173 255
-0.617874 0.879455 3.54489 0 0 0 166 171 173 255
-0.780595 0.919601 3.56123 0 0 0 166 166 166 255
-0.46631 1.00817 3.66126 0 0 0 1 97 146 255
-0.646164 -0.259873 3.5031 0 0 0 125 141 113 255
-0.633801 -0.214268 3.503 0 0 0 46 98 129 255
-0.52008 -0.145166 3.57251 0 0 0 167 133 44 255
-0.461017 -0.0208269 3.77803 0 0 0 45 96 67 255
0.0714601 0.117552 4.30485 0 0 0 83 51 48 255
0.26642 0.141904 4.29455 0 0 0 44 42 43 255
0.193856 0.293061 4.2637 0 0 0 177 178 178 255
-0.461103 0.348213 3.86959 0 0 0 13 62 109 255
-0.0384966 0.423629 4.31788 0 0 0 117 118 116 255
0.33899 0.348798 4.29498 0 0 0 47 53 58 255
0.302179 0.574236 4.10862 0 0 0 146 147 147 255
-0.45731 0.550408 3.63455 0 0 0 158 155 160 255
0.0128934 0.673869 4.23757 0 0 0 33 39 42 255
1.2544 0.624488 3.61689 0 0 0 43 63 59 255
-0.480367 0.691409 3.62033 0 0 0 34 64 115 255
1.24554 0.748116 3.49775 0 0 0 145 134 131 255
1.33292 0.743824 3.49625 0 0 0 45 86 73 255
-0.681226 0.79945 3.53672 0 0 0 42 66 112 255
0.261039 0.952394 4.12009 0 0 0 119 122 122 255
-2.69586 -1.55068 5.21474 0 0 0 81 80 77 255
-0.771933 -0.79913 3.45911 0 0 0 47 74 67 255
-0.788676 -0.735273 3.47911 0 0 0 139 145 120 255
-0.563197 -0.723594 3.54383 0 0 0 111 48 54 255
-0.864122 -0.688686 3.49975 0 0 0 166 132 136 255
-0.522298 -0.567555 3.56787 0 0 0 155 160 158 255
-0.888068 -0.464459 3.50975 0 0 0 126 144 126 255
-0.72911 -0.329685 3.49346 0 0 0 88 129 88 255
-0.94622 -0.306637 3.58644 0 0 0 109 122 110 255
-0.590556 -0.283093 3.52266 0 0 0 36 93 130 255
-0.621911 -0.186208 3.51023 0 0 0 13 71 115 255
-0.815631 -0.161743 3.50355 0 0 0 67 103 56 255
-0.842846 -0.127264 3.51383 0 0 0 137 82 100 255
-0.856404 -0.0960571 3.52814 0 0 0 133 116 121 255
-0.928006 -0.080367 3.60016 0 0 0 54 88 66 255
-0.984962 -0.0623258 3.66605 0 0 0 96 110 105 255
0.158658 0.098746 4.2246 0 0 0 147 86 84 255
0.15915 0.104225 4.22241 0 0 0 138 94 88 255
-2.89965 0.313465 5.36985 0 0 0 79 89 88 255
-2.93151 0.373108 5.60236 0 0 0 93 95 94 255
-2.73157 0.371812 5.60311 0 0 0 41 43 44 255
-0.40989 0.317898 3.83962 0 0 0 98 104 111 255
-0.93203 0.386285 3.66894 0 0 0 58 81 107 255
-0.538245 0.419497 3.56677 0 0 0 32 46 70 255
-0.440223 0.483206 3.68675 0 0 0 92 135 172 255
-0.516211 0.481164 3.58081 0 0 0 14 74 127 255
-0.488176 0.553666 3.60791 0 0 0 159 164 164 255
-0.627256 0.588575 3.53245 0 0 0 117 132 139 255
0.165807 0.736623 4.08976 0 0 0 113 89 56 255
1.06908 0.675366 3.34714 0 0 0 98 91 96 255
-2.68955 1.23939 5.21439 0 0 0 111 111 106 255
0.889132 1.24408 5.70883 0 0 0 130 124 120 255
-0.794414 0.890665 3.56929 0 0 0 47 69 107 255
-2.51115 1.22113 4.74368 0 0 0 55 89 57 255
-2.56082 1.26207 4.9501 0 0 0 33 34 38 255
-0.594996 0.902048 3.55361 0 0 0 166 167 167 255
-2.5273 1.27957 4.84297 0 0 0 73 75 73 255
-2.44472 1.23899 4.59903 0 0 0 94 131 122 255
-0.899724 0.976579 3.62877 0 0 0 138 140 150 255
-0.671933 0.951351 3.54698 0 0 0 71 110 153 255
-2.3114 1.28872 4.54864 0 0 0 79 82 84 255
-2.69996 -1.54531 5.19314 0 0 0 86 79 77 255
-0.522518 -0.567732 3.56785 0 0 0 155 160 158 255
-0.518071 -0.464294 3.5798 0 0 0 38 84 78 255
-0.940096 -0.316836 3.57191 0 0 0 121 136 126 255
-0.819461 -0.166768 3.5035 0 0 0 62 101 56 255
-0.956366 0.019134 3.62595 0 0 0 61 80 75 255
-2.89996 0.308504 5.36818 0 0 0 79 89 88 255
-0.456865 0.470945 3.64583 0 0 0 89 112 139 255
0.213509 0.51249 4.07774 0 0 0 66 72 77 255
0.193592 0.524782 4.07764 0 0 0 49 46 41 255
-0.470479 0.600404 3.62978 0 0 0 18 84 131 255
-0.903062 0.757704 3.61826 0 0 0 128 132 145 255
-0.893314 0.770817 3.59994 0 0 0 143 145 142 255
-0.408864 0.80996 3.74431 0 0 0 147 153 167 255
-2.68899 1.23956 5.21356 0 0 0 111 111 106 255
-2.50469 1.15559 4.73704 0 0 0 89 104 96 255
0.880484 1.23879 5.43072 0 0 0 124 121 116 255
-2.54579 1.26382 4.9731 0 0 0 116 116 119 255
-2.6336 -1.5582 5.27283 0 0 0 91 94 97 255
-2.70143 -1.52749 5.20078 0 0 0 88 88 88 255
-0.997004 -0.914155 3.5865 0 0 0 62 81 74 255
-0.929523 -0.798652 3.5256 0 0 0 105 109 108 255
-0.861045 -0.687075 3.49834 0 0 0 166 132 136 255
-0.936146 -0.52395 3.55601 0 0 0 34 71 56 255
-0.434208 0.330808 3.82151 0 0 0 45 64 89 255
-0.460853 0.473285 3.63821 0 0 0 95 125 147 255
-0.480694 0.467569 3.61217 0 0 0 6 75 127 255
-0.483034 0.53697 3.61065 0 0 0 132 138 145 255
-0.900397 0.67107 3.63019 0 0 0 147 148 146 255
-0.447588 0.715979 3.65482 0 0 0 161 164 166 255
