ply
format ascii 1.0
comment VCGLIB generated
element vertex 1011
property float x
property float y
property float z
property float nx
property float ny
property float nz
property uchar red
property uchar green
property uchar blue
property uchar alpha
element face 0
property list uchar int vertex_indices
end_header
-0.885186 0.763055 3.60461 0 0 0 148 154 155 255
-0.546776 0.762939 3.56587 0 0 0 167 169 170 255
-0.573722 0.766486 3.55681 0 0 0 155 165 178 255
-0.50398 0.78409 3.60136 0 0 0 106 106 110 255
-0.432307 0.797921 3.66422 0 0 0 88 94 110 255
0.759169 1.14942 5.26753 0 0 0 152 149 143 255
0.769877 1.10771 5.06179 0 0 0 131 125 122 255
-0.509989 0.78577 3.59435 0 0 0 83 89 99 255
-0.767075 0.781268 3.556 0 0 0 123 124 134 255
-0.741633 0.779282 3.53192 0 0 0 107 112 121 255
-0.66793 0.781147 3.53681 0 0 0 128 146 176 255
-0.420891 0.813323 3.69193 0 0 0 154 157 170 255
0.90355 0.79206 3.58367 0 0 0 150 127 103 255
-0.819723 0.789115 3.56957 0 0 0 89 95 99 255
0.941785 0.781641 3.50057 0 0 0 77 78 89 255
-0.461188 0.818707 3.64531 0 0 0 88 93 96 255
0.923884 0.789622 3.51557 0 0 0 141 139 130 255
1.14384 0.758043 3.38511 0 0 0 157 155 156 255
1.15594 0.757687 3.38049 0 0 0 125 120 121 255
1.25724 0.767493 3.40712 0 0 0 134 90 80 255
1.28838 0.764209 3.39456 0 0 0 70 66 55 255
0.767767 1.11481 4.86562 0 0 0 81 78 78 255
-0.612823 0.808528 3.54489 0 0 0 74 80 102 255
0.94468 0.798058 3.49736 0 0 0 146 142 141 255
1.3268 0.766797 3.38885 0 0 0 94 109 108 255
-0.770323 0.813099 3.54522 0 0 0 120 126 131 255
-0.624249 0.814611 3.54185 0 0 0 73 83 93 255
-0.503468 0.825925 3.5969 0 0 0 133 136 141 255
-0.446832 0.836012 3.65428 0 0 0 164 164 170 255
1.16998 0.772274 3.36622 0 0 0 123 105 88 255
1.2948 0.776787 3.38308 0 0 0 127 137 120 255
-0.508595 0.833134 3.59496 0 0 0 84 89 97 255
0.20576 0.948157 4.10434 0 0 0 105 106 103 255
-0.456386 0.848644 3.64774 0 0 0 69 73 102 255
1.29061 0.783121 3.37844 0 0 0 131 121 97 255
1.37129 0.78807 3.39326 0 0 0 124 123 123 255
-0.753717 0.827917 3.53676 0 0 0 106 110 129 255
1.24634 0.791424 3.36301 0 0 0 118 104 105 255
1.36151 0.798783 3.3926 0 0 0 88 92 85 255
-0.895442 0.862468 3.6262 0 0 0 101 117 145 255
1.15075 0.801204 3.36357 0 0 0 79 64 60 255
1.31388 0.80004 3.36704 0 0 0 131 140 142 255
-0.61236 0.851634 3.54494 0 0 0 147 147 147 255
-0.484526 0.865807 3.61921 0 0 0 157 159 161 255
-0.62335 0.861849 3.54217 0 0 0 81 87 94 255
-0.501598 0.870189 3.59651 0 0 0 152 153 156 255
-0.865245 0.890423 3.59644 0 0 0 74 78 92 255
-0.810618 0.874586 3.56498 0 0 0 75 83 100 255
0.975972 0.835649 3.44344 0 0 0 102 97 96 255
1.06378 0.824692 3.39437 0 0 0 114 77 81 255
1.36713 0.818103 3.38492 0 0 0 139 135 134 255
0.891951 0.860384 3.51682 0 0 0 71 107 122 255
-0.542903 0.881939 3.57086 0 0 0 166 166 166 255
-0.682019 0.884209 3.5378 0 0 0 43 69 114 255
-0.569472 0.884561 3.56235 0 0 0 168 172 172 255
-0.569879 0.893311 3.56211 0 0 0 168 169 169 255
-0.691649 0.900507 3.53534 0 0 0 165 173 175 255
0.946832 0.872898 3.45312 0 0 0 47 46 65 255
1.2214 0.842484 3.33474 0 0 0 132 115 102 255
0.90773 0.883228 3.48679 0 0 0 61 72 80 255
-0.680327 0.911934 3.53677 0 0 0 123 128 138 255
-0.665041 0.918554 3.54001 0 0 0 153 155 167 255
-0.446437 0.95088 3.65816 0 0 0 117 147 169 255
-0.586332 0.929221 3.55504 0 0 0 103 119 143 255
-0.457507 0.966917 3.6564 0 0 0 27 106 144 255
1.23907 0.875036 3.32408 0 0 0 120 123 122 255
-0.80987 0.954209 3.56924 0 0 0 78 82 107 255
1.29389 0.888 3.32532 0 0 0 69 63 59 255
0.937404 0.923442 3.44225 0 0 0 134 128 115 255
-0.826975 0.966293 3.57721 0 0 0 158 160 161 255
-0.535242 0.975534 3.58859 0 0 0 49 108 152 255
1.21978 0.913559 3.32742 0 0 0 123 116 116 255
1.16435 0.922827 3.34217 0 0 0 98 87 84 255
1.10813 0.935392 3.3542 0 0 0 117 97 81 255
-0.620243 0.991047 3.54954 0 0 0 64 115 150 255
-0.450773 1.02427 3.65907 0 0 0 29 89 132 255
-0.5357 1.00543 3.58337 0 0 0 79 109 136 255
1.22873 0.934611 3.32888 0 0 0 134 131 132 255
-0.490608 1.02282 3.60702 0 0 0 7 112 153 255
-0.416529 1.04061 3.68087 0 0 0 96 127 146 255
1.06036 0.955773 3.37501 0 0 0 99 92 86 255
1.19167 0.946296 3.33123 0 0 0 85 78 80 255
-0.465413 1.04624 3.66289 0 0 0 111 143 163 255
0.231783 1.18301 4.10646 0 0 0 104 103 107 255
-0.423192 1.06685 3.68925 0 0 0 118 125 134 255
1.16876 0.971998 3.34552 0 0 0 93 103 111 255
-0.614602 1.05311 3.54591 0 0 0 67 109 132 255
-0.796885 1.07072 3.56746 0 0 0 68 135 176 255
0.888295 1.09235 3.67916 0 0 0 104 113 113 255
-0.63174 1.06495 3.54414 0 0 0 79 131 177 255
-0.831053 1.08039 3.5709 0 0 0 25 89 129 255
-0.625855 1.0833 3.54578 0 0 0 75 85 111 255
-0.833134 1.09226 3.57076 0 0 0 52 101 138 255
-0.645073 1.08912 3.54323 0 0 0 159 167 170 255
-0.699838 1.0926 3.5447 0 0 0 122 110 126 255
-0.770754 1.10095 3.54561 0 0 0 103 107 121 255
1.0309 1.0597 3.40117 0 0 0 62 81 91 255
1.28663 1.03544 3.33948 0 0 0 92 81 87 255
1.3238 1.03454 3.33043 0 0 0 105 103 103 255
1.29578 1.06769 3.3371 0 0 0 86 81 83 255
1.29628 1.07342 3.33894 0 0 0 79 73 81 255
1.27297 1.08854 3.34307 0 0 0 95 103 112 255
-0.452067 1.20829 3.64719 0 0 0 95 135 171 255
1.25277 1.10843 3.34498 0 0 0 68 74 83 255
1.30931 1.11508 3.35049 0 0 0 85 80 82 255
-0.816392 1.20238 3.56261 0 0 0 82 133 166 255
-0.449389 1.23243 3.65166 0 0 0 161 164 173 255
-0.778993 1.20313 3.55534 0 0 0 63 121 167 255
-0.507274 1.21614 3.60297 0 0 0 129 158 181 255
-0.505537 1.2354 3.5992 0 0 0 167 169 172 255
-0.534756 1.24214 3.59254 0 0 0 86 126 155 255
-0.812395 1.23672 3.55083 0 0 0 110 122 134 255
1.33372 1.17805 3.40497 0 0 0 46 65 84 255
-0.777854 1.24085 3.54171 0 0 0 111 131 145 255
1.31705 1.1997 3.42663 0 0 0 123 134 142 255
1.33595 1.19992 3.42653 0 0 0 125 129 134 255
-0.658875 -0.821284 3.49411 0 0 0 142 149 149 255
-0.726766 -0.74444 3.4826 0 0 0 106 32 37 255
-0.69654 -0.74655 3.48579 0 0 0 111 41 51 255
-0.651975 -0.741425 3.4988 0 0 0 113 49 55 255
-0.641856 -0.735946 3.5026 0 0 0 123 51 59 255
-0.603816 -0.737492 3.51974 0 0 0 159 158 158 255
-0.681941 -0.720969 3.48806 0 0 0 134 63 70 255
-0.545389 -0.732773 3.55988 0 0 0 128 130 132 255
-0.688909 -0.698605 3.48838 0 0 0 139 50 55 255
-0.57575 -0.702518 3.5387 0 0 0 132 39 50 255
-0.600345 -0.688655 3.52056 0 0 0 163 153 154 255
-0.758238 -0.599713 3.4899 0 0 0 100 119 104 255
-0.638609 -0.608133 3.50351 0 0 0 158 160 154 255
-0.643172 -0.586923 3.50137 0 0 0 154 163 163 255
-0.616538 -0.573124 3.51191 0 0 0 158 162 161 255
-0.537419 -0.589573 3.55679 0 0 0 34 91 63 255
-0.557177 -0.576422 3.5472 0 0 0 139 161 147 255
-0.623553 -0.568025 3.5091 0 0 0 156 160 159 255
-0.702609 -0.541994 3.48183 0 0 0 92 117 112 255
-0.493623 -0.50668 3.60511 0 0 0 157 161 162 255
-0.634953 -0.430399 3.50322 0 0 0 108 140 119 255
-0.505552 -0.27657 3.57797 0 0 0 129 134 113 255
-0.560643 -0.22594 3.53327 0 0 0 119 140 94 255
-0.706365 -0.168852 3.49177 0 0 0 72 111 63 255
-0.661503 -0.152788 3.49686 0 0 0 91 80 27 255
-0.632255 -0.152991 3.5021 0 0 0 96 90 38 255
-0.704133 -0.0980795 3.49741 0 0 0 77 107 83 255
-0.621195 -0.0279064 3.50868 0 0 0 135 149 136 255
0.18419 0.0736831 4.2487 0 0 0 43 40 41 255
0.0589866 0.0797139 4.30465 0 0 0 106 103 104 255
0.0452946 0.173023 4.30019 0 0 0 140 140 142 255
0.107538 0.424275 4.12869 0 0 0 120 100 76 255
0.426937 0.44439 4.29596 0 0 0 62 67 70 255
0.422941 0.488302 4.28485 0 0 0 82 84 88 255
0.0155269 0.497275 4.16524 0 0 0 99 108 110 255
0.260055 0.479894 4.0897 0 0 0 110 112 116 255
2.13049 0.718854 6.11759 0 0 0 116 108 102 255
0.087496 0.497977 4.10651 0 0 0 125 131 135 255
0.224447 0.490658 4.07944 0 0 0 60 67 72 255
-0.700003 0.428032 3.52095 0 0 0 124 126 124 255
0.238606 0.502733 4.08072 0 0 0 136 142 142 255
-0.583441 0.458426 3.5395 0 0 0 136 116 98 255
-0.841354 0.475262 3.55222 0 0 0 86 113 142 255
0.0661229 0.543093 4.11309 0 0 0 52 46 48 255
-0.41597 0.520698 3.79112 0 0 0 55 92 119 255
0.0382303 0.571052 4.12699 0 0 0 45 48 47 255
0.1136 0.579992 4.09508 0 0 0 41 47 52 255
0.248862 0.572716 4.08554 0 0 0 54 49 49 255
0.328652 0.572915 4.11494 0 0 0 44 41 38 255
0.156794 0.583721 4.08236 0 0 0 48 46 44 255
0.30415 0.59388 4.10701 0 0 0 132 132 132 255
-0.619399 0.520855 3.52968 0 0 0 125 150 152 255
-0.561559 0.518462 3.55504 0 0 0 156 165 174 255
0.218623 0.598148 4.07961 0 0 0 74 68 68 255
0.255005 0.598064 4.09098 0 0 0 143 146 152 255
-0.509613 0.554415 3.58697 0 0 0 35 79 126 255
-0.638218 0.559144 3.52634 0 0 0 43 99 91 255
-0.615767 0.558636 3.53173 0 0 0 159 164 162 255
-0.432733 0.59304 3.66932 0 0 0 103 128 147 255
1.11193 0.602847 3.54275 0 0 0 110 135 119 255
0.149683 0.723043 4.09499 0 0 0 112 97 73 255
-0.505904 0.639895 3.59488 0 0 0 163 168 170 255
-0.798473 0.636997 3.54297 0 0 0 133 147 161 255
-0.413547 0.679841 3.81714 0 0 0 22 69 113 255
0.148941 0.728339 4.09471 0 0 0 112 97 73 255
-0.635969 0.643738 3.53311 0 0 0 140 158 185 255
1.30477 0.633667 3.46696 0 0 0 126 130 118 255
1.14772 0.642193 3.47991 0 0 0 108 85 90 255
-0.543658 0.670792 3.57901 0 0 0 90 94 106 255
-0.421848 0.700705 3.76003 0 0 0 150 155 164 255
1.07748 0.655237 3.50502 0 0 0 103 81 75 255
-0.700805 0.66868 3.52471 0 0 0 160 164 167 255
-0.583553 0.673556 3.54043 0 0 0 78 82 99 255
1.04409 0.668014 3.5285 0 0 0 137 132 133 255
-0.452586 0.704734 3.65127 0 0 0 57 80 125 255
-0.697879 0.692717 3.52639 0 0 0 164 166 168 255
-0.856271 0.727273 3.58454 0 0 0 54 57 83 255
0.927032 0.738275 3.59787 0 0 0 126 125 111 255
-0.635985 0.739471 3.53617 0 0 0 164 166 180 255
-0.477136 0.746594 3.62837 0 0 0 153 163 173 255
0.941639 0.735982 3.54845 0 0 0 107 52 50 255
-0.706069 0.744786 3.53 0 0 0 165 170 168 255
1.09663 0.718614 3.43899 0 0 0 153 154 153 255
-0.818714 0.785195 3.56775 0 0 0 99 105 108 255
-0.58423 0.776612 3.55398 0 0 0 168 173 172 255
-0.461311 0.803267 3.6445 0 0 0 76 78 89 255
-0.668832 0.783623 3.53683 0 0 0 128 146 176 255
0.903207 0.795429 3.57007 0 0 0 133 130 109 255
1.3541 0.764755 3.39624 0 0 0 36 72 60 255
-0.447253 0.829156 3.65464 0 0 0 164 165 174 255
0.712122 1.28953 5.67038 0 0 0 126 125 119 255
-0.476233 0.859023 3.63596 0 0 0 164 168 169 255
1.25278 0.792634 3.35599 0 0 0 78 79 73 255
-0.61149 0.854861 3.54537 0 0 0 92 96 111 255
-0.867189 0.891985 3.59809 0 0 0 120 125 126 255
-0.801381 0.880197 3.56089 0 0 0 50 67 106 255
-0.538531 0.876158 3.57182 0 0 0 170 172 171 255
-0.58357 0.894808 3.55815 0 0 0 167 170 169 255
-0.810929 0.91068 3.56842 0 0 0 65 78 103 255
-0.70433 0.901429 3.53204 0 0 0 169 171 171 255
-0.619917 0.905675 3.54268 0 0 0 128 128 130 255
-0.680388 0.913302 3.53677 0 0 0 92 97 114 255
-0.709482 0.92547 3.53327 0 0 0 168 168 168 255
-0.523347 0.949033 3.58671 0 0 0 153 160 169 255
-0.782537 0.952137 3.55943 0 0 0 162 164 164 255
-0.417608 1.04648 3.68395 0 0 0 125 137 144 255
-0.608798 1.05243 3.55365 0 0 0 20 119 157 255
0.858733 1.0949 3.70662 0 0 0 50 60 60 255
-0.631439 1.05845 3.54581 0 0 0 151 161 170 255
-0.653066 1.05641 3.53757 0 0 0 33 96 141 255
-0.741228 1.08231 3.5508 0 0 0 27 92 136 255
0.252557 1.33113 4.26963 0 0 0 185 190 195 255
0.269681 1.32654 4.2629 0 0 0 213 216 225 255
1.27417 1.03773 3.34329 0 0 0 81 78 88 255
-0.766964 1.11263 3.54061 0 0 0 85 93 112 255
-0.718629 1.13194 3.5404 0 0 0 163 166 168 255
1.27834 1.07208 3.34279 0 0 0 99 107 111 255
-0.628382 1.14185 3.54443 0 0 0 87 111 134 255
1.29523 1.07803 3.34102 0 0 0 80 74 82 255
-0.786909 1.16657 3.55611 0 0 0 129 134 137 255
1.25585 1.10104 3.34518 0 0 0 65 66 71 255
-0.50721 1.22687 3.60457 0 0 0 168 168 170 255
1.32927 1.14171 3.36355 0 0 0 145 150 151 255
-0.545172 1.24171 3.59496 0 0 0 75 123 153 255
1.31992 1.20829 3.43035 0 0 0 140 149 149 255
1.31781 1.19578 3.42407 0 0 0 123 134 142 255
-0.661485 -0.819247 3.49438 0 0 0 150 152 152 255
-0.557631 -0.755567 3.55431 0 0 0 162 145 145 255
-0.680876 -0.716475 3.48896 0 0 0 137 77 84 255
-0.573722 -0.72878 3.54082 0 0 0 140 84 89 255
-0.703777 -0.700898 3.48574 0 0 0 126 43 53 255
-0.576307 -0.702038 3.53746 0 0 0 132 39 50 255
-0.627348 -0.692464 3.50765 0 0 0 128 80 89 255
-0.744006 -0.596249 3.49425 0 0 0 157 157 157 255
-0.686455 -0.598028 3.48547 0 0 0 161 163 162 255
-0.625786 -0.598678 3.50841 0 0 0 155 162 163 255
-0.632135 -0.576738 3.50507 0 0 0 160 165 165 255
-0.749179 -0.557222 3.49408 0 0 0 154 161 163 255
-0.502225 -0.57753 3.6074 0 0 0 156 159 158 255
-0.546763 -0.53011 3.55265 0 0 0 69 94 88 255
-0.489552 -0.469055 3.60282 0 0 0 137 142 140 255
-0.697219 -0.446534 3.48183 0 0 0 51 102 65 255
-0.529661 -0.450749 3.56873 0 0 0 138 146 139 255
-0.632481 -0.428187 3.50405 0 0 0 160 163 157 255
-0.757187 -0.422253 3.49263 0 0 0 81 106 88 255
-0.621851 -0.410404 3.50859 0 0 0 159 164 162 255
-0.674845 -0.385729 3.48918 0 0 0 158 163 163 255
-0.756442 -0.374014 3.49214 0 0 0 152 159 157 255
-0.548623 -0.326133 3.54785 0 0 0 130 142 124 255
-0.504413 -0.276411 3.5784 0 0 0 129 134 113 255
-0.598597 -0.265468 3.51903 0 0 0 19 102 140 255
-0.625268 -0.219757 3.50643 0 0 0 111 132 92 255
-0.586922 -0.208463 3.52191 0 0 0 10 69 118 255
-0.584489 -0.155078 3.52234 0 0 0 81 77 29 255
-0.506621 -0.144438 3.57644 0 0 0 165 139 53 255
-0.703885 -0.100755 3.49694 0 0 0 77 107 83 255
-0.763812 -0.0775021 3.49866 0 0 0 130 134 129 255
-0.55443 -0.0292336 3.53834 0 0 0 146 154 152 255
-0.619692 -0.0250847 3.5088 0 0 0 155 163 158 255
-0.437328 -0.0144778 3.84546 0 0 0 71 108 89 255
0.0824407 0.0704864 4.30485 0 0 0 61 61 61 255
0.297264 0.0680671 4.30805 0 0 0 82 82 82 255
0.210463 0.114663 4.25296 0 0 0 151 102 105 255
0.318134 0.155391 4.31206 0 0 0 70 74 77 255
0.310089 0.18655 4.30977 0 0 0 50 54 55 255
0.220296 0.231532 4.27022 0 0 0 186 184 185 255
0.297163 0.227552 4.3099 0 0 0 125 125 125 255
0.226636 0.298895 4.27094 0 0 0 254 254 254 255
0.0264741 0.321602 4.31419 0 0 0 63 63 63 255
-0.428044 0.328094 3.85789 0 0 0 41 64 106 255
0.114065 0.402564 4.13029 0 0 0 205 198 193 255
0.215766 0.400458 4.10538 0 0 0 143 109 71 255
0.108733 0.421506 4.1284 0 0 0 145 129 116 255
0.217895 0.420322 4.10342 0 0 0 167 135 93 255
0.301149 0.425203 4.11549 0 0 0 101 104 109 255
0.429002 0.448494 4.2938 0 0 0 68 72 75 255
-0.525786 0.429251 3.57036 0 0 0 155 128 98 255
0.238848 0.487733 4.08214 0 0 0 94 105 115 255
-0.789288 0.434767 3.52779 0 0 0 143 138 103 255
-0.749941 0.436108 3.52318 0 0 0 123 116 114 255
-0.691628 0.434955 3.52197 0 0 0 122 111 69 255
-0.650983 0.434341 3.52103 0 0 0 83 74 67 255
-0.626671 0.43523 3.52846 0 0 0 147 133 95 255
0.159156 0.501024 4.08068 0 0 0 140 146 146 255
0.196318 0.502485 4.07728 0 0 0 43 47 48 255
-0.724734 0.443144 3.52143 0 0 0 135 129 114 255
0.313278 0.514755 4.11108 0 0 0 139 143 144 255
-0.791835 0.463827 3.53335 0 0 0 102 107 107 255
-0.49017 0.458056 3.59855 0 0 0 32 62 109 255
0.215719 0.525907 4.07795 0 0 0 147 150 153 255
-0.415348 0.511872 3.80959 0 0 0 23 78 122 255
0.110328 0.554199 4.09574 0 0 0 45 44 39 255
-0.811187 0.489505 3.54233 0 0 0 10 68 120 255
0.251745 0.575575 4.08754 0 0 0 58 59 60 255
0.311841 0.564237 4.1089 0 0 0 143 149 150 255
0.351742 0.583624 4.12635 0 0 0 138 144 144 255
0.0156345 0.587578 4.16924 0 0 0 92 101 101 255
0.129384 0.590326 4.08794 0 0 0 117 120 121 255
0.1922 0.596466 4.0761 0 0 0 146 149 147 255
-0.617109 0.530679 3.53093 0 0 0 161 164 166 255
-0.414981 0.582081 3.80223 0 0 0 34 88 134 255
-0.616917 0.560864 3.53125 0 0 0 159 164 162 255
-0.440414 0.570864 3.65917 0 0 0 154 161 165 255
1.12278 0.60155 3.53954 0 0 0 125 137 119 255
1.20538 0.595255 3.50798 0 0 0 41 52 46 255
1.18209 0.612533 3.50647 0 0 0 140 144 146 255
-0.504732 0.641349 3.59554 0 0 0 163 168 170 255
0.147312 0.726169 4.09543 0 0 0 112 97 73 255
0.217366 0.731869 4.0863 0 0 0 121 92 61 255
-0.837966 0.655977 3.57061 0 0 0 21 59 105 255
-0.790032 0.647935 3.54476 0 0 0 160 162 161 255
-0.632358 0.646962 3.53485 0 0 0 160 163 176 255
-0.742656 0.656835 3.5402 0 0 0 30 61 108 255
1.3153 0.635506 3.46075 0 0 0 143 143 126 255
-0.429535 0.699006 3.67984 0 0 0 135 151 172 255
-0.441001 0.704101 3.65717 0 0 0 159 165 171 255
-0.705121 0.678359 3.52487 0 0 0 165 168 167 255
-0.0317591 0.849884 4.30813 0 0 0 60 60 60 255
-0.559711 0.705628 3.57732 0 0 0 105 110 125 255
-0.480439 0.71711 3.6231 0 0 0 45 66 109 255
-0.735759 0.717186 3.52666 0 0 0 60 75 98 255
-0.866347 0.73633 3.59197 0 0 0 25 57 98 255
1.35605 0.715382 3.41441 0 0 0 138 136 121 255
-0.708386 0.747746 3.53007 0 0 0 167 170 169 255
-0.653552 0.748948 3.53588 0 0 0 33 73 121 255
-0.487188 0.772197 3.62727 0 0 0 167 170 170 255
-0.812006 0.778611 3.56347 0 0 0 66 71 96 255
0.771642 1.0935 4.99732 0 0 0 138 134 129 255
-0.661187 0.786853 3.53832 0 0 0 165 171 176 255
-0.587938 0.787413 3.55371 0 0 0 170 175 173 255
-0.432261 0.818009 3.66298 0 0 0 49 62 96 255
1.35508 0.746634 3.41259 0 0 0 32 68 56 255
0.768086 1.11341 4.87493 0 0 0 111 109 107 255
-0.749921 0.829399 3.53543 0 0 0 79 86 103 255
1.34264 0.784111 3.38539 0 0 0 141 120 127 255
1.17452 0.787517 3.35736 0 0 0 161 166 174 255
1.1422 0.801086 3.36754 0 0 0 86 81 69 255
1.195 0.810408 3.34414 0 0 0 95 54 54 255
1.36347 0.812244 3.38585 0 0 0 125 122 121 255
-0.688917 0.862679 3.53564 0 0 0 41 74 116 255
-0.533364 0.881879 3.57432 0 0 0 166 171 169 255
-0.803798 0.883485 3.56233 0 0 0 51 66 106 255
-0.588294 0.882818 3.55663 0 0 0 171 174 174 255
1.1524 0.827112 3.35304 0 0 0 134 131 132 255
-0.651476 0.911505 3.54269 0 0 0 168 170 170 255
1.06512 0.875131 3.38342 0 0 0 97 96 97 255
-0.706255 0.922588 3.53243 0 0 0 167 169 168 255
-0.445184 0.954083 3.6582 0 0 0 117 147 169 255
-0.745816 0.933573 3.54926 0 0 0 69 77 97 255
-0.838201 0.955299 3.58314 0 0 0 159 162 162 255
-0.520585 0.990075 3.58824 0 0 0 151 158 165 255
1.09078 0.937038 3.36241 0 0 0 105 74 55 255
-0.616798 1.00139 3.55269 0 0 0 148 163 178 255
-0.436953 1.04332 3.68298 0 0 0 147 159 159 255
-0.627457 1.04562 3.54002 0 0 0 128 144 161 255
-0.591847 1.04332 3.54603 0 0 0 17 115 155 255
0.861667 1.09533 3.70898 0 0 0 50 60 60 255
1.17033 0.986932 3.34167 0 0 0 86 75 77 255
-0.801915 1.07951 3.55091 0 0 0 99 140 170 255
-0.687008 1.07054 3.54061 0 0 0 92 130 159 255
-0.425118 1.10533 3.68012 0 0 0 159 154 140 255
-0.786704 1.16149 3.5545 0 0 0 133 139 143 255
-0.684819 1.16358 3.53568 0 0 0 135 139 149 255
1.25349 1.09928 3.34505 0 0 0 65 66 71 255
-0.811981 1.21438 3.55331 0 0 0 100 130 154 255
1.33467 1.14195 3.36296 0 0 0 148 152 153 255
-0.667785 -0.819403 3.49344 0 0 0 143 143 143 255
-0.701229 -0.710087 3.48521 0 0 0 131 41 47 255
-0.576586 -0.719649 3.53752 0 0 0 131 61 67 255
-0.668701 -0.69995 3.49312 0 0 0 167 142 146 255
-0.538629 -0.67441 3.56262 0 0 0 136 137 134 255
-0.704441 -0.590787 3.48058 0 0 0 158 163 160 255
-0.626339 -0.576727 3.50767 0 0 0 158 164 163 255
-0.708641 -0.442662 3.48202 0 0 0 48 98 65 255
-0.488918 -0.478691 3.60381 0 0 0 124 144 143 255
-0.751453 -0.385471 3.49461 0 0 0 155 159 158 255
-0.504489 -0.26871 3.57819 0 0 0 124 134 109 255
-0.5965 -0.208318 3.51688 0 0 0 14 72 120 255
-0.763966 -0.171785 3.4973 0 0 0 134 144 127 255
-0.648114 -0.160489 3.49868 0 0 0 123 112 56 255
-0.514919 -0.131809 3.57281 0 0 0 160 128 41 255
0.0664713 0.0798435 4.30472 0 0 0 70 67 68 255
0.295359 0.0800079 4.30777 0 0 0 55 55 55 255
-0.464097 0.11146 3.82682 0 0 0 172 170 170 255
0.0490564 0.219097 4.30356 0 0 0 153 153 153 255
0.154421 0.22634 4.21368 0 0 0 114 116 120 255
0.217669 0.220748 4.24696 0 0 0 99 98 101 255
0.0346067 0.24602 4.30511 0 0 0 154 156 155 255
0.3528 0.313144 4.31396 0 0 0 63 61 60 255
0.0270663 0.316445 4.31426 0 0 0 63 63 63 255
0.0371268 0.498028 4.13399 0 0 0 60 60 58 255
2.13348 0.766738 6.11187 0 0 0 52 41 38 255
-0.454253 0.48805 3.63898 0 0 0 110 139 157 255
0.259023 0.533765 4.08859 0 0 0 43 49 49 255
0.337757 0.564605 4.11687 0 0 0 133 139 140 255
-0.8393 0.506907 3.56 0 0 0 107 112 119 255
-0.807447 0.473994 3.53769 0 0 0 15 58 109 255
-0.691717 0.558998 3.52039 0 0 0 150 157 154 255
-0.60901 0.539697 3.53382 0 0 0 80 122 136 255
-0.451114 0.568605 3.64189 0 0 0 149 156 162 255
1.12889 0.604983 3.53107 0 0 0 131 142 120 255
1.21476 0.60151 3.51148 0 0 0 43 65 60 255
-0.838341 0.641998 3.56605 0 0 0 16 70 113 255
-0.517499 0.664564 3.59186 0 0 0 167 170 170 255
-0.412886 0.678533 3.81998 0 0 0 22 69 113 255
-0.627535 0.652076 3.53644 0 0 0 164 168 169 255
-0.613115 0.693821 3.54045 0 0 0 169 171 173 255
-0.870129 0.737506 3.5951 0 0 0 25 57 98 255
-0.710295 0.71633 3.52709 0 0 0 44 59 93 255
-0.718763 0.781759 3.5289 0 0 0 165 170 170 255
-0.413705 0.824155 3.7223 0 0 0 103 109 122 255
0.8636 0.857793 3.86185 0 0 0 111 97 100 255
-0.630447 0.869705 3.54086 0 0 0 140 151 163 255
0.942354 0.876572 3.45603 0 0 0 51 49 60 255
-0.508449 0.942067 3.59052 0 0 0 133 157 171 255
-0.824454 0.964658 3.57591 0 0 0 158 160 161 255
-0.477786 1.0108 3.65721 0 0 0 4 110 156 255
-0.472051 1.02304 3.6555 0 0 0 6 104 150 255
-0.575825 1.03711 3.54469 0 0 0 3 115 159 255
-0.804819 1.08981 3.5751 0 0 0 147 151 155 255
-0.724612 1.0644 3.54119 0 0 0 24 91 137 255
-0.436765 1.12598 3.661 0 0 0 161 146 99 255
-0.819682 1.13173 3.56395 0 0 0 149 160 171 255
1.25038 1.07528 3.3471 0 0 0 68 84 92 255
-0.735915 1.15979 3.54798 0 0 0 40 85 131 255
-0.580577 1.16701 3.56735 0 0 0 173 164 128 255
-0.805247 1.2222 3.55649 0 0 0 108 137 156 255
-0.719529 -0.574507 3.48379 0 0 0 155 162 162 255
-0.510813 -0.578801 3.59345 0 0 0 153 159 157 255
-0.496278 -0.511921 3.60534 0 0 0 150 156 155 255
-0.731934 -0.404414 3.50239 0 0 0 157 162 160 255
-0.549021 -0.316651 3.54697 0 0 0 120 136 94 255
-0.656472 -0.276977 3.5026 0 0 0 132 142 120 255
-0.596465 -0.201483 3.51735 0 0 0 12 68 117 255
-0.520047 -0.163901 3.57067 0 0 0 163 141 53 255
-0.761024 -0.083117 3.49761 0 0 0 136 133 134 255
-0.449139 -0.0235033 3.83223 0 0 0 59 104 80 255
0.0809737 0.0933658 4.30511 0 0 0 82 52 55 255
0.294097 0.0862402 4.30818 0 0 0 52 52 52 255
0.0880405 0.179536 4.30266 0 0 0 41 47 52 255
0.277415 0.185146 4.29744 0 0 0 53 54 52 255
0.216543 0.290014 4.26994 0 0 0 192 194 198 255
0.355116 0.336001 4.31352 0 0 0 53 57 63 255
0.118892 0.408368 4.12842 0 0 0 171 163 157 255
0.0740559 0.521483 4.10888 0 0 0 51 54 53 255
0.321159 0.52386 4.11229 0 0 0 120 122 123 255
-0.452758 0.496346 3.64136 0 0 0 139 156 164 255
0.189093 0.568578 4.07719 0 0 0 141 149 153 255
0.280382 0.556917 4.09852 0 0 0 41 49 55 255
-0.870191 0.517125 3.59249 0 0 0 138 116 107 255
1.07265 0.577314 3.7976 0 0 0 112 115 111 255
-0.422384 0.662846 3.80379 0 0 0 36 92 129 255
0.149572 0.730486 4.09473 0 0 0 115 95 72 255
0.228834 0.729745 4.08927 0 0 0 111 92 70 255
-0.887135 0.679723 3.61978 0 0 0 150 155 153 255
-0.61395 0.686923 3.53943 0 0 0 168 171 171 255
-0.488561 0.69045 3.60777 0 0 0 109 117 124 255
0.401351 0.838051 4.25413 0 0 0 50 55 59 255
-0.876732 0.745876 3.60023 0 0 0 27 58 94 255
0.129862 0.924525 4.1313 0 0 0 130 133 131 255
0.265324 0.918187 4.11796 0 0 0 137 141 140 255
0.860298 0.875308 3.8835 0 0 0 108 103 105 255
-0.416628 0.83979 3.70197 0 0 0 38 73 113 255
-0.472719 0.847792 3.63856 0 0 0 164 168 169 255
1.12259 0.806379 3.37078 0 0 0 85 89 86 255
-0.841367 0.962658 3.58628 0 0 0 158 161 160 255
-0.798645 0.946288 3.55946 0 0 0 154 155 157 255
-0.451283 1.01665 3.66449 0 0 0 18 90 137 255
-0.613414 1.00952 3.54888 0 0 0 152 155 163 255
-0.446402 1.068 3.66175 0 0 0 140 122 113 255
-0.619529 -0.204524 3.50704 0 0 0 72 97 70 255
-0.459566 -0.0348843 3.74635 0 0 0 52 100 72 255
-0.715568 -0.00611324 3.51346 0 0 0 26 67 39 255
0.253014 0.0923986 4.26246 0 0 0 102 50 48 255
0.0558448 0.0805524 4.30477 0 0 0 106 103 104 255
0.251089 0.140278 4.23095 0 0 0 50 42 45 255
0.0156813 0.325172 4.31279 0 0 0 61 64 67 255
0.343326 0.367464 4.30476 0 0 0 52 51 56 255
-0.454086 0.354798 3.81046 0 0 0 22 69 117 255
-0.81535 0.540102 3.55617 0 0 0 157 140 91 255
-0.462144 0.652931 3.61945 0 0 0 19 72 123 255
-0.786143 0.736842 3.55241 0 0 0 161 163 168 255
0.00491759 0.845987 4.304 0 0 0 40 45 46 255
0.344562 0.830356 4.25032 0 0 0 39 44 46 255
-0.683599 0.721756 3.53181 0 0 0 35 66 115 255
-0.68214 0.787707 3.53447 0 0 0 41 68 109 255
0.192563 0.919927 4.09572 0 0 0 138 144 147 255
-0.42293 0.861567 3.67222 0 0 0 42 78 117 255
-0.74391 -0.828078 3.47656 0 0 0 122 130 124 255
-0.790886 -0.823278 3.48033 0 0 0 81 101 87 255
-0.760229 -0.819529 3.47728 0 0 0 145 146 145 255
-0.746111 -0.818663 3.47722 0 0 0 154 155 154 255
-0.833645 -0.823308 3.48556 0 0 0 80 106 89 255
-0.737839 -0.80814 3.4813 0 0 0 107 121 119 255
-0.683385 -0.804483 3.48955 0 0 0 53 76 70 255
-0.881558 -0.814751 3.4933 0 0 0 71 89 69 255
-0.802044 -0.807781 3.48058 0 0 0 136 137 135 255
-0.762182 -0.801118 3.47306 0 0 0 72 92 80 255
-0.742443 -0.800571 3.47261 0 0 0 120 120 120 255
-0.713583 -0.808537 3.48537 0 0 0 70 80 72 255
-0.670406 -0.804652 3.49269 0 0 0 141 139 137 255
-0.933495 -0.8199 3.52961 0 0 0 81 82 74 255
-0.902466 -0.805728 3.50355 0 0 0 53 51 49 255
-0.796683 -0.796606 3.48228 0 0 0 105 122 118 255
-0.965458 -0.816263 3.55546 0 0 0 116 115 113 255
-0.842284 -0.791971 3.49149 0 0 0 101 100 92 255
-0.867485 -0.780499 3.48923 0 0 0 83 96 91 255
-0.919047 -0.788814 3.51899 0 0 0 120 125 123 255
-0.633512 -0.753863 3.5043 0 0 0 155 149 137 255
-0.766329 -0.741667 3.48146 0 0 0 99 90 88 255
-0.821536 -0.728526 3.48516 0 0 0 81 56 56 255
-0.815301 -0.725843 3.48459 0 0 0 116 64 63 255
-0.897692 -0.724484 3.51358 0 0 0 68 54 52 255
-0.767914 -0.714355 3.48316 0 0 0 169 133 136 255
-0.861314 -0.714879 3.49543 0 0 0 86 71 73 255
-0.846368 -0.713285 3.49379 0 0 0 150 148 148 255
-0.807647 -0.708967 3.48475 0 0 0 158 147 151 255
-0.789463 -0.706621 3.48498 0 0 0 93 55 58 255
-0.952493 -0.717688 3.54881 0 0 0 73 52 49 255
-0.807754 -0.688237 3.48555 0 0 0 112 57 62 255
-0.76174 -0.685531 3.48479 0 0 0 128 41 45 255
-0.926868 -0.701284 3.53699 0 0 0 120 102 105 255
-0.838508 -0.676398 3.49668 0 0 0 109 49 54 255
-0.888807 -0.676168 3.51399 0 0 0 106 81 85 255
-0.945284 -0.615427 3.56019 0 0 0 120 121 114 255
-0.803179 -0.592752 3.47852 0 0 0 135 141 134 255
-0.793555 -0.591475 3.4828 0 0 0 149 156 155 255
-0.763515 -0.585956 3.48844 0 0 0 153 154 151 255
-0.906138 -0.565396 3.54077 0 0 0 113 123 116 255
-0.764219 -0.545353 3.49171 0 0 0 151 152 145 255
-0.936938 -0.536557 3.55186 0 0 0 51 78 71 255
-0.563616 -0.375218 3.54374 0 0 0 66 117 87 255
-0.621874 -0.358444 3.51148 0 0 0 68 112 88 255
-0.463171 -0.352598 3.77923 0 0 0 122 137 87 255
-0.886727 -0.332476 3.52189 0 0 0 125 125 120 255
-0.446835 -0.337159 3.80035 0 0 0 141 139 84 255
-0.881964 -0.306966 3.53931 0 0 0 136 137 134 255
-0.552202 -0.242604 3.53898 0 0 0 64 88 82 255
-0.679794 -0.190977 3.49035 0 0 0 79 109 55 255
-0.768023 -0.184005 3.49507 0 0 0 99 126 78 255
-0.870302 -0.172223 3.53607 0 0 0 130 134 118 255
-0.942573 -0.16768 3.60959 0 0 0 50 86 62 255
-0.950053 -0.134941 3.60333 0 0 0 93 99 102 255
-0.750769 -0.0980533 3.49611 0 0 0 110 104 113 255
-0.818116 -0.0882571 3.51236 0 0 0 77 99 82 255
-0.438943 -0.0702513 3.79687 0 0 0 132 133 86 255
-0.952164 0.0313946 3.62325 0 0 0 43 82 70 255
0.321453 0.0833128 4.31759 0 0 0 83 78 78 255
0.0506864 0.0967655 4.30257 0 0 0 106 107 108 255
0.253999 0.168616 4.29294 0 0 0 107 113 112 255
0.172077 0.393421 4.11275 0 0 0 85 87 83 255
0.331193 0.415434 4.13966 0 0 0 92 100 105 255
0.434949 0.460683 4.31656 0 0 0 72 73 75 255
0.406586 0.487502 4.27063 0 0 0 71 75 82 255
-0.665978 0.452865 3.51843 0 0 0 34 55 81 255
-0.913497 0.480075 3.63326 0 0 0 91 108 132 255
-0.436132 0.500482 3.66963 0 0 0 111 75 98 255
-0.501595 0.513841 3.59234 0 0 0 52 77 110 255
-0.433 0.524145 3.66863 0 0 0 115 91 111 255
-0.637275 0.512578 3.52445 0 0 0 66 104 99 255
-0.540435 0.51598 3.56345 0 0 0 52 82 113 255
1.35395 0.571508 3.77852 0 0 0 104 103 88 255
-0.465522 0.537709 3.6236 0 0 0 112 111 116 255
-0.41707 0.551704 3.72791 0 0 0 31 70 110 255
-0.447174 0.545617 3.64882 0 0 0 112 120 128 255
-0.432232 0.557946 3.66881 0 0 0 123 113 118 255
-0.520659 0.562919 3.57421 0 0 0 36 74 122 255
-0.486698 0.571733 3.60401 0 0 0 130 131 138 255
-0.647775 0.566941 3.52502 0 0 0 73 99 91 255
-0.628659 0.568475 3.52815 0 0 0 72 104 102 255
-0.549758 0.578541 3.55739 0 0 0 36 87 128 255
-0.917554 0.592247 3.64373 0 0 0 91 103 131 255
1.32183 0.622576 3.51785 0 0 0 59 78 71 255
1.26015 0.649015 3.6511 0 0 0 92 128 124 255
1.34259 0.642356 3.51486 0 0 0 99 98 81 255
1.06124 0.656753 3.5684 0 0 0 139 120 124 255
-0.913218 0.649948 3.63683 0 0 0 111 123 144 255
1.18328 0.668433 3.52608 0 0 0 146 150 151 255
1.19161 0.682235 3.53185 0 0 0 77 91 84 255
1.15032 0.681605 3.49387 0 0 0 108 76 73 255
-0.422577 0.718382 3.73571 0 0 0 109 112 121 255
1.33461 0.695379 3.48874 0 0 0 30 49 43 255
-0.89734 0.709132 3.62018 0 0 0 111 107 119 255
-0.419261 0.751167 3.73118 0 0 0 85 95 108 255
1.1268 0.716873 3.46972 0 0 0 91 88 97 255
1.24561 0.731925 3.51926 0 0 0 119 93 91 255
-0.896479 0.74117 3.60679 0 0 0 102 115 129 255
1.14119 0.744281 3.44263 0 0 0 123 110 113 255
1.06766 0.762679 3.45756 0 0 0 155 149 151 255
-0.888218 0.782411 3.58721 0 0 0 103 104 107 255
1.38735 0.771968 3.39218 0 0 0 136 139 111 255
1.05842 0.786889 3.44449 0 0 0 118 110 113 255
1.03477 0.794779 3.44357 0 0 0 136 111 108 255
0.46826 1.08918 4.86494 0 0 0 155 151 147 255
1.16802 0.801662 3.38824 0 0 0 150 151 157 255
0.264347 0.952351 4.11906 0 0 0 94 96 97 255
0.20873 0.966408 4.10363 0 0 0 101 107 106 255
0.468546 1.11452 4.77564 0 0 0 112 112 112 255
0.838588 0.924644 3.85452 0 0 0 174 175 171 255
-0.489011 0.895853 3.61018 0 0 0 69 95 137 255
1.35537 0.874971 3.3131 0 0 0 96 102 111 255
-0.614197 0.936632 3.5467 0 0 0 116 132 170 255
1.05075 0.922265 3.3969 0 0 0 101 100 100 255
0.940473 0.948034 3.47746 0 0 0 90 90 92 255
-0.42239 1.02764 3.66872 0 0 0 28 76 121 255
1.26431 0.947896 3.30647 0 0 0 119 104 97 255
1.10586 0.966237 3.36926 0 0 0 95 84 81 255
0.269874 1.18094 4.12778 0 0 0 96 97 98 255
1.13804 1.01652 3.35434 0 0 0 135 132 116 255
1.2328 1.0026 3.3016 0 0 0 111 86 81 255
1.33903 1.00563 3.21927 0 0 0 114 112 111 255
1.2693 1.04143 3.26986 0 0 0 134 140 143 255
1.27162 1.08859 3.25444 0 0 0 125 129 135 255
-0.46073 1.21961 3.64439 0 0 0 118 123 145 255
-0.73746 1.21273 3.50486 0 0 0 37 87 124 255
-0.713344 1.22678 3.49866 0 0 0 80 103 141 255
-0.987485 -0.896753 3.55302 0 0 0 37 73 61 255
-0.757339 -0.804901 3.47472 0 0 0 77 92 84 255
-0.795389 -0.802444 3.47408 0 0 0 137 139 139 255
-0.770902 -0.733085 3.4816 0 0 0 112 42 50 255
-0.824068 -0.726945 3.48684 0 0 0 81 56 56 255
-0.847831 -0.72335 3.49376 0 0 0 156 141 140 255
-0.764075 -0.716049 3.48362 0 0 0 167 148 150 255
-0.894357 -0.722268 3.50975 0 0 0 68 54 52 255
-0.765496 -0.688659 3.48506 0 0 0 124 37 45 255
-0.912009 -0.695304 3.51428 0 0 0 146 130 132 255
-0.803222 -0.59076 3.47852 0 0 0 143 146 139 255
-0.762777 -0.547733 3.49254 0 0 0 151 151 151 255
-0.907051 -0.554901 3.54123 0 0 0 135 134 131 255
-0.461655 -0.347099 3.78968 0 0 0 137 138 81 255
-0.664214 -0.183045 3.4933 0 0 0 152 155 132 255
-0.871285 -0.17029 3.53698 0 0 0 130 134 118 255
-0.814609 -0.0852326 3.51187 0 0 0 57 96 62 255
-0.867638 -0.0766733 3.54116 0 0 0 132 124 125 255
-0.439177 -0.0751698 3.79596 0 0 0 133 134 86 255
0.0642737 0.0609554 4.30514 0 0 0 152 154 153 255
0.304766 0.245958 4.31408 0 0 0 100 102 104 255
-0.949988 0.340346 3.65899 0 0 0 40 57 77 255
0.325746 0.481892 4.11628 0 0 0 87 85 82 255
-0.667962 0.456053 3.51859 0 0 0 34 55 81 255
0.238505 0.517542 4.0826 0 0 0 120 122 122 255
-0.874329 0.481613 3.59037 0 0 0 97 119 139 255
-0.502342 0.475918 3.58926 0 0 0 79 106 139 255
0.239321 0.552404 4.08297 0 0 0 58 52 57 255
-0.69366 0.519165 3.517 0 0 0 138 138 123 255
-0.417306 0.550101 3.72616 0 0 0 31 70 110 255
-0.493227 0.598745 3.6043 0 0 0 50 109 151 255
1.34819 0.646268 3.51756 0 0 0 91 104 95 255
-0.902682 0.662467 3.63728 0 0 0 126 134 138 255
1.33221 0.683366 3.4925 0 0 0 37 44 39 255
1.24092 0.73104 3.51138 0 0 0 120 89 88 255
1.3625 0.82381 3.36138 0 0 0 98 91 91 255
0.839271 0.924537 3.85442 0 0 0 166 167 163 255
-0.651807 1.06433 3.52891 0 0 0 31 97 139 255
-0.875527 -0.807254 3.48245 0 0 0 94 108 90 255
-0.758743 -0.728496 3.48619 0 0 0 167 144 144 255
-0.700755 -0.691024 3.48977 0 0 0 146 83 90 255
-0.823431 -0.690213 3.48902 0 0 0 117 34 34 255
-0.962526 -0.631433 3.56882 0 0 0 52 81 44 255
-0.800992 -0.579674 3.47957 0 0 0 154 154 151 255
-0.494239 -0.572016 3.61593 0 0 0 152 158 157 255
-0.954095 -0.583174 3.5485 0 0 0 59 81 73 255
-0.908099 -0.537116 3.54204 0 0 0 139 139 139 255
-0.928561 -0.532862 3.54671 0 0 0 36 64 53 255
-0.889391 -0.486177 3.51817 0 0 0 135 140 132 255
-0.750657 -0.4121 3.49367 0 0 0 158 158 158 255
-0.46165 -0.347216 3.79006 0 0 0 137 138 81 255
-0.886555 -0.322013 3.53988 0 0 0 137 140 126 255
-0.660574 -0.231893 3.49606 0 0 0 11 86 129 255
-0.609265 -0.187731 3.5136 0 0 0 10 70 118 255
-0.940002 -0.182942 3.59481 0 0 0 56 85 45 255
-0.508713 -0.15696 3.57584 0 0 0 164 141 61 255
-0.937989 -0.0645935 3.61265 0 0 0 42 80 53 255
0.260498 0.0759625 4.28174 0 0 0 48 44 45 255
0.26167 0.17246 4.30602 0 0 0 101 107 116 255
0.304718 0.244204 4.31421 0 0 0 100 102 104 255
0.133062 0.405641 4.13304 0 0 0 125 122 114 255
-0.49258 0.487011 3.60053 0 0 0 99 140 166 255
-0.424632 0.494964 3.71093 0 0 0 86 122 150 255
0.254962 0.555399 4.08936 0 0 0 43 49 54 255
-0.864535 0.498662 3.58608 0 0 0 113 126 133 255
-0.41645 0.536877 3.74571 0 0 0 80 119 145 255
1.25843 0.66167 3.6628 0 0 0 118 146 146 255
0.243317 0.755876 4.0904 0 0 0 75 68 65 255
1.2032 0.682212 3.55331 0 0 0 62 96 84 255
-0.89945 0.716654 3.61836 0 0 0 62 64 81 255
-0.497703 0.707092 3.60107 0 0 0 165 168 167 255
1.24208 0.726811 3.52527 0 0 0 129 88 88 255
-0.631224 0.726025 3.53546 0 0 0 162 163 170 255
-0.459981 0.788671 3.64468 0 0 0 46 60 86 255
-0.420338 0.799825 3.69699 0 0 0 155 158 167 255
-0.899203 0.825872 3.60887 0 0 0 32 61 92 255
1.24122 0.81029 3.37106 0 0 0 141 142 146 255
-0.528005 0.865598 3.57581 0 0 0 167 171 169 255
-0.701263 0.863211 3.5312 0 0 0 47 70 107 255
0.827705 0.945031 3.8251 0 0 0 171 175 173 255
-0.804943 0.896011 3.56343 0 0 0 46 63 92 255
1.29156 0.897217 3.30702 0 0 0 74 64 68 255
0.42357 1.29771 4.36157 0 0 0 125 128 127 255
1.25506 1.02188 3.27535 0 0 0 92 111 121 255
1.29968 1.09552 3.25538 0 0 0 71 66 74 255
-0.798355 -0.809879 3.48094 0 0 0 146 149 147 255
-0.763241 -0.714296 3.48349 0 0 0 167 148 150 255
-0.546733 -0.510764 3.55531 0 0 0 35 85 74 255
-0.920005 -0.506605 3.54514 0 0 0 35 76 55 255
-0.617092 -0.422478 3.51262 0 0 0 161 162 166 255
-0.560568 -0.330354 3.54326 0 0 0 114 129 89 255
-0.462173 -0.350995 3.78878 0 0 0 137 138 81 255
-0.644613 -0.296444 3.50212 0 0 0 137 145 126 255
-0.943727 -0.197329 3.59807 0 0 0 50 81 50 255
-0.667333 -0.177034 3.49299 0 0 0 156 155 121 255
-0.440446 -0.0792917 3.79313 0 0 0 133 134 86 255
-0.939055 0.00474891 3.6226 0 0 0 26 54 40 255
0.157611 0.0768799 4.23218 0 0 0 52 56 70 255
0.139012 0.301492 4.23159 0 0 0 133 140 140 255
-0.941691 0.347316 3.65779 0 0 0 21 54 89 255
0.126481 0.419375 4.13154 0 0 0 140 119 104 255
0.071918 0.496649 4.10837 0 0 0 49 59 63 255
0.419881 0.556343 4.33263 0 0 0 70 68 64 255
0.17916 0.554185 4.08154 0 0 0 143 147 149 255
-0.43056 0.503114 3.67956 0 0 0 117 90 107 255
0.232887 0.578034 4.08164 0 0 0 146 150 152 255
-0.839143 0.524517 3.56713 0 0 0 163 145 122 255
0.111006 0.606145 4.09747 0 0 0 126 125 126 255
-0.647138 0.535418 3.52349 0 0 0 41 101 92 255
-0.59125 0.555199 3.5399 0 0 0 112 152 172 255
-0.844716 0.572578 3.57692 0 0 0 161 131 97 255
1.14303 0.618857 3.56397 0 0 0 125 134 110 255
1.26021 0.663712 3.66512 0 0 0 125 149 149 255
-0.886522 0.72374 3.6076 0 0 0 46 58 84 255
-0.636446 0.727938 3.53444 0 0 0 142 138 162 255
1.25527 0.759998 3.48864 0 0 0 158 158 156 255
-0.723711 0.768226 3.52403 0 0 0 164 165 164 255
1.34382 0.8025 3.36176 0 0 0 155 147 149 255
1.38689 0.804651 3.37204 0 0 0 50 72 62 255
-0.703401 0.851037 3.53066 0 0 0 86 96 104 255
-0.730939 0.890811 3.53274 0 0 0 171 168 169 255
-0.614026 0.896611 3.54392 0 0 0 170 170 170 255
-0.51389 0.923928 3.59074 0 0 0 88 101 126 255
-0.432551 1.12144 3.6755 0 0 0 174 154 94 255
-0.782966 1.12501 3.50489 0 0 0 152 157 158 255
-0.844891 -0.725844 3.49325 0 0 0 146 145 136 255
-0.568597 -0.538634 3.54334 0 0 0 159 160 155 255
-0.506019 -0.526999 3.59361 0 0 0 156 161 159 255
-0.761483 -0.507152 3.5355 0 0 0 56 99 52 255
-0.601447 -0.492154 3.55964 0 0 0 159 161 162 255
-0.739234 -0.391484 3.49959 0 0 0 157 161 162 255
-0.867753 -0.340319 3.53058 0 0 0 147 148 147 255
-0.525764 -0.00981059 3.55489 0 0 0 42 100 68 255
-0.464202 -2.95564e-05 3.84867 0 0 0 88 117 107 255
0.293451 0.135817 4.30778 0 0 0 52 49 47 255
0.292203 0.174433 4.30896 0 0 0 65 69 73 255
0.105617 0.188131 4.29351 0 0 0 49 54 52 255
0.0162752 0.351569 4.31189 0 0 0 46 52 57 255
-0.458888 0.348598 3.87272 0 0 0 14 62 108 255
-0.542846 0.435825 3.55954 0 0 0 99 84 60 255
0.304484 0.544157 4.10852 0 0 0 148 148 152 255
0.0769979 0.578042 4.10788 0 0 0 59 65 64 255
-0.816292 0.526819 3.55818 0 0 0 159 142 91 255
-0.426768 0.539141 3.68362 0 0 0 158 134 144 255
1.24642 0.615912 3.60443 0 0 0 40 56 51 255
1.15488 0.622928 3.5399 0 0 0 139 144 149 255
1.34667 0.658864 3.5013 0 0 0 161 156 134 255
-0.475749 0.695438 3.61845 0 0 0 27 68 114 255
1.2631 0.695585 3.65694 0 0 0 134 152 151 255
-0.426605 0.719043 3.69818 0 0 0 156 158 158 255
-0.670256 0.728819 3.53092 0 0 0 31 69 117 255
0.353317 0.8412 4.2296 0 0 0 35 42 43 255
0.1597 0.910177 4.09067 0 0 0 128 128 128 255
0.284185 0.917436 4.13181 0 0 0 133 134 131 255
-0.899335 0.835016 3.61086 0 0 0 31 63 91 255
-0.500002 0.846166 3.60068 0 0 0 167 170 173 255
-0.61743 0.879387 3.54359 0 0 0 166 171 173 255
-0.780426 0.919615 3.56085 0 0 0 166 166 166 255
-0.46631 1.00817 3.66126 0 0 0 1 97 146 255
-0.646158 -0.259847 3.50316 0 0 0 125 141 113 255
-0.633244 -0.214476 3.50155 0 0 0 46 98 129 255
-0.519535 -0.145006 3.57073 0 0 0 167 133 44 255
-0.459277 -0.0222941 3.77213 0 0 0 45 96 67 255
0.0713796 0.117091 4.30512 0 0 0 83 51 48 255
0.264735 0.141587 4.31567 0 0 0 44 42 43 255
0.193774 0.292459 4.26418 0 0 0 177 178 178 255
-0.461103 0.348213 3.86959 0 0 0 13 62 109 255
-0.0376932 0.423185 4.31019 0 0 0 117 118 116 255
0.338908 0.348771 4.29594 0 0 0 47 53 58 255
0.302249 0.573828 4.10751 0 0 0 146 147 147 255
-0.456464 0.550126 3.63183 0 0 0 158 155 160 255
0.0127221 0.673933 4.23855 0 0 0 33 39 42 255
1.2544 0.624488 3.61689 0 0 0 43 63 59 255
-0.47931 0.692937 3.61633 0 0 0 34 64 115 255
1.24554 0.748116 3.49775 0 0 0 145 134 131 255
1.33292 0.743824 3.49625 0 0 0 45 86 73 255
-0.680632 0.800543 3.53477 0 0 0 42 66 112 255
0.261154 0.952801 4.1175 0 0 0 119 122 122 255
-2.71406 -1.56002 5.24247 0 0 0 81 80 77 255
-0.772896 -0.799799 3.46141 0 0 0 47 74 67 255
-0.791642 -0.737823 3.48739 0 0 0 139 145 120 255
-0.563623 -0.723861 3.54536 0 0 0 111 48 54 255
-0.86755 -0.690894 3.50873 0 0 0 166 132 136 255
-0.522093 -0.567796 3.56709 0 0 0 155 160 158 255
-0.889003 -0.4648 3.5118 0 0 0 126 144 126 255
-0.730031 -0.329312 3.49639 0 0 0 88 129 88 255
-0.952703 -0.311179 3.60311 0 0 0 109 122 110 255
-0.589156 -0.282441 3.51761 0 0 0 36 93 130 255
-0.622429 -0.186604 3.51217 0 0 0 13 71 115 255
-0.816611 -0.162639 3.50589 0 0 0 67 103 56 255
-0.84489 -0.127167 3.519 0 0 0 137 82 100 255
-0.859052 -0.0976274 3.53522 0 0 0 133 116 121 255
-0.934865 -0.0803875 3.61822 0 0 0 54 88 66 255
-0.985747 -0.0623727 3.6677 0 0 0 96 110 105 255
0.158575 0.0984228 4.22364 0 0 0 147 86 84 255
0.159229 0.103874 4.21883 0 0 0 138 94 88 255
-2.91315 0.31415 5.38977 0 0 0 79 89 88 255
-2.94612 0.374067 5.62473 0 0 0 93 95 94 255
-2.7447 0.372699 5.62444 0 0 0 41 43 44 255
-0.412722 0.316419 3.85351 0 0 0 98 104 111 255
-0.932448 0.386398 3.66983 0 0 0 58 81 107 255
-0.536822 0.41872 3.56131 0 0 0 32 46 70 255
-0.436226 0.48224 3.66832 0 0 0 92 135 172 255
-0.515569 0.480724 3.57826 0 0 0 14 74 127 255
-0.487338 0.552906 3.60472 0 0 0 159 164 164 255
-0.626854 0.588775 3.5311 0 0 0 117 132 139 255
0.165779 0.737241 4.09044 0 0 0 113 89 56 255
1.06866 0.674863 3.3442 0 0 0 98 91 96 255
-2.69905 1.24253 5.22891 0 0 0 111 111 106 255
0.890034 1.24708 5.72479 0 0 0 130 124 120 255
-0.795465 0.890998 3.57228 0 0 0 47 69 107 255
-2.51831 1.22364 4.75415 0 0 0 55 89 57 255
-2.56882 1.26491 4.96215 0 0 0 33 34 38 255
-0.592895 0.900359 3.54608 0 0 0 166 167 167 255
-2.53462 1.28224 4.85385 0 0 0 73 75 73 255
-2.45096 1.24128 4.60806 0 0 0 94 131 122 255
-0.902773 0.97867 3.6367 0 0 0 138 140 150 255
-0.672185 0.952515 3.54777 0 0 0 71 110 153 255
-2.31578 1.29036 4.55511 0 0 0 79 82 84 255
-2.71812 -1.55458 5.22067 0 0 0 86 79 77 255
-0.522383 -0.568036 3.56734 0 0 0 155 160 158 255
-0.517659 -0.464099 3.57836 0 0 0 38 84 78 255
-0.949856 -0.320183 3.59613 0 0 0 121 136 126 255
-0.820475 -0.167824 3.50586 0 0 0 62 101 56 255
-0.957088 0.0191322 3.62748 0 0 0 61 80 75 255
-2.91346 0.30917 5.38811 0 0 0 79 89 88 255
-0.455328 0.469684 3.63912 0 0 0 89 112 139 255
0.213511 0.513392 4.0766 0 0 0 66 72 77 255
0.193804 0.524524 4.07244 0 0 0 49 46 41 255
-0.469639 0.599455 3.62649 0 0 0 18 84 131 255
-0.904928 0.757692 3.62292 0 0 0 128 132 145 255
-0.893258 0.770829 3.59975 0 0 0 143 145 142 255
-0.410368 0.808679 3.75255 0 0 0 147 153 167 255
-2.69849 1.2427 5.22807 0 0 0 111 111 106 255
-2.51162 1.15787 4.74715 0 0 0 89 104 96 255
0.881228 1.2413 5.44355 0 0 0 124 121 116 255
-2.55396 1.26674 4.98554 0 0 0 116 116 119 255
-2.65132 -1.56752 5.30068 0 0 0 91 94 97 255
-2.71955 -1.53664 5.22828 0 0 0 88 88 88 255
-0.999066 -0.915515 3.5909 0 0 0 62 81 74 255
-0.932929 -0.801075 3.53412 0 0 0 105 109 108 255
-0.863712 -0.688915 3.50531 0 0 0 166 132 136 255
-0.938004 -0.523686 3.56075 0 0 0 34 71 56 255
-0.437396 0.328259 3.83886 0 0 0 45 64 89 255
-0.459991 0.472275 3.63473 0 0 0 95 125 147 255
-0.47989 0.466714 3.60904 0 0 0 6 75 127 255
-0.482236 0.53601 3.6076 0 0 0 132 138 145 255
-0.90577 0.675656 3.64431 0 0 0 147 148 146 255
-0.446553 0.716063 3.65029 0 0 0 161 164 166 255
-2.71801 1.12066 5.28879 0 0 0 45 45 44 255
-0.47538 0.760909 3.62626 0 0 0 166 169 170 255
-0.407712 0.796499 3.75562 0 0 0 148 150 152 255
-2.68025 1.16829 5.25793 0 0 0 118 116 110 255
-2.54669 1.24103 5.13109 0 0 0 54 52 53 255
1.03907 0.755689 3.21288 0 0 0 146 149 158 255
-2.5443 1.29061 4.9278 0 0 0 115 118 119 255
-0.6833 -0.392512 3.48363 0 0 0 157 162 160 255
-0.605931 -0.248341 3.51166 0 0 0 16 91 135 255
-0.4802 0.835701 3.62886 0 0 0 166 170 170 255
-0.523601 0.860818 3.59218 0 0 0 169 173 172 255
-0.731745 0.904897 3.53733 0 0 0 167 169 168 255
-2.54818 1.28499 4.92554 0 0 0 96 99 99 255
-0.699929 -0.564281 3.47455 0 0 0 158 161 160 255
-0.509325 -0.543121 3.58827 0 0 0 156 161 159 255
-0.726226 -0.514306 3.47242 0 0 0 51 99 58 255
-0.601555 -0.438589 3.52082 0 0 0 160 162 161 255
-0.853914 -0.355494 3.50373 0 0 0 147 149 148 255
-0.944045 -0.213278 3.59312 0 0 0 54 86 46 255
-0.60671 -0.204297 3.51451 0 0 0 19 75 113 255
0.285451 0.0982208 4.29441 0 0 0 102 58 56 255
0.076329 0.146145 4.30898 0 0 0 42 44 46 255
0.185792 0.227701 4.22773 0 0 0 151 151 151 255
0.182469 0.301473 4.24346 0 0 0 163 165 167 255
-0.438582 0.337315 3.83809 0 0 0 22 64 109 255
-0.939646 0.359863 3.67186 0 0 0 39 71 102 255
0.410729 0.414767 4.2868 0 0 0 94 84 76 255
-0.664619 0.437585 3.51796 0 0 0 130 122 91 255
-0.446633 0.482771 3.64885 0 0 0 94 128 153 255
0.0650816 0.512327 4.10651 0 0 0 111 117 118 255
0.281909 0.540524 4.094 0 0 0 41 47 52 255
0.324553 0.542448 4.11109 0 0 0 140 144 147 255
-0.825069 0.683147 3.5762 0 0 0 157 159 160 255
-0.721504 0.686044 3.52376 0 0 0 164 169 167 255
-0.61623 0.657196 3.54431 0 0 0 165 168 167 255
0.385516 0.83285 4.23321 0 0 0 40 49 48 255
0.029004 0.841422 4.18733 0 0 0 40 42 41 255
0.928678 0.736422 3.51083 0 0 0 115 49 48 255
-0.492158 0.846088 3.61402 0 0 0 165 170 172 255
-0.710433 -0.409547 3.49984 0 0 0 158 161 161 255
-0.736338 -0.360519 3.502 0 0 0 65 86 82 255
-0.933682 -0.0109577 3.63188 0 0 0 42 67 50 255
0.0408578 0.145323 4.30133 0 0 0 152 152 152 255
-0.0221013 0.356168 4.29848 0 0 0 154 155 152 255
-0.943113 0.426676 3.67968 0 0 0 17 56 94 255
0.14292 0.554172 4.08239 0 0 0 143 140 143 255
-0.785088 0.538858 3.54174 0 0 0 157 149 98 255
1.06071 0.578128 3.80639 0 0 0 133 133 127 255
-0.788554 0.697845 3.54654 0 0 0 160 162 161 255
-0.457295 0.722561 3.63587 0 0 0 26 64 109 255
-0.680303 0.74247 3.53273 0 0 0 34 65 112 255
-0.426097 0.91044 3.80979 0 0 0 14 79 128 255
0.204542 0.885984 4.14553 0 0 0 120 95 63 255
0.234458 0.913672 4.09706 0 0 0 133 135 134 255
-0.878062 -0.798088 3.51269 0 0 0 56 66 63 255
-0.983496 -0.805894 3.60647 0 0 0 98 111 100 255
-0.684008 -0.743917 3.48703 0 0 0 144 71 76 255
-0.877219 -0.733611 3.51462 0 0 0 122 115 118 255
-0.987371 -0.696032 3.58964 0 0 0 75 43 40 255
-0.947148 -0.686251 3.5773 0 0 0 104 54 62 255
-0.939425 -0.56468 3.55791 0 0 0 113 124 120 255
-2.86916 0.290757 5.23904 0 0 0 91 92 92 255
-2.83298 0.334105 5.16915 0 0 0 88 81 84 255
0.202462 0.396323 4.10026 0 0 0 137 118 86 255
0.418708 0.505005 4.27389 0 0 0 75 86 89 255
-0.51504 0.445211 3.57257 0 0 0 61 47 48 255
-0.881353 0.666269 3.63218 0 0 0 28 65 105 255
0.197247 0.714709 4.08101 0 0 0 94 86 69 255
-2.61209 1.00333 4.74286 0 0 0 26 41 38 255
0.221557 0.743286 4.09191 0 0 0 123 93 56 255
-2.61689 1.03104 4.76163 0 0 0 33 44 45 255
-2.61233 1.10262 4.76545 0 0 0 93 124 116 255
-2.66822 1.2843 5.15191 0 0 0 113 115 116 255
0.836933 1.23567 5.68676 0 0 0 126 119 112 255
-2.58547 1.22973 4.90807 0 0 0 90 108 103 255
0.956119 0.7253 3.5338 0 0 0 81 69 64 255
0.710343 1.28294 5.6677 0 0 0 131 125 123 255
0.46404 1.00623 4.44818 0 0 0 96 90 83 255
0.514252 1.04922 4.64457 0 0 0 110 108 102 255
0.872652 0.870067 4.01141 0 0 0 173 173 170 255
0.327946 0.946544 4.15385 0 0 0 79 85 90 255
0.293653 0.949171 4.13705 0 0 0 93 95 98 255
0.159267 0.969297 4.16162 0 0 0 80 87 84 255
0.239657 0.943112 4.09864 0 0 0 103 107 107 255
0.293551 0.959309 4.13588 0 0 0 88 90 92 255
0.858769 0.888386 3.96405 0 0 0 168 168 168 255
0.927441 0.791251 3.50156 0 0 0 142 136 134 255
-0.521138 0.933313 3.57374 0 0 0 66 102 137 255
-2.86369 0.289265 5.22712 0 0 0 91 92 92 255
-2.90461 0.305231 5.33118 0 0 0 94 93 91 255
0.0278133 0.599071 4.13824 0 0 0 106 110 109 255
-0.575156 0.584883 3.5491 0 0 0 94 141 164 255
0.205026 0.718834 4.08171 0 0 0 102 87 63 255
-2.6051 0.984481 4.74949 0 0 0 123 142 138 255
-2.61479 1.01021 4.74537 0 0 0 22 37 35 255
-2.6212 1.04853 4.74437 0 0 0 106 113 113 255
-2.61331 1.0672 4.80048 0 0 0 126 133 132 255
0.942388 0.734813 3.54192 0 0 0 97 51 50 255
0.874551 0.868759 4.0251 0 0 0 177 175 171 255
0.7161 1.29572 5.69003 0 0 0 115 110 100 255
0.455864 1.01183 4.41788 0 0 0 145 148 147 255
0.896943 0.785035 3.54656 0 0 0 121 123 110 255
-0.907141 0.967897 3.63788 0 0 0 152 151 154 255
-1.01588 -0.794485 3.65849 0 0 0 50 77 51 255
-2.90932 0.316064 5.30716 0 0 0 90 88 85 255
-3.04073 0.387191 5.72716 0 0 0 101 101 99 255
0.314993 0.257802 4.31034 0 0 0 104 102 105 255
0.233711 0.438076 4.10481 0 0 0 79 62 57 255
-2.58213 0.730496 4.82766 0 0 0 149 153 152 255
0.252513 0.522187 4.08441 0 0 0 52 44 41 255
0.02809 0.597819 4.13852 0 0 0 106 110 109 255
0.335591 0.5938 4.12376 0 0 0 35 42 48 255
-0.605967 0.56432 3.53439 0 0 0 146 163 170 255
-0.893333 0.586674 3.61999 0 0 0 134 104 98 255
-2.64183 0.906952 4.93458 0 0 0 88 107 95 255
-0.895963 0.644505 3.62536 0 0 0 97 110 128 255
-2.60419 0.98989 4.76002 0 0 0 139 139 139 255
-0.558353 0.756044 3.5523 0 0 0 76 96 124 255
-0.664566 0.805358 3.5397 0 0 0 168 170 169 255
0.882416 0.86462 4.06949 0 0 0 174 175 170 255
1.03235 1.26644 5.69829 0 0 0 126 117 107 255
0.517906 1.04908 4.66471 0 0 0 149 147 142 255
0.730703 1.29918 5.70827 0 0 0 112 105 103 255
-2.36457 1.21415 4.47046 0 0 0 136 135 138 255
0.901175 0.783753 3.52826 0 0 0 136 133 127 255
-0.72681 -0.593996 3.51192 0 0 0 157 162 160 255
-0.802014 -0.564506 3.46589 0 0 0 155 156 153 255
-0.957538 -0.0419418 3.66584 0 0 0 23 51 30 255
0.0593667 0.19393 4.31813 0 0 0 70 68 69 255
0.288541 0.242512 4.30214 0 0 0 101 104 104 255
