ply
format ascii 1.0
comment VCGLIB generated
element vertex 1010
property float x
property float y
property float z
property float nx
property float ny
property float nz
property uchar red
property uchar green
property uchar blue
property uchar alpha
element face 0
property list uchar int vertex_indices
end_header
0.216473 0.0825189 4.24493 0 0 0 143 144 150 255
0.134205 0.103528 4.21159 0 0 0 124 93 88 255
0.17866 0.104156 4.24027 0 0 0 135 80 83 255
0.217558 0.14177 4.21493 0 0 0 75 58 62 255
0.0456639 0.1783 4.32385 0 0 0 97 97 99 255
0.325326 0.181951 4.28019 0 0 0 72 75 74 255
0.0512195 0.207488 4.32422 0 0 0 154 154 154 255
0.22375 0.278086 4.25707 0 0 0 236 236 238 255
0.356334 0.304917 4.28107 0 0 0 127 129 129 255
0.0141886 0.316008 4.33235 0 0 0 74 69 69 255
0.22699 0.31606 4.25637 0 0 0 196 193 194 255
-0.419289 0.308075 3.84811 0 0 0 124 130 135 255
0.114261 0.395077 4.11838 0 0 0 128 128 128 255
0.145893 0.394523 4.11029 0 0 0 77 72 71 255
0.247119 0.391995 4.1019 0 0 0 138 132 125 255
0.185566 0.411878 4.10125 0 0 0 67 48 44 255
0.228069 0.408083 4.10275 0 0 0 115 77 33 255
0.288849 0.410707 4.12279 0 0 0 93 96 102 255
0.234976 0.423346 4.10149 0 0 0 140 119 91 255
-0.0530156 0.47185 4.31336 0 0 0 99 99 99 255
2.13411 0.710571 6.11987 0 0 0 124 116 110 255
-0.5075 0.423594 3.59385 0 0 0 111 106 119 255
0.266662 0.482665 4.09168 0 0 0 115 117 121 255
0.34791 0.482639 4.14317 0 0 0 97 110 115 255
-0.547335 0.423122 3.55688 0 0 0 72 88 129 255
-0.522279 0.4195 3.57696 0 0 0 97 102 126 255
0.30787 0.485627 4.11571 0 0 0 123 128 128 255
-0.645807 0.424162 3.52301 0 0 0 102 114 142 255
-0.626674 0.426447 3.52681 0 0 0 101 102 109 255
0.0524692 0.499628 4.11727 0 0 0 114 122 126 255
0.0879549 0.493204 4.10054 0 0 0 104 109 115 255
0.154812 0.485789 4.08008 0 0 0 105 110 112 255
0.166374 0.492998 4.08044 0 0 0 137 141 144 255
0.272411 0.48932 4.09308 0 0 0 144 146 146 255
-0.790696 0.430195 3.52921 0 0 0 121 124 112 255
-0.699035 0.4286 3.51861 0 0 0 124 126 124 255
-0.672397 0.427647 3.52023 0 0 0 82 96 123 255
-0.582891 0.429743 3.54071 0 0 0 123 121 133 255
0.0360619 0.505907 4.12594 0 0 0 35 40 39 255
0.324014 0.501093 4.12152 0 0 0 88 86 86 255
-0.754982 0.429248 3.52332 0 0 0 102 110 127 255
-0.72361 0.432464 3.5195 0 0 0 119 122 127 255
-0.615262 0.435168 3.5288 0 0 0 118 108 96 255
0.258967 0.502938 4.0882 0 0 0 75 54 43 255
-0.799684 0.440644 3.53213 0 0 0 88 105 140 255
-0.77556 0.436903 3.52692 0 0 0 143 135 90 255
-0.79215 0.445318 3.53029 0 0 0 132 126 96 255
-0.700502 0.443831 3.51833 0 0 0 25 52 101 255
-0.592706 0.448195 3.53767 0 0 0 19 58 102 255
-0.572316 0.443398 3.5458 0 0 0 84 72 52 255
-0.54697 0.449274 3.55896 0 0 0 151 129 96 255
-0.527501 0.445545 3.57283 0 0 0 89 77 75 255
0.0350507 0.520204 4.12685 0 0 0 41 44 44 255
0.345595 0.521987 4.12917 0 0 0 54 48 41 255
-0.736612 0.450072 3.52063 0 0 0 37 43 75 255
-0.722412 0.449328 3.51918 0 0 0 144 134 102 255
-0.637883 0.453933 3.52388 0 0 0 74 60 52 255
-0.611012 0.448526 3.52971 0 0 0 77 57 29 255
-0.572884 0.458846 3.54574 0 0 0 140 121 93 255
-0.789516 0.463801 3.53014 0 0 0 102 107 107 255
-0.698866 0.463863 3.51824 0 0 0 125 129 136 255
-0.625203 0.460261 3.52742 0 0 0 135 116 88 255
0.0654429 0.540749 4.11118 0 0 0 52 46 48 255
-0.73658 0.464136 3.52024 0 0 0 123 119 106 255
-0.648679 0.463895 3.52287 0 0 0 124 107 89 255
0.155685 0.542541 4.08156 0 0 0 93 80 73 255
-0.832526 0.475584 3.54425 0 0 0 95 114 139 255
-0.470929 0.486406 3.63912 0 0 0 32 94 135 255
2.12915 0.815459 6.10818 0 0 0 108 99 93 255
0.0340695 0.557652 4.13051 0 0 0 44 49 47 255
0.325153 0.563467 4.12085 0 0 0 99 97 93 255
-0.532292 0.491368 3.57211 0 0 0 89 126 159 255
-0.557967 0.49716 3.5623 0 0 0 10 82 131 255
-0.827188 0.494712 3.54646 0 0 0 60 94 123 255
-0.808514 0.497478 3.54242 0 0 0 88 116 142 255
-0.632432 0.492304 3.52934 0 0 0 50 110 161 255
-0.614103 0.49346 3.53072 0 0 0 8 80 129 255
-0.598442 0.494437 3.53616 0 0 0 60 116 161 255
-0.418154 0.52286 3.72914 0 0 0 45 90 124 255
-0.0470298 0.620907 4.28186 0 0 0 86 87 84 255
0.0394504 0.575322 4.12671 0 0 0 42 44 46 255
0.156147 0.573212 4.08239 0 0 0 54 49 45 255
-0.481755 0.514086 3.61553 0 0 0 53 63 79 255
-0.472162 0.517436 3.62505 0 0 0 155 159 169 255
-0.453579 0.514436 3.64747 0 0 0 97 101 114 255
0.112241 0.577911 4.09209 0 0 0 50 44 41 255
0.256281 0.575387 4.08843 0 0 0 46 54 57 255
-0.532268 0.513799 3.57354 0 0 0 51 81 116 255
-0.0454603 0.622158 4.28416 0 0 0 72 73 71 255
0.0166483 0.596583 4.15337 0 0 0 96 102 103 255
0.214367 0.582536 4.07811 0 0 0 84 84 86 255
0.356126 0.588474 4.14387 0 0 0 141 148 148 255
-0.581403 0.513051 3.54732 0 0 0 37 100 134 255
-0.560275 0.518453 3.55869 0 0 0 156 165 174 255
-0.470957 0.520495 3.62589 0 0 0 157 160 170 255
0.0508909 0.59642 4.12189 0 0 0 113 118 116 255
0.272385 0.589769 4.09768 0 0 0 101 110 112 255
0.307872 0.594368 4.11617 0 0 0 146 149 150 255
0.0874649 0.598981 4.10181 0 0 0 121 120 120 255
0.199484 0.592793 4.08078 0 0 0 143 152 154 255
-0.589786 0.526248 3.5416 0 0 0 123 168 188 255
-0.409713 0.553673 3.74644 0 0 0 35 69 107 255
-0.407932 0.556719 3.76774 0 0 0 22 74 118 255
0.129466 0.601347 4.08781 0 0 0 138 137 135 255
-0.603437 0.530731 3.53687 0 0 0 63 93 102 255
-0.548237 0.533076 3.56481 0 0 0 161 166 168 255
-0.524866 0.533623 3.57679 0 0 0 139 148 161 255
-0.495851 0.53971 3.60049 0 0 0 158 162 166 255
-0.511785 0.542523 3.58709 0 0 0 91 99 108 255
-0.602611 0.541161 3.53725 0 0 0 45 90 106 255
-0.571324 0.539372 3.55048 0 0 0 63 98 123 255
-0.472791 0.553699 3.62659 0 0 0 74 78 109 255
-0.542825 0.550856 3.56717 0 0 0 118 125 134 255
-0.502977 0.555057 3.59407 0 0 0 26 66 116 255
-0.580197 0.552915 3.54672 0 0 0 130 171 188 255
-0.563207 0.553109 3.55581 0 0 0 28 106 148 255
-0.658075 0.558993 3.52523 0 0 0 133 154 149 255
-0.478686 0.578736 3.62487 0 0 0 81 118 145 255
-0.427288 0.590388 3.71469 0 0 0 64 100 136 255
-0.678618 0.567867 3.5225 0 0 0 118 136 127 255
-0.589761 0.568297 3.54148 0 0 0 61 101 125 255
-0.466718 0.587685 3.64504 0 0 0 65 90 118 255
1.07681 0.596656 3.59227 0 0 0 110 131 127 255
-0.699276 0.588365 3.52273 0 0 0 97 115 128 255
1.1913 0.5915 3.50577 0 0 0 54 59 52 255
1.02052 0.621316 3.64232 0 0 0 117 133 119 255
1.11143 0.600229 3.54557 0 0 0 77 108 98 255
0.221974 0.713879 4.08625 0 0 0 112 88 64 255
1.0962 0.616121 3.53624 0 0 0 87 79 64 255
-0.502112 0.63774 3.60664 0 0 0 157 164 171 255
0.14432 0.719647 4.08735 0 0 0 107 97 81 255
1.18638 0.620184 3.5104 0 0 0 153 156 158 255
1.03604 0.636222 3.58138 0 0 0 124 122 112 255
-0.801878 0.637255 3.54425 0 0 0 133 147 161 255
1.08331 0.635365 3.53003 0 0 0 152 116 95 255
-0.770413 0.639002 3.54107 0 0 0 121 131 157 255
-0.63477 0.639345 3.53232 0 0 0 140 158 185 255
0.200713 0.743048 4.08928 0 0 0 111 97 80 255
1.0155 0.6464 3.58102 0 0 0 90 102 89 255
1.3033 0.631287 3.47013 0 0 0 127 129 117 255
1.30671 0.629812 3.46701 0 0 0 127 129 117 255
-0.819233 0.656612 3.55395 0 0 0 31 53 98 255
-0.754427 0.656077 3.53386 0 0 0 52 65 81 255
-0.54395 0.671473 3.58884 0 0 0 115 115 116 255
-0.414783 0.700717 3.78809 0 0 0 96 116 144 255
1.11485 0.645331 3.48669 0 0 0 98 89 90 255
1.15383 0.643027 3.48021 0 0 0 98 89 97 255
-0.699191 0.668561 3.52785 0 0 0 160 164 167 255
-0.585801 0.667993 3.53919 0 0 0 92 92 96 255
-0.413982 0.718383 3.75335 0 0 0 120 121 125 255
1.05782 0.679692 3.50415 0 0 0 128 107 97 255
-0.877639 0.698633 3.60267 0 0 0 98 99 103 255
1.07078 0.678656 3.48935 0 0 0 151 149 152 255
-0.542274 0.708079 3.59267 0 0 0 122 121 124 255
-0.433 0.718141 3.65772 0 0 0 134 136 138 255
-0.86346 0.716341 3.58926 0 0 0 148 150 154 255
-0.69679 0.698111 3.5274 0 0 0 164 165 166 255
1.11317 0.681393 3.44887 0 0 0 88 74 80 255
-0.584836 0.704684 3.5392 0 0 0 95 98 102 255
-0.49871 0.73108 3.61878 0 0 0 162 164 166 255
1.07338 0.690859 3.4776 0 0 0 91 94 101 255
1.35598 0.687253 3.42495 0 0 0 102 94 74 255
-0.801147 0.721431 3.55434 0 0 0 88 89 96 255
-0.411765 0.748398 3.74292 0 0 0 120 121 122 255
1.1021 0.693492 3.4502 0 0 0 128 140 146 255
-0.487146 0.736625 3.63007 0 0 0 55 72 107 255
-0.474252 0.750779 3.63484 0 0 0 114 126 149 255
-0.431027 0.757295 3.65647 0 0 0 118 124 131 255
0.955763 0.728473 3.54654 0 0 0 90 82 77 255
-0.884475 0.75675 3.60017 0 0 0 138 149 153 255
-0.699563 0.738844 3.53133 0 0 0 129 141 150 255
1.09657 0.713919 3.44125 0 0 0 137 134 135 255
-0.807008 0.753725 3.55477 0 0 0 112 121 125 255
-0.635336 0.744498 3.5335 0 0 0 164 166 179 255
-0.412167 0.785666 3.73018 0 0 0 112 116 120 255
-0.885132 0.763041 3.60451 0 0 0 148 154 155 255
-0.54691 0.762362 3.56563 0 0 0 167 169 170 255
-0.575244 0.768158 3.56248 0 0 0 155 165 178 255
-0.50537 0.786384 3.60585 0 0 0 106 106 110 255
-0.433458 0.799384 3.66956 0 0 0 88 94 110 255
0.759484 1.1479 5.26106 0 0 0 152 149 143 255
0.770131 1.10645 5.05625 0 0 0 131 125 122 255
-0.510064 0.786319 3.59382 0 0 0 83 89 99 255
-0.765322 0.77862 3.54953 0 0 0 123 124 134 255
-0.742921 0.780985 3.53586 0 0 0 107 112 121 255
-0.667054 0.77913 3.53311 0 0 0 128 146 176 255
-0.422603 0.817195 3.6981 0 0 0 154 157 170 255
0.90355 0.79206 3.58367 0 0 0 150 127 103 255
-0.816725 0.782723 3.56041 0 0 0 89 95 99 255
0.94178 0.781646 3.5006 0 0 0 77 78 89 255
-0.462525 0.821045 3.65222 0 0 0 88 93 96 255
0.923884 0.789622 3.51557 0 0 0 141 139 130 255
1.14384 0.758043 3.38511 0 0 0 157 155 156 255
1.15594 0.757687 3.38049 0 0 0 125 120 121 255
1.25724 0.767493 3.40712 0 0 0 134 90 80 255
1.28838 0.764209 3.39456 0 0 0 70 66 55 255
0.767767 1.11481 4.86562 0 0 0 81 78 78 255
-0.613359 0.809543 3.54757 0 0 0 74 80 102 255
0.94468 0.798058 3.49736 0 0 0 146 142 141 255
1.3268 0.766797 3.38885 0 0 0 94 109 108 255
-0.769872 0.811617 3.54396 0 0 0 120 126 131 255
-0.624454 0.81489 3.54257 0 0 0 73 83 93 255
-0.504632 0.825341 3.60012 0 0 0 133 136 141 255
-0.448403 0.838254 3.66094 0 0 0 164 164 170 255
1.16998 0.772274 3.36622 0 0 0 123 105 88 255
1.2948 0.776787 3.38308 0 0 0 127 137 120 255
-0.508224 0.830946 3.59207 0 0 0 84 89 97 255
0.206461 0.944833 4.09726 0 0 0 105 106 103 255
-0.45675 0.849456 3.64935 0 0 0 69 73 102 255
1.29061 0.783121 3.37844 0 0 0 131 121 97 255
1.37129 0.78807 3.39326 0 0 0 124 123 123 255
-0.754852 0.830934 3.54017 0 0 0 106 110 129 255
1.24634 0.791424 3.36301 0 0 0 118 104 105 255
1.36151 0.798783 3.3926 0 0 0 88 92 85 255
-0.889394 0.857702 3.61018 0 0 0 101 117 145 255
1.15075 0.801204 3.36357 0 0 0 79 64 60 255
1.31388 0.80004 3.36704 0 0 0 131 140 142 255
-0.612498 0.851531 3.54535 0 0 0 147 147 147 255
-0.484742 0.866865 3.6204 0 0 0 157 159 161 255
-0.623828 0.861841 3.5437 0 0 0 81 87 94 255
-0.502678 0.870509 3.59943 0 0 0 152 153 156 255
-0.865249 0.89043 3.59644 0 0 0 74 78 92 255
-0.809818 0.874076 3.56251 0 0 0 75 83 100 255
0.975972 0.835649 3.44344 0 0 0 102 97 96 255
1.06378 0.824692 3.39437 0 0 0 114 77 81 255
1.36713 0.818103 3.38492 0 0 0 139 135 134 255
0.891951 0.860384 3.51682 0 0 0 71 107 122 255
-0.542284 0.880015 3.56733 0 0 0 166 166 166 255
-0.68189 0.884353 3.53671 0 0 0 43 69 114 255
-0.569983 0.885371 3.56398 0 0 0 168 172 172 255
-0.570425 0.894014 3.56387 0 0 0 168 169 169 255
-0.692183 0.901498 3.53694 0 0 0 165 173 175 255
0.946832 0.872898 3.45312 0 0 0 47 46 65 255
1.2214 0.842484 3.33474 0 0 0 132 115 102 255
0.90773 0.883228 3.48679 0 0 0 61 72 80 255
-0.680814 0.912674 3.53801 0 0 0 123 128 138 255
-0.664994 0.918522 3.53898 0 0 0 153 155 167 255
-0.44947 0.955394 3.67195 0 0 0 117 147 169 255
-0.586925 0.929731 3.55643 0 0 0 103 119 143 255
-0.459588 0.971115 3.66674 0 0 0 27 106 144 255
1.23907 0.875036 3.32408 0 0 0 120 123 122 255
-0.808906 0.954091 3.56605 0 0 0 78 82 107 255
1.29389 0.888 3.32532 0 0 0 69 63 59 255
0.937409 0.923716 3.44266 0 0 0 134 128 115 255
-0.827409 0.965462 3.57789 0 0 0 158 160 161 255
-0.53598 0.977365 3.59109 0 0 0 49 108 152 255
1.21978 0.913559 3.32742 0 0 0 123 116 116 255
1.16435 0.922827 3.34217 0 0 0 98 87 84 255
1.10813 0.935392 3.3542 0 0 0 117 97 81 255
-0.620243 0.991047 3.54954 0 0 0 64 115 150 255
-0.452943 1.02704 3.66946 0 0 0 29 89 132 255
-0.537301 1.00869 3.58961 0 0 0 79 109 136 255
1.22873 0.934611 3.32888 0 0 0 134 131 132 255
-0.490608 1.02282 3.60702 0 0 0 7 112 153 255
-0.422519 1.04932 3.70461 0 0 0 96 127 146 255
1.06036 0.955773 3.37501 0 0 0 99 92 86 255
1.19167 0.946296 3.33123 0 0 0 85 78 80 255
-0.465102 1.04581 3.66137 0 0 0 111 143 163 255
0.231801 1.18071 4.10721 0 0 0 104 103 107 255
-0.427791 1.07253 3.7057 0 0 0 118 125 134 255
1.16876 0.971998 3.34552 0 0 0 93 103 111 255
-0.614957 1.05273 3.54562 0 0 0 67 109 132 255
-0.797182 1.06988 3.569 0 0 0 68 135 176 255
0.888295 1.09235 3.67916 0 0 0 104 113 113 255
-0.631693 1.0649 3.54337 0 0 0 79 131 177 255
-0.831053 1.08039 3.5709 0 0 0 25 89 129 255
-0.625427 1.08202 3.54351 0 0 0 75 85 111 255
-0.833721 1.09238 3.57151 0 0 0 52 101 138 255
-0.645073 1.08912 3.54323 0 0 0 159 167 170 255
-0.701008 1.09288 3.54792 0 0 0 122 110 126 255
-0.770814 1.10089 3.54575 0 0 0 103 107 121 255
1.0309 1.0597 3.40117 0 0 0 62 81 91 255
1.28663 1.03544 3.33948 0 0 0 92 81 87 255
1.3238 1.03454 3.33043 0 0 0 105 103 103 255
1.29578 1.06769 3.3371 0 0 0 86 81 83 255
1.29628 1.07342 3.33894 0 0 0 79 73 81 255
1.27297 1.08854 3.34307 0 0 0 95 103 112 255
-0.452188 1.20833 3.64755 0 0 0 95 135 171 255
1.25277 1.10843 3.34498 0 0 0 68 74 83 255
1.30931 1.11508 3.35049 0 0 0 85 80 82 255
-0.816478 1.20232 3.56293 0 0 0 82 133 166 255
-0.449503 1.23246 3.652 0 0 0 161 164 173 255
-0.779102 1.20309 3.5557 0 0 0 63 121 167 255
-0.507413 1.21618 3.60336 0 0 0 129 158 181 255
-0.505684 1.23545 3.59961 0 0 0 167 169 172 255
-0.534894 1.24218 3.59291 0 0 0 86 126 155 255
-0.812439 1.2365 3.55096 0 0 0 110 122 134 255
1.33372 1.17805 3.40497 0 0 0 46 65 84 255
-0.777922 1.24065 3.54188 0 0 0 111 131 145 255
1.31705 1.1997 3.42663 0 0 0 123 134 142 255
1.33595 1.19992 3.42653 0 0 0 125 129 134 255
-0.658785 -0.821152 3.49394 0 0 0 142 149 149 255
-0.725666 -0.743681 3.47963 0 0 0 106 32 37 255
-0.697403 -0.747388 3.48954 0 0 0 111 41 51 255
-0.651776 -0.740672 3.49845 0 0 0 113 49 55 255
-0.641468 -0.735491 3.50148 0 0 0 123 51 59 255
-0.60444 -0.738517 3.52297 0 0 0 159 158 158 255
-0.68265 -0.721722 3.49114 0 0 0 134 63 70 255
-0.544538 -0.732589 3.55585 0 0 0 128 130 132 255
-0.689472 -0.70007 3.49101 0 0 0 139 50 55 255
-0.575852 -0.702431 3.53926 0 0 0 132 39 50 255
-0.601152 -0.689242 3.52411 0 0 0 163 153 154 255
-0.756442 -0.598126 3.48358 0 0 0 100 119 104 255
-0.637854 -0.606478 3.50096 0 0 0 158 160 154 255
-0.643098 -0.586086 3.50139 0 0 0 154 163 163 255
-0.616223 -0.575147 3.51115 0 0 0 158 162 161 255
-0.537483 -0.588125 3.55777 0 0 0 34 91 63 255
-0.55783 -0.575074 3.54975 0 0 0 139 161 147 255
-0.622869 -0.568988 3.50657 0 0 0 156 160 159 255
-0.705533 -0.544079 3.49345 0 0 0 92 117 112 255
-0.491955 -0.502743 3.59642 0 0 0 157 161 162 255
-0.634584 -0.432073 3.50198 0 0 0 108 140 119 255
-0.507302 -0.27622 3.58692 0 0 0 129 134 113 255
-0.561909 -0.228417 3.53896 0 0 0 119 140 94 255
-0.707107 -0.169551 3.49464 0 0 0 72 111 63 255
-0.661689 -0.152969 3.49693 0 0 0 91 80 27 255
-0.632929 -0.153839 3.50432 0 0 0 96 90 38 255
-0.703531 -0.0977906 3.49478 0 0 0 77 107 83 255
-0.620603 -0.0287526 3.50655 0 0 0 135 149 136 255
0.184742 0.0740558 4.24786 0 0 0 43 40 41 255
0.0587931 0.0796386 4.32038 0 0 0 106 103 104 255
0.0445201 0.171871 4.32358 0 0 0 140 140 142 255
0.108012 0.423311 4.11814 0 0 0 120 100 76 255
0.426641 0.446395 4.27084 0 0 0 62 67 70 255
0.423245 0.488658 4.27586 0 0 0 82 84 88 255
0.0176082 0.494631 4.14646 0 0 0 99 108 110 255
0.260156 0.480955 4.09018 0 0 0 110 112 116 255
2.13049 0.718854 6.11759 0 0 0 116 108 102 255
0.0878812 0.498544 4.10056 0 0 0 125 131 135 255
0.224785 0.488084 4.07417 0 0 0 60 67 72 255
-0.699503 0.427573 3.51872 0 0 0 124 126 124 255
0.238899 0.502288 4.07893 0 0 0 136 142 142 255
-0.583844 0.457907 3.54017 0 0 0 136 116 98 255
-0.839512 0.474971 3.54816 0 0 0 86 113 142 255
0.0664647 0.542792 4.11112 0 0 0 52 46 48 255
-0.410588 0.517285 3.76843 0 0 0 55 92 119 255
0.0384919 0.570057 4.12686 0 0 0 45 48 47 255
0.113793 0.577874 4.09129 0 0 0 41 47 52 255
0.248984 0.569282 4.08508 0 0 0 54 49 49 255
0.329155 0.574514 4.12393 0 0 0 44 41 38 255
0.156931 0.582845 4.08193 0 0 0 48 46 44 255
0.304276 0.594659 4.11388 0 0 0 132 132 132 255
-0.62022 0.520402 3.53224 0 0 0 125 150 152 255
-0.562399 0.518582 3.55767 0 0 0 156 165 174 255
0.218669 0.59628 4.0781 0 0 0 74 68 68 255
0.255139 0.594754 4.08953 0 0 0 143 146 152 255
-0.510205 0.554329 3.58842 0 0 0 35 79 126 255
-0.639069 0.559824 3.52916 0 0 0 43 99 91 255
-0.61612 0.557978 3.53204 0 0 0 159 164 162 255
-0.43484 0.594675 3.67661 0 0 0 103 128 147 255
1.11193 0.602847 3.54275 0 0 0 110 135 119 255
0.15009 0.720719 4.0864 0 0 0 112 97 73 255
-0.507984 0.643288 3.60388 0 0 0 163 168 170 255
-0.798286 0.636571 3.54288 0 0 0 133 147 161 255
-0.41345 0.679771 3.8168 0 0 0 22 69 113 255
0.149319 0.726084 4.08648 0 0 0 112 97 73 255
-0.635823 0.64208 3.53225 0 0 0 140 158 185 255
1.30477 0.633667 3.46696 0 0 0 126 130 118 255
1.14772 0.642193 3.47991 0 0 0 108 85 90 255
-0.545812 0.673857 3.58625 0 0 0 90 94 106 255
-0.417432 0.700553 3.73805 0 0 0 150 155 164 255
1.07748 0.655237 3.50502 0 0 0 103 81 75 255
-0.701572 0.670169 3.5277 0 0 0 160 164 167 255
-0.583197 0.672163 3.54065 0 0 0 78 82 99 255
1.04409 0.668014 3.5285 0 0 0 137 132 133 255
-0.451407 0.70166 3.64662 0 0 0 57 80 125 255
-0.698298 0.693729 3.5276 0 0 0 164 166 168 255
-0.855619 0.730002 3.58119 0 0 0 54 57 83 255
0.927026 0.738282 3.59788 0 0 0 126 125 111 255
-0.635951 0.739311 3.53531 0 0 0 164 166 180 255
-0.478723 0.750829 3.63401 0 0 0 153 163 173 255
0.941639 0.735982 3.54845 0 0 0 107 52 50 255
-0.706339 0.744709 3.53096 0 0 0 165 170 168 255
1.09663 0.718614 3.43899 0 0 0 153 154 153 255
-0.815729 0.78216 3.55911 0 0 0 99 105 108 255
-0.585838 0.779063 3.55948 0 0 0 168 173 172 255
-0.462459 0.804163 3.65048 0 0 0 76 78 89 255
-0.667608 0.780554 3.53174 0 0 0 128 146 176 255
0.903207 0.795429 3.57007 0 0 0 133 130 109 255
1.3541 0.764755 3.39624 0 0 0 36 72 60 255
-0.448611 0.83072 3.66044 0 0 0 164 165 174 255
0.712144 1.28766 5.66275 0 0 0 126 125 119 255
-0.476027 0.859847 3.63481 0 0 0 164 168 169 255
1.25278 0.792634 3.35599 0 0 0 78 79 73 255
-0.611845 0.855115 3.54666 0 0 0 92 96 111 255
-0.867194 0.891993 3.5981 0 0 0 120 125 126 255
-0.800977 0.880008 3.55953 0 0 0 50 67 106 255
-0.537673 0.873605 3.56718 0 0 0 170 172 171 255
-0.584567 0.896657 3.56196 0 0 0 167 170 169 255
-0.810083 0.910802 3.56542 0 0 0 65 78 103 255
-0.705629 0.902994 3.53659 0 0 0 169 171 171 255
-0.620709 0.906564 3.54563 0 0 0 128 128 130 255
-0.680866 0.913983 3.53802 0 0 0 92 97 114 255
-0.710756 0.926866 3.53782 0 0 0 168 168 168 255
-0.523095 0.947805 3.58573 0 0 0 153 160 169 255
-0.78325 0.953482 3.56051 0 0 0 162 164 164 255
-0.420833 1.04935 3.69496 0 0 0 125 137 144 255
-0.607969 1.04943 3.54885 0 0 0 20 119 157 255
0.858724 1.09503 3.70666 0 0 0 50 60 60 255
-0.632184 1.05895 3.5478 0 0 0 151 161 170 255
-0.653195 1.05643 3.53789 0 0 0 33 96 141 255
-0.742447 1.08319 3.55381 0 0 0 27 92 136 255
0.253135 1.3228 4.24085 0 0 0 185 190 195 255
0.269681 1.32654 4.2629 0 0 0 213 216 225 255
1.27417 1.03773 3.34329 0 0 0 81 78 88 255
-0.762444 1.11029 3.52911 0 0 0 85 93 112 255
-0.718629 1.13194 3.5404 0 0 0 163 166 168 255
1.27834 1.07208 3.34279 0 0 0 99 107 111 255
-0.628382 1.14185 3.54443 0 0 0 87 111 134 255
1.29523 1.07803 3.34102 0 0 0 80 74 82 255
-0.786909 1.16657 3.55611 0 0 0 129 134 137 255
1.25585 1.10104 3.34518 0 0 0 65 66 71 255
-0.507351 1.22692 3.60497 0 0 0 168 168 170 255
1.32927 1.14171 3.36355 0 0 0 145 150 151 255
-0.545172 1.24171 3.59496 0 0 0 75 123 153 255
1.31992 1.20829 3.43035 0 0 0 140 149 149 255
1.31781 1.19578 3.42407 0 0 0 123 134 142 255
-0.661393 -0.819113 3.4942 0 0 0 150 152 152 255
-0.556778 -0.754651 3.55073 0 0 0 162 145 145 255
-0.681415 -0.717113 3.49143 0 0 0 137 77 84 255
-0.573754 -0.728391 3.54075 0 0 0 140 84 89 255
-0.703809 -0.701499 3.4865 0 0 0 126 43 53 255
-0.576476 -0.702093 3.5384 0 0 0 132 39 50 255
-0.627611 -0.693229 3.50904 0 0 0 128 80 89 255
-0.741269 -0.593827 3.48397 0 0 0 157 157 157 255
-0.686384 -0.597923 3.48533 0 0 0 161 163 162 255
-0.624343 -0.597104 3.50293 0 0 0 155 162 163 255
-0.631255 -0.575879 3.50156 0 0 0 160 165 165 255
-0.746297 -0.55481 3.48336 0 0 0 154 161 163 255
-0.49927 -0.574003 3.59289 0 0 0 156 159 158 255
-0.547449 -0.526961 3.55448 0 0 0 69 94 88 255
-0.48842 -0.467481 3.59549 0 0 0 137 142 140 255
-0.700568 -0.449056 3.49461 0 0 0 51 102 65 255
-0.530666 -0.449259 3.57148 0 0 0 138 146 139 255
-0.632099 -0.4299 3.50264 0 0 0 160 163 157 255
-0.755914 -0.421307 3.48858 0 0 0 81 106 88 255
-0.621031 -0.41279 3.505 0 0 0 159 164 162 255
-0.67736 -0.386762 3.49887 0 0 0 158 163 163 255
-0.755166 -0.372903 3.48781 0 0 0 152 159 157 255
-0.54912 -0.325522 3.55079 0 0 0 130 142 124 255
-0.506315 -0.276077 3.58791 0 0 0 129 134 113 255
-0.600135 -0.266001 3.5243 0 0 0 19 102 140 255
-0.626018 -0.221572 3.5093 0 0 0 111 132 92 255
-0.588015 -0.209753 3.52628 0 0 0 10 69 118 255
-0.585398 -0.15555 3.52477 0 0 0 81 77 29 255
-0.50934 -0.14422 3.5903 0 0 0 165 139 53 255
-0.703355 -0.100601 3.49458 0 0 0 77 107 83 255
-0.763399 -0.0772247 3.49721 0 0 0 130 134 129 255
-0.556277 -0.0296097 3.54593 0 0 0 146 154 152 255
-0.619177 -0.0257137 3.50671 0 0 0 155 163 158 255
-0.429439 -0.0123314 3.80278 0 0 0 71 108 89 255
0.0828549 0.0701834 4.3108 0 0 0 61 61 61 255
0.297292 0.0691381 4.28629 0 0 0 82 82 82 255
0.210671 0.116133 4.2457 0 0 0 151 102 105 255
0.317944 0.1563 4.28347 0 0 0 70 74 77 255
0.309922 0.187264 4.28578 0 0 0 50 54 55 255
0.220882 0.23167 4.25382 0 0 0 186 184 185 255
0.296799 0.228442 4.28835 0 0 0 125 125 125 255
0.226928 0.298626 4.25639 0 0 0 254 254 254 255
0.0260698 0.320218 4.32331 0 0 0 63 63 63 255
-0.417889 0.325237 3.79827 0 0 0 41 64 106 255
0.114718 0.400929 4.11807 0 0 0 205 198 193 255
0.215848 0.399523 4.10258 0 0 0 143 109 71 255
0.109227 0.420518 4.11757 0 0 0 145 129 116 255
0.217826 0.420128 4.10046 0 0 0 167 135 93 255
0.301798 0.425668 4.13011 0 0 0 101 104 109 255
0.429109 0.448364 4.29203 0 0 0 68 72 75 255
-0.526659 0.42978 3.5737 0 0 0 155 128 98 255
0.239174 0.487202 4.08107 0 0 0 94 105 115 255
-0.789361 0.434798 3.52886 0 0 0 143 138 103 255
-0.749633 0.436215 3.52252 0 0 0 123 116 114 255
-0.690797 0.434543 3.51882 0 0 0 122 111 69 255
-0.651399 0.434464 3.52222 0 0 0 83 74 67 255
-0.626356 0.4347 3.52675 0 0 0 147 133 95 255
0.15942 0.501463 4.0806 0 0 0 140 146 146 255
0.196417 0.500677 4.07897 0 0 0 43 47 48 255
-0.724192 0.442728 3.51939 0 0 0 135 129 114 255
0.313459 0.515865 4.11609 0 0 0 139 143 144 255
-0.790872 0.463296 3.53071 0 0 0 102 107 107 255
-0.492178 0.460784 3.60919 0 0 0 32 62 109 255
0.215839 0.523567 4.07533 0 0 0 147 150 153 255
-0.41071 0.509379 3.79028 0 0 0 23 78 122 255
0.11059 0.551739 4.09209 0 0 0 45 44 39 255
-0.810557 0.489601 3.54004 0 0 0 10 68 120 255
0.25186 0.571942 4.08651 0 0 0 58 59 60 255
0.312065 0.565499 4.11626 0 0 0 143 149 150 255
0.352027 0.583752 4.1394 0 0 0 138 144 144 255
0.0175164 0.583621 4.1507 0 0 0 92 101 101 255
0.129394 0.589629 4.08759 0 0 0 117 120 121 255
0.191962 0.596639 4.08103 0 0 0 146 149 147 255
-0.61758 0.530137 3.53195 0 0 0 161 164 166 255
-0.408711 0.578354 3.77437 0 0 0 34 88 134 255
-0.617339 0.560374 3.53167 0 0 0 159 164 162 255
-0.444106 0.574778 3.67531 0 0 0 154 161 165 255
1.12278 0.60155 3.53954 0 0 0 125 137 119 255
1.20538 0.595255 3.50798 0 0 0 41 52 46 255
1.18209 0.612533 3.50647 0 0 0 140 144 146 255
-0.506779 0.644721 3.60444 0 0 0 163 168 170 255
0.14769 0.723919 4.08727 0 0 0 112 97 73 255
0.217439 0.731125 4.08863 0 0 0 121 92 61 255
-0.837166 0.657237 3.56749 0 0 0 21 59 105 255
-0.789167 0.646827 3.54211 0 0 0 160 162 161 255
-0.631694 0.644889 3.53196 0 0 0 160 163 176 255
-0.741207 0.655684 3.53373 0 0 0 30 61 108 255
1.3153 0.635506 3.46075 0 0 0 143 143 126 255
-0.430147 0.698442 3.68039 0 0 0 135 151 172 255
-0.441385 0.701777 3.65786 0 0 0 159 165 171 255
-0.705891 0.679548 3.52795 0 0 0 165 168 167 255
-0.0317245 0.849887 4.30791 0 0 0 60 60 60 255
-0.558259 0.704462 3.56918 0 0 0 105 110 125 255
-0.481704 0.720136 3.62705 0 0 0 45 66 109 255
-0.737169 0.717301 3.53093 0 0 0 60 75 98 255
-0.865694 0.739197 3.59027 0 0 0 25 57 98 255
1.35605 0.715382 3.41441 0 0 0 138 136 121 255
-0.708846 0.748596 3.53177 0 0 0 167 170 169 255
-0.653223 0.748287 3.53427 0 0 0 33 73 121 255
-0.488453 0.775639 3.63253 0 0 0 167 170 170 255
-0.809823 0.775735 3.55715 0 0 0 66 71 96 255
0.771642 1.0935 4.99732 0 0 0 138 134 129 255
-0.660009 0.784527 3.53334 0 0 0 165 171 176 255
-0.589673 0.78992 3.56055 0 0 0 170 175 173 255
-0.434289 0.821893 3.67098 0 0 0 49 62 96 255
1.35508 0.746634 3.41259 0 0 0 32 68 56 255
0.768086 1.11341 4.87493 0 0 0 111 109 107 255
-0.75123 0.832918 3.53935 0 0 0 79 86 103 255
1.34264 0.784111 3.38539 0 0 0 141 120 127 255
1.17452 0.787517 3.35736 0 0 0 161 166 174 255
1.1422 0.801086 3.36754 0 0 0 86 81 69 255
1.195 0.810408 3.34414 0 0 0 95 54 54 255
1.36347 0.812244 3.38585 0 0 0 125 122 121 255
-0.689222 0.863496 3.53603 0 0 0 41 74 116 255
-0.532067 0.878621 3.56786 0 0 0 166 171 169 255
-0.803126 0.883296 3.56025 0 0 0 51 66 106 255
-0.58949 0.885171 3.56131 0 0 0 171 174 174 255
1.1524 0.827112 3.35304 0 0 0 134 131 132 255
-0.651138 0.911181 3.5399 0 0 0 168 170 170 255
1.06512 0.875131 3.38342 0 0 0 97 96 97 255
-0.707723 0.924154 3.53751 0 0 0 167 169 168 255
-0.447637 0.957668 3.66857 0 0 0 117 147 169 255
-0.743819 0.931314 3.54289 0 0 0 69 77 97 255
-0.838034 0.954278 3.58207 0 0 0 159 162 162 255
-0.520585 0.990075 3.58824 0 0 0 151 158 165 255
1.09078 0.937038 3.36241 0 0 0 105 74 55 255
-0.616092 0.998038 3.54924 0 0 0 148 163 178 255
-0.440182 1.04726 3.69726 0 0 0 147 159 159 255
-0.62898 1.04771 3.54415 0 0 0 128 144 161 255
-0.591765 1.04255 3.54322 0 0 0 17 115 155 255
0.864157 1.10022 3.72983 0 0 0 50 60 60 255
1.17033 0.986932 3.34167 0 0 0 86 75 77 255
-0.801659 1.07911 3.55035 0 0 0 99 140 170 255
-0.687008 1.07054 3.54061 0 0 0 92 130 159 255
-0.430192 1.11224 3.70019 0 0 0 159 154 140 255
-0.78676 1.16142 3.55464 0 0 0 133 139 143 255
-0.684951 1.16358 3.536 0 0 0 135 139 149 255
1.25349 1.09928 3.34505 0 0 0 65 66 71 255
-0.812046 1.21429 3.55353 0 0 0 100 130 154 255
1.33467 1.14195 3.36296 0 0 0 148 152 153 255
-0.667693 -0.81927 3.49327 0 0 0 143 143 143 255
-0.701594 -0.711669 3.48714 0 0 0 131 41 47 255
-0.576697 -0.719407 3.53829 0 0 0 131 61 67 255
-0.668503 -0.699964 3.49312 0 0 0 167 142 146 255
-0.539085 -0.674919 3.56418 0 0 0 136 137 134 255
-0.710804 -0.594545 3.50163 0 0 0 158 163 160 255
-0.625216 -0.576358 3.50346 0 0 0 158 164 163 255
-0.711151 -0.444711 3.49132 0 0 0 48 98 65 255
-0.487633 -0.477066 3.59546 0 0 0 124 144 143 255
-0.749503 -0.384192 3.48774 0 0 0 155 159 158 255
-0.506405 -0.267807 3.58714 0 0 0 124 134 109 255
-0.597753 -0.20956 3.52175 0 0 0 14 72 120 255
-0.763478 -0.172269 3.49655 0 0 0 134 144 127 255
-0.648293 -0.160807 3.499 0 0 0 123 112 56 255
-0.517526 -0.130948 3.585 0 0 0 160 128 41 255
0.066411 0.0798856 4.31772 0 0 0 70 67 68 255
0.295291 0.081449 4.28743 0 0 0 55 55 55 255
-0.466187 0.11275 3.83322 0 0 0 172 170 170 255
0.0482916 0.218186 4.32685 0 0 0 153 153 153 255
0.154578 0.226543 4.22703 0 0 0 114 116 120 255
0.218037 0.220956 4.24083 0 0 0 99 98 101 255
0.0335055 0.245304 4.33456 0 0 0 154 156 155 255
0.351821 0.314916 4.28346 0 0 0 63 61 60 255
0.0267233 0.314895 4.32294 0 0 0 63 63 63 255
0.037458 0.498378 4.13117 0 0 0 60 60 58 255
2.13348 0.766738 6.11187 0 0 0 52 41 38 255
-0.457968 0.49004 3.65834 0 0 0 110 139 157 255
0.259049 0.533706 4.08567 0 0 0 43 49 49 255
0.338221 0.565645 4.1261 0 0 0 133 139 140 255
-0.836695 0.50536 3.55313 0 0 0 107 112 119 255
-0.806956 0.474294 3.53626 0 0 0 15 58 109 255
-0.692207 0.559162 3.52218 0 0 0 150 157 154 255
-0.609496 0.538788 3.53474 0 0 0 80 122 136 255
-0.454207 0.571387 3.6566 0 0 0 149 156 162 255
1.12889 0.604983 3.53107 0 0 0 131 142 120 255
1.21476 0.60151 3.51148 0 0 0 43 65 60 255
-0.83768 0.643731 3.56369 0 0 0 16 70 113 255
-0.520103 0.668718 3.60217 0 0 0 167 170 170 255
-0.412786 0.678461 3.81962 0 0 0 22 69 113 255
-0.626438 0.649584 3.53161 0 0 0 164 168 169 255
-0.611499 0.689921 3.53247 0 0 0 169 171 173 255
-0.869279 0.739959 3.59274 0 0 0 25 57 98 255
-0.711006 0.717221 3.52937 0 0 0 44 59 93 255
-0.719786 0.784996 3.53229 0 0 0 165 170 170 255
-0.412679 0.82523 3.71721 0 0 0 103 109 122 255
0.8636 0.857793 3.86185 0 0 0 111 97 100 255
-0.630246 0.868866 3.53981 0 0 0 140 151 163 255
0.942354 0.876572 3.45603 0 0 0 51 49 60 255
-0.507787 0.940171 3.58753 0 0 0 133 157 171 255
-0.8252 0.964252 3.57736 0 0 0 158 160 161 255
-0.475889 1.0059 3.64753 0 0 0 4 110 156 255
-0.472051 1.02304 3.6555 0 0 0 6 104 150 255
-0.577746 1.03807 3.54946 0 0 0 3 115 159 255
-0.804853 1.08973 3.57521 0 0 0 147 151 155 255
-0.724612 1.0644 3.54119 0 0 0 24 91 137 255
-0.43684 1.12598 3.6612 0 0 0 161 146 99 255
-0.819712 1.13164 3.56404 0 0 0 149 160 171 255
1.25038 1.07528 3.3471 0 0 0 68 84 92 255
-0.736021 1.15976 3.54824 0 0 0 40 85 131 255
-0.580728 1.16705 3.56775 0 0 0 173 164 128 255
-0.805247 1.2222 3.55649 0 0 0 108 137 156 255
-0.71945 -0.574401 3.48364 0 0 0 155 162 162 255
-0.508449 -0.575429 3.5818 0 0 0 153 159 157 255
-0.494305 -0.508058 3.59529 0 0 0 150 156 155 255
-0.728087 -0.402098 3.48842 0 0 0 157 162 160 255
-0.549165 -0.315979 3.54855 0 0 0 120 136 94 255
-0.655055 -0.275938 3.49735 0 0 0 132 142 120 255
-0.59764 -0.202219 3.52159 0 0 0 12 68 117 255
-0.522033 -0.163497 3.57891 0 0 0 163 141 53 255
-0.760812 -0.0829174 3.49657 0 0 0 136 133 134 255
-0.442629 -0.0214633 3.79891 0 0 0 59 104 80 255
0.0811633 0.0937537 4.31297 0 0 0 82 52 55 255
0.294023 0.0878852 4.28794 0 0 0 52 52 52 255
0.0880372 0.178626 4.31046 0 0 0 41 47 52 255
0.277237 0.185633 4.29095 0 0 0 53 54 52 255
0.216793 0.289591 4.2588 0 0 0 192 194 198 255
0.354548 0.337718 4.28678 0 0 0 53 57 63 255
0.119411 0.406916 4.11675 0 0 0 171 163 157 255
0.0743357 0.522808 4.10579 0 0 0 51 54 53 255
0.321504 0.525425 4.11806 0 0 0 120 122 123 255
-0.456024 0.497865 3.65829 0 0 0 139 156 164 255
0.189034 0.567855 4.08058 0 0 0 141 149 153 255
0.280567 0.553579 4.09625 0 0 0 41 49 55 255
-0.868805 0.516813 3.58743 0 0 0 138 116 107 255
1.07265 0.577326 3.7976 0 0 0 112 115 111 255
-0.421305 0.663564 3.79939 0 0 0 36 92 129 255
0.149941 0.72822 4.08646 0 0 0 115 95 72 255
0.229011 0.728544 4.08702 0 0 0 111 92 70 255
-0.883508 0.675899 3.60845 0 0 0 150 155 153 255
-0.612525 0.683217 3.53213 0 0 0 168 171 171 255
-0.491045 0.693893 3.61785 0 0 0 109 117 124 255
0.400821 0.840772 4.24781 0 0 0 50 55 59 255
-0.876057 0.7478 3.59824 0 0 0 27 58 94 255
0.130068 0.925798 4.14218 0 0 0 130 133 131 255
0.265274 0.919078 4.11819 0 0 0 137 141 140 255
0.860298 0.875308 3.8835 0 0 0 108 103 105 255
-0.418372 0.842207 3.70793 0 0 0 38 73 113 255
-0.47313 0.849448 3.64014 0 0 0 164 168 169 255
1.12259 0.806379 3.37078 0 0 0 85 89 86 255
-0.840812 0.961061 3.58424 0 0 0 158 161 160 255
-0.799428 0.947781 3.56116 0 0 0 154 155 157 255
-0.451283 1.01665 3.66449 0 0 0 18 90 137 255
-0.613414 1.00952 3.54888 0 0 0 152 155 163 255
-0.446517 1.06806 3.66205 0 0 0 140 122 113 255
-0.620836 -0.206119 3.51236 0 0 0 72 97 70 255
-0.461328 -0.0344874 3.75271 0 0 0 52 100 72 255
-0.710152 -0.00538424 3.50035 0 0 0 26 67 39 255
0.253066 0.0941184 4.25232 0 0 0 102 50 48 255
0.0555721 0.0804992 4.32163 0 0 0 106 103 104 255
0.251368 0.140272 4.22865 0 0 0 50 42 45 255
0.0149007 0.324148 4.32633 0 0 0 61 64 67 255
0.343824 0.368937 4.29874 0 0 0 52 51 56 255
-0.450309 0.357526 3.79095 0 0 0 22 69 117 255
-0.814341 0.539089 3.55184 0 0 0 157 140 91 255
-0.463138 0.650231 3.62409 0 0 0 19 72 123 255
-0.785587 0.737062 3.55028 0 0 0 161 163 168 255
0.00584593 0.848093 4.30659 0 0 0 40 45 46 255
0.344097 0.828405 4.22947 0 0 0 39 44 46 255
-0.683976 0.723045 3.53229 0 0 0 35 66 115 255
-0.681533 0.785665 3.53214 0 0 0 41 68 109 255
0.192974 0.919508 4.09804 0 0 0 138 144 147 255
-0.42578 0.864779 3.68202 0 0 0 42 78 117 255
-0.743726 -0.827863 3.47619 0 0 0 122 130 124 255
-0.788843 -0.823975 3.47731 0 0 0 81 101 87 255
-0.761414 -0.821057 3.48096 0 0 0 145 146 145 255
-0.744475 -0.820264 3.47578 0 0 0 154 155 154 255
-0.832189 -0.820919 3.48382 0 0 0 80 106 89 255
-0.737653 -0.807927 3.48093 0 0 0 107 121 119 255
-0.683216 -0.80435 3.48917 0 0 0 53 76 70 255
-0.885714 -0.816331 3.50516 0 0 0 71 89 69 255
-0.804978 -0.809381 3.4872 0 0 0 136 137 135 255
-0.761984 -0.800975 3.47264 0 0 0 72 92 80 255
-0.742254 -0.800432 3.47221 0 0 0 120 120 120 255
-0.713407 -0.808329 3.48501 0 0 0 70 80 72 255
-0.670241 -0.80452 3.49231 0 0 0 141 139 137 255
-0.927098 -0.816366 3.51905 0 0 0 81 82 74 255
-0.905094 -0.807795 3.51233 0 0 0 53 51 49 255
-0.795287 -0.79606 3.47934 0 0 0 105 122 118 255
-0.965119 -0.816052 3.55481 0 0 0 116 115 113 255
-0.840634 -0.790586 3.48816 0 0 0 101 100 92 255
-0.871566 -0.784614 3.49966 0 0 0 83 96 91 255
-0.918924 -0.789197 3.52068 0 0 0 120 125 123 255
-0.634276 -0.754509 3.50663 0 0 0 155 149 137 255
-0.765348 -0.741239 3.47965 0 0 0 99 90 88 255
-0.821541 -0.72837 3.48633 0 0 0 81 56 56 255
-0.81506 -0.725748 3.48523 0 0 0 116 64 63 255
-0.897943 -0.725497 3.5158 0 0 0 68 54 52 255
-0.766594 -0.713683 3.48022 0 0 0 169 133 136 255
-0.861966 -0.715512 3.49858 0 0 0 86 71 73 255
-0.845906 -0.712622 3.49376 0 0 0 150 148 148 255
-0.807271 -0.709259 3.48467 0 0 0 158 147 151 255
-0.788564 -0.705331 3.48312 0 0 0 93 55 58 255
-0.953058 -0.718653 3.55232 0 0 0 73 52 49 255
-0.807567 -0.689372 3.48578 0 0 0 112 57 62 255
-0.760232 -0.685183 3.48111 0 0 0 128 41 45 255
-0.926599 -0.701132 3.53647 0 0 0 120 102 105 255
-0.837085 -0.676155 3.49348 0 0 0 109 49 54 255
-0.888155 -0.677204 3.51317 0 0 0 106 81 85 255
-0.941044 -0.613068 3.55144 0 0 0 120 121 114 255
-0.811479 -0.596789 3.49811 0 0 0 135 141 134 255
-0.794375 -0.591631 3.48595 0 0 0 149 156 155 255
-0.762027 -0.58461 3.48359 0 0 0 153 154 151 255
-0.903455 -0.56658 3.53444 0 0 0 113 123 116 255
-0.762165 -0.542928 3.48457 0 0 0 151 152 145 255
-0.936977 -0.536855 3.55204 0 0 0 51 78 71 255
-0.563145 -0.373555 3.54153 0 0 0 66 117 87 255
-0.620473 -0.359262 3.50557 0 0 0 68 112 88 255
-0.461788 -0.352615 3.77457 0 0 0 122 137 87 255
-0.886552 -0.332418 3.52155 0 0 0 125 125 120 255
-0.443006 -0.336348 3.78685 0 0 0 141 139 84 255
-0.878299 -0.302168 3.52911 0 0 0 136 137 134 255
-0.553056 -0.245896 3.54337 0 0 0 64 88 82 255
-0.682005 -0.191473 3.4977 0 0 0 79 109 55 255
-0.768552 -0.184775 3.49746 0 0 0 99 126 78 255
-0.869521 -0.174057 3.53485 0 0 0 130 134 118 255
-0.942139 -0.167572 3.60874 0 0 0 50 86 62 255
-0.949618 -0.134845 3.60249 0 0 0 93 99 102 255
-0.75048 -0.0976651 3.4949 0 0 0 110 104 113 255
-0.817366 -0.0897544 3.51088 0 0 0 77 99 82 255
-0.437195 -0.0686626 3.79069 0 0 0 132 133 86 255
-0.952013 0.0314107 3.62296 0 0 0 43 82 70 255
0.321761 0.0851861 4.28054 0 0 0 83 78 78 255
0.0499162 0.0973157 4.32431 0 0 0 106 107 108 255
0.254054 0.168655 4.29242 0 0 0 107 113 112 255
0.172846 0.39155 4.10417 0 0 0 85 87 83 255
0.330264 0.418912 4.17927 0 0 0 92 100 105 255
0.435456 0.461678 4.28531 0 0 0 72 73 75 255
0.407099 0.48809 4.26065 0 0 0 71 75 82 255
-0.666601 0.452778 3.51987 0 0 0 34 55 81 255
-0.913427 0.480066 3.63311 0 0 0 91 108 132 255
-0.43992 0.498839 3.68608 0 0 0 111 75 98 255
-0.502404 0.516405 3.59436 0 0 0 52 77 110 255
-0.435691 0.520799 3.67672 0 0 0 115 91 111 255
-0.639397 0.513268 3.53158 0 0 0 66 104 99 255
-0.542168 0.51684 3.56907 0 0 0 52 82 113 255
1.35395 0.571508 3.77852 0 0 0 104 103 88 255
-0.467036 0.539175 3.63104 0 0 0 112 111 116 255
-0.414937 0.547726 3.71311 0 0 0 31 70 110 255
-0.448345 0.544684 3.65275 0 0 0 112 120 128 255
-0.434914 0.558941 3.67604 0 0 0 123 113 118 255
-0.522344 0.563382 3.57945 0 0 0 36 74 122 255
-0.488315 0.572957 3.61115 0 0 0 130 131 138 255
-0.64878 0.567594 3.52759 0 0 0 73 99 91 255
-0.629324 0.568454 3.52946 0 0 0 72 104 102 255
-0.550738 0.579109 3.56016 0 0 0 36 87 128 255
-0.917498 0.592238 3.64362 0 0 0 91 103 131 255
1.32183 0.622576 3.51785 0 0 0 59 78 71 255
1.26015 0.649015 3.6511 0 0 0 92 128 124 255
1.34259 0.642356 3.51486 0 0 0 99 98 81 255
1.06124 0.656753 3.5684 0 0 0 139 120 124 255
-0.913181 0.649943 3.63675 0 0 0 111 123 144 255
1.18328 0.668433 3.52608 0 0 0 146 150 151 255
1.19161 0.682235 3.53185 0 0 0 77 91 84 255
1.15032 0.681605 3.49387 0 0 0 108 76 73 255
-0.415369 0.714306 3.70139 0 0 0 109 112 121 255
1.33461 0.695379 3.48874 0 0 0 30 49 43 255
-0.894239 0.705999 3.6115 0 0 0 111 107 119 255
-0.414301 0.748805 3.7116 0 0 0 85 95 108 255
1.1268 0.716873 3.46972 0 0 0 91 88 97 255
1.24561 0.731925 3.51926 0 0 0 119 93 91 255
-0.897305 0.742169 3.60895 0 0 0 102 115 129 255
1.14119 0.744281 3.44263 0 0 0 123 110 113 255
1.06766 0.762679 3.45756 0 0 0 155 149 151 255
-0.888212 0.782413 3.5872 0 0 0 103 104 107 255
1.38735 0.771968 3.39218 0 0 0 136 139 111 255
1.05842 0.786889 3.44449 0 0 0 118 110 113 255
1.03477 0.794779 3.44357 0 0 0 136 111 108 255
0.46826 1.08918 4.86494 0 0 0 155 151 147 255
1.16802 0.801662 3.38824 0 0 0 150 151 157 255
0.26445 0.949923 4.12049 0 0 0 94 96 97 255
0.209494 0.96309 4.09464 0 0 0 101 107 106 255
0.468546 1.11452 4.77564 0 0 0 112 112 112 255
0.838456 0.925176 3.85452 0 0 0 174 175 171 255
-0.488563 0.895682 3.60882 0 0 0 69 95 137 255
1.35537 0.874971 3.3131 0 0 0 96 102 111 255
-0.614047 0.93637 3.54592 0 0 0 116 132 170 255
1.05075 0.922265 3.3969 0 0 0 101 100 100 255
0.940473 0.948034 3.47746 0 0 0 90 90 92 255
-0.42239 1.02764 3.66872 0 0 0 28 76 121 255
1.26431 0.947896 3.30647 0 0 0 119 104 97 255
1.10586 0.966237 3.36926 0 0 0 95 84 81 255
0.269874 1.18094 4.12778 0 0 0 96 97 98 255
1.13804 1.01652 3.35434 0 0 0 135 132 116 255
1.2328 1.0026 3.3016 0 0 0 111 86 81 255
1.33903 1.00563 3.21927 0 0 0 114 112 111 255
1.2693 1.04143 3.26986 0 0 0 134 140 143 255
1.27162 1.08861 3.25444 0 0 0 125 129 135 255
-0.46073 1.21961 3.64439 0 0 0 118 123 145 255
-0.73746 1.21273 3.50486 0 0 0 37 87 124 255
-0.713344 1.22678 3.49866 0 0 0 80 103 141 255
-0.987485 -0.896753 3.55302 0 0 0 37 73 61 255
-0.757142 -0.804757 3.4743 0 0 0 77 92 84 255
-0.795175 -0.802294 3.47364 0 0 0 137 139 139 255
-0.769781 -0.73247 3.47951 0 0 0 112 42 50 255
-0.823941 -0.726712 3.48773 0 0 0 81 56 56 255
-0.84732 -0.722435 3.49369 0 0 0 156 141 140 255
-0.762426 -0.71495 3.47963 0 0 0 167 148 150 255
-0.895665 -0.724101 3.5147 0 0 0 68 54 52 255
-0.76383 -0.688112 3.48093 0 0 0 124 37 45 255
-0.915126 -0.697777 3.52357 0 0 0 146 130 132 255
-0.80303 -0.590584 3.47815 0 0 0 143 146 139 255
-0.760407 -0.54515 3.48426 0 0 0 151 151 151 255
-0.904105 -0.556969 3.53426 0 0 0 135 134 131 255
-0.458555 -0.347446 3.7787 0 0 0 137 138 81 255
-0.665945 -0.18347 3.49883 0 0 0 152 155 132 255
-0.870254 -0.172055 3.53511 0 0 0 130 134 118 255
-0.813807 -0.0866955 3.50991 0 0 0 57 96 62 255
-0.86589 -0.0741266 3.53554 0 0 0 132 124 125 255
-0.4374 -0.0743923 3.78975 0 0 0 133 134 86 255
0.0642537 0.0604834 4.31754 0 0 0 152 154 153 255
0.304816 0.245988 4.31354 0 0 0 100 102 104 255
-0.949881 0.34034 3.65878 0 0 0 40 57 77 255
0.326735 0.481023 4.12594 0 0 0 87 85 82 255
-0.668471 0.455892 3.51966 0 0 0 34 55 81 255
0.238984 0.517055 4.07808 0 0 0 120 122 122 255
-0.873245 0.480724 3.58726 0 0 0 97 119 139 255
-0.503948 0.478122 3.59545 0 0 0 79 106 139 255
0.239837 0.548641 4.07832 0 0 0 58 52 57 255
-0.695054 0.519399 3.52164 0 0 0 138 138 123 255
-0.415436 0.546317 3.71244 0 0 0 31 70 110 255
-0.495168 0.600989 3.61346 0 0 0 50 109 151 255
1.34819 0.646268 3.51756 0 0 0 91 104 95 255
-0.896039 0.654737 3.61825 0 0 0 126 134 138 255
1.33221 0.683366 3.4925 0 0 0 37 44 39 255
1.24092 0.73104 3.51138 0 0 0 120 89 88 255
1.3625 0.82381 3.36138 0 0 0 98 91 91 255
0.83914 0.925068 3.85442 0 0 0 166 167 163 255
-0.651807 1.06433 3.52891 0 0 0 31 97 139 255
-0.875242 -0.806995 3.48193 0 0 0 94 108 90 255
-0.756201 -0.727476 3.47938 0 0 0 167 144 144 255
-0.699936 -0.691377 3.48831 0 0 0 146 83 90 255
-0.822894 -0.690379 3.48834 0 0 0 117 34 34 255
-0.958432 -0.629671 3.56051 0 0 0 52 81 44 255
-0.8008 -0.5795 3.47919 0 0 0 154 154 151 255
-0.491999 -0.568801 3.6037 0 0 0 152 158 157 255
-0.953827 -0.583047 3.54799 0 0 0 59 81 73 255
-0.904683 -0.539441 3.53372 0 0 0 139 139 139 255
-0.92758 -0.533979 3.54474 0 0 0 36 64 53 255
-0.889193 -0.486091 3.51778 0 0 0 135 140 132 255
-0.749134 -0.410595 3.48829 0 0 0 158 158 158 255
-0.458504 -0.347529 3.77892 0 0 0 137 138 81 255
-0.886269 -0.321877 3.53933 0 0 0 137 140 126 255
-0.661336 -0.232118 3.4983 0 0 0 11 86 129 255
-0.610408 -0.188654 3.51746 0 0 0 10 70 118 255
-0.939821 -0.1829 3.59446 0 0 0 56 85 45 255
-0.511193 -0.157876 3.58762 0 0 0 164 141 61 255
-0.937834 -0.0645675 3.61235 0 0 0 42 80 53 255
0.261416 0.0775579 4.2601 0 0 0 48 44 45 255
0.261725 0.172499 4.30549 0 0 0 101 107 116 255
0.304768 0.244234 4.31367 0 0 0 100 102 104 255
0.134346 0.403242 4.11267 0 0 0 125 122 114 255
-0.494129 0.489059 3.60661 0 0 0 99 140 166 255
-0.42802 0.493218 3.72336 0 0 0 86 122 150 255
0.255288 0.5512 4.08566 0 0 0 43 49 54 255
-0.860992 0.497344 3.57549 0 0 0 113 126 133 255
-0.414506 0.533675 3.73628 0 0 0 80 119 145 255
1.25843 0.66167 3.6628 0 0 0 118 146 146 255
0.243501 0.75508 4.08578 0 0 0 75 68 65 255
1.2032 0.682212 3.55331 0 0 0 62 96 84 255
-0.89697 0.714094 3.61162 0 0 0 62 64 81 255
-0.500854 0.712134 3.61336 0 0 0 165 168 167 255
1.24208 0.726811 3.52527 0 0 0 129 88 88 255
-0.631123 0.724326 3.53372 0 0 0 162 163 170 255
-0.461185 0.790692 3.65023 0 0 0 46 60 86 255
-0.420906 0.802299 3.69859 0 0 0 155 158 167 255
-0.899195 0.825874 3.60885 0 0 0 32 61 92 255
1.24122 0.81029 3.37106 0 0 0 141 142 146 255
-0.526543 0.861578 3.56905 0 0 0 167 171 169 255
-0.702461 0.864107 3.5347 0 0 0 47 70 107 255
0.827548 0.945665 3.8251 0 0 0 171 175 173 255
-0.804358 0.895805 3.56161 0 0 0 46 63 92 255
1.29156 0.897217 3.30702 0 0 0 74 64 68 255
0.42357 1.29771 4.36157 0 0 0 125 128 127 255
1.25506 1.02188 3.27535 0 0 0 92 111 121 255
1.29965 1.09564 3.25538 0 0 0 71 66 74 255
-0.79869 -0.81144 3.48212 0 0 0 146 149 147 255
-0.761718 -0.7134 3.47975 0 0 0 167 148 150 255
-0.547349 -0.508561 3.55709 0 0 0 35 85 74 255
-0.917614 -0.501786 3.54014 0 0 0 35 76 55 255
-0.616026 -0.424675 3.50946 0 0 0 161 162 166 255
-0.56161 -0.33037 3.5476 0 0 0 114 129 89 255
-0.459158 -0.351456 3.77808 0 0 0 137 138 81 255
-0.64487 -0.29643 3.50244 0 0 0 137 145 126 255
-0.943535 -0.197283 3.5977 0 0 0 50 81 50 255
-0.669244 -0.17751 3.49894 0 0 0 156 155 121 255
-0.439401 -0.0787121 3.78969 0 0 0 133 134 86 255
-0.938904 0.00476783 3.6223 0 0 0 26 54 40 255
0.157991 0.0775171 4.23991 0 0 0 52 56 70 255
0.139478 0.300712 4.22492 0 0 0 133 140 140 255
-0.941588 0.34731 3.65759 0 0 0 21 54 89 255
0.127551 0.417696 4.11437 0 0 0 140 119 104 255
0.0722499 0.497132 4.10675 0 0 0 49 59 63 255
0.41992 0.556332 4.33206 0 0 0 70 68 64 255
0.179445 0.554231 4.07849 0 0 0 143 147 149 255
-0.434218 0.500349 3.69465 0 0 0 117 90 107 255
0.233203 0.574533 4.07914 0 0 0 146 150 152 255
-0.836412 0.522865 3.55925 0 0 0 163 145 122 255
0.111225 0.604715 4.09292 0 0 0 126 125 126 255
-0.648612 0.536075 3.52791 0 0 0 41 101 92 255
-0.591817 0.554878 3.54073 0 0 0 112 152 172 255
-0.841574 0.571745 3.56749 0 0 0 161 131 97 255
1.14303 0.618857 3.56397 0 0 0 125 134 110 255
1.26021 0.663712 3.66512 0 0 0 125 149 149 255
-0.884749 0.72348 3.60246 0 0 0 46 58 84 255
-0.636667 0.726566 3.5341 0 0 0 142 138 162 255
1.25527 0.759998 3.48864 0 0 0 158 158 156 255
-0.725763 0.770651 3.53066 0 0 0 164 165 164 255
1.34382 0.8025 3.36176 0 0 0 155 147 149 255
1.38689 0.804651 3.37204 0 0 0 50 72 62 255
-0.704689 0.851926 3.53442 0 0 0 86 96 104 255
-0.73228 0.891324 3.5367 0 0 0 171 168 169 255
-0.614401 0.896814 3.54486 0 0 0 170 170 170 255
-0.512254 0.921606 3.58373 0 0 0 88 101 126 255
-0.432551 1.12144 3.6755 0 0 0 174 154 94 255
-0.782966 1.12501 3.50489 0 0 0 152 157 158 255
-0.844463 -0.725146 3.4934 0 0 0 146 145 136 255
-0.569197 -0.537898 3.54517 0 0 0 159 160 155 255
-0.504409 -0.523226 3.58568 0 0 0 156 161 159 255
-0.751143 -0.503097 3.50781 0 0 0 56 99 52 255
-0.601447 -0.492154 3.55964 0 0 0 159 161 162 255
-0.735877 -0.389418 3.48779 0 0 0 157 161 162 255
-0.86744 -0.340223 3.52997 0 0 0 147 148 147 255
-0.525729 -0.0105045 3.55758 0 0 0 42 100 68 255
-0.464109 -1.8302e-05 3.8484 0 0 0 88 117 107 255
0.293501 0.135861 4.30725 0 0 0 52 49 47 255
0.292254 0.174472 4.30843 0 0 0 65 69 73 255
0.106811 0.187932 4.27351 0 0 0 49 54 52 255
0.015243 0.350951 4.3315 0 0 0 46 52 57 255
-0.458888 0.348598 3.87272 0 0 0 14 62 108 255
-0.543437 0.435755 3.56035 0 0 0 99 84 60 255
0.304498 0.545791 4.1115 0 0 0 148 148 152 255
0.0772603 0.576587 4.10624 0 0 0 59 65 64 255
-0.81434 0.525637 3.55114 0 0 0 159 142 91 255
-0.428027 0.535853 3.68432 0 0 0 158 134 144 255
1.24642 0.615912 3.60443 0 0 0 40 56 51 255
1.15488 0.622928 3.5399 0 0 0 139 144 149 255
1.34667 0.658864 3.5013 0 0 0 161 156 134 255
-0.476333 0.692104 3.62008 0 0 0 27 68 114 255
1.2631 0.695585 3.65694 0 0 0 134 152 151 255
-0.422716 0.716314 3.6806 0 0 0 156 158 158 255
-0.670974 0.729627 3.53282 0 0 0 31 69 117 255
0.352457 0.842008 4.22494 0 0 0 35 42 43 255
0.160013 0.911788 4.09815 0 0 0 128 128 128 255
0.284454 0.917862 4.12892 0 0 0 133 134 131 255
-0.899325 0.835017 3.61083 0 0 0 31 63 91 255
-0.501336 0.846454 3.60405 0 0 0 167 170 173 255
-0.61752 0.879219 3.54367 0 0 0 166 171 173 255
-0.780447 0.919554 3.56089 0 0 0 166 166 166 255
-0.46631 1.00817 3.66126 0 0 0 1 97 146 255
-0.645464 -0.259195 3.49953 0 0 0 125 141 113 255
-0.634066 -0.215678 3.50382 0 0 0 46 98 129 255
-0.522277 -0.145283 3.58272 0 0 0 167 133 44 255
-0.459857 -0.0210439 3.77203 0 0 0 45 96 67 255
0.0713438 0.118205 4.31592 0 0 0 83 51 48 255
0.266458 0.141808 4.27855 0 0 0 44 42 43 255
0.193701 0.292862 4.26412 0 0 0 177 178 178 255
-0.461103 0.348213 3.86959 0 0 0 13 62 109 255
-0.0389724 0.421782 4.32879 0 0 0 117 118 116 255
0.338952 0.348787 4.29542 0 0 0 47 53 58 255
0.302302 0.57365 4.11205 0 0 0 146 147 147 255
-0.458749 0.551743 3.64255 0 0 0 158 155 160 255
0.0128092 0.673907 4.23803 0 0 0 33 39 42 255
1.2544 0.624488 3.61689 0 0 0 43 63 59 255
-0.479935 0.689063 3.61816 0 0 0 34 64 115 255
1.24554 0.748116 3.49775 0 0 0 145 134 131 255
1.33292 0.743824 3.49625 0 0 0 45 86 73 255
-0.680105 0.798332 3.53275 0 0 0 42 66 112 255
0.26122 0.950543 4.11979 0 0 0 119 122 122 255
-2.70742 -1.55657 5.23233 0 0 0 81 80 77 255
-0.772527 -0.799532 3.46052 0 0 0 47 74 67 255
-0.789557 -0.73649 3.4826 0 0 0 139 145 120 255
-0.563572 -0.723655 3.54442 0 0 0 111 48 54 255
-0.865174 -0.689623 3.50338 0 0 0 166 132 136 255
-0.522463 -0.565134 3.56647 0 0 0 155 160 158 255
-0.888642 -0.464655 3.51099 0 0 0 126 144 126 255
-0.728284 -0.328797 3.48822 0 0 0 88 129 88 255
-0.944375 -0.302341 3.57815 0 0 0 109 122 110 255
-0.592132 -0.283038 3.53038 0 0 0 36 93 130 255
-0.622166 -0.1873 3.51148 0 0 0 13 71 115 255
-0.816372 -0.16166 3.50618 0 0 0 67 103 56 255
-0.844043 -0.127758 3.51814 0 0 0 137 82 100 255
-0.856315 -0.095518 3.52693 0 0 0 133 116 121 255
-0.924093 -0.0804149 3.5839 0 0 0 54 88 66 255
-0.985012 -0.0622845 3.66606 0 0 0 96 110 105 255
0.159181 0.0999363 4.23971 0 0 0 147 86 84 255
0.159682 0.105632 4.23915 0 0 0 138 94 88 255
-2.90832 0.313951 5.38259 0 0 0 79 89 88 255
-2.94085 0.37377 5.61661 0 0 0 93 95 94 255
-2.73995 0.372425 5.61667 0 0 0 41 43 44 255
-0.409787 0.317831 3.83919 0 0 0 98 104 111 255
-0.932254 0.386367 3.66939 0 0 0 58 81 107 255
-0.538111 0.418747 3.56493 0 0 0 32 46 70 255
-0.441892 0.481741 3.69745 0 0 0 92 135 172 255
