ply
format ascii 1.0
comment VCGLIB generated
element vertex 1008
property float x
property float y
property float z
property float nx
property float ny
property float nz
property uchar red
property uchar green
property uchar blue
property uchar alpha
element face 0
property list uchar int vertex_indices
end_header
1.09663 0.718614 3.43899 0 0 0 153 154 153 255
-0.816153 0.782616 3.56053 0 0 0 99 105 108 255
-0.585891 0.778296 3.56023 0 0 0 168 173 172 255
-0.462137 0.803189 3.64848 0 0 0 76 78 89 255
-0.668381 0.781991 3.53486 0 0 0 128 146 176 255
0.903207 0.795429 3.57007 0 0 0 133 130 109 255
1.3541 0.764755 3.39624 0 0 0 36 72 60 255
-0.448658 0.830762 3.66061 0 0 0 164 165 174 255
0.712151 1.28812 5.66367 0 0 0 126 125 119 255
-0.476172 0.859953 3.63543 0 0 0 164 168 169 255
1.25278 0.792634 3.35599 0 0 0 78 79 73 255
-0.611765 0.854895 3.54614 0 0 0 92 96 111 255
-0.867223 0.891989 3.59817 0 0 0 120 125 126 255
-0.801279 0.880131 3.56049 0 0 0 50 67 106 255
-0.538043 0.874413 3.56885 0 0 0 170 172 171 255
-0.584542 0.896249 3.56169 0 0 0 167 170 169 255
-0.810437 0.910963 3.56655 0 0 0 65 78 103 255
-0.705411 0.902631 3.53553 0 0 0 169 171 171 255
-0.620757 0.906426 3.54568 0 0 0 128 128 130 255
-0.680947 0.91387 3.53819 0 0 0 92 97 114 255
-0.710516 0.926423 3.53666 0 0 0 168 168 168 255
-0.523334 0.948152 3.58675 0 0 0 153 160 169 255
-0.783524 0.953431 3.56137 0 0 0 162 164 164 255
-0.420854 1.0494 3.69499 0 0 0 125 137 144 255
-0.608428 1.05011 3.55081 0 0 0 20 119 157 255
0.858721 1.09503 3.70661 0 0 0 50 60 60 255
-0.632209 1.05898 3.54784 0 0 0 151 161 170 255
-0.653238 1.05645 3.53799 0 0 0 33 96 141 255
-0.742503 1.08325 3.55391 0 0 0 27 92 136 255
0.253203 1.3239 4.24449 0 0 0 185 190 195 255
0.269681 1.32654 4.2629 0 0 0 213 216 225 255
1.27417 1.03773 3.34329 0 0 0 81 78 88 255
-0.762559 1.11037 3.52937 0 0 0 85 93 112 255
-0.718629 1.13194 3.5404 0 0 0 163 166 168 255
1.27834 1.07208 3.34279 0 0 0 99 107 111 255
-0.628382 1.14185 3.54443 0 0 0 87 111 134 255
1.29523 1.07803 3.34102 0 0 0 80 74 82 255
-0.786909 1.16657 3.55611 0 0 0 129 134 137 255
1.25585 1.10104 3.34518 0 0 0 65 66 71 255
-0.507397 1.22697 3.60509 0 0 0 168 168 170 255
1.32927 1.14171 3.36355 0 0 0 145 150 151 255
-0.545172 1.24171 3.59496 0 0 0 75 123 153 255
1.31992 1.20829 3.43035 0 0 0 140 149 149 255
1.31781 1.19578 3.42407 0 0 0 123 134 142 255
-0.661302 -0.819048 3.49399 0 0 0 150 152 152 255
-0.556782 -0.754892 3.55151 0 0 0 162 145 145 255
-0.680718 -0.716475 3.48872 0 0 0 137 77 84 255
-0.573527 -0.728574 3.54035 0 0 0 140 84 89 255
-0.703169 -0.70077 3.48405 0 0 0 126 43 53 255
-0.576057 -0.701893 3.53686 0 0 0 132 39 50 255
-0.627086 -0.692669 3.507 0 0 0 128 80 89 255
-0.742177 -0.594907 3.48835 0 0 0 157 157 157 255
-0.686308 -0.597899 3.48516 0 0 0 161 163 162 255
-0.624495 -0.597551 3.50417 0 0 0 155 162 163 255
-0.631301 -0.576232 3.50229 0 0 0 160 165 165 255
-0.747272 -0.555467 3.4879 0 0 0 154 161 163 255
-0.500351 -0.575806 3.60048 0 0 0 156 159 158 255
-0.547386 -0.528327 3.55502 0 0 0 69 94 88 255
-0.489189 -0.469061 3.60128 0 0 0 137 142 140 255
-0.69911 -0.448226 3.48842 0 0 0 51 102 65 255
-0.530537 -0.450955 3.57194 0 0 0 138 146 139 255
-0.632022 -0.428725 3.50213 0 0 0 160 163 157 255
-0.756165 -0.421553 3.48998 0 0 0 81 106 88 255
-0.621351 -0.411455 3.50652 0 0 0 159 164 162 255
-0.676275 -0.386381 3.49428 0 0 0 158 163 163 255
-0.755526 -0.373046 3.48968 0 0 0 152 159 157 255
-0.548467 -0.325329 3.5471 0 0 0 130 142 124 255
-0.505091 -0.276561 3.58152 0 0 0 129 134 113 255
-0.599948 -0.266254 3.52379 0 0 0 19 102 140 255
-0.625772 -0.22034 3.50796 0 0 0 111 132 92 255
-0.587722 -0.208987 3.52487 0 0 0 10 69 118 255
-0.585503 -0.155582 3.52562 0 0 0 81 77 29 255
-0.507648 -0.144511 3.58073 0 0 0 165 139 53 255
-0.703783 -0.101058 3.49682 0 0 0 77 107 83 255
-0.763486 -0.0773228 3.49787 0 0 0 130 134 129 255
-0.555754 -0.0294204 3.54308 0 0 0 146 154 152 255
-0.619581 -0.0252999 3.50867 0 0 0 155 163 158 255
-0.430264 -0.0126552 3.81081 0 0 0 71 108 89 255
0.082789 0.0705864 4.30217 0 0 0 61 61 61 255
0.297798 0.0686725 4.29754 0 0 0 82 82 82 255
0.210833 0.115295 4.24922 0 0 0 151 102 105 255
0.318714 0.156006 4.29645 0 0 0 70 74 77 255
0.310568 0.187031 4.2976 0 0 0 50 54 55 255
0.221022 0.231402 4.25874 0 0 0 186 184 185 255
0.297529 0.228004 4.29937 0 0 0 125 125 125 255
0.227136 0.29858 4.26261 0 0 0 254 254 254 255
0.0261525 0.320486 4.31961 0 0 0 63 63 63 255
-0.418825 0.325941 3.80853 0 0 0 41 64 106 255
0.114634 0.401997 4.12324 0 0 0 205 198 193 255
0.215823 0.400097 4.1047 0 0 0 143 109 71 255
0.109176 0.421268 4.12272 0 0 0 145 129 116 255
0.217881 0.420388 4.10384 0 0 0 167 135 93 255
0.301225 0.424441 4.11793 0 0 0 101 104 109 255
0.429094 0.448413 4.2922 0 0 0 68 72 75 255
-0.52663 0.429613 3.57324 0 0 0 155 128 98 255
0.239099 0.487424 4.08071 0 0 0 94 105 115 255
-0.789236 0.434818 3.52825 0 0 0 143 138 103 255
-0.749751 0.436265 3.52299 0 0 0 123 116 114 255
-0.691273 0.43474 3.52098 0 0 0 122 111 69 255
-0.651577 0.434459 3.52306 0 0 0 83 74 67 255
-0.626691 0.435133 3.52826 0 0 0 147 133 95 255
0.159377 0.501236 4.08002 0 0 0 140 146 146 255
0.196266 0.501897 4.07887 0 0 0 43 47 48 255
-0.724589 0.443104 3.52102 0 0 0 135 129 114 255
0.313306 0.514948 4.11285 0 0 0 139 143 144 255
-0.791092 0.463499 3.53153 0 0 0 102 107 107 255
-0.490742 0.458957 3.60054 0 0 0 32 62 109 255
0.215748 0.524805 4.07697 0 0 0 147 150 153 255
-0.410731 0.509406 3.79034 0 0 0 23 78 122 255
0.110425 0.553357 4.09399 0 0 0 45 44 39 255
-0.811001 0.489735 3.54184 0 0 0 10 68 120 255
0.251706 0.573858 4.08767 0 0 0 58 59 60 255
0.311819 0.565297 4.1125 0 0 0 143 149 150 255
0.351676 0.583932 4.13479 0 0 0 138 144 144 255
0.0173208 0.584926 4.15506 0 0 0 92 101 101 255
0.129327 0.590223 4.08893 0 0 0 117 120 121 255
0.191935 0.59685 4.08147 0 0 0 146 149 147 255
-0.617859 0.530572 3.53318 0 0 0 161 164 166 255
-0.408738 0.578385 3.77446 0 0 0 34 88 134 255
-0.61774 0.560959 3.53355 0 0 0 159 164 162 255
-0.443762 0.573448 3.67284 0 0 0 154 161 165 255
1.12278 0.60155 3.53954 0 0 0 125 137 119 255
1.20538 0.595255 3.50798 0 0 0 41 52 46 255
1.18209 0.612533 3.50647 0 0 0 140 144 146 255
-0.506234 0.642986 3.60135 0 0 0 163 168 170 255
0.147619 0.725031 4.09074 0 0 0 112 97 73 255
0.217313 0.731759 4.08831 0 0 0 121 92 61 255
-0.837763 0.657193 3.56985 0 0 0 21 59 105 255
-0.789605 0.647249 3.5437 0 0 0 160 162 161 255
-0.632202 0.645912 3.53404 0 0 0 160 163 176 255
-0.742445 0.656634 3.53899 0 0 0 30 61 108 255
1.3153 0.635506 3.46075 0 0 0 143 143 126 255
-0.430811 0.699589 3.68429 0 0 0 135 151 172 255
-0.441474 0.701833 3.65827 0 0 0 159 165 171 255
-0.70576 0.679205 3.52732 0 0 0 165 168 167 255
-0.0316906 0.849882 4.30774 0 0 0 60 60 60 255
-0.55928 0.705492 3.57457 0 0 0 105 110 125 255
-0.481743 0.718958 3.62778 0 0 0 45 66 109 255
-0.73715 0.717421 3.5305 0 0 0 60 75 98 255
-0.865922 0.738721 3.59097 0 0 0 25 57 98 255
1.35605 0.715382 3.41441 0 0 0 138 136 121 255
-0.708944 0.748407 3.53208 0 0 0 167 170 169 255
-0.653482 0.74856 3.53527 0 0 0 33 73 121 255
-0.488615 0.775178 3.63333 0 0 0 167 170 170 255
-0.810195 0.776107 3.55839 0 0 0 66 71 96 255
0.771642 1.0935 4.99732 0 0 0 138 134 129 255
-0.660551 0.78517 3.53555 0 0 0 165 171 176 255
-0.589542 0.789337 3.55982 0 0 0 170 175 173 255
-0.434345 0.821264 3.67125 0 0 0 49 62 96 255
1.35508 0.746634 3.41259 0 0 0 32 68 56 255
0.768086 1.11341 4.87493 0 0 0 111 109 107 255
-0.751199 0.832552 3.53909 0 0 0 79 86 103 255
1.34264 0.784111 3.38539 0 0 0 141 120 127 255
1.17452 0.787517 3.35736 0 0 0 161 166 174 255
1.1422 0.801086 3.36754 0 0 0 86 81 69 255
1.195 0.810408 3.34414 0 0 0 95 54 54 255
1.36347 0.812244 3.38585 0 0 0 125 122 121 255
-0.689334 0.863386 3.53635 0 0 0 41 74 116 255
-0.532509 0.879587 3.5699 0 0 0 166 171 169 255
-0.803435 0.883417 3.56124 0 0 0 51 66 106 255
-0.58943 0.884662 3.56088 0 0 0 171 174 174 255
1.1524 0.827112 3.35304 0 0 0 134 131 132 255
-0.651543 0.911502 3.54149 0 0 0 168 170 170 255
1.06512 0.875131 3.38342 0 0 0 97 96 97 255
-0.707487 0.923734 3.53637 0 0 0 167 169 168 255
-0.447697 0.957744 3.66878 0 0 0 117 147 169 255
-0.74433 0.931726 3.54473 0 0 0 69 77 97 255
-0.838296 0.954479 3.58282 0 0 0 159 162 162 255
-0.520585 0.990075 3.58824 0 0 0 151 158 165 255
1.09078 0.937038 3.36241 0 0 0 105 74 55 255
-0.616593 0.998985 3.55137 0 0 0 148 163 178 255
-0.440218 1.04691 3.6972 0 0 0 147 159 159 255
-0.628958 1.0475 3.54378 0 0 0 128 144 161 255
-0.592149 1.04297 3.54487 0 0 0 17 115 155 255
0.863359 1.09946 3.72572 0 0 0 50 60 60 255
1.17033 0.986932 3.34167 0 0 0 86 75 77 255
-0.801733 1.07919 3.55049 0 0 0 99 140 170 255
-0.687008 1.07054 3.54061 0 0 0 92 130 159 255
-0.430246 1.11235 3.70034 0 0 0 159 154 140 255
-0.786841 1.16147 3.55481 0 0 0 133 139 143 255
-0.685011 1.16363 3.53614 0 0 0 135 139 149 255
1.25349 1.09928 3.34505 0 0 0 65 66 71 255
-0.812145 1.21437 3.55375 0 0 0 100 130 154 255
1.33467 1.14195 3.36296 0 0 0 148 152 153 255
-0.6676 -0.819204 3.49305 0 0 0 143 143 143 255
-0.70084 -0.710641 3.48411 0 0 0 131 41 47 255
-0.576307 -0.719252 3.5369 0 0 0 131 61 67 255
-0.667925 -0.699455 3.49093 0 0 0 167 142 146 255
-0.53869 -0.674715 3.56277 0 0 0 136 137 134 255
-0.709408 -0.594032 3.49609 0 0 0 158 163 160 255
-0.625297 -0.576287 3.50417 0 0 0 158 164 163 255
-0.710188 -0.444034 3.48732 0 0 0 48 98 65 255
-0.488563 -0.478627 3.60224 0 0 0 124 144 143 255
-0.750142 -0.384426 3.49077 0 0 0 155 159 158 255
-0.505366 -0.26876 3.58203 0 0 0 124 134 109 255
-0.597509 -0.208781 3.52057 0 0 0 14 72 120 255
-0.763375 -0.172092 3.49622 0 0 0 134 144 127 255
-0.648357 -0.160838 3.49958 0 0 0 123 112 56 255
-0.516231 -0.131739 3.57806 0 0 0 160 128 41 255
0.066417 0.0801329 4.30732 0 0 0 70 67 68 255
0.29584 0.0807405 4.29887 0 0 0 55 55 55 255
-0.466175 0.112769 3.83313 0 0 0 172 170 170 255
0.0483173 0.218723 4.31441 0 0 0 153 153 153 255
0.154488 0.226389 4.21995 0 0 0 114 116 120 255
0.218054 0.22083 4.24224 0 0 0 99 98 101 255
0.0336284 0.245624 4.31926 0 0 0 154 156 155 255
0.35328 0.314313 4.30014 0 0 0 63 61 60 255
0.0268086 0.315187 4.31914 0 0 0 63 63 63 255
0.0373735 0.498602 4.13272 0 0 0 60 60 58 255
2.13348 0.766738 6.11187 0 0 0 52 41 38 255
-0.456721 0.489147 3.64969 0 0 0 110 139 157 255
0.259094 0.533951 4.0879 0 0 0 43 49 49 255
0.337815 0.565153 4.11971 0 0 0 133 139 140 255
-0.837125 0.505672 3.55469 0 0 0 107 112 119 255
-0.807104 0.474313 3.53686 0 0 0 15 58 109 255
-0.692173 0.559315 3.5219 0 0 0 150 157 154 255
-0.609836 0.53944 3.53625 0 0 0 80 122 136 255
-0.453492 0.569818 3.65183 0 0 0 149 156 162 255
1.12889 0.604983 3.53107 0 0 0 131 142 120 255
1.21476 0.60151 3.51148 0 0 0 43 65 60 255
-0.838117 0.643601 3.56542 0 0 0 16 70 113 255
-0.519705 0.666896 3.6006 0 0 0 167 170 170 255
-0.412813 0.67848 3.81971 0 0 0 22 69 113 255
-0.627147 0.650829 3.53467 0 0 0 164 168 169 255
-0.612656 0.692122 3.53765 0 0 0 169 171 173 255
-0.869583 0.739571 3.59372 0 0 0 25 57 98 255
-0.711057 0.717047 3.52954 0 0 0 44 59 93 255
-0.719711 0.784481 3.53188 0 0 0 165 170 170 255
-0.412712 0.825269 3.71731 0 0 0 103 109 122 255
0.8636 0.857793 3.86185 0 0 0 111 97 100 255
-0.630495 0.869195 3.54075 0 0 0 140 151 163 255
0.942354 0.876572 3.45603 0 0 0 51 49 60 255
-0.50801 0.940529 3.5885 0 0 0 133 157 171 255
-0.825404 0.964375 3.5779 0 0 0 158 160 161 255
-0.476482 1.00698 3.65078 0 0 0 4 110 156 255
-0.472051 1.02304 3.6555 0 0 0 6 104 150 255
-0.577773 1.03791 3.54935 0 0 0 3 115 159 255
-0.80493 1.08978 3.57537 0 0 0 147 151 155 255
-0.724612 1.0644 3.54119 0 0 0 24 91 137 255
-0.436882 1.12602 3.66132 0 0 0 161 146 99 255
-0.819792 1.13169 3.5642 0 0 0 149 160 171 255
1.25038 1.07528 3.3471 0 0 0 68 84 92 255
-0.736089 1.15981 3.54839 0 0 0 40 85 131 255
-0.580775 1.16709 3.56787 0 0 0 173 164 128 255
-0.805247 1.2222 3.55649 0 0 0 108 137 156 255
-0.71937 -0.57438 3.48347 0 0 0 155 162 162 255
-0.509221 -0.57705 3.58747 0 0 0 153 159 157 255
-0.494969 -0.509741 3.60003 0 0 0 150 156 155 255
-0.729366 -0.402815 3.49429 0 0 0 157 162 160 255
-0.548622 -0.315903 3.5455 0 0 0 120 136 94 255
-0.655489 -0.276334 3.49969 0 0 0 132 142 120 255
-0.597494 -0.2017 3.52101 0 0 0 12 68 117 255
-0.521402 -0.164271 3.57584 0 0 0 163 141 53 255
-0.76095 -0.0829229 3.49741 0 0 0 136 133 134 255
-0.443374 -0.0219465 3.80575 0 0 0 59 104 80 255
0.0811441 0.0937182 4.30445 0 0 0 82 52 55 255
0.294577 0.0870583 4.29931 0 0 0 52 52 52 255
0.0879425 0.179347 4.30366 0 0 0 41 47 52 255
0.277519 0.185505 4.29697 0 0 0 53 54 52 255
0.216945 0.289639 4.26396 0 0 0 192 194 198 255
0.355575 0.337489 4.29978 0 0 0 53 57 63 255
0.119352 0.407927 4.12219 0 0 0 171 163 157 255
0.0743003 0.522615 4.10744 0 0 0 51 54 53 255
0.321237 0.524401 4.11292 0 0 0 120 122 123 255
-0.455063 0.497009 3.65145 0 0 0 139 156 164 255
0.188954 0.568379 4.08055 0 0 0 141 149 153 255
0.280454 0.555088 4.09712 0 0 0 41 49 55 255
-0.869825 0.517278 3.59123 0 0 0 138 116 107 255
1.07265 0.577335 3.79771 0 0 0 112 115 111 255
-0.421341 0.663584 3.7995 0 0 0 36 92 129 255
0.149876 0.729289 4.08973 0 0 0 115 95 72 255
0.228936 0.729385 4.08847 0 0 0 111 92 70 255
-0.884899 0.677237 3.61343 0 0 0 150 155 153 255
-0.613643 0.685394 3.5371 0 0 0 168 171 171 255
-0.490571 0.692818 3.61496 0 0 0 109 117 124 255
0.401384 0.840303 4.25422 0 0 0 50 55 59 255
-0.876432 0.747545 3.59944 0 0 0 27 58 94 255
0.130062 0.924252 4.13306 0 0 0 130 133 131 255
0.265261 0.919022 4.11899 0 0 0 137 141 140 255
0.860298 0.875308 3.8835 0 0 0 108 103 105 255
-0.418373 0.842196 3.7079 0 0 0 38 73 113 255
-0.473273 0.849551 3.64076 0 0 0 164 168 169 255
1.12259 0.806379 3.37078 0 0 0 85 89 86 255
-0.841088 0.961302 3.58503 0 0 0 158 161 160 255
-0.799581 0.947641 3.56155 0 0 0 154 155 157 255
-0.451283 1.01665 3.66449 0 0 0 18 90 137 255
-0.613414 1.00952 3.54888 0 0 0 152 155 163 255
-0.446543 1.06808 3.66214 0 0 0 140 122 113 255
-0.62033 -0.204987 3.50982 0 0 0 72 97 70 255
-0.461277 -0.0344683 3.75248 0 0 0 52 100 72 255
-0.71032 -0.00512891 3.50095 0 0 0 26 67 39 255
0.253245 0.0933371 4.25661 0 0 0 102 50 48 255
0.0556178 0.0807978 4.30981 0 0 0 106 103 104 255
0.251338 0.140332 4.2289 0 0 0 50 42 45 255
0.015021 0.324357 4.32187 0 0 0 61 64 67 255
0.343788 0.369109 4.29926 0 0 0 52 51 56 255
-0.450338 0.357556 3.79109 0 0 0 22 69 117 255
-0.815298 0.53947 3.5557 0 0 0 157 140 91 255
-0.4632 0.650272 3.6244 0 0 0 19 72 123 255
-0.785993 0.737078 3.55172 0 0 0 161 163 168 255
0.00638328 0.847633 4.29705 0 0 0 40 45 46 255
0.344324 0.828658 4.23366 0 0 0 39 44 46 255
-0.684181 0.722721 3.53327 0 0 0 35 66 115 255
-0.681869 0.786118 3.53342 0 0 0 41 68 109 255
0.192815 0.918996 4.09396 0 0 0 138 144 147 255
-0.425773 0.864762 3.68197 0 0 0 42 78 117 255
-0.743553 -0.82775 3.47582 0 0 0 122 130 124 255
-0.787624 -0.822077 3.47275 0 0 0 81 101 87 255
-0.760645 -0.820128 3.47833 0 0 0 145 146 145 255
-0.743073 -0.818149 3.47028 0 0 0 154 155 154 255
-0.831047 -0.819822 3.47995 0 0 0 80 106 89 255
-0.737488 -0.807822 3.48057 0 0 0 107 121 119 255
-0.683068 -0.80424 3.48884 0 0 0 53 76 70 255
-0.884126 -0.81479 3.49977 0 0 0 71 89 69 255
-0.804684 -0.809139 3.4866 0 0 0 136 137 135 255
-0.761798 -0.800851 3.47226 0 0 0 72 92 80 255
-0.74208 -0.800313 3.47184 0 0 0 120 120 120 255
-0.71325 -0.808226 3.48467 0 0 0 70 80 72 255
-0.670097 -0.804413 3.49199 0 0 0 141 139 137 255
-0.924948 -0.814023 3.51172 0 0 0 81 82 74 255
-0.903224 -0.805928 3.50603 0 0 0 53 51 49 255
-0.79461 -0.795348 3.47721 0 0 0 105 122 118 255
-0.964757 -0.815841 3.55414 0 0 0 116 115 113 255
-0.839971 -0.789978 3.48616 0 0 0 101 100 92 255
-0.870622 -0.78337 3.4966 0 0 0 83 96 91 255
-0.917375 -0.787795 3.51564 0 0 0 120 125 123 255
-0.633866 -0.753873 3.50512 0 0 0 155 149 137 255
-0.764779 -0.74056 3.47777 0 0 0 99 90 88 255
-0.820641 -0.727532 3.48331 0 0 0 81 56 56 255
-0.81417 -0.724911 3.48221 0 0 0 116 64 63 255
-0.896745 -0.72431 3.51184 0 0 0 68 54 52 255
-0.766097 -0.713129 3.47864 0 0 0 169 133 136 255
-0.860875 -0.714401 3.49489 0 0 0 86 71 73 255
-0.845041 -0.711992 3.49098 0 0 0 150 148 148 255
-0.806506 -0.70847 3.48212 0 0 0 158 147 151 255
-0.788033 -0.705058 3.48153 0 0 0 93 55 58 255
-0.951512 -0.717062 3.54721 0 0 0 73 52 49 255
-0.806885 -0.688681 3.48359 0 0 0 112 57 62 255
-0.759894 -0.684756 3.48016 0 0 0 128 41 45 255
-0.926319 -0.700988 3.53594 0 0 0 120 102 105 255
-0.836599 -0.675859 3.49217 0 0 0 109 49 54 255
-0.88753 -0.676245 3.51121 0 0 0 106 81 85 255
-0.940506 -0.612689 3.54982 0 0 0 120 121 114 255
-0.811306 -0.597157 3.49797 0 0 0 135 141 134 255
-0.793618 -0.59146 3.48345 0 0 0 149 156 155 255
-0.76222 -0.585037 3.4849 0 0 0 153 154 151 255
-0.903432 -0.565757 3.53447 0 0 0 113 123 116 255
-0.762686 -0.543709 3.48731 0 0 0 151 152 145 255
-0.936669 -0.537165 3.55149 0 0 0 51 78 71 255
-0.563153 -0.374465 3.54207 0 0 0 66 117 87 255
-0.621023 -0.359063 3.50852 0 0 0 68 112 88 255
-0.461757 -0.352584 3.77449 0 0 0 122 137 87 255
-0.886386 -0.33238 3.52123 0 0 0 125 125 120 255
-0.442981 -0.336316 3.78678 0 0 0 141 139 84 255
-0.87892 -0.303431 3.53201 0 0 0 136 137 134 255
-0.552586 -0.24433 3.54036 0 0 0 64 88 82 255
-0.6815 -0.191398 3.49571 0 0 0 79 109 55 255
-0.768274 -0.184496 3.4964 0 0 0 99 126 78 255
-0.869421 -0.173462 3.53438 0 0 0 130 134 118 255
-0.94205 -0.167583 3.60858 0 0 0 50 86 62 255
-0.949541 -0.134862 3.60236 0 0 0 93 99 102 255
-0.750646 -0.0975269 3.4958 0 0 0 110 104 113 255
-0.817365 -0.0894713 3.51096 0 0 0 77 99 82 255
-0.437184 -0.0686517 3.79065 0 0 0 132 133 86 255
-0.951867 0.0314068 3.62269 0 0 0 43 82 70 255
0.322616 0.0844632 4.29511 0 0 0 83 78 78 255
0.0500531 0.0973409 4.31127 0 0 0 106 107 108 255
0.254102 0.168677 4.292 0 0 0 107 113 112 255
0.172771 0.392348 4.1061 0 0 0 85 87 83 255
0.330492 0.416371 4.16795 0 0 0 92 100 105 255
0.435399 0.461934 4.2856 0 0 0 72 73 75 255
0.407063 0.488211 4.26116 0 0 0 71 75 82 255
-0.66688 0.452884 3.52117 0 0 0 34 55 81 255
-0.913377 0.480038 3.63303 0 0 0 91 108 132 255
-0.439511 0.499142 3.68228 0 0 0 111 75 98 255
-0.502615 0.515481 3.59601 0 0 0 52 77 110 255
-0.436379 0.52235 3.68046 0 0 0 115 91 111 255
-0.639163 0.51312 3.53043 0 0 0 66 104 99 255
-0.542189 0.516688 3.56928 0 0 0 52 82 113 255
1.35395 0.571508 3.77852 0 0 0 104 103 88 255
-0.466436 0.53801 3.62689 0 0 0 112 111 116 255
-0.416686 0.549308 3.72438 0 0 0 31 70 110 255
-0.448585 0.544982 3.65414 0 0 0 112 120 128 255
-0.435614 0.559185 3.6807 0 0 0 123 113 118 255
-0.522488 0.56353 3.58016 0 0 0 36 74 122 255
-0.487652 0.572036 3.60695 0 0 0 130 131 138 255
-0.648968 0.567584 3.52857 0 0 0 73 99 91 255
-0.629651 0.568803 3.531 0 0 0 72 104 102 255
-0.550889 0.57907 3.56101 0 0 0 36 87 128 255
-0.917465 0.592213 3.64357 0 0 0 91 103 131 255
1.32183 0.622576 3.51785 0 0 0 59 78 71 255
1.26015 0.649015 3.6511 0 0 0 92 128 124 255
1.34259 0.642356 3.51486 0 0 0 99 98 81 255
1.06124 0.656753 3.5684 0 0 0 139 120 124 255
-0.913169 0.649923 3.63675 0 0 0 111 123 144 255
1.18328 0.668433 3.52608 0 0 0 146 150 151 255
1.19161 0.682235 3.53185 0 0 0 77 91 84 255
1.15032 0.681605 3.49387 0 0 0 108 76 73 255
-0.416408 0.71525 3.70912 0 0 0 109 112 121 255
1.33461 0.695379 3.48874 0 0 0 30 49 43 255
-0.895204 0.706965 3.61475 0 0 0 111 107 119 255
-0.414318 0.748829 3.71162 0 0 0 85 95 108 255
1.1268 0.716873 3.46972 0 0 0 91 88 97 255
1.24561 0.731925 3.51926 0 0 0 119 93 91 255
-0.897454 0.742107 3.60931 0 0 0 102 115 129 255
1.14119 0.744281 3.44263 0 0 0 123 110 113 255
1.06766 0.762679 3.45756 0 0 0 155 149 151 255
-0.888241 0.782405 3.58727 0 0 0 103 104 107 255
1.38735 0.771968 3.39218 0 0 0 136 139 111 255
1.05842 0.786889 3.44449 0 0 0 118 110 113 255
1.03477 0.794779 3.44357 0 0 0 136 111 108 255
0.46826 1.08918 4.86494 0 0 0 155 151 147 255
1.16802 0.801662 3.38824 0 0 0 150 151 157 255
0.264287 0.950835 4.12026 0 0 0 94 96 97 255
0.209434 0.963579 4.0957 0 0 0 101 107 106 255
0.468546 1.11452 4.77564 0 0 0 112 112 112 255
0.838491 0.925037 3.85452 0 0 0 174 175 171 255
-0.488001 0.894418 3.60565 0 0 0 69 95 137 255
1.35537 0.874971 3.3131 0 0 0 96 102 111 255
-0.614288 0.936358 3.54681 0 0 0 116 132 170 255
1.05075 0.922265 3.3969 0 0 0 101 100 100 255
0.940473 0.948034 3.47746 0 0 0 90 90 92 255
-0.42239 1.02764 3.66872 0 0 0 28 76 121 255
1.26431 0.947896 3.30647 0 0 0 119 104 97 255
1.10586 0.966237 3.36926 0 0 0 95 84 81 255
0.269874 1.18094 4.12778 0 0 0 96 97 98 255
1.13804 1.01652 3.35434 0 0 0 135 132 116 255
1.2328 1.0026 3.3016 0 0 0 111 86 81 255
1.33903 1.00563 3.21927 0 0 0 114 112 111 255
1.2693 1.04143 3.26986 0 0 0 134 140 143 255
1.27162 1.08861 3.25444 0 0 0 125 129 135 255
-0.46073 1.21961 3.64439 0 0 0 118 123 145 255
-0.73746 1.21273 3.50486 0 0 0 37 87 124 255
-0.713344 1.22678 3.49866 0 0 0 80 103 141 255
-0.987485 -0.896753 3.55302 0 0 0 37 73 61 255
-0.756958 -0.804633 3.47392 0 0 0 77 92 84 255
-0.79497 -0.80216 3.47322 0 0 0 137 139 139 255
-0.769136 -0.73172 3.47733 0 0 0 112 42 50 255
-0.823055 -0.725929 3.48476 0 0 0 81 56 56 255
-0.846369 -0.721773 3.4906 0 0 0 156 141 140 255
-0.762001 -0.714559 3.47837 0 0 0 167 148 150 255
-0.894385 -0.72276 3.5104 0 0 0 68 54 52 255
-0.763439 -0.687707 3.47985 0 0 0 124 37 45 255
-0.913659 -0.696372 3.51872 0 0 0 146 130 132 255
-0.802884 -0.590537 3.47785 0 0 0 143 146 139 255
-0.761066 -0.545976 3.48758 0 0 0 151 151 151 255
-0.904105 -0.555971 3.53435 0 0 0 135 134 131 255
-0.45849 -0.347395 3.77847 0 0 0 137 138 81 255
-0.66563 -0.183479 3.49771 0 0 0 152 155 132 255
-0.870186 -0.171476 3.53476 0 0 0 130 134 118 255
-0.813957 -0.0864979 3.51061 0 0 0 57 96 62 255
-0.866592 -0.0749332 3.53859 0 0 0 132 124 125 255
-0.43739 -0.0743819 3.78972 0 0 0 133 134 86 255
0.0642475 0.0611261 4.30708 0 0 0 152 154 153 255
0.304862 0.246002 4.3131 0 0 0 100 102 104 255
-0.949785 0.340314 3.65861 0 0 0 40 57 77 255
0.326118 0.480289 4.11476 0 0 0 87 85 82 255
-0.668793 0.456067 3.52112 0 0 0 34 55 81 255
0.238946 0.517112 4.07845 0 0 0 120 122 122 255
-0.87377 0.48107 3.58905 0 0 0 97 119 139 255
-0.503686 0.477173 3.59394 0 0 0 79 106 139 255
0.239637 0.550409 4.07847 0 0 0 58 52 57 255
-0.694917 0.519353 3.52095 0 0 0 138 138 123 255
-0.417157 0.547878 3.72353 0 0 0 31 70 110 255
-0.494105 0.599233 3.60683 0 0 0 50 109 151 255
1.34819 0.646268 3.51756 0 0 0 91 104 95 255
-0.897788 0.657266 3.62484 0 0 0 126 134 138 255
1.33221 0.683366 3.4925 0 0 0 37 44 39 255
1.24092 0.73104 3.51138 0 0 0 120 89 88 255
1.3625 0.82381 3.36138 0 0 0 98 91 91 255
0.839174 0.92493 3.85442 0 0 0 166 167 163 255
-0.651807 1.06433 3.52891 0 0 0 31 97 139 255
-0.875028 -0.806873 3.48151 0 0 0 94 108 90 255
-0.756 -0.72718 3.479 0 0 0 167 144 144 255
-0.699273 -0.690667 3.48583 0 0 0 146 83 90 255
-0.822241 -0.68981 3.48632 0 0 0 117 34 34 255
-0.957762 -0.629228 3.55855 0 0 0 52 81 44 255
-0.800659 -0.579458 3.47891 0 0 0 154 154 151 255
-0.493168 -0.570855 3.61201 0 0 0 152 158 157 255
-0.953546 -0.582929 3.54747 0 0 0 59 81 73 255
-0.904776 -0.538678 3.53423 0 0 0 139 139 139 255
-0.927166 -0.534037 3.54375 0 0 0 36 64 53 255
-0.888999 -0.486022 3.51742 0 0 0 135 140 132 255
-0.749693 -0.411016 3.49105 0 0 0 158 158 158 255
-0.45844 -0.347479 3.77869 0 0 0 137 138 81 255
-0.886148 -0.321874 3.5391 0 0 0 137 140 126 255
-0.661226 -0.231894 3.49798 0 0 0 11 86 129 255
-0.610193 -0.18807 3.51655 0 0 0 10 70 118 255
-0.93964 -0.182876 3.59412 0 0 0 56 85 45 255
-0.509789 -0.157819 3.57989 0 0 0 164 141 61 255
-0.937683 -0.0645609 3.61207 0 0 0 42 80 53 255
0.261622 0.0768775 4.26605 0 0 0 48 44 45 255
0.261775 0.172521 4.30505 0 0 0 101 107 116 255
0.304814 0.244248 4.31322 0 0 0 100 102 104 255
0.134245 0.404537 4.11963 0 0 0 125 122 114 255
-0.49387 0.488092 3.60522 0 0 0 99 140 166 255
-0.428036 0.493223 3.72343 0 0 0 86 122 150 255
0.255103 0.55319 4.08657 0 0 0 43 49 54 255
-0.862225 0.497836 3.58003 0 0 0 113 126 133 255
-0.414561 0.533693 3.73651 0 0 0 80 119 145 255
1.25843 0.66167 3.6628 0 0 0 118 146 146 255
0.243477 0.75581 4.08844 0 0 0 75 68 65 255
1.2032 0.682212 3.55331 0 0 0 62 96 84 255
-0.897725 0.71493 3.61406 0 0 0 62 64 81 255
-0.500185 0.709985 3.61004 0 0 0 165 168 167 255
1.24208 0.726811 3.52527 0 0 0 129 88 88 255
-0.631676 0.725819 3.53584 0 0 0 162 163 170 255
-0.461014 0.789814 3.64916 0 0 0 46 60 86 255
-0.420944 0.802343 3.6987 0 0 0 155 158 167 255
-0.899221 0.825867 3.60892 0 0 0 32 61 92 255
1.24122 0.81029 3.37106 0 0 0 141 142 146 255
-0.526935 0.862531 3.57076 0 0 0 167 171 169 255
-0.70239 0.86393 3.53424 0 0 0 47 70 107 255
0.827589 0.9455 3.8251 0 0 0 171 175 173 255
-0.804658 0.895901 3.56251 0 0 0 46 63 92 255
1.29156 0.897217 3.30702 0 0 0 74 64 68 255
0.42357 1.29771 4.36157 0 0 0 125 128 127 255
1.25506 1.02188 3.27535 0 0 0 92 111 121 255
1.29966 1.09561 3.25538 0 0 0 71 66 74 255
-0.798116 -0.810458 3.48024 0 0 0 146 149 147 255
-0.761339 -0.712996 3.47866 0 0 0 167 148 150 255
-0.547216 -0.508531 3.5567 0 0 0 35 85 74 255
-0.917186 -0.502653 3.53921 0 0 0 35 76 55 255
-0.615956 -0.423366 3.50894 0 0 0 161 162 166 255
-0.561132 -0.330261 3.54527 0 0 0 114 129 89 255
-0.459081 -0.351397 3.7778 0 0 0 137 138 81 255
-0.645117 -0.296556 3.50383 0 0 0 137 145 126 255
-0.943342 -0.197255 3.59734 0 0 0 50 81 50 255
-0.668993 -0.177578 3.49813 0 0 0 156 155 121 255
-0.439402 -0.078708 3.7897 0 0 0 133 134 86 255
-0.938758 0.00476687 3.62203 0 0 0 26 54 40 255
0.157885 0.0774349 4.23435 0 0 0 52 56 70 255
0.139445 0.300837 4.22569 0 0 0 133 140 140 255
-0.941497 0.347284 3.65742 0 0 0 21 54 89 255
0.127478 0.418655 4.12068 0 0 0 140 119 104 255
0.0721669 0.497308 4.10744 0 0 0 49 59 63 255
0.419956 0.556312 4.33161 0 0 0 70 68 64 255
0.179437 0.554093 4.07957 0 0 0 143 147 149 255
-0.434193 0.501266 3.69257 0 0 0 117 90 107 255
0.233014 0.576281 4.07962 0 0 0 146 150 152 255
-0.837212 0.52325 3.56229 0 0 0 163 145 122 255
0.111115 0.605768 4.09599 0 0 0 126 125 126 255
-0.648665 0.535979 3.52821 0 0 0 41 101 92 255
-0.592187 0.555313 3.54248 0 0 0 112 152 172 255
-0.842484 0.572102 3.57095 0 0 0 161 131 97 255
1.14303 0.618857 3.56397 0 0 0 125 134 110 255
1.26021 0.663712 3.66512 0 0 0 125 149 149 255
-0.88544 0.723709 3.60492 0 0 0 46 58 84 255
-0.637068 0.727839 3.53551 0 0 0 142 138 162 255
1.25527 0.759998 3.48864 0 0 0 158 158 156 255
-0.725553 0.770164 3.52972 0 0 0 164 165 164 255
1.34382 0.8025 3.36176 0 0 0 155 147 149 255
1.38689 0.804651 3.37204 0 0 0 50 72 62 255
-0.704583 0.851786 3.53382 0 0 0 86 96 104 255
-0.732219 0.891225 3.53627 0 0 0 171 168 169 255
-0.614436 0.896688 3.54483 0 0 0 170 170 170 255
-0.512708 0.922206 3.58583 0 0 0 88 101 126 255
-0.432551 1.12144 3.6755 0 0 0 174 154 94 255
-0.782966 1.12501 3.50489 0 0 0 152 157 158 255
-0.843536 -0.72446 3.49038 0 0 0 146 145 136 255
-0.569083 -0.537872 3.54486 0 0 0 159 160 155 255
-0.504932 -0.525077 3.58963 0 0 0 156 161 159 255
-0.750816 -0.502971 3.50704 0 0 0 56 99 52 255
-0.601447 -0.492154 3.55964 0 0 0 159 161 162 255
-0.737021 -0.389919 3.49298 0 0 0 157 161 162 255
-0.867342 -0.3402 3.52978 0 0 0 147 148 147 255
-0.524612 -0.00990969 3.55063 0 0 0 42 100 68 255
-0.464033 -9.32534e-06 3.84818 0 0 0 88 117 107 255
0.293546 0.135888 4.30682 0 0 0 52 49 47 255
0.2923 0.174494 4.308 0 0 0 65 69 73 255
0.106767 0.188181 4.28112 0 0 0 49 54 52 255
0.0154888 0.350846 4.32127 0 0 0 46 52 57 255
-0.458888 0.348598 3.87272 0 0 0 14 62 108 255
-0.543859 0.436001 3.56265 0 0 0 99 84 60 255
0.304457 0.545587 4.11132 0 0 0 148 148 152 255
0.0771263 0.577518 4.1072 0 0 0 59 65 64 255
-0.815529 0.526127 3.55585 0 0 0 159 142 91 255
-0.4292 0.537385 3.69133 0 0 0 158 134 144 255
1.24642 0.615912 3.60443 0 0 0 40 56 51 255
1.15488 0.622928 3.5399 0 0 0 139 144 149 255
1.34667 0.658864 3.5013 0 0 0 161 156 134 255
-0.476419 0.692141 3.62044 0 0 0 27 68 114 255
1.2631 0.695585 3.65694 0 0 0 134 152 151 255
-0.423391 0.716862 3.6845 0 0 0 156 158 158 255
-0.671067 0.729539 3.53309 0 0 0 31 69 117 255
0.353009 0.842156 4.23167 0 0 0 35 42 43 255
0.15991 0.910087 4.08963 0 0 0 128 128 128 255
0.284365 0.917669 4.1282 0 0 0 133 134 131 255
-0.899349 0.835009 3.6109 0 0 0 31 63 91 255
-0.501751 0.847169 3.60599 0 0 0 167 170 173 255
-0.617662 0.879285 3.54412 0 0 0 166 171 173 255
-0.780544 0.919582 3.56111 0 0 0 166 166 166 255
-0.46631 1.00817 3.66126 0 0 0 1 97 146 255
-0.646006 -0.259704 3.50243 0 0 0 125 141 113 255
-0.634107 -0.214746 3.50391 0 0 0 46 98 129 255
-0.521223 -0.145501 3.57701 0 0 0 167 133 44 255
-0.459805 -0.021021 3.77181 0 0 0 45 96 67 255
0.0714322 0.11775 4.30632 0 0 0 83 51 48 255
0.266691 0.141397 4.28749 0 0 0 44 42 43 255
0.193779 0.292697 4.26636 0 0 0 177 178 178 255
-0.461103 0.348213 3.86959 0 0 0 13 62 109 255
-0.0389269 0.422568 4.3241 0 0 0 117 118 116 255
0.338991 0.34879 4.29501 0 0 0 47 53 58 255
0.302162 0.574342 4.11153 0 0 0 146 147 147 255
-0.458097 0.550567 3.63799 0 0 0 158 155 160 255
0.0128875 0.673871 4.23761 0 0 0 33 39 42 255
1.2544 0.624488 3.61689 0 0 0 43 63 59 255
-0.480024 0.689106 3.61853 0 0 0 34 64 115 255
1.24554 0.748116 3.49775 0 0 0 145 134 131 255
1.33292 0.743824 3.49625 0 0 0 45 86 73 255
-0.680476 0.798797 3.53411 0 0 0 42 66 112 255
0.261072 0.951453 4.11953 0 0 0 119 122 122 255
-2.69922 -1.55238 5.21984 0 0 0 81 80 77 255
-0.772194 -0.799305 3.45973 0 0 0 47 74 67 255
-0.788889 -0.735449 3.47967 0 0 0 139 145 120 255
-0.56344 -0.723801 3.54488 0 0 0 111 48 54 255
-0.864568 -0.68895 3.50113 0 0 0 166 132 136 255
-0.522455 -0.566821 3.56882 0 0 0 155 160 158 255
-0.888314 -0.464544 3.51028 0 0 0 126 144 126 255
-0.728746 -0.329377 3.49186 0 0 0 88 129 88 255
-0.945019 -0.304842 3.58256 0 0 0 109 122 110 255
-0.591687 -0.283438 3.52802 0 0 0 36 93 130 255
-0.622016 -0.186508 3.5106 0 0 0 13 71 115 255
-0.816232 -0.161654 3.5057 0 0 0 67 103 56 255
-0.843818 -0.12754 3.51715 0 0 0 137 82 100 255
-0.856627 -0.095835 3.52888 0 0 0 133 116 121 255
-0.925766 -0.080511 3.59222 0 0 0 54 88 66 255
-0.984967 -0.0623067 3.66602 0 0 0 96 110 105 255
0.158782 0.0993924 4.23375 0 0 0 147 86 84 255
0.15928 0.104939 4.23276 0 0 0 138 94 88 255
-2.90206 0.313618 5.37337 0 0 0 79 89 88 255
-2.93407 0.373307 5.60624 0 0 0 93 95 94 255
-2.73385 0.371996 5.60679 0 0 0 41 43 44 255
-0.409819 0.317865 3.8393 0 0 0 98 104 111 255
-0.932121 0.386319 3.66912 0 0 0 58 81 107 255
-0.538511 0.419379 3.56791 0 0 0 32 46 70 255
-0.441743 0.482449 3.69533 0 0 0 92 135 172 255
-0.516665 0.481737 3.58346 0 0 0 14 74 127 255
-0.488148 0.554094 3.60799 0 0 0 159 164 164 255
-0.627114 0.588671 3.53184 0 0 0 117 132 139 255
0.16585 0.735372 4.084 0 0 0 113 89 56 255
1.06896 0.675201 3.34622 0 0 0 98 91 96 255
-2.69116 1.23995 5.21681 0 0 0 111 111 106 255
0.88924 1.24442 5.7107 0 0 0 130 124 120 255
-0.793034 0.889608 3.56391 0 0 0 47 69 107 255
-2.5124 1.22159 4.74547 0 0 0 55 89 57 255
-2.56219 1.26259 4.95212 0 0 0 33 34 38 255
-0.595357 0.90299 3.55562 0 0 0 166 167 167 255
-2.52856 1.28006 4.84481 0 0 0 73 75 73 255
-2.44582 1.23942 4.60058 0 0 0 94 131 122 255
-0.898543 0.975926 3.6247 0 0 0 138 140 150 255
-0.670388 0.949777 3.54023 0 0 0 71 110 153 255
-2.31218 1.28906 4.54972 0 0 0 79 82 84 255
-2.70331 -1.54699 5.19821 0 0 0 86 79 77 255
-0.522681 -0.566981 3.56883 0 0 0 155 160 158 255
-0.518369 -0.464374 3.58134 0 0 0 38 84 78 255
-0.940258 -0.316842 3.57227 0 0 0 121 136 126 255
-0.820261 -0.166803 3.50637 0 0 0 62 101 56 255
-0.956542 0.0191407 3.62631 0 0 0 61 80 75 255
-2.90237 0.308653 5.3717 0 0 0 79 89 88 255
-0.45885 0.47147 3.65782 0 0 0 89 112 139 255
0.213519 0.511811 4.07557 0 0 0 66 72 77 255
0.193669 0.524721 4.07909 0 0 0 49 46 41 255
-0.471141 0.601553 3.63458 0 0 0 18 84 131 255
-0.902675 0.757883 3.61689 0 0 0 128 132 145 255
-0.893293 0.770826 3.59986 0 0 0 143 145 142 255
-0.408758 0.809872 3.74387 0 0 0 147 153 167 255
-2.6906 1.24012 5.21598 0 0 0 111 111 106 255
-2.50591 1.15601 4.73878 0 0 0 89 104 96 255
0.880568 1.23905 5.4321 0 0 0 124 121 116 255
-2.54718 1.26434 4.97518 0 0 0 116 116 119 255
-2.63687 -1.55989 5.27794 0 0 0 91 94 97 255
-2.70478 -1.52916 5.20584 0 0 0 88 88 88 255
-0.997478 -0.91446 3.5875 0 0 0 62 81 74 255
-0.930436 -0.799441 3.52831 0 0 0 105 109 108 255
-0.861301 -0.687209 3.49906 0 0 0 166 132 136 255
-0.936091 -0.523928 3.55557 0 0 0 34 71 56 255
-0.432718 0.332441 3.80894 0 0 0 45 64 89 255
-0.462589 0.474017 3.64896 0 0 0 95 125 147 255
-0.480892 0.467916 3.61388 0 0 0 6 75 127 255
-0.483138 0.537668 3.61156 0 0 0 132 138 145 255
-0.897723 0.668209 3.61999 0 0 0 147 148 146 255
-0.446185 0.713177 3.64526 0 0 0 161 164 166 255
-2.7097 1.11826 5.276 0 0 0 45 45 44 255
-0.477803 0.76564 3.63795 0 0 0 166 169 170 255
-0.406133 0.797709 3.7472 0 0 0 148 150 152 255
-2.67219 1.16581 5.24545 0 0 0 118 116 110 255
-2.53961 1.2386 5.11992 0 0 0 54 52 53 255
1.03939 0.756138 3.21515 0 0 0 146 149 158 255
-2.5379 1.2883 4.91812 0 0 0 115 118 119 255
-0.686056 -0.393775 3.49447 0 0 0 157 162 160 255
-0.607635 -0.248852 3.51862 0 0 0 16 91 135 255
-0.48158 0.837758 3.63484 0 0 0 166 170 170 255
-0.520878 0.855605 3.57783 0 0 0 169 173 172 255
-0.732137 0.904654 3.53907 0 0 0 167 169 168 255
-2.54179 1.28269 4.91588 0 0 0 96 99 99 255
-0.703315 -0.567147 3.48811 0 0 0 158 161 160 255
-0.508639 -0.541147 3.58475 0 0 0 156 161 159 255
-0.729881 -0.516749 3.48589 0 0 0 51 99 58 255
-0.599656 -0.438732 3.51254 0 0 0 160 162 161 255
-0.853382 -0.355341 3.50254 0 0 0 147 149 148 255
-0.943327 -0.213148 3.59155 0 0 0 54 86 46 255
-0.60764 -0.204539 3.51845 0 0 0 19 75 113 255
0.285693 0.0995696 4.29466 0 0 0 102 58 56 255
0.0768447 0.145771 4.3034 0 0 0 42 44 46 255
0.185507 0.228693 4.24936 0 0 0 151 151 151 255
0.182293 0.301839 4.25679 0 0 0 163 165 167 255
-0.43399 0.341353 3.80951 0 0 0 22 64 109 255
-0.939294 0.359786 3.67109 0 0 0 39 71 102 255
0.410179 0.411862 4.29455 0 0 0 94 84 76 255
-0.665787 0.438087 3.52233 0 0 0 130 122 91 255
-0.450894 0.483857 3.67087 0 0 0 94 128 153 255
0.0651284 0.513631 4.10969 0 0 0 111 117 118 255
0.281979 0.540444 4.09624 0 0 0 41 47 52 255
0.324803 0.545142 4.11208 0 0 0 140 144 147 255
-0.820944 0.682108 3.56291 0 0 0 157 159 160 255
-0.722841 0.687276 3.52936 0 0 0 164 169 167 255
-0.614468 0.654607 3.53574 0 0 0 165 168 167 255
0.38598 0.837821 4.25147 0 0 0 40 49 48 255
0.0292289 0.841168 4.18556 0 0 0 40 42 41 255
0.928812 0.736688 3.51225 0 0 0 115 49 48 255
-0.493514 0.847778 3.61958 0 0 0 165 170 172 255
-0.709525 -0.408479 3.49712 0 0 0 158 161 161 255
-0.733751 -0.358625 3.4925 0 0 0 65 86 82 255
-0.933124 -0.0109356 3.63065 0 0 0 42 67 50 255
0.0406239 0.144877 4.31284 0 0 0 152 152 152 255
-0.0238003 0.355834 4.33018 0 0 0 154 155 152 255
-0.942789 0.426591 3.67898 0 0 0 17 56 94 255
0.142933 0.55435 4.08445 0 0 0 143 140 143 255
-0.783702 0.537468 3.53786 0 0 0 157 149 98 255
1.06074 0.578196 3.80675 0 0 0 133 133 127 255
-0.788027 0.697451 3.54507 0 0 0 160 162 161 255
-0.457098 0.72103 3.63327 0 0 0 26 64 109 255
-0.680821 0.743067 3.53449 0 0 0 34 65 112 255
-0.426002 0.910369 3.80939 0 0 0 14 79 128 255
0.204677 0.885748 4.14388 0 0 0 120 95 63 255
0.234683 0.914876 4.09981 0 0 0 133 135 134 255
-0.872175 -0.793157 3.49457 0 0 0 56 66 63 255
-0.973622 -0.798896 3.57876 0 0 0 98 111 100 255
-0.684115 -0.744323 3.48917 0 0 0 144 71 76 255
-0.872899 -0.730242 3.50173 0 0 0 122 115 118 255
-0.98138 -0.692433 3.57273 0 0 0 75 43 40 255
-0.93791 -0.679792 3.54792 0 0 0 104 54 62 255
-0.9364 -0.562589 3.54972 0 0 0 113 124 120 255
-2.84893 0.288836 5.20791 0 0 0 91 92 92 255
-2.81335 0.332118 5.13914 0 0 0 88 81 84 255
0.202663 0.396068 4.1027 0 0 0 137 118 86 255
0.413977 0.504387 4.22207 0 0 0 75 86 89 255
-0.516024 0.446136 3.5778 0 0 0 61 47 48 255
-0.876625 0.660928 3.61252 0 0 0 28 65 105 255
0.19778 0.716633 4.09109 0 0 0 94 86 69 255
-2.59586 0.997558 4.7181 0 0 0 26 41 38 255
0.221483 0.7431 4.08987 0 0 0 123 93 56 255
-2.60048 1.02505 4.73652 0 0 0 33 44 45 255
-2.59584 1.09616 4.74009 0 0 0 93 124 116 255
-2.64966 1.27613 5.12154 0 0 0 113 115 116 255
0.829365 1.21988 5.61268 0 0 0 126 119 112 255
-2.56873 1.22233 4.88122 0 0 0 90 108 103 255
0.956156 0.725616 3.53424 0 0 0 81 69 64 255
0.709766 1.28011 5.65306 0 0 0 131 125 123 255
0.46396 1.00523 4.4448 0 0 0 96 90 83 255
0.514239 1.04841 4.63965 0 0 0 110 108 102 255
0.872507 0.869896 4.01011 0 0 0 173 173 170 255
0.327161 0.94371 4.14331 0 0 0 79 85 90 255
0.293104 0.946549 4.13037 0 0 0 93 95 98 255
0.158336 0.95827 4.1158 0 0 0 80 87 84 255
0.240222 0.944771 4.10644 0 0 0 103 107 107 255
0.292979 0.956266 4.12993 0 0 0 88 90 92 255
0.858684 0.888428 3.96298 0 0 0 168 168 168 255
0.933873 0.796581 3.53163 0 0 0 142 136 134 255
-0.523054 0.934633 3.58229 0 0 0 66 102 137 255
-2.84359 0.287362 5.19623 0 0 0 91 92 92 255
-2.88342 0.303355 5.29846 0 0 0 94 93 91 255
0.0280736 0.599305 4.13808 0 0 0 106 110 109 255
-0.57564 0.584915 3.55028 0 0 0 94 141 164 255
0.205552 0.720585 4.09193 0 0 0 102 87 63 255
-2.58899 0.97885 4.72483 0 0 0 123 142 138 255
-2.5985 1.00438 4.72052 0 0 0 22 37 35 255
-2.60476 1.04242 4.71931 0 0 0 106 113 113 255
-2.59677 1.06096 4.77491 0 0 0 126 133 132 255
0.94197 0.732222 3.54001 0 0 0 97 51 50 255
0.8744 0.868578 4.02374 0 0 0 177 175 171 255
0.715501 1.29282 5.67515 0 0 0 115 110 100 255
0.455754 1.01071 4.41478 0 0 0 145 148 147 255
0.896993 0.785389 3.54714 0 0 0 121 123 110 255
-0.90385 0.967099 3.62704 0 0 0 152 151 154 255
-1.01487 -0.793778 3.65659 0 0 0 50 77 51 255
-2.88812 0.314111 5.27462 0 0 0 90 88 85 255
-3.01554 0.384468 5.68681 0 0 0 101 101 99 255
0.314143 0.257862 4.28977 0 0 0 104 102 105 255
0.233563 0.437267 4.10084 0 0 0 79 62 57 255
-2.56649 0.726476 4.8033 0 0 0 149 153 152 255
0.252948 0.524734 4.0881 0 0 0 52 44 41 255
0.0283619 0.597986 4.13808 0 0 0 106 110 109 255
0.336262 0.595042 4.1242 0 0 0 35 42 48 255
-0.606978 0.56425 3.53794 0 0 0 146 163 170 255
-0.88859 0.582948 3.60256 0 0 0 134 104 98 255
-2.62476 0.901597 4.90779 0 0 0 88 107 95 255
-0.892975 0.638423 3.61244 0 0 0 97 110 128 255
-2.58805 0.984218 4.73525 0 0 0 139 139 139 255
-0.560825 0.758906 3.56514 0 0 0 76 96 124 255
-0.663724 0.802505 3.53313 0 0 0 168 170 169 255
0.882247 0.864412 4.06793 0 0 0 174 175 170 255
1.02095 1.24795 5.61548 0 0 0 126 117 107 255
0.517891 1.04825 4.65962 0 0 0 149 147 142 255
0.73006 1.29624 5.69319 0 0 0 112 105 103 255
-2.35208 1.20764 4.45049 0 0 0 136 135 138 255
0.901235 0.784122 3.52892 0 0 0 136 133 127 255
-0.726196 -0.591842 3.503 0 0 0 157 162 160 255
-0.806475 -0.567959 3.48401 0 0 0 155 156 153 255
-0.947118 -0.0410114 3.62199 0 0 0 23 51 30 255
0.0599697 0.192968 4.31451 0 0 0 70 68 69 255
0.287706 0.242311 4.28705 0 0 0 101 104 104 255
-2.51378 0.365176 4.64938 0 0 0 88 89 89 255
0.139027 0.285167 4.2206 0 0 0 140 142 142 255
0.172447 0.543606 4.08094 0 0 0 143 147 149 255
-0.865094 0.57741 3.59282 0 0 0 153 129 108 255
0.23724 0.686281 4.08462 0 0 0 113 91 69 255
-0.506748 0.664872 3.60447 0 0 0 165 170 168 255
-0.640263 0.709515 3.53389 0 0 0 74 100 142 255
-0.714208 0.759022 3.53296 0 0 0 167 169 168 255
0.739386 1.29949 5.69077 0 0 0 108 102 99 255
1.01731 1.25484 5.62441 0 0 0 129 121 115 255
-1.04727 -0.906655 3.72875 0 0 0 27 53 37 255
-0.965567 -0.593214 3.56215 0 0 0 47 82 47 255
-0.70947 -0.581501 3.49411 0 0 0 159 162 162 255
-0.506224 -0.506728 3.58787 0 0 0 155 159 158 255
-0.696805 -0.0798421 3.49431 0 0 0 58 106 65 255
-2.90427 0.403186 5.88017 0 0 0 31 34 34 255
0.163546 0.243467 4.25055 0 0 0 114 116 115 255
0.190971 0.262802 4.26309 0 0 0 123 128 131 255
-0.828849 0.55443 3.56259 0 0 0 156 150 133 255
-0.710547 0.570379 3.5245 0 0 0 117 132 105 255
-0.51503 0.65603 3.60454 0 0 0 162 170 167 255
-0.925519 0.694734 3.63507 0 0 0 22 55 93 255
-1.00044 -0.78597 3.62716 0 0 0 43 70 43 255
-0.946861 0.00922744 3.67289 0 0 0 42 79 59 255
0.00551369 0.369829 4.31693 0 0 0 49 50 50 255
-0.883418 0.34331 3.59566 0 0 0 30 62 98 255
-0.961267 -0.810455 3.5438 0 0 0 96 106 98 255
-0.935324 -0.784572 3.53142 0 0 0 99 102 101 255
-0.826555 -0.739626 3.48385 0 0 0 88 52 48 255
-0.812633 -0.737866 3.48164 0 0 0 150 116 116 255
-0.906457 -0.718989 3.51748 0 0 0 84 37 38 255
-0.67817 -0.704611 3.4884 0 0 0 119 56 61 255
-0.939122 -0.720075 3.53832 0 0 0 83 64 62 255
-0.994343 -0.728988 3.58296 0 0 0 86 49 48 255
-0.94504 -0.700133 3.54448 0 0 0 144 98 105 255
-0.89278 -0.688924 3.51035 0 0 0 150 113 114 255
-0.97315 -0.702191 3.56284 0 0 0 143 89 97 255
-0.963957 -0.561227 3.5673 0 0 0 81 93 81 255
-0.877552 -0.49682 3.5195 0 0 0 145 147 146 255
-0.896975 -0.467814 3.5269 0 0 0 128 137 131 255
-0.891617 -0.336815 3.53518 0 0 0 108 121 99 255
-0.550124 -0.161654 3.555 0 0 0 124 104 27 255
-0.531054 -0.16278 3.57979 0 0 0 132 117 43 255
-0.953999 -0.170144 3.6061 0 0 0 116 124 114 255
-0.911213 -0.16085 3.56136 0 0 0 61 92 51 255
-0.616431 -0.149935 3.51681 0 0 0 84 76 50 255
-0.842663 -0.140594 3.51866 0 0 0 133 109 115 255
-0.935712 -0.138465 3.58379 0 0 0 75 79 85 255
-0.937813 -0.124366 3.58895 0 0 0 65 72 85 255
-0.976873 -0.105744 3.6547 0 0 0 121 126 125 255
-0.9489 -0.0928359 3.6062 0 0 0 74 77 86 255
-0.910707 -0.0822817 3.56703 0 0 0 63 89 75 255
-0.952689 -0.0721496 3.61769 0 0 0 113 120 116 255
-0.561818 0.101861 3.6311 0 0 0 108 104 101 255
-0.617033 0.132105 3.71121 0 0 0 214 213 216 255
-0.902538 0.353371 3.59603 0 0 0 64 89 117 255
-0.898344 0.379716 3.59111 0 0 0 57 80 105 255
-0.0413725 0.489937 4.32134 0 0 0 91 92 92 255
-0.50347 0.453244 3.59274 0 0 0 101 95 115 255
-0.680755 0.453243 3.52171 0 0 0 105 92 50 255
-0.895122 0.472285 3.59898 0 0 0 79 106 131 255
-0.0349909 0.598902 4.29754 0 0 0 102 101 102 255
-0.682897 0.515304 3.52509 0 0 0 104 124 114 255
-0.850671 0.590784 3.57001 0 0 0 139 127 117 255
-0.833935 0.589979 3.56208 0 0 0 112 111 110 255
-0.911753 0.672057 3.61226 0 0 0 99 103 120 255
0.947825 0.732944 3.6175 0 0 0 150 143 128 255
-0.908571 0.730301 3.6139 0 0 0 119 136 167 255
-0.898635 0.803132 3.60977 0 0 0 141 143 156 255
0.984544 1.24634 5.51802 0 0 0 112 105 97 255
1.03348 1.21982 5.39417 0 0 0 133 129 121 255
0.866668 1.24757 5.49067 0 0 0 110 108 108 255
0.24424 0.967188 4.11343 0 0 0 100 103 104 255
0.933659 0.88196 3.62748 0 0 0 81 111 124 255
-0.863397 0.874458 3.59482 0 0 0 82 89 94 255
0.954225 0.908751 3.60618 0 0 0 58 68 78 255
0.270273 1.17175 4.10523 0 0 0 108 109 106 255
0.887879 1.08894 3.66736 0 0 0 102 111 113 255
-0.685483 1.05645 3.53143 0 0 0 57 107 142 255
-0.815523 1.10605 3.57607 0 0 0 104 105 127 255
-0.993147 -0.563837 3.60262 0 0 0 39 72 46 255
-0.872571 -0.319995 3.52059 0 0 0 146 148 147 255
-0.913166 -0.163041 3.56183 0 0 0 61 91 55 255
-0.954767 -0.164516 3.60587 0 0 0 122 125 124 255
-0.50648 -0.127007 3.58757 0 0 0 160 143 99 255
-0.938667 -0.129034 3.58981 0 0 0 72 78 94 255
-0.954107 -0.0730893 3.61989 0 0 0 113 120 116 255
-0.907643 0.678124 3.60784 0 0 0 140 141 151 255
0.961709 0.750586 3.68534 0 0 0 139 139 130 255
-0.898197 0.787213 3.61093 0 0 0 152 153 153 255
-0.879228 0.822812 3.60217 0 0 0 115 120 132 255
0.933659 0.88196 3.62748 0 0 0 81 111 124 255
-0.92053 0.960199 3.6364 0 0 0 121 138 162 255
0.906508 1.13618 3.8285 0 0 0 54 48 51 255
-0.684306 1.06632 3.53663 0 0 0 101 144 171 255
-0.956784 -0.806862 3.54083 0 0 0 112 110 108 255
-0.582342 -0.736907 3.53308 0 0 0 90 55 60 255
-0.94533 -0.670933 3.54731 0 0 0 130 127 128 255
-0.965468 -0.662987 3.55948 0 0 0 136 129 131 255
-1.00262 -0.565942 3.62003 0 0 0 52 80 56 255
-0.891334 -0.489333 3.52251 0 0 0 145 147 144 255
-0.87495 -0.320475 3.52113 0 0 0 146 148 147 255
-0.951322 -0.161299 3.60082 0 0 0 122 125 124 255
-0.468687 0.0953352 3.8273 0 0 0 117 115 116 255
-0.977969 0.351026 3.77081 0 0 0 24 56 93 255
0.343876 0.505504 4.13258 0 0 0 122 133 136 255
-0.887437 0.477488 3.59581 0 0 0 101 114 131 255
0.993416 0.678738 3.71309 0 0 0 129 128 127 255
-0.902172 0.780471 3.61248 0 0 0 151 153 152 255
1.02598 1.22351 5.43729 0 0 0 135 132 127 255
-0.89189 0.86723 3.6035 0 0 0 154 152 154 255
-0.869111 0.897621 3.59337 0 0 0 72 83 102 255
-0.470099 0.980074 3.65861 0 0 0 3 116 159 255
-0.682606 1.06654 3.53777 0 0 0 101 144 171 255
0.413102 1.30618 4.28601 0 0 0 116 122 124 255
-1.00367 -0.578328 3.61653 0 0 0 57 84 60 255
-0.89012 -0.507071 3.52333 0 0 0 146 147 144 255
-0.551422 -0.492473 3.55876 0 0 0 38 92 78 255
-0.936729 -0.340374 3.56512 0 0 0 137 140 141 255
0.148356 0.226131 4.23696 0 0 0 115 119 122 255
0.101013 0.537127 4.09385 0 0 0 91 85 82 255
-0.503287 0.69599 3.61381 0 0 0 164 168 169 255
0.4461 0.905815 4.26603 0 0 0 166 173 171 255
0.855532 0.849919 3.89031 0 0 0 147 145 146 255
0.465445 1.03199 4.36623 0 0 0 163 165 163 255
-0.482481 0.950939 3.63172 0 0 0 132 157 175 255
-0.525093 0.991182 3.59178 0 0 0 133 164 185 255
-0.446434 1.05376 3.69575 0 0 0 146 157 167 255
-0.549921 1.03793 3.58853 0 0 0 1 109 155 255
-0.739471 1.0696 3.54801 0 0 0 24 89 136 255
0.413085 1.30526 4.28588 0 0 0 116 122 124 255
-0.89591 -0.514251 3.52496 0 0 0 143 146 145 255
-0.605678 -0.413617 3.50133 0 0 0 126 143 141 255
-0.868443 -0.343878 3.51924 0 0 0 146 151 150 255
-0.706959 -0.0830257 3.49696 0 0 0 60 100 60 255
-0.518107 0.0016255 3.54208 0 0 0 52 100 72 255
-0.95936 0.0240456 3.65951 0 0 0 35 77 55 255
0.178374 0.237252 4.27042 0 0 0 147 148 148 255
0.0329884 0.342752 4.32357 0 0 0 46 48 47 255
-0.969603 0.359209 3.76669 0 0 0 17 55 97 255
-0.461115 0.522943 3.6346 0 0 0 155 162 165 255
0.135215 0.705179 4.08775 0 0 0 52 46 46 255
-0.53146 0.655305 3.61965 0 0 0 165 167 169 255
-0.853521 0.657245 3.58319 0 0 0 26 59 103 255
-0.476586 0.672875 3.61927 0 0 0 32 64 113 255
-0.630913 0.668889 3.5331 0 0 0 163 168 169 255
-0.0136474 0.83671 4.32953 0 0 0 50 54 55 255
0.460221 0.896395 4.27235 0 0 0 177 180 178 255
-0.481711 0.825176 3.63705 0 0 0 166 171 169 255
0.983244 1.21744 5.42334 0 0 0 124 121 115 255
-0.923928 0.861728 3.63113 0 0 0 21 70 111 255
-0.695288 0.819269 3.54255 0 0 0 67 72 83 255
-0.804258 0.93382 3.55863 0 0 0 155 161 170 255
-0.975854 -0.213229 3.67953 0 0 0 51 87 46 255
0.26838 0.0884076 4.27178 0 0 0 57 50 50 255
0.00166968 0.305688 4.34857 0 0 0 154 157 153 255
0.0298461 0.364514 4.3133 0 0 0 42 45 44 255
0.320269 0.334586 4.29332 0 0 0 51 58 66 255
-0.0141086 0.436935 4.31676 0 0 0 67 68 65 255
-0.973452 0.358696 3.76854 0 0 0 17 55 97 255
-0.444501 0.429971 3.71295 0 0 0 13 68 118 255
0.162146 0.55841 4.08719 0 0 0 134 130 136 255
-0.832609 0.565301 3.55988 0 0 0 150 145 131 255
-0.474978 0.656592 3.6192 0 0 0 24 68 115 255
-0.833766 0.702468 3.57103 0 0 0 156 160 159 255
-0.824171 0.702117 3.5643 0 0 0 157 161 160 255
-0.771663 0.695764 3.54332 0 0 0 164 166 168 255
-0.933826 0.85763 3.63631 0 0 0 22 73 115 255
-0.0945332 1.21427 5.01352 0 0 0 174 177 174 255
-0.604816 0.881303 3.55461 0 0 0 165 173 174 255
1.59717 -1.76218 5.87702 0 0 0 50 56 67 255
2.04581 -1.66927 5.86496 0 0 0 77 74 77 255
1.6654 -1.64912 5.83402 0 0 0 114 113 114 255
1.64258 -1.62397 5.84898 0 0 0 107 107 107 255
2.04812 -1.57624 5.87007 0 0 0 56 51 55 255
-1.03658 -0.906503 3.69469 0 0 0 20 46 35 255
-0.659324 -0.832713 3.49305 0 0 0 118 130 126 255
-0.714187 -0.825322 3.47945 0 0 0 142 144 142 255
-1.03292 -0.882169 3.69917 0 0 0 16 43 24 255
2.04853 -1.45314 5.87296 0 0 0 71 67 68 255
-0.853095 -0.818477 3.49013 0 0 0 118 118 118 255
-0.693088 -0.813664 3.4844 0 0 0 118 132 126 255
-0.762507 -0.799724 3.47422 0 0 0 102 118 109 255
-0.742592 -0.797138 3.47751 0 0 0 126 140 138 255
-0.711717 -0.798343 3.47599 0 0 0 139 148 146 255
-0.672628 -0.802287 3.49114 0 0 0 126 139 137 255
-0.615815 -0.802254 3.49943 0 0 0 135 143 143 255
-0.659568 -0.796327 3.48997 0 0 0 133 140 144 255
-0.707628 -0.756964 3.48171 0 0 0 149 145 137 255
2.04588 -1.35584 5.8681 0 0 0 101 94 97 255
-0.866855 -0.752638 3.49661 0 0 0 101 116 76 255
-0.949851 -0.733454 3.55267 0 0 0 120 129 114 255
-0.960708 -0.730835 3.56003 0 0 0 90 56 60 255
-0.896475 -0.707706 3.51594 0 0 0 160 78 84 255
-0.811369 -0.671455 3.48974 0 0 0 153 146 146 255
