ply
format ascii 1.0
comment VCGLIB generated
element vertex 1008
property float x
property float y
property float z
property float nx
property float ny
property float nz
property uchar red
property uchar green
property uchar blue
property uchar alpha
element face 0
property list uchar int vertex_indices
end_header
-0.657578 -0.739579 3.49283 0 0 0 108 55 61 255
-0.619785 -0.742817 3.5073 0 0 0 114 45 56 255
-0.544048 -0.752684 3.55699 0 0 0 99 36 45 255
-0.715851 -0.731989 3.47926 0 0 0 135 98 104 255
-0.634089 -0.727791 3.50092 0 0 0 166 105 114 255
-0.593796 -0.739082 3.52437 0 0 0 170 144 149 255
-0.563194 -0.739331 3.54593 0 0 0 162 153 154 255
-0.659732 -0.724589 3.49239 0 0 0 157 150 151 255
-0.732024 -0.711006 3.47916 0 0 0 120 76 82 255
-0.650209 -0.713897 3.49671 0 0 0 116 68 77 255
-0.618525 -0.716099 3.50929 0 0 0 104 46 56 255
-0.594744 -0.718498 3.52416 0 0 0 100 83 85 255
-0.540327 -0.727069 3.55815 0 0 0 112 43 51 255
-0.507487 -0.734314 3.58314 0 0 0 105 112 97 255
-0.631784 -0.702726 3.50224 0 0 0 179 146 152 255
-0.567361 -0.711407 3.54444 0 0 0 178 129 136 255
-0.614084 -0.698987 3.51177 0 0 0 87 73 78 255
-0.729321 -0.68944 3.47976 0 0 0 127 119 122 255
-0.600981 -0.695312 3.51948 0 0 0 165 152 153 255
-0.701904 -0.679032 3.48334 0 0 0 120 60 65 255
-0.682434 -0.684312 3.48649 0 0 0 130 49 53 255
-0.639112 -0.687061 3.49994 0 0 0 119 49 60 255
-0.542067 -0.696274 3.56407 0 0 0 107 77 80 255
-0.580462 -0.6934 3.53112 0 0 0 115 52 59 255
-0.56809 -0.692275 3.54252 0 0 0 127 39 51 255
-0.639097 -0.613384 3.49956 0 0 0 127 137 127 255
-0.548668 -0.626375 3.55423 0 0 0 99 124 85 255
-0.669318 -0.604565 3.49138 0 0 0 151 161 158 255
-0.612178 -0.584948 3.50979 0 0 0 157 162 160 255
-0.555856 -0.58369 3.54729 0 0 0 124 155 139 255
-0.495729 -0.589353 3.61012 0 0 0 133 142 138 255
-0.528132 -0.577198 3.56183 0 0 0 69 116 105 255
-0.621266 -0.560411 3.5086 0 0 0 156 161 159 255
-0.698546 -0.543282 3.48671 0 0 0 81 107 100 255
-0.518959 -0.554639 3.57404 0 0 0 110 126 126 255
-0.498581 -0.562364 3.60163 0 0 0 109 115 115 255
-0.494634 -0.525555 3.60429 0 0 0 79 94 89 255
-0.516548 -0.517819 3.58056 0 0 0 112 124 122 255
-0.494871 -0.487459 3.59693 0 0 0 85 106 104 255
-0.517113 -0.478531 3.5805 0 0 0 60 84 79 255
-0.488401 -0.463541 3.60123 0 0 0 154 161 161 255
-0.503663 -0.455006 3.58622 0 0 0 117 142 131 255
-0.530877 -0.444972 3.57023 0 0 0 145 153 148 255
-0.635107 -0.428056 3.50087 0 0 0 128 159 139 255
-0.762465 -0.408843 3.48818 0 0 0 120 151 124 255
-0.624481 -0.39859 3.50478 0 0 0 135 159 151 255
-0.697142 -0.377155 3.48543 0 0 0 110 127 126 255
-0.759003 -0.365211 3.48781 0 0 0 159 160 160 255
-0.545769 -0.329414 3.54939 0 0 0 137 146 137 255
-0.759832 -0.315271 3.49733 0 0 0 78 126 87 255
-0.58336 -0.295535 3.53095 0 0 0 139 151 133 255
-0.540349 -0.281489 3.5495 0 0 0 132 148 111 255
-0.499872 -0.278627 3.58356 0 0 0 126 142 115 255
-0.666295 -0.242924 3.49611 0 0 0 41 86 111 255
-0.58737 -0.247369 3.52464 0 0 0 55 110 139 255
-0.620286 -0.225049 3.50895 0 0 0 112 129 82 255
-0.560706 -0.220266 3.53419 0 0 0 129 143 115 255
-0.583774 -0.199304 3.52624 0 0 0 10 64 109 255
-0.55507 -0.200788 3.53986 0 0 0 64 83 51 255
-0.51665 -0.193687 3.5725 0 0 0 81 111 85 255
-0.779235 -0.154576 3.49753 0 0 0 93 83 90 255
-0.584896 -0.158257 3.52465 0 0 0 97 85 23 255
-0.745853 -0.152827 3.49263 0 0 0 97 89 103 255
-0.661853 -0.15376 3.49733 0 0 0 91 80 27 255
-0.55503 -0.0370077 3.5432 0 0 0 96 137 123 255
-0.623346 -0.0324648 3.50658 0 0 0 105 130 112 255
-0.587668 -0.0220635 3.52341 0 0 0 111 122 120 255
-0.570143 -0.0250787 3.53873 0 0 0 101 115 110 255
-0.554142 -0.0138344 3.54296 0 0 0 149 156 154 255
-0.621171 -0.00924018 3.50721 0 0 0 131 145 137 255
-0.419485 -0.0056394 3.82166 0 0 0 82 112 95 255
0.19632 0.0701993 4.24664 0 0 0 45 41 40 255
0.236664 0.0717285 4.24913 0 0 0 46 44 43 255
0.216564 0.082236 4.24838 0 0 0 143 144 150 255
0.134182 0.102943 4.19827 0 0 0 124 93 88 255
0.178661 0.104276 4.24028 0 0 0 135 80 83 255
0.217652 0.141353 4.21788 0 0 0 75 58 62 255
0.0459859 0.179424 4.30595 0 0 0 97 97 99 255
0.326352 0.181914 4.29773 0 0 0 72 75 74 255
0.0514832 0.208237 4.30739 0 0 0 154 154 154 255
0.223907 0.278933 4.2641 0 0 0 236 236 238 255
0.357991 0.304416 4.30205 0 0 0 127 129 129 255
0.0146183 0.316177 4.31818 0 0 0 74 69 69 255
0.22727 0.316214 4.26375 0 0 0 196 193 194 255
-0.41929 0.308086 3.84811 0 0 0 124 130 135 255
0.114135 0.396539 4.12419 0 0 0 128 128 128 255
0.145756 0.396366 4.1209 0 0 0 77 72 71 255
0.246996 0.392818 4.10407 0 0 0 138 132 125 255
0.185528 0.412451 4.10259 0 0 0 67 48 44 255
0.228093 0.408625 4.10676 0 0 0 115 77 33 255
0.288465 0.408841 4.11204 0 0 0 93 96 102 255
0.23502 0.423636 4.1052 0 0 0 140 119 91 255
-0.0522416 0.471495 4.30093 0 0 0 99 99 99 255
2.13411 0.710571 6.11987 0 0 0 124 116 110 255
-0.505937 0.42144 3.58506 0 0 0 111 106 119 255
0.266686 0.481711 4.09139 0 0 0 115 117 121 255
0.347328 0.481185 4.13031 0 0 0 97 110 115 255
-0.54796 0.423786 3.55993 0 0 0 72 88 129 255
-0.522007 0.418828 3.5749 0 0 0 97 102 126 255
0.307619 0.485324 4.11101 0 0 0 123 128 128 255
-0.646075 0.424129 3.52415 0 0 0 102 114 142 255
-0.627089 0.42695 3.52852 0 0 0 101 102 109 255
0.0524218 0.499703 4.11709 0 0 0 114 122 126 255
0.0878259 0.493421 4.10406 0 0 0 104 109 115 255
0.154762 0.485588 4.07849 0 0 0 105 110 112 255
0.166307 0.493078 4.07879 0 0 0 137 141 144 255
0.27246 0.48821 4.09314 0 0 0 144 146 146 255
-0.790263 0.430142 3.52745 0 0 0 121 124 112 255
-0.699766 0.42903 3.52162 0 0 0 124 126 124 255
-0.672388 0.427526 3.52024 0 0 0 82 96 123 255
-0.583173 0.430292 3.54209 0 0 0 123 121 133 255
0.0360801 0.505753 4.12398 0 0 0 35 40 39 255
0.323495 0.500303 4.11107 0 0 0 88 86 86 255
-0.754914 0.42924 3.52298 0 0 0 102 110 127 255
-0.724155 0.432938 3.52161 0 0 0 119 122 127 255
-0.615826 0.435665 3.53136 0 0 0 118 108 96 255
0.259027 0.501775 4.08898 0 0 0 75 54 43 255
-0.799347 0.440463 3.53081 0 0 0 88 105 140 255
-0.775416 0.436858 3.5263 0 0 0 143 135 90 255
-0.7921 0.445272 3.53004 0 0 0 132 126 96 255
-0.701423 0.444274 3.52216 0 0 0 25 52 101 255
-0.592912 0.448404 3.5387 0 0 0 19 58 102 255
-0.572524 0.443818 3.54687 0 0 0 84 72 52 255
-0.547479 0.44954 3.56165 0 0 0 151 129 96 255
-0.527521 0.445161 3.57275 0 0 0 89 77 75 255
0.0350682 0.519829 4.12506 0 0 0 41 44 44 255
0.345321 0.520778 4.12358 0 0 0 54 48 41 255
-0.737075 0.450363 3.52248 0 0 0 37 43 75 255
-0.723133 0.449792 3.52212 0 0 0 144 134 102 255
-0.638119 0.454133 3.52488 0 0 0 74 60 52 255
-0.611333 0.448767 3.5312 0 0 0 77 57 29 255
-0.573203 0.459317 3.5474 0 0 0 140 121 93 255
-0.789952 0.464116 3.53178 0 0 0 102 107 107 255
-0.700188 0.464743 3.52376 0 0 0 125 129 136 255
-0.625761 0.460844 3.52995 0 0 0 135 116 88 255
0.0653801 0.541027 4.11088 0 0 0 52 46 48 255
-0.737198 0.46466 3.5227 0 0 0 123 119 106 255
-0.648771 0.463898 3.52336 0 0 0 124 107 89 255
0.155666 0.542128 4.081 0 0 0 93 80 73 255
-0.832516 0.475566 3.54411 0 0 0 95 114 139 255
-0.468941 0.484716 3.62727 0 0 0 32 94 135 255
2.12915 0.815459 6.10818 0 0 0 108 99 93 255
0.0340035 0.55858 4.12943 0 0 0 44 49 47 255
0.324744 0.562329 4.11262 0 0 0 99 97 93 255
-0.532391 0.49112 3.57274 0 0 0 89 126 159 255
-0.55791 0.497115 3.56217 0 0 0 10 82 131 255
-0.82765 0.494875 3.54808 0 0 0 60 94 123 255
-0.809787 0.497914 3.54723 0 0 0 88 116 142 255
-0.632392 0.492394 3.52913 0 0 0 50 110 161 255
-0.614682 0.494029 3.53332 0 0 0 8 80 129 255
-0.599016 0.494828 3.5386 0 0 0 60 116 161 255
-0.41888 0.524076 3.73318 0 0 0 45 90 124 255
-0.0469402 0.620911 4.28141 0 0 0 86 87 84 255
0.0393984 0.576051 4.12585 0 0 0 42 44 46 255
0.156093 0.573531 4.08194 0 0 0 54 49 45 255
-0.481416 0.512536 3.61318 0 0 0 53 63 79 255
-0.471662 0.516419 3.62143 0 0 0 155 159 169 255
-0.453252 0.514942 3.64567 0 0 0 97 101 114 255
0.11208 0.579748 4.09532 0 0 0 50 44 41 255
0.256129 0.577989 4.08986 0 0 0 46 54 57 255
-0.532248 0.513372 3.57357 0 0 0 51 81 116 255
-0.0454843 0.622252 4.28433 0 0 0 72 73 71 255
0.0163429 0.598472 4.16049 0 0 0 96 102 103 255
0.214277 0.58405 4.07953 0 0 0 84 84 86 255
0.355736 0.588974 4.13672 0 0 0 141 148 148 255
-0.581449 0.513116 3.54752 0 0 0 37 100 134 255
-0.560355 0.518596 3.55919 0 0 0 156 165 174 255
-0.470475 0.519594 3.62228 0 0 0 157 160 170 255
0.0508186 0.597171 4.12269 0 0 0 113 118 116 255
0.272267 0.592218 4.09827 0 0 0 101 110 112 255
0.307597 0.593857 4.11087 0 0 0 146 149 150 255
0.0873477 0.600158 4.10336 0 0 0 121 120 120 255
0.199442 0.593171 4.07944 0 0 0 143 152 154 255
-0.590016 0.526461 3.54255 0 0 0 123 168 188 255
-0.41102 0.554867 3.7536 0 0 0 35 69 107 255
-0.407983 0.55675 3.76786 0 0 0 22 74 118 255
0.12942 0.601603 4.08835 0 0 0 138 137 135 255
-0.603826 0.531225 3.53855 0 0 0 63 93 102 255
-0.548138 0.532896 3.56437 0 0 0 161 166 168 255
-0.524898 0.533356 3.57717 0 0 0 139 148 161 255
-0.49606 0.538847 3.60173 0 0 0 158 162 166 255
-0.512062 0.54241 3.58871 0 0 0 91 99 108 255
-0.602959 0.541776 3.53874 0 0 0 45 90 106 255
-0.571378 0.539347 3.5509 0 0 0 63 98 123 255
-0.471689 0.551849 3.6197 0 0 0 74 78 109 255
-0.542802 0.550697 3.5672 0 0 0 118 125 134 255
-0.503284 0.555158 3.59562 0 0 0 26 66 116 255
-0.580513 0.553091 3.54842 0 0 0 130 171 188 255
-0.563404 0.553203 3.557 0 0 0 28 106 148 255
-0.658337 0.559104 3.52632 0 0 0 133 154 149 255
-0.477331 0.577078 3.61637 0 0 0 81 118 145 255
-0.427957 0.589885 3.71881 0 0 0 64 100 136 255
-0.678858 0.56811 3.52347 0 0 0 118 136 127 255
-0.590212 0.56878 3.54367 0 0 0 61 101 125 255
-0.464398 0.584946 3.63116 0 0 0 65 90 118 255
1.07681 0.596656 3.59227 0 0 0 110 131 127 255
-0.69903 0.588139 3.52175 0 0 0 97 115 128 255
1.1913 0.5915 3.50577 0 0 0 54 59 52 255
1.02052 0.621316 3.64232 0 0 0 117 133 119 255
1.11143 0.600229 3.54557 0 0 0 77 108 98 255
0.221855 0.714572 4.08713 0 0 0 112 88 64 255
1.0962 0.616121 3.53624 0 0 0 87 79 64 255
-0.501411 0.63576 3.60215 0 0 0 157 164 171 255
0.14417 0.720913 4.09107 0 0 0 107 97 81 255
1.18638 0.620184 3.5104 0 0 0 153 156 158 255
1.03604 0.636222 3.58138 0 0 0 124 122 112 255
-0.802174 0.637505 3.54501 0 0 0 133 147 161 255
1.08331 0.635365 3.53003 0 0 0 152 116 95 255
-0.772266 0.640313 3.54799 0 0 0 121 131 157 255
-0.635555 0.640508 3.53528 0 0 0 140 158 185 255
0.200565 0.743684 4.08762 0 0 0 111 97 80 255
1.0155 0.6464 3.58102 0 0 0 90 102 89 255
1.3033 0.631287 3.47013 0 0 0 127 129 117 255
1.30671 0.629812 3.46701 0 0 0 127 129 117 255
-0.820656 0.657318 3.55896 0 0 0 31 53 98 255
-0.755591 0.656803 3.53833 0 0 0 52 65 81 255
-0.543642 0.669849 3.58745 0 0 0 115 115 116 255
-0.414877 0.700779 3.78841 0 0 0 96 116 144 255
1.11485 0.645331 3.48669 0 0 0 98 89 90 255
1.15383 0.643027 3.48021 0 0 0 98 89 97 255
-0.699121 0.668039 3.52737 0 0 0 160 164 167 255
-0.585308 0.668059 3.53591 0 0 0 92 92 96 255
-0.4141 0.718476 3.75373 0 0 0 120 121 125 255
1.05782 0.679692 3.50415 0 0 0 128 107 97 255
-0.879849 0.700192 3.6103 0 0 0 98 99 103 255
1.07078 0.678656 3.48935 0 0 0 151 149 152 255
-0.542151 0.706795 3.5926 0 0 0 122 121 124 255
-0.433902 0.719438 3.66259 0 0 0 134 136 138 255
-0.865037 0.715439 3.595 0 0 0 148 150 154 255
-0.697214 0.69797 3.52898 0 0 0 164 165 166 255
1.11317 0.681393 3.44887 0 0 0 88 74 80 255
-0.585263 0.706121 3.54024 0 0 0 95 98 102 255
-0.497682 0.727965 3.61381 0 0 0 162 164 166 255
1.07338 0.690859 3.4776 0 0 0 91 94 101 255
1.35598 0.687253 3.42495 0 0 0 102 94 74 255
-0.802666 0.721983 3.55977 0 0 0 88 89 96 255
-0.411887 0.748497 3.74331 0 0 0 120 121 122 255
1.1021 0.693492 3.4502 0 0 0 128 140 146 255
-0.487077 0.734926 3.62998 0 0 0 55 72 107 255
-0.474326 0.749183 3.63542 0 0 0 114 126 149 255
-0.432128 0.758373 3.66235 0 0 0 118 124 131 255
0.955763 0.728473 3.54654 0 0 0 90 82 77 255
-0.886267 0.756293 3.60684 0 0 0 138 149 153 255
-0.700002 0.738952 3.53281 0 0 0 129 141 150 255
1.09657 0.713919 3.44125 0 0 0 137 134 135 255
-0.809263 0.755821 3.56298 0 0 0 112 121 125 255
-0.636469 0.745922 3.53818 0 0 0 164 166 179 255
-0.412285 0.785755 3.73054 0 0 0 112 116 120 255
-0.885252 0.76306 3.60478 0 0 0 148 154 155 255
-0.547548 0.762923 3.56829 0 0 0 167 169 170 255
-0.575151 0.767499 3.56176 0 0 0 155 165 178 255
-0.50605 0.786194 3.60893 0 0 0 106 106 110 255
-0.433429 0.798171 3.6689 0 0 0 88 94 110 255
0.759408 1.14842 5.26135 0 0 0 152 149 143 255
0.770074 1.10694 5.05646 0 0 0 131 125 122 255
-0.510859 0.786477 3.59739 0 0 0 83 89 99 255
-0.767162 0.780185 3.556 0 0 0 123 124 134 255
-0.743172 0.78126 3.53614 0 0 0 107 112 121 255
-0.668283 0.780326 3.5378 0 0 0 128 146 176 255
-0.422711 0.817277 3.6984 0 0 0 154 157 170 255
0.90355 0.79206 3.58367 0 0 0 150 127 103 255
-0.818243 0.784947 3.5661 0 0 0 89 95 99 255
0.941771 0.781671 3.50084 0 0 0 77 78 89 255
-0.461722 0.818956 3.64745 0 0 0 88 93 96 255
0.923884 0.789622 3.51557 0 0 0 141 139 130 255
1.14384 0.758043 3.38511 0 0 0 157 155 156 255
1.15594 0.757687 3.38049 0 0 0 125 120 121 255
1.25724 0.767493 3.40712 0 0 0 134 90 80 255
1.28838 0.764209 3.39456 0 0 0 70 66 55 255
0.767767 1.11481 4.86562 0 0 0 81 78 78 255
-0.613109 0.808505 3.54572 0 0 0 74 80 102 255
0.94468 0.798058 3.49736 0 0 0 146 142 141 255
1.3268 0.766797 3.38885 0 0 0 94 109 108 255
-0.770487 0.812278 3.54594 0 0 0 120 126 131 255
-0.624791 0.814871 3.5437 0 0 0 73 83 93 255
-0.505448 0.826954 3.60399 0 0 0 133 136 141 255
-0.448519 0.838319 3.66128 0 0 0 164 164 170 255
1.16998 0.772274 3.36622 0 0 0 123 105 88 255
1.2948 0.776787 3.38308 0 0 0 127 137 120 255
-0.509326 0.833001 3.59728 0 0 0 84 89 97 255
0.206219 0.946204 4.09845 0 0 0 105 106 103 255
-0.45687 0.849519 3.6497 0 0 0 69 73 102 255
1.29061 0.783121 3.37844 0 0 0 131 121 97 255
1.37129 0.78807 3.39326 0 0 0 124 123 123 255
-0.754965 0.830414 3.54023 0 0 0 106 110 129 255
1.24634 0.791424 3.36301 0 0 0 118 104 105 255
1.36151 0.798783 3.3926 0 0 0 88 92 85 255
-0.891298 0.859473 3.61616 0 0 0 101 117 145 255
1.15075 0.801204 3.36357 0 0 0 79 64 60 255
1.31388 0.80004 3.36704 0 0 0 131 140 142 255
-0.61275 0.851494 3.54603 0 0 0 147 147 147 255
-0.4847 0.865902 3.61952 0 0 0 157 159 161 255
-0.624116 0.862094 3.54459 0 0 0 81 87 94 255
-0.503533 0.871605 3.60337 0 0 0 152 153 156 255
-0.865316 0.890424 3.59661 0 0 0 74 78 92 255
-0.81088 0.874833 3.56592 0 0 0 75 83 100 255
0.975972 0.835649 3.44344 0 0 0 102 97 96 255
1.06378 0.824692 3.39437 0 0 0 114 77 81 255
1.36713 0.818103 3.38492 0 0 0 139 135 134 255
0.891951 0.860384 3.51682 0 0 0 71 107 122 255
-0.543259 0.881569 3.57155 0 0 0 166 166 166 255
-0.682704 0.88489 3.53955 0 0 0 43 69 114 255
-0.570194 0.885264 3.56454 0 0 0 168 172 172 255
-0.57066 0.893932 3.56451 0 0 0 168 169 169 255
-0.692524 0.901493 3.53788 0 0 0 165 173 175 255
0.946832 0.872898 3.45312 0 0 0 47 46 65 255
1.2214 0.842484 3.33474 0 0 0 132 115 102 255
0.90773 0.883228 3.48679 0 0 0 61 72 80 255
-0.681338 0.912789 3.53967 0 0 0 123 128 138 255
-0.665968 0.919132 3.54248 0 0 0 153 155 167 255
-0.448927 0.954442 3.66839 0 0 0 117 147 169 255
-0.587559 0.929795 3.5588 0 0 0 103 119 143 255
-0.45858 0.968613 3.66079 0 0 0 27 106 144 255
1.23907 0.875036 3.32408 0 0 0 120 123 122 255
-0.810135 0.954763 3.56993 0 0 0 78 82 107 255
1.29389 0.888 3.32532 0 0 0 69 63 59 255
0.937399 0.923686 3.44251 0 0 0 134 128 115 255
-0.828523 0.96646 3.58134 0 0 0 158 160 161 255
-0.536239 0.977 3.59182 0 0 0 49 108 152 255
1.21978 0.913559 3.32742 0 0 0 123 116 116 255
1.16435 0.922827 3.34217 0 0 0 98 87 84 255
1.10813 0.935392 3.3542 0 0 0 117 97 81 255
-0.620243 0.991047 3.54954 0 0 0 64 115 150 255
-0.452275 1.02563 3.66513 0 0 0 29 89 132 255
-0.537191 1.00734 3.58844 0 0 0 79 109 136 255
1.22873 0.934611 3.32888 0 0 0 134 131 132 255
-0.490608 1.02282 3.60702 0 0 0 7 112 153 255
-0.422029 1.04708 3.70102 0 0 0 96 127 146 255
1.06036 0.955773 3.37501 0 0 0 99 92 86 255
1.19167 0.946296 3.33123 0 0 0 85 78 80 255
-0.465661 1.04636 3.66385 0 0 0 111 143 163 255
0.231653 1.18198 4.1086 0 0 0 104 103 107 255
-0.427913 1.07268 3.70601 0 0 0 118 125 134 255
1.16876 0.971998 3.34552 0 0 0 93 103 111 255
-0.615976 1.05389 3.54956 0 0 0 67 109 132 255
-0.797438 1.07005 3.5696 0 0 0 68 135 176 255
0.888295 1.09235 3.67916 0 0 0 104 113 113 255
-0.632316 1.06528 3.54545 0 0 0 79 131 177 255
-0.831053 1.08039 3.5709 0 0 0 25 89 129 255
-0.626269 1.08288 3.54656 0 0 0 75 85 111 255
-0.834822 1.09343 3.57489 0 0 0 52 101 138 255
-0.645073 1.08912 3.54323 0 0 0 159 167 170 255
-0.70121 1.09303 3.54839 0 0 0 122 110 126 255
-0.770985 1.101 3.54613 0 0 0 103 107 121 255
1.0309 1.0597 3.40117 0 0 0 62 81 91 255
1.28663 1.03544 3.33948 0 0 0 92 81 87 255
1.3238 1.03454 3.33043 0 0 0 105 103 103 255
1.29578 1.06769 3.3371 0 0 0 86 81 83 255
1.29628 1.07342 3.33894 0 0 0 79 73 81 255
1.27297 1.08854 3.34307 0 0 0 95 103 112 255
-0.452292 1.20845 3.64783 0 0 0 95 135 171 255
1.25277 1.10843 3.34498 0 0 0 68 74 83 255
1.30931 1.11508 3.35049 0 0 0 85 80 82 255
-0.816691 1.20247 3.56339 0 0 0 82 133 166 255
-0.449615 1.23259 3.6523 0 0 0 161 164 173 255
-0.7793 1.20324 3.55614 0 0 0 63 121 167 255
-0.507537 1.21631 3.60369 0 0 0 129 158 181 255
-0.505806 1.23558 3.59993 0 0 0 167 169 172 255
-0.535029 1.24231 3.59326 0 0 0 86 126 155 255
-0.812655 1.23667 3.55141 0 0 0 110 122 134 255
1.33372 1.17805 3.40497 0 0 0 46 65 84 255
-0.778129 1.24082 3.54232 0 0 0 111 131 145 255
1.31705 1.1997 3.42663 0 0 0 123 134 142 255
1.33595 1.19992 3.42653 0 0 0 125 129 134 255
-0.658554 -0.820991 3.49341 0 0 0 142 149 149 255
-0.725069 -0.743358 3.47788 0 0 0 106 32 37 255
-0.69603 -0.746246 3.48456 0 0 0 111 41 51 255
-0.651066 -0.740368 3.49602 0 0 0 113 49 55 255
-0.640901 -0.735037 3.49962 0 0 0 123 51 59 255
-0.603175 -0.737291 3.51788 0 0 0 159 158 158 255
-0.681406 -0.720817 3.48661 0 0 0 134 63 70 255
-0.544459 -0.732535 3.55663 0 0 0 128 130 132 255
-0.688204 -0.698771 3.48641 0 0 0 139 50 55 255
-0.575059 -0.702069 3.53645 0 0 0 132 39 50 255
-0.599865 -0.688571 3.51902 0 0 0 163 153 154 255
-0.756903 -0.598827 3.48612 0 0 0 100 119 104 255
-0.63748 -0.607151 3.50016 0 0 0 158 160 154 255
-0.642364 -0.586473 3.49904 0 0 0 154 163 163 255
-0.615707 -0.5734 3.50914 0 0 0 158 162 161 255
-0.536676 -0.588461 3.55434 0 0 0 34 91 63 255
-0.55715 -0.575464 3.54742 0 0 0 139 161 147 255
-0.622793 -0.568274 3.5066 0 0 0 156 160 159 255
-0.702884 -0.542533 3.48317 0 0 0 92 117 112 255
-0.492775 -0.504955 3.602 0 0 0 157 161 162 255
-0.634374 -0.430359 3.50122 0 0 0 108 140 119 255
-0.505341 -0.276489 3.57718 0 0 0 129 134 113 255
-0.560971 -0.226692 3.53434 0 0 0 119 140 94 255
-0.706336 -0.168965 3.49188 0 0 0 72 111 63 255
-0.661572 -0.153359 3.49721 0 0 0 91 80 27 255
-0.632478 -0.153533 3.50275 0 0 0 96 90 38 255
-0.703827 -0.0983792 3.49666 0 0 0 77 107 83 255
-0.620756 -0.0281706 3.50754 0 0 0 135 149 136 255
0.184748 0.0741161 4.24387 0 0 0 43 40 41 255
0.0589714 0.0801608 4.3062 0 0 0 106 103 104 255
0.0448535 0.172983 4.30567 0 0 0 140 140 142 255
0.107934 0.424136 4.12391 0 0 0 120 100 76 255
0.426577 0.446736 4.27119 0 0 0 62 67 70 255
0.423208 0.488908 4.27687 0 0 0 82 84 88 255
0.0174029 0.495619 4.15066 0 0 0 99 108 110 255
0.260166 0.48013 4.08958 0 0 0 110 112 116 255
2.13049 0.718854 6.11759 0 0 0 116 108 102 255
0.0877607 0.498681 4.10392 0 0 0 125 131 135 255
0.224654 0.489707 4.07658 0 0 0 60 67 72 255
-0.700246 0.428048 3.52176 0 0 0 124 126 124 255
0.238823 0.502245 4.07827 0 0 0 136 142 142 255
-0.58415 0.45847 3.54172 0 0 0 136 116 98 255
-0.839533 0.475016 3.54808 0 0 0 86 113 142 255
0.0663919 0.543261 4.11094 0 0 0 52 46 48 255
-0.410648 0.51733 3.76862 0 0 0 55 92 119 255
0.0384536 0.570819 4.12558 0 0 0 45 48 47 255
0.113643 0.579609 4.09404 0 0 0 41 47 52 255
0.248829 0.571721 4.08591 0 0 0 54 49 49 255
0.328687 0.573163 4.11415 0 0 0 44 41 38 255
0.15687 0.583172 4.08178 0 0 0 48 46 44 255
0.304052 0.594547 4.10968 0 0 0 132 132 132 255
-0.620454 0.520786 3.53307 0 0 0 125 150 152 255
-0.562533 0.518756 3.55847 0 0 0 156 165 174 255
0.218591 0.597587 4.07966 0 0 0 74 68 68 255
0.255001 0.596984 4.0908 0 0 0 143 146 152 255
-0.510485 0.554634 3.5899 0 0 0 35 79 126 255
-0.638986 0.559655 3.52882 0 0 0 43 99 91 255
-0.616677 0.558744 3.53443 0 0 0 159 164 162 255
-0.434903 0.59468 3.6768 0 0 0 103 128 147 255
1.11193 0.602847 3.54275 0 0 0 110 135 119 255
0.149933 0.722242 4.09183 0 0 0 112 97 73 255
-0.507347 0.64121 3.60024 0 0 0 163 168 170 255
-0.798635 0.636852 3.54381 0 0 0 133 147 161 255
-0.413492 0.679803 3.81693 0 0 0 22 69 113 255
0.149164 0.727581 4.09175 0 0 0 112 97 73 255
-0.636601 0.643253 3.53518 0 0 0 140 158 185 255
1.30477 0.633667 3.46696 0 0 0 126 130 118 255
1.14772 0.642193 3.47991 0 0 0 108 85 90 255
-0.54578 0.672612 3.5863 0 0 0 90 94 106 255
-0.418551 0.701183 3.74479 0 0 0 150 155 164 255
1.07748 0.655237 3.50502 0 0 0 103 81 75 255
-0.701408 0.669587 3.5268 0 0 0 160 164 167 255
-0.583074 0.672619 3.5391 0 0 0 78 82 99 255
1.04409 0.668014 3.5285 0 0 0 137 132 133 255
-0.451503 0.701695 3.64693 0 0 0 57 80 125 255
-0.698566 0.693466 3.52854 0 0 0 164 166 168 255
-0.857382 0.730326 3.58743 0 0 0 54 57 83 255
0.927019 0.738307 3.5981 0 0 0 126 125 111 255
-0.636614 0.739956 3.53782 0 0 0 164 166 180 255
-0.478682 0.74907 3.63398 0 0 0 153 163 173 255
0.941639 0.735982 3.54845 0 0 0 107 52 50 255
-0.706869 0.745278 3.53267 0 0 0 165 170 168 255
1.09663 0.718614 3.43899 0 0 0 153 154 153 255
-0.817083 0.78346 3.5636 0 0 0 99 105 108 255
-0.585686 0.777742 3.55915 0 0 0 168 173 172 255
-0.461814 0.802605 3.64665 0 0 0 76 78 89 255
-0.66915 0.78267 3.53771 0 0 0 128 146 176 255
0.903207 0.795429 3.57007 0 0 0 133 130 109 255
1.3541 0.764755 3.39624 0 0 0 36 72 60 255
-0.448727 0.830783 3.66078 0 0 0 164 165 174 255
0.71216 1.28829 5.66347 0 0 0 126 125 119 255
-0.476363 0.859655 3.63603 0 0 0 164 168 169 255
1.25278 0.792634 3.35599 0 0 0 78 79 73 255
-0.611959 0.854933 3.54676 0 0 0 92 96 111 255
-0.867263 0.891989 3.59827 0 0 0 120 125 126 255
-0.801951 0.880583 3.56263 0 0 0 50 67 106 255
-0.538796 0.875507 3.57215 0 0 0 170 172 171 255
-0.584535 0.895882 3.56141 0 0 0 167 170 169 255
-0.811307 0.911608 3.56934 0 0 0 65 78 103 255
-0.705404 0.902521 3.53536 0 0 0 169 171 171 255
-0.620838 0.906274 3.5458 0 0 0 128 128 130 255
-0.681384 0.914089 3.53965 0 0 0 92 97 114 255
-0.710521 0.926259 3.53652 0 0 0 168 168 168 255
-0.523644 0.948421 3.58797 0 0 0 153 160 169 255
-0.784439 0.953973 3.56431 0 0 0 162 164 164 255
-0.420974 1.04951 3.69537 0 0 0 125 137 144 255
-0.609545 1.05166 3.55537 0 0 0 20 119 157 255
0.858714 1.09505 3.70652 0 0 0 50 60 60 255
-0.632349 1.05906 3.54821 0 0 0 151 161 170 255
-0.653314 1.0565 3.53816 0 0 0 33 96 141 255
-0.742661 1.08333 3.55429 0 0 0 27 92 136 255
0.253136 1.32598 4.24928 0 0 0 185 190 195 255
0.269681 1.32654 4.2629 0 0 0 213 216 225 255
1.27417 1.03773 3.34329 0 0 0 81 78 88 255
-0.762661 1.11043 3.52959 0 0 0 85 93 112 255
-0.718629 1.13194 3.5404 0 0 0 163 166 168 255
1.27834 1.07208 3.34279 0 0 0 99 107 111 255
-0.628382 1.14185 3.54443 0 0 0 87 111 134 255
1.29523 1.07803 3.34102 0 0 0 80 74 82 255
-0.786909 1.16657 3.55611 0 0 0 129 134 137 255
1.25585 1.10104 3.34518 0 0 0 65 66 71 255
-0.507475 1.22704 3.60529 0 0 0 168 168 170 255
1.32927 1.14171 3.36355 0 0 0 145 150 151 255
-0.545172 1.24171 3.59496 0 0 0 75 123 153 255
1.31992 1.20829 3.43035 0 0 0 140 149 149 255
1.31781 1.19578 3.42407 0 0 0 123 134 142 255
-0.661162 -0.818952 3.49367 0 0 0 150 152 152 255
-0.556563 -0.754759 3.55083 0 0 0 162 145 145 255
-0.680244 -0.716174 3.48721 0 0 0 137 77 84 255
-0.573201 -0.728453 3.53921 0 0 0 140 84 89 255
-0.702816 -0.700528 3.48302 0 0 0 126 43 53 255
-0.575599 -0.701612 3.53517 0 0 0 132 39 50 255
-0.626625 -0.692369 3.50542 0 0 0 128 80 89 255
-0.742511 -0.595328 3.48972 0 0 0 157 157 157 255
-0.686193 -0.597852 3.48491 0 0 0 161 163 162 255
-0.624485 -0.597759 3.50432 0 0 0 155 162 163 255
-0.631194 -0.576402 3.50205 0 0 0 160 165 165 255
-0.747594 -0.555771 3.48924 0 0 0 154 161 163 255
-0.500402 -0.576058 3.60091 0 0 0 156 159 158 255
-0.547076 -0.528742 3.55373 0 0 0 69 94 88 255
-0.489088 -0.469011 3.601 0 0 0 137 142 140 255
-0.697904 -0.447542 3.48423 0 0 0 51 102 65 255
-0.530191 -0.451106 3.57049 0 0 0 138 146 139 255
-0.631979 -0.428226 3.50227 0 0 0 160 163 157 255
-0.755967 -0.421543 3.48948 0 0 0 81 106 88 255
-0.621307 -0.410976 3.50664 0 0 0 159 164 162 255
-0.675303 -0.385987 3.49081 0 0 0 158 163 163 255
-0.755305 -0.373037 3.48909 0 0 0 152 159 157 255
-0.548456 -0.325386 3.5472 0 0 0 130 142 124 255
-0.504283 -0.276371 3.57786 0 0 0 129 134 113 255
-0.599455 -0.266122 3.52191 0 0 0 19 102 140 255
-0.625458 -0.219969 3.50692 0 0 0 111 132 92 255
-0.587246 -0.208682 3.52306 0 0 0 10 69 118 255
-0.585245 -0.155582 3.52465 0 0 0 81 77 29 255
-0.507011 -0.144456 3.57785 0 0 0 165 139 53 255
-0.70358 -0.101138 3.49618 0 0 0 77 107 83 255
-0.763274 -0.0773617 3.49725 0 0 0 130 134 129 255
-0.5554 -0.0293131 3.54166 0 0 0 146 154 152 255
-0.619402 -0.0252284 3.50806 0 0 0 155 163 158 255
-0.431523 -0.0126908 3.82019 0 0 0 71 108 89 255
0.0828309 0.0708393 4.3016 0 0 0 61 61 61 255
0.297806 0.0688151 4.29834 0 0 0 82 82 82 255
0.210845 0.115255 4.24816 0 0 0 151 102 105 255
0.318731 0.156199 4.29827 0 0 0 70 74 77 255
0.310576 0.187213 4.29874 0 0 0 50 54 55 255
0.220996 0.231639 4.26067 0 0 0 186 184 185 255
0.297535 0.228224 4.30101 0 0 0 125 125 125 255
0.227136 0.298993 4.26338 0 0 0 254 254 254 255
0.0263059 0.320909 4.31741 0 0 0 63 63 63 255
-0.42012 0.326571 3.81933 0 0 0 41 64 106 255
0.114599 0.402326 4.12412 0 0 0 205 198 193 255
0.215813 0.400284 4.1049 0 0 0 143 109 71 255
0.10913 0.421416 4.12355 0 0 0 145 129 116 255
0.217861 0.420336 4.10383 0 0 0 167 135 93 255
0.301199 0.424282 4.11403 0 0 0 101 104 109 255
0.429098 0.448434 4.29203 0 0 0 68 72 75 255
-0.526623 0.429566 3.57316 0 0 0 155 128 98 255
0.239086 0.487308 4.07983 0 0 0 94 105 115 255
-0.789081 0.434761 3.52773 0 0 0 143 138 103 255
-0.749763 0.436232 3.52302 0 0 0 123 116 114 255
-0.691512 0.434796 3.52185 0 0 0 122 111 69 255
-0.651604 0.434402 3.52313 0 0 0 83 74 67 255
-0.626882 0.435322 3.52903 0 0 0 147 133 95 255
0.15938 0.501002 4.079 0 0 0 140 146 146 255
0.196275 0.502199 4.07843 0 0 0 43 47 48 255
-0.72473 0.44316 3.52152 0 0 0 135 129 114 255
0.313271 0.51473 4.11191 0 0 0 139 143 144 255
-0.791167 0.463529 3.53179 0 0 0 102 107 107 255
-0.49065 0.458723 3.6 0 0 0 32 62 109 255
0.215732 0.525136 4.0776 0 0 0 147 150 153 255
-0.41078 0.509438 3.79053 0 0 0 23 78 122 255
0.110412 0.55393 4.09453 0 0 0 45 44 39 255
-0.811214 0.48975 3.54252 0 0 0 10 68 120 255
0.251717 0.57451 4.08795 0 0 0 58 59 60 255
0.311784 0.565091 4.11074 0 0 0 143 149 150 255
0.351627 0.583955 4.13192 0 0 0 138 144 144 255
0.0172491 0.585441 4.15624 0 0 0 92 101 101 255
0.129327 0.590242 4.08842 0 0 0 117 120 121 255
0.191949 0.596635 4.07977 0 0 0 146 149 147 255
-0.618015 0.53064 3.53376 0 0 0 161 164 166 255
-0.408768 0.578393 3.77452 0 0 0 34 88 134 255
-0.617918 0.56109 3.53422 0 0 0 159 164 162 255
-0.443432 0.573082 3.67101 0 0 0 154 161 165 255
1.12278 0.60155 3.53954 0 0 0 125 137 119 255
1.20538 0.595255 3.50798 0 0 0 41 52 46 255
1.18209 0.612533 3.50647 0 0 0 140 144 146 255
-0.506154 0.642623 3.60079 0 0 0 163 168 170 255
0.147543 0.725406 4.09241 0 0 0 112 97 73 255
0.217298 0.731798 4.08783 0 0 0 121 92 61 255
-0.838326 0.657273 3.57159 0 0 0 21 59 105 255
-0.79001 0.647415 3.54501 0 0 0 160 162 161 255
-0.632707 0.646289 3.53598 0 0 0 160 163 176 255
-0.743128 0.656986 3.54134 0 0 0 30 61 108 255
1.3153 0.635506 3.46075 0 0 0 143 143 126 255
-0.431259 0.70017 3.68658 0 0 0 135 151 172 255
-0.441999 0.70294 3.66109 0 0 0 159 165 171 255
-0.705685 0.678986 3.52693 0 0 0 165 168 167 255
-0.0316624 0.84988 4.30758 0 0 0 60 60 60 255
-0.560028 0.706002 3.57769 0 0 0 105 110 125 255
-0.481831 0.718841 3.62802 0 0 0 45 66 109 255
-0.737439 0.717635 3.53146 0 0 0 60 75 98 255
-0.866352 0.738423 3.59215 0 0 0 25 57 98 255
1.35605 0.715382 3.41441 0 0 0 138 136 121 255
-0.709083 0.748232 3.53243 0 0 0 167 170 169 255
-0.653994 0.749041 3.53718 0 0 0 33 73 121 255
-0.488387 0.774249 3.63187 0 0 0 167 170 170 255
-0.811033 0.776867 3.56116 0 0 0 66 71 96 255
0.771642 1.0935 4.99732 0 0 0 138 134 129 255
-0.661483 0.786009 3.53905 0 0 0 165 171 176 255
-0.589312 0.788712 3.55862 0 0 0 170 175 173 255
-0.434766 0.820986 3.67301 0 0 0 49 62 96 255
1.35508 0.746634 3.41259 0 0 0 32 68 56 255
0.768086 1.11341 4.87493 0 0 0 111 109 107 255
-0.751338 0.832314 3.53939 0 0 0 79 86 103 255
1.34264 0.784111 3.38539 0 0 0 141 120 127 255
1.17452 0.787517 3.35736 0 0 0 161 166 174 255
1.1422 0.801086 3.36754 0 0 0 86 81 69 255
1.195 0.810408 3.34414 0 0 0 95 54 54 255
1.36347 0.812244 3.38585 0 0 0 125 122 121 255
-0.689845 0.863675 3.53809 0 0 0 41 74 116 255
-0.533381 0.88084 3.57377 0 0 0 166 171 169 255
-0.804113 0.883853 3.56339 0 0 0 51 66 106 255
-0.589336 0.884165 3.56023 0 0 0 171 174 174 255
1.1524 0.827112 3.35304 0 0 0 134 131 132 255
-0.652491 0.912332 3.54501 0 0 0 168 170 170 255
1.06512 0.875131 3.38342 0 0 0 97 96 97 255
-0.707517 0.923595 3.53632 0 0 0 167 169 168 255
-0.447781 0.95779 3.669 0 0 0 117 147 169 255
-0.745345 0.932599 3.54818 0 0 0 69 77 97 255
-0.839262 0.955429 3.5859 0 0 0 159 162 162 255
-0.520585 0.990075 3.58824 0 0 0 151 158 165 255
1.09078 0.937038 3.36241 0 0 0 105 74 55 255
-0.617491 1.00023 3.555 0 0 0 148 163 178 255
-0.43979 1.04597 3.69454 0 0 0 147 159 159 255
-0.629372 1.0479 3.54527 0 0 0 128 144 161 255
-0.593239 1.04421 3.54931 0 0 0 17 115 155 255
0.862759 1.09846 3.72212 0 0 0 50 60 60 255
1.17033 0.986932 3.34167 0 0 0 86 75 77 255
-0.801898 1.07926 3.55087 0 0 0 99 140 170 255
-0.687008 1.07054 3.54061 0 0 0 92 130 159 255
-0.430378 1.11249 3.70075 0 0 0 159 154 140 255
-0.786945 1.16154 3.55504 0 0 0 133 139 143 255
-0.685105 1.16369 3.53635 0 0 0 135 139 149 255
1.25349 1.09928 3.34505 0 0 0 65 66 71 255
-0.812269 1.21446 3.55403 0 0 0 100 130 154 255
1.33467 1.14195 3.36296 0 0 0 148 152 153 255
-0.667459 -0.819109 3.49274 0 0 0 143 143 143 255
-0.700449 -0.710279 3.48297 0 0 0 131 41 47 255
-0.575855 -0.718962 3.53523 0 0 0 131 61 67 255
-0.667574 -0.699354 3.48983 0 0 0 167 142 146 255
-0.538363 -0.674551 3.56155 0 0 0 136 137 134 255
-0.707946 -0.593235 3.49101 0 0 0 158 163 160 255
-0.62526 -0.576437 3.50422 0 0 0 158 164 163 255
-0.709117 -0.443427 3.48367 0 0 0 48 98 65 255
-0.488525 -0.478646 3.60226 0 0 0 124 144 143 255
-0.75015 -0.384488 3.49098 0 0 0 155 159 158 255
-0.504594 -0.268695 3.57851 0 0 0 124 134 109 255
-0.597017 -0.208477 3.51872 0 0 0 14 72 120 255
-0.763042 -0.171945 3.49523 0 0 0 134 144 127 255
-0.648046 -0.16084 3.4985 0 0 0 123 112 56 255
-0.515679 -0.131748 3.5756 0 0 0 160 128 41 255
0.0665265 0.0803219 4.30534 0 0 0 70 67 68 255
0.295841 0.0807931 4.29938 0 0 0 55 55 55 255
-0.466837 0.112786 3.83676 0 0 0 172 170 170 255
0.0485786 0.218886 4.30977 0 0 0 153 153 153 255
0.154676 0.226347 4.21431 0 0 0 114 116 120 255
0.218049 0.22104 4.24276 0 0 0 99 98 101 255
0.0339944 0.245656 4.31299 0 0 0 154 156 155 255
0.353284 0.314167 4.30201 0 0 0 63 61 60 255
0.0269643 0.315657 4.31694 0 0 0 63 63 63 255
0.037387 0.49858 4.13221 0 0 0 60 60 58 255
2.13348 0.766738 6.11187 0 0 0 52 41 38 255
-0.455785 0.488878 3.64501 0 0 0 110 139 157 255
0.259069 0.533877 4.08781 0 0 0 43 49 49 255
0.337762 0.564952 4.11695 0 0 0 133 139 140 255
-0.837381 0.505758 3.55551 0 0 0 107 112 119 255
-0.807235 0.474324 3.53728 0 0 0 15 58 109 255
-0.692139 0.55932 3.52174 0 0 0 150 157 154 255
-0.609993 0.53959 3.53686 0 0 0 80 122 136 255
-0.452991 0.569425 3.6492 0 0 0 149 156 162 255
1.12889 0.604983 3.53107 0 0 0 131 142 120 255
1.21476 0.60151 3.51148 0 0 0 43 65 60 255
-0.838533 0.643611 3.56668 0 0 0 16 70 113 255
-0.519335 0.66622 3.59868 0 0 0 167 170 170 255
-0.412827 0.678493 3.81975 0 0 0 22 69 113 255
-0.627776 0.651292 3.53712 0 0 0 164 168 169 255
-0.613597 0.69303 3.54143 0 0 0 169 171 173 255
-0.870113 0.739372 3.59522 0 0 0 25 57 98 255
-0.71116 0.716956 3.5298 0 0 0 44 59 93 255
-0.71972 0.784069 3.53171 0 0 0 165 170 170 255
-0.412775 0.825302 3.71748 0 0 0 103 109 122 255
0.8636 0.857793 3.86185 0 0 0 111 97 100 255
-0.631057 0.869763 3.54287 0 0 0 140 151 163 255
0.942354 0.876572 3.45603 0 0 0 51 49 60 255
-0.508566 0.941136 3.59089 0 0 0 133 157 171 255
-0.826338 0.965225 3.58089 0 0 0 158 160 161 255
-0.477496 1.00884 3.65589 0 0 0 4 110 156 255
-0.472051 1.02304 3.6555 0 0 0 6 104 150 255
-0.578349 1.03844 3.55161 0 0 0 3 115 159 255
-0.805027 1.08983 3.57558 0 0 0 147 151 155 255
-0.724612 1.0644 3.54119 0 0 0 24 91 137 255
-0.436942 1.12609 3.66149 0 0 0 161 146 99 255
-0.819893 1.13175 3.56441 0 0 0 149 160 171 255
1.25038 1.07528 3.3471 0 0 0 68 84 92 255
-0.736188 1.15988 3.54861 0 0 0 40 85 131 255
-0.580855 1.16716 3.56806 0 0 0 173 164 128 255
-0.805247 1.2222 3.55649 0 0 0 108 137 156 255
-0.719253 -0.574337 3.48322 0 0 0 155 162 162 255
-0.509208 -0.577289 3.58759 0 0 0 153 159 157 255
-0.495162 -0.510199 3.60109 0 0 0 150 156 155 255
-0.729849 -0.403118 3.49618 0 0 0 157 162 160 255
-0.548574 -0.316003 3.54543 0 0 0 120 136 94 255
-0.655405 -0.276403 3.4995 0 0 0 132 142 120 255
-0.597047 -0.201452 3.51934 0 0 0 12 68 117 255
-0.520925 -0.164192 3.57377 0 0 0 163 141 53 255
-0.760723 -0.0829315 3.49674 0 0 0 136 133 134 255
-0.444401 -0.0218713 3.81275 0 0 0 59 104 80 255
0.0811932 0.0938018 4.30351 0 0 0 82 52 55 255
0.294575 0.0870523 4.29984 0 0 0 52 52 52 255
0.0879933 0.179766 4.30301 0 0 0 41 47 52 255
0.277531 0.18581 4.29558 0 0 0 53 54 52 255
0.216952 0.290121 4.26448 0 0 0 192 194 198 255
0.355569 0.33714 4.30177 0 0 0 53 57 63 255
0.1193 0.408236 4.12344 0 0 0 171 163 157 255
0.0742907 0.522327 4.10694 0 0 0 51 54 53 255
0.321192 0.524083 4.1115 0 0 0 120 122 123 255
-0.454241 0.496764 3.64731 0 0 0 139 156 164 255
0.188967 0.568433 4.07946 0 0 0 141 149 153 255
0.280466 0.555693 4.09727 0 0 0 41 49 55 255
-0.87049 0.517583 3.59336 0 0 0 138 116 107 255
1.07265 0.57735 3.79776 0 0 0 112 115 111 255
-0.421398 0.663624 3.7997 0 0 0 36 92 129 255
0.149786 0.729739 4.09185 0 0 0 115 95 72 255
0.228909 0.729478 4.0886 0 0 0 111 92 70 255
-0.886059 0.678176 3.61714 0 0 0 150 155 153 255
-0.614581 0.686337 3.54088 0 0 0 168 171 171 255
-0.490522 0.69273 3.6146 0 0 0 109 117 124 255
0.401315 0.83986 4.2536 0 0 0 50 55 59 255
-0.877018 0.747485 3.60114 0 0 0 27 58 94 255
0.130186 0.923533 4.12891 0 0 0 130 133 131 255
0.265218 0.919075 4.11953 0 0 0 137 141 140 255
0.860298 0.875308 3.8835 0 0 0 108 103 105 255
-0.418461 0.842253 3.70818 0 0 0 38 73 113 255
-0.473242 0.848989 3.64027 0 0 0 164 168 169 255
1.12259 0.806379 3.37078 0 0 0 85 89 86 255
-0.842105 0.962318 3.58828 0 0 0 158 161 160 255
-0.800312 0.948054 3.56384 0 0 0 154 155 157 255
-0.451283 1.01665 3.66449 0 0 0 18 90 137 255
-0.613414 1.00952 3.54888 0 0 0 152 155 163 255
-0.446576 1.06811 3.66223 0 0 0 140 122 113 255
-0.619775 -0.20461 3.50779 0 0 0 72 97 70 255
-0.46182 -0.0342184 3.75548 0 0 0 52 100 72 255
-0.710017 -0.00504803 3.50006 0 0 0 26 67 39 255
0.25323 0.0932103 4.25745 0 0 0 102 50 48 255
0.0557876 0.0809919 4.30677 0 0 0 106 103 104 255
0.251368 0.140389 4.22866 0 0 0 50 42 45 255
0.0152446 0.324669 4.31856 0 0 0 61 64 67 255
0.343774 0.369246 4.29964 0 0 0 52 51 56 255
-0.450815 0.356869 3.79446 0 0 0 22 69 117 255
-0.815881 0.53965 3.5576 0 0 0 157 140 91 255
-0.462732 0.6506 3.62199 0 0 0 19 72 123 255
-0.78662 0.737288 3.55373 0 0 0 161 163 168 255
0.00678252 0.847861 4.2934 0 0 0 40 45 46 255
0.344496 0.830114 4.24206 0 0 0 39 44 46 255
-0.684503 0.722672 3.53431 0 0 0 35 66 115 255
-0.682483 0.786697 3.53566 0 0 0 41 68 109 255
0.192796 0.918948 4.09338 0 0 0 138 144 147 255
-0.425858 0.864814 3.68224 0 0 0 42 78 117 255
-0.743307 -0.827593 3.4753 0 0 0 122 130 124 255
-0.787016 -0.821483 3.47113 0 0 0 81 101 87 255
-0.760211 -0.819803 3.47722 0 0 0 145 146 145 255
-0.742277 -0.817374 3.46795 0 0 0 154 155 154 255
-0.830503 -0.819651 3.47856 0 0 0 80 106 89 255
-0.737249 -0.807673 3.48007 0 0 0 107 121 119 255
-0.682871 -0.804104 3.48841 0 0 0 53 76 70 255
-0.883334 -0.814358 3.49772 0 0 0 71 89 69 255
-0.804426 -0.809067 3.48609 0 0 0 136 137 135 255
-0.761567 -0.800702 3.47178 0 0 0 72 92 80 255
-0.741861 -0.80017 3.47139 0 0 0 120 120 120 255
-0.713018 -0.808078 3.48417 0 0 0 70 80 72 255
-0.669906 -0.804278 3.49156 0 0 0 141 139 137 255
-0.924071 -0.813427 3.50951 0 0 0 81 82 74 255
-0.902339 -0.805316 3.50375 0 0 0 53 51 49 255
-0.794219 -0.795162 3.47626 0 0 0 105 122 118 255
-0.964362 -0.815618 3.5534 0 0 0 116 115 113 255
-0.83953 -0.789804 3.4851 0 0 0 101 100 92 255
-0.869956 -0.782817 3.49492 0 0 0 83 96 91 255
-0.916735 -0.787415 3.51409 0 0 0 120 125 123 255
-0.633573 -0.753694 3.50431 0 0 0 155 149 137 255
-0.764366 -0.740312 3.47671 0 0 0 99 90 88 255
-0.820125 -0.72725 3.48199 0 0 0 81 56 56 255
-0.813624 -0.724586 3.48079 0 0 0 116 64 63 255
-0.896184 -0.723958 3.51049 0 0 0 68 54 52 255
-0.765734 -0.71294 3.47774 0 0 0 169 133 136 255
-0.860202 -0.714005 3.49314 0 0 0 86 71 73 255
-0.844503 -0.711765 3.48961 0 0 0 150 148 148 255
-0.806045 -0.708178 3.48095 0 0 0 158 147 151 255
-0.787621 -0.704925 3.48048 0 0 0 93 55 58 255
-0.950852 -0.716633 3.54564 0 0 0 73 52 49 255
-0.806354 -0.688322 3.4822 0 0 0 112 57 62 255
-0.75949 -0.684512 3.47911 0 0 0 128 41 45 255
-0.926005 -0.700831 3.53535 0 0 0 120 102 105 255
-0.836191 -0.675682 3.49118 0 0 0 109 49 54 255
-0.887054 -0.675887 3.51009 0 0 0 106 81 85 255
-0.940252 -0.612593 3.54937 0 0 0 120 121 114 255
-0.810849 -0.596999 3.49677 0 0 0 135 141 134 255
-0.792976 -0.591253 3.48163 0 0 0 149 156 155 255
-0.762105 -0.585138 3.48476 0 0 0 153 154 151 255
-0.90336 -0.565422 3.53457 0 0 0 113 123 116 255
-0.762723 -0.54397 3.48765 0 0 0 151 152 145 255
-0.936293 -0.537023 3.55066 0 0 0 51 78 71 255
-0.563137 -0.374578 3.54218 0 0 0 66 117 87 255
-0.621013 -0.359042 3.50868 0 0 0 68 112 88 255
-0.461648 -0.35251 3.77417 0 0 0 122 137 87 255
-0.886198 -0.332337 3.52088 0 0 0 125 125 120 255
-0.442878 -0.336241 3.78648 0 0 0 141 139 84 255
-0.878991 -0.303871 3.53236 0 0 0 136 137 134 255
-0.552176 -0.243858 3.53889 0 0 0 64 88 82 255
-0.680801 -0.191251 3.49336 0 0 0 79 109 55 255
-0.767822 -0.184293 3.49509 0 0 0 99 126 78 255
-0.869233 -0.173153 3.53402 0 0 0 130 134 118 255
-0.941892 -0.167582 3.60829 0 0 0 50 86 62 255
-0.949394 -0.134868 3.60209 0 0 0 93 99 102 255
-0.750378 -0.0975084 3.49503 0 0 0 110 104 113 255
-0.817029 -0.089259 3.51007 0 0 0 77 99 82 255
-0.437131 -0.0686228 3.79049 0 0 0 132 133 86 255
-0.951716 0.0314031 3.62241 0 0 0 43 82 70 255
0.322612 0.0844425 4.298 0 0 0 83 78 78 255
0.0503176 0.0973709 4.30706 0 0 0 106 107 108 255
0.254156 0.168703 4.29153 0 0 0 107 113 112 255
0.172762 0.392646 4.10627 0 0 0 85 87 83 255
0.330496 0.415714 4.1583 0 0 0 92 100 105 255
0.435363 0.462129 4.28556 0 0 0 72 73 75 255
0.407049 0.488326 4.26146 0 0 0 71 75 82 255
-0.666831 0.452783 3.52095 0 0 0 34 55 81 255
-0.913341 0.480015 3.63298 0 0 0 91 108 132 255
-0.439191 0.499641 3.68084 0 0 0 111 75 98 255
-0.502567 0.514958 3.59559 0 0 0 52 77 110 255
-0.436467 0.52324 3.68109 0 0 0 115 91 111 255
-0.638963 0.512911 3.52961 0 0 0 66 104 99 255
-0.542026 0.516523 3.56852 0 0 0 52 82 113 255
1.35395 0.571508 3.77852 0 0 0 104 103 88 255
-0.466178 0.537836 3.6256 0 0 0 112 111 116 255
-0.417653 0.550439 3.72942 0 0 0 31 70 110 255
-0.448454 0.545221 3.65352 0 0 0 112 120 128 255
-0.435643 0.559337 3.6808 0 0 0 123 113 118 255
-0.5224 0.563394 3.57969 0 0 0 36 74 122 255
-0.48776 0.571976 3.60732 0 0 0 130 131 138 255
-0.648907 0.567477 3.52828 0 0 0 73 99 91 255
-0.629738 0.568791 3.53125 0 0 0 72 104 102 255
-0.550838 0.578863 3.56068 0 0 0 36 87 128 255
-0.91745 0.592193 3.64356 0 0 0 91 103 131 255
1.32183 0.622576 3.51785 0 0 0 59 78 71 255
1.26015 0.649015 3.6511 0 0 0 92 128 124 255
1.34259 0.642356 3.51486 0 0 0 99 98 81 255
1.06124 0.656753 3.5684 0 0 0 139 120 124 255
-0.913177 0.64991 3.63678 0 0 0 111 123 144 255
1.18328 0.668433 3.52608 0 0 0 146 150 151 255
1.19161 0.682235 3.53185 0 0 0 77 91 84 255
1.15032 0.681605 3.49387 0 0 0 108 76 73 255
-0.417793 0.716491 3.7167 0 0 0 109 112 121 255
1.33461 0.695379 3.48874 0 0 0 30 49 43 255
-0.896123 0.707736 3.61755 0 0 0 111 107 119 255
-0.414402 0.748861 3.71186 0 0 0 85 95 108 255
1.1268 0.716873 3.46972 0 0 0 91 88 97 255
1.24561 0.731925 3.51926 0 0 0 119 93 91 255
-0.897883 0.742276 3.61053 0 0 0 102 115 129 255
1.14119 0.744281 3.44263 0 0 0 123 110 113 255
1.06766 0.762679 3.45756 0 0 0 155 149 151 255
-0.888295 0.782407 3.58739 0 0 0 103 104 107 255
1.38735 0.771968 3.39218 0 0 0 136 139 111 255
1.05842 0.786889 3.44449 0 0 0 118 110 113 255
1.03477 0.794779 3.44357 0 0 0 136 111 108 255
0.46826 1.08918 4.86494 0 0 0 155 151 147 255
1.16802 0.801662 3.38824 0 0 0 150 151 157 255
0.26426 0.951394 4.1209 0 0 0 94 96 97 255
0.209369 0.96413 4.09701 0 0 0 101 107 106 255
0.468546 1.11452 4.77564 0 0 0 112 112 112 255
0.838519 0.924923 3.85452 0 0 0 174 175 171 255
-0.488631 0.894917 3.60828 0 0 0 69 95 137 255
1.35537 0.874971 3.3131 0 0 0 96 102 111 255
-0.614795 0.936457 3.5485 0 0 0 116 132 170 255
1.05075 0.922265 3.3969 0 0 0 101 100 100 255
0.940473 0.948034 3.47746 0 0 0 90 90 92 255
-0.42239 1.02764 3.66872 0 0 0 28 76 121 255
1.26431 0.947896 3.30647 0 0 0 119 104 97 255
1.10586 0.966237 3.36926 0 0 0 95 84 81 255
0.269874 1.18094 4.12778 0 0 0 96 97 98 255
1.13804 1.01652 3.35434 0 0 0 135 132 116 255
1.2328 1.0026 3.3016 0 0 0 111 86 81 255
1.33903 1.00563 3.21927 0 0 0 114 112 111 255
1.2693 1.04143 3.26986 0 0 0 134 140 143 255
1.27162 1.08861 3.25444 0 0 0 125 129 135 255
-0.46073 1.21961 3.64439 0 0 0 118 123 145 255
-0.73746 1.21273 3.50486 0 0 0 37 87 124 255
-0.713344 1.22678 3.49866 0 0 0 80 103 141 255
-0.987485 -0.896753 3.55302 0 0 0 37 73 61 255
-0.756728 -0.804484 3.47345 0 0 0 77 92 84 255
-0.79472 -0.802004 3.47272 0 0 0 137 139 139 255
-0.768747 -0.731457 3.47636 0 0 0 112 42 50 255
-0.822522 -0.725639 3.48339 0 0 0 81 56 56 255
-0.845879 -0.721605 3.48938 0 0 0 156 141 140 255
-0.761709 -0.714434 3.4777 0 0 0 167 148 150 255
-0.893698 -0.722313 3.50867 0 0 0 68 54 52 255
-0.763077 -0.687505 3.47894 0 0 0 124 37 45 255
-0.912745 -0.695822 3.51635 0 0 0 146 130 132 255
-0.802676 -0.590459 3.47744 0 0 0 143 146 139 255
-0.761171 -0.546266 3.48814 0 0 0 151 151 151 255
-0.904028 -0.555555 3.53444 0 0 0 135 134 131 255
-0.458392 -0.347326 3.7782 0 0 0 137 138 81 255
-0.665071 -0.183394 3.49582 0 0 0 152 155 132 255
-0.870004 -0.171171 3.53442 0 0 0 130 134 118 255
-0.813701 -0.0863199 3.50997 0 0 0 57 96 62 255
-0.866564 -0.0751495 3.53861 0 0 0 132 124 125 255
-0.437337 -0.0743527 3.78956 0 0 0 133 134 86 255
0.064366 0.0614927 4.30542 0 0 0 152 154 153 255
0.304911 0.24602 4.31261 0 0 0 100 102 104 255
-0.949699 0.340289 3.65846 0 0 0 40 57 77 255
0.326112 0.480345 4.1116 0 0 0 87 85 82 255
-0.668792 0.455981 3.52107 0 0 0 34 55 81 255
0.23892 0.516915 4.07813 0 0 0 120 122 122 255
-0.874273 0.481393 3.59063 0 0 0 97 119 139 255
-0.503533 0.476832 3.59313 0 0 0 79 106 139 255
0.239636 0.551029 4.07881 0 0 0 58 52 57 255
-0.694817 0.519152 3.52052 0 0 0 138 138 123 255
-0.418113 0.549002 3.72851 0 0 0 31 70 110 255
-0.494247 0.599327 3.60738 0 0 0 50 109 151 255
1.34819 0.646268 3.51756 0 0 0 91 104 95 255
-0.899213 0.658569 3.62928 0 0 0 126 134 138 255
1.33221 0.683366 3.4925 0 0 0 37 44 39 255
1.24092 0.73104 3.51138 0 0 0 120 89 88 255
1.3625 0.82381 3.36138 0 0 0 98 91 91 255
0.839202 0.924816 3.85442 0 0 0 166 167 163 255
-0.651807 1.06433 3.52891 0 0 0 31 97 139 255
-0.874736 -0.806712 3.48095 0 0 0 94 108 90 255
-0.755869 -0.727092 3.47886 0 0 0 167 144 144 255
-0.698904 -0.690448 3.48482 0 0 0 146 83 90 255
-0.821753 -0.689545 3.48508 0 0 0 117 34 34 255
-0.957504 -0.629085 3.5581 0 0 0 52 81 44 255
-0.800455 -0.579383 3.4785 0 0 0 154 154 151 255
-0.493236 -0.571159 3.61253 0 0 0 152 158 157 255
-0.953239 -0.582803 3.5469 0 0 0 59 81 73 255
-0.904734 -0.538279 3.53444 0 0 0 139 139 139 255
-0.9268 -0.533815 3.54296 0 0 0 36 64 53 255
-0.888776 -0.485943 3.517 0 0 0 135 140 132 255
-0.749648 -0.411148 3.49109 0 0 0 158 158 158 255
-0.458342 -0.347409 3.77842 0 0 0 137 138 81 255
-0.885969 -0.321852 3.53876 0 0 0 137 140 126 255
-0.66086 -0.231788 3.49681 0 0 0 11 86 129 255
-0.609765 -0.187841 3.51506 0 0 0 10 70 118 255
-0.939446 -0.18285 3.59377 0 0 0 56 85 45 255
-0.509246 -0.157624 3.57765 0 0 0 164 141 61 255
-0.937522 -0.0645535 3.61177 0 0 0 42 80 53 255
0.261609 0.076873 4.2668 0 0 0 48 44 45 255
0.26183 0.172547 4.30456 0 0 0 101 107 116 255
0.304863 0.244266 4.31274 0 0 0 100 102 104 255
0.134137 0.405031 4.12199 0 0 0 125 122 114 255
-0.493715 0.487794 3.6044 0 0 0 99 140 166 255
-0.428069 0.493229 3.72353 0 0 0 86 122 150 255
0.255099 0.553985 4.08747 0 0 0 43 49 54 255
-0.863082 0.498154 3.58268 0 0 0 113 126 133 255
-0.415492 0.534975 3.74142 0 0 0 80 119 145 255
1.25843 0.66167 3.6628 0 0 0 118 146 146 255
0.243434 0.755804 4.08871 0 0 0 75 68 65 255
1.2032 0.682212 3.55331 0 0 0 62 96 84 255
-0.898583 0.715617 3.61666 0 0 0 62 64 81 255
-0.49978 0.709317 3.608 0 0 0 165 168 167 255
1.24208 0.726811 3.52527 0 0 0 129 88 88 255
-0.63226 0.726486 3.53802 0 0 0 162 163 170 255
-0.460761 0.788973 3.64762 0 0 0 46 60 86 255
-0.42102 0.802377 3.69889 0 0 0 155 158 167 255
-0.899275 0.825873 3.60904 0 0 0 32 61 92 255
1.24122 0.81029 3.37106 0 0 0 141 142 146 255
-0.527862 0.863984 3.57475 0 0 0 167 171 169 255
-0.702622 0.864067 3.53493 0 0 0 47 70 107 255
0.827623 0.945364 3.8251 0 0 0 171 175 173 255
-0.805383 0.896347 3.56472 0 0 0 46 63 92 255
1.29156 0.897217 3.30702 0 0 0 74 64 68 255
0.42357 1.29771 4.36157 0 0 0 125 128 127 255
1.25506 1.02188 3.27535 0 0 0 92 111 121 255
1.29967 1.09558 3.25538 0 0 0 71 66 74 255
-0.797736 -0.810155 3.47936 0 0 0 146 149 147 255
-0.761042 -0.712866 3.47796 0 0 0 167 148 150 255
-0.547087 -0.508469 3.55639 0 0 0 35 85 74 255
-0.916787 -0.502865 3.53823 0 0 0 35 76 55 255
-0.615865 -0.422809 3.5089 0 0 0 161 162 166 255
-0.560769 -0.330111 3.54396 0 0 0 114 129 89 255
-0.458985 -0.35133 3.77754 0 0 0 137 138 81 255
-0.644849 -0.296516 3.503 0 0 0 137 145 126 255
-0.943137 -0.197225 3.59696 0 0 0 50 81 50 255
-0.668394 -0.17749 3.49609 0 0 0 156 155 121 255
-0.439363 -0.0786873 3.7896 0 0 0 133 134 86 255
-0.938606 0.00476624 3.62175 0 0 0 26 54 40 255
0.158022 0.0775282 4.23083 0 0 0 52 56 70 255
0.139375 0.301389 4.22763 0 0 0 133 140 140 255
-0.941415 0.34726 3.65728 0 0 0 21 54 89 255
0.127399 0.418918 4.12215 0 0 0 140 119 104 255
0.0721912 0.497206 4.10667 0 0 0 49 59 63 255
0.419991 0.556297 4.33114 0 0 0 70 68 64 255
0.179412 0.553934 4.07936 0 0 0 143 147 149 255
-0.434048 0.502027 3.69206 0 0 0 117 90 107 255
0.23301 0.576846 4.0799 0 0 0 146 150 152 255
-0.837781 0.523462 3.56406 0 0 0 163 145 122 255
0.111075 0.605948 4.09639 0 0 0 126 125 126 255
-0.648564 0.535816 3.52776 0 0 0 41 101 92 255
-0.592351 0.555366 3.54307 0 0 0 112 152 172 255
-0.843313 0.572491 3.57353 0 0 0 161 131 97 255
1.14303 0.618857 3.56397 0 0 0 125 134 110 255
1.26021 0.663712 3.66512 0 0 0 125 149 149 255
-0.886104 0.724022 3.60688 0 0 0 46 58 84 255
-0.637537 0.728412 3.53724 0 0 0 142 138 162 255
1.25527 0.759998 3.48864 0 0 0 158 158 156 255
-0.725314 0.769716 3.52874 0 0 0 164 165 164 255
1.34382 0.8025 3.36176 0 0 0 155 147 149 255
1.38689 0.804651 3.37204 0 0 0 50 72 62 255
-0.704802 0.851977 3.53448 0 0 0 86 96 104 255
-0.732466 0.891445 3.537 0 0 0 171 168 169 255
-0.614814 0.896889 3.5461 0 0 0 170 170 170 255
-0.513559 0.923043 3.58936 0 0 0 88 101 126 255
-0.432551 1.12144 3.6755 0 0 0 174 154 94 255
-0.782966 1.12501 3.50489 0 0 0 152 157 158 255
-0.843035 -0.724233 3.48913 0 0 0 146 145 136 255
-0.568925 -0.537789 3.54447 0 0 0 159 160 155 255
-0.504965 -0.52553 3.58994 0 0 0 156 161 159 255
