ply
format ascii 1.0
comment VCGLIB generated
element vertex 1013
property float x
property float y
property float z
property float nx
property float ny
property float nz
property uchar red
property uchar green
property uchar blue
property uchar alpha
element face 0
property list uchar int vertex_indices
end_header
-0.418371 0.842197 3.7079 0 0 0 38 73 113 255
-0.473202 0.849491 3.64044 0 0 0 164 168 169 255
1.12259 0.806379 3.37078 0 0 0 85 89 86 255
-0.840923 0.961032 3.58454 0 0 0 158 161 160 255
-0.799536 0.947755 3.56147 0 0 0 154 155 157 255
-0.451283 1.01665 3.66449 0 0 0 18 90 137 255
-0.613414 1.00952 3.54888 0 0 0 152 155 163 255
-0.446537 1.06808 3.66211 0 0 0 140 122 113 255
-0.62063 -0.205363 3.51114 0 0 0 72 97 70 255
-0.461296 -0.0344842 3.75256 0 0 0 52 100 72 255
-0.710296 -0.00518931 3.50084 0 0 0 26 67 39 255
0.253214 0.0935546 4.25509 0 0 0 102 50 48 255
0.0555198 0.0806791 4.31335 0 0 0 106 103 104 255
0.251336 0.14031 4.2289 0 0 0 50 42 45 255
0.0148457 0.324282 4.32684 0 0 0 61 64 67 255
0.343799 0.369039 4.29904 0 0 0 52 51 56 255
-0.450327 0.357532 3.79103 0 0 0 22 69 117 255
-0.814941 0.539319 3.55442 0 0 0 157 140 91 255
-0.463169 0.650237 3.62424 0 0 0 19 72 123 255
-0.78565 0.736998 3.55047 0 0 0 161 163 168 255
0.00598058 0.84802 4.30353 0 0 0 40 45 46 255
0.344086 0.828683 4.23026 0 0 0 39 44 46 255
-0.684097 0.722896 3.53295 0 0 0 35 66 115 255
-0.681608 0.78563 3.53241 0 0 0 41 68 109 255
0.192828 0.919223 4.09539 0 0 0 138 144 147 255
-0.425775 0.864766 3.68198 0 0 0 42 78 117 255
-0.743617 -0.827791 3.47596 0 0 0 122 130 124 255
-0.787975 -0.822625 3.47389 0 0 0 81 101 87 255
-0.760891 -0.820432 3.4791 0 0 0 145 146 145 255
-0.743622 -0.818902 3.47223 0 0 0 154 155 154 255
-0.831377 -0.820052 3.48095 0 0 0 80 106 89 255
-0.737549 -0.80786 3.4807 0 0 0 107 121 119 255
-0.683131 -0.804285 3.48897 0 0 0 53 76 70 255
-0.884575 -0.815122 3.50112 0 0 0 71 89 69 255
-0.804702 -0.809131 3.48652 0 0 0 136 137 135 255
-0.761875 -0.8009 3.47241 0 0 0 72 92 80 255
-0.742153 -0.800361 3.47199 0 0 0 120 120 120 255
-0.713308 -0.808264 3.48479 0 0 0 70 80 72 255
-0.670159 -0.804456 3.49212 0 0 0 141 139 137 255
-0.925529 -0.814581 3.51346 0 0 0 81 82 74 255
-0.903801 -0.806469 3.50778 0 0 0 53 51 49 255
-0.794864 -0.795603 3.47798 0 0 0 105 122 118 255
-0.964897 -0.815921 3.5544 0 0 0 116 115 113 255
-0.840195 -0.790139 3.48679 0 0 0 101 100 92 255
-0.871009 -0.783826 3.49777 0 0 0 83 96 91 255
-0.917932 -0.788266 3.51731 0 0 0 120 125 123 255
-0.63397 -0.753983 3.50543 0 0 0 155 149 137 255
-0.764898 -0.740726 3.47808 0 0 0 99 90 88 255
-0.820893 -0.727783 3.48407 0 0 0 81 56 56 255
-0.8144 -0.725127 3.48289 0 0 0 116 64 63 255
-0.897052 -0.724653 3.51273 0 0 0 68 54 52 255
-0.76624 -0.713291 3.47904 0 0 0 169 133 136 255
-0.861187 -0.714677 3.49582 0 0 0 86 71 73 255
-0.845282 -0.712181 3.49168 0 0 0 150 148 148 255
-0.80677 -0.708733 3.48293 0 0 0 158 147 151 255
-0.788193 -0.705124 3.48198 0 0 0 93 55 58 255
-0.951897 -0.717436 3.54831 0 0 0 73 52 49 255
-0.807175 -0.68899 3.4845 0 0 0 112 57 62 255
-0.760039 -0.684897 3.48057 0 0 0 128 41 45 255
-0.926429 -0.701043 3.53615 0 0 0 120 102 105 255
-0.836844 -0.676059 3.49289 0 0 0 109 49 54 255
-0.887767 -0.676557 3.51188 0 0 0 106 81 85 255
-0.940405 -0.612627 3.54937 0 0 0 120 121 114 255
-0.811218 -0.597002 3.49753 0 0 0 135 141 134 255
-0.793829 -0.591493 3.48409 0 0 0 149 156 155 255
-0.762048 -0.584849 3.48414 0 0 0 153 154 151 255
-0.903269 -0.565928 3.53383 0 0 0 113 123 116 255
-0.76248 -0.54345 3.48642 0 0 0 151 152 145 255
-0.936715 -0.53714 3.55152 0 0 0 51 78 71 255
-0.563024 -0.374243 3.54135 0 0 0 66 117 87 255
-0.620931 -0.359095 3.50803 0 0 0 68 112 88 255
-0.461766 -0.352598 3.7745 0 0 0 122 137 87 255
-0.886454 -0.332395 3.52136 0 0 0 125 125 120 255
-0.442988 -0.33633 3.78679 0 0 0 141 139 84 255
-0.878686 -0.302992 3.53112 0 0 0 136 137 134 255
-0.552786 -0.244845 3.5413 0 0 0 64 88 82 255
-0.681729 -0.191464 3.49658 0 0 0 79 109 55 255
-0.76818 -0.184574 3.49599 0 0 0 99 126 78 255
-0.869103 -0.173649 3.53325 0 0 0 130 134 118 255
-0.942089 -0.167581 3.60865 0 0 0 50 86 62 255
-0.949575 -0.134858 3.60241 0 0 0 93 99 102 255
-0.750612 -0.0975529 3.49562 0 0 0 110 104 113 255
-0.817331 -0.0896045 3.5108 0 0 0 77 99 82 255
-0.437188 -0.0686607 3.79066 0 0 0 132 133 86 255
-0.951925 0.0314083 3.62279 0 0 0 43 82 70 255
0.322465 0.08474 4.2898 0 0 0 83 78 78 255
0.049904 0.0973141 4.31551 0 0 0 106 107 108 255
0.254081 0.168668 4.29218 0 0 0 107 113 112 255
0.172785 0.392061 4.10537 0 0 0 85 87 83 255
0.330452 0.417363 4.1752 0 0 0 92 100 105 255
0.43542 0.461848 4.2857 0 0 0 72 73 75 255
0.407074 0.488163 4.26097 0 0 0 71 75 82 255
-0.666815 0.45285 3.52092 0 0 0 34 55 81 255
-0.913399 0.480049 3.63307 0 0 0 91 108 132 255
-0.439624 0.498619 3.683 0 0 0 111 75 98 255
-0.502436 0.5158 3.59505 0 0 0 52 77 110 255
-0.43605 0.521396 3.67864 0 0 0 115 91 111 255
-0.639265 0.51317 3.5309 0 0 0 66 104 99 255
-0.542196 0.51676 3.56935 0 0 0 52 82 113 255
1.35395 0.571508 3.77852 0 0 0 104 103 88 255
-0.466526 0.538171 3.62742 0 0 0 112 111 116 255
-0.41572 0.548383 3.71849 0 0 0 31 70 110 255
-0.448444 0.544654 3.6534 0 0 0 112 120 128 255
-0.435207 0.558874 3.67834 0 0 0 123 113 118 255
-0.522522 0.56356 3.58038 0 0 0 36 74 122 255
-0.487846 0.572304 3.60802 0 0 0 130 131 138 255
-0.649037 0.567701 3.5289 0 0 0 73 99 91 255
-0.629624 0.568771 3.53092 0 0 0 72 104 102 255
-0.550901 0.579181 3.56111 0 0 0 36 87 128 255
-0.91748 0.592223 3.64359 0 0 0 91 103 131 255
1.32183 0.622576 3.51785 0 0 0 59 78 71 255
1.26015 0.649015 3.6511 0 0 0 92 128 124 255
1.34259 0.642356 3.51486 0 0 0 99 98 81 255
1.06124 0.656753 3.5684 0 0 0 139 120 124 255
-0.913176 0.64993 3.63676 0 0 0 111 123 144 255
1.18328 0.668433 3.52608 0 0 0 146 150 151 255
1.19161 0.682235 3.53185 0 0 0 77 91 84 255
1.15032 0.681605 3.49387 0 0 0 108 76 73 255
-0.415431 0.714328 3.70169 0 0 0 109 112 121 255
1.33461 0.695379 3.48874 0 0 0 30 49 43 255
-0.894714 0.706492 3.61316 0 0 0 111 107 119 255
-0.414319 0.748816 3.71165 0 0 0 85 95 108 255
1.1268 0.716873 3.46972 0 0 0 91 88 97 255
1.24561 0.731925 3.51926 0 0 0 119 93 91 255
-0.89737 0.742079 3.6091 0 0 0 102 115 129 255
1.14119 0.744281 3.44263 0 0 0 123 110 113 255
1.06766 0.762679 3.45756 0 0 0 155 149 151 255
-0.888234 0.782408 3.58725 0 0 0 103 104 107 255
1.38735 0.771968 3.39218 0 0 0 136 139 111 255
1.05842 0.786889 3.44449 0 0 0 118 110 113 255
1.03477 0.794779 3.44357 0 0 0 136 111 108 255
0.46826 1.08918 4.86494 0 0 0 155 151 147 255
1.16802 0.801662 3.38824 0 0 0 150 151 157 255
0.264305 0.950577 4.12038 0 0 0 94 96 97 255
0.209448 0.963386 4.0956 0 0 0 101 107 106 255
0.468546 1.11452 4.77564 0 0 0 112 112 112 255
0.83848 0.925078 3.85452 0 0 0 174 175 171 255
-0.488678 0.895745 3.60931 0 0 0 69 95 137 255
1.35537 0.874971 3.3131 0 0 0 96 102 111 255
-0.614155 0.936376 3.5463 0 0 0 116 132 170 255
1.05075 0.922265 3.3969 0 0 0 101 100 100 255
0.940473 0.948034 3.47746 0 0 0 90 90 92 255
-0.42239 1.02764 3.66872 0 0 0 28 76 121 255
1.26431 0.947896 3.30647 0 0 0 119 104 97 255
1.10586 0.966237 3.36926 0 0 0 95 84 81 255
0.269874 1.18094 4.12778 0 0 0 96 97 98 255
1.13804 1.01652 3.35434 0 0 0 135 132 116 255
1.2328 1.0026 3.3016 0 0 0 111 86 81 255
1.33903 1.00563 3.21927 0 0 0 114 112 111 255
1.2693 1.04143 3.26986 0 0 0 134 140 143 255
1.27162 1.08861 3.25444 0 0 0 125 129 135 255
-0.46073 1.21961 3.64439 0 0 0 118 123 145 255
-0.73746 1.21273 3.50486 0 0 0 37 87 124 255
-0.713344 1.22678 3.49866 0 0 0 80 103 141 255
-0.987485 -0.896753 3.55302 0 0 0 37 73 61 255
-0.757034 -0.804682 3.47408 0 0 0 77 92 84 255
-0.795054 -0.802212 3.47339 0 0 0 137 139 139 255
-0.76932 -0.731929 3.47788 0 0 0 112 42 50 255
-0.823279 -0.726118 3.48542 0 0 0 81 56 56 255
-0.846645 -0.72196 3.49142 0 0 0 156 141 140 255
-0.762121 -0.714674 3.47869 0 0 0 167 148 150 255
-0.894697 -0.723101 3.5113 0 0 0 68 54 52 255
-0.763639 -0.687893 3.48047 0 0 0 124 37 45 255
-0.91419 -0.696834 3.52033 0 0 0 146 130 132 255
-0.802938 -0.590555 3.47796 0 0 0 143 146 139 255
-0.7608 -0.545702 3.48646 0 0 0 151 151 151 255
-0.903938 -0.556262 3.53369 0 0 0 135 134 131 255
-0.458511 -0.347416 3.77853 0 0 0 137 138 81 255
-0.665806 -0.183519 3.49838 0 0 0 152 155 132 255
-0.869868 -0.171666 3.53363 0 0 0 130 134 118 255
-0.813844 -0.0865984 3.51016 0 0 0 57 96 62 255
-0.866406 -0.0746391 3.53789 0 0 0 132 124 125 255
-0.437394 -0.0743907 3.78972 0 0 0 133 134 86 255
0.0641753 0.0609044 4.30946 0 0 0 152 154 153 255
0.304842 0.245996 4.31329 0 0 0 100 102 104 255
-0.949824 0.340323 3.65868 0 0 0 40 57 77 255
0.32623 0.480443 4.11842 0 0 0 87 85 82 255
-0.668678 0.456002 3.52066 0 0 0 34 55 81 255
0.238948 0.517119 4.07832 0 0 0 120 122 122 255
-0.873363 0.48082 3.58768 0 0 0 97 119 139 255
-0.50365 0.477448 3.59374 0 0 0 79 106 139 255
0.239659 0.549786 4.07842 0 0 0 58 52 57 255
-0.695001 0.519365 3.52132 0 0 0 138 138 123 255
-0.416192 0.546952 3.71766 0 0 0 31 70 110 255
-0.494246 0.599479 3.60762 0 0 0 50 109 151 255
1.34819 0.646268 3.51756 0 0 0 91 104 95 255
-0.896826 0.656031 3.62149 0 0 0 126 134 138 255
1.33221 0.683366 3.4925 0 0 0 37 44 39 255
1.24092 0.73104 3.51138 0 0 0 120 89 88 255
1.3625 0.82381 3.36138 0 0 0 98 91 91 255
0.839164 0.924971 3.85442 0 0 0 166 167 163 255
-0.651807 1.06433 3.52891 0 0 0 31 97 139 255
-0.875107 -0.806918 3.48166 0 0 0 94 108 90 255
-0.755972 -0.727228 3.47876 0 0 0 167 144 144 255
-0.69955 -0.690944 3.48681 0 0 0 146 83 90 255
-0.822517 -0.690076 3.48717 0 0 0 117 34 34 255
-0.957802 -0.629322 3.55855 0 0 0 52 81 44 255
-0.800711 -0.579474 3.47901 0 0 0 154 154 151 255
-0.49279 -0.57019 3.60983 0 0 0 152 158 157 255
-0.953656 -0.582973 3.54767 0 0 0 59 81 73 255
-0.90458 -0.538946 3.53345 0 0 0 139 139 139 255
-0.927273 -0.534105 3.54399 0 0 0 36 64 53 255
-0.889077 -0.486048 3.51756 0 0 0 135 140 132 255
-0.74937 -0.410848 3.48973 0 0 0 158 158 158 255
-0.458461 -0.347499 3.77876 0 0 0 137 138 81 255
-0.886194 -0.321877 3.53919 0 0 0 137 140 126 255
-0.661196 -0.231994 3.4978 0 0 0 11 86 129 255
-0.610357 -0.188263 3.51723 0 0 0 10 70 118 255
-0.939712 -0.182885 3.59426 0 0 0 56 85 45 255
-0.510391 -0.158036 3.58295 0 0 0 164 141 61 255
-0.937743 -0.0645634 3.61218 0 0 0 42 80 53 255
0.261584 0.0770649 4.26362 0 0 0 48 44 45 255
0.261753 0.172512 4.30523 0 0 0 101 107 116 255
0.304794 0.244242 4.31341 0 0 0 100 102 104 255
0.134307 0.403997 4.11661 0 0 0 125 122 114 255
-0.4939 0.488377 3.60538 0 0 0 99 140 166 255
-0.428037 0.493216 3.72344 0 0 0 86 122 150 255
0.255123 0.552474 4.08621 0 0 0 43 49 54 255
-0.861566 0.497571 3.57777 0 0 0 113 126 133 255
-0.414541 0.53368 3.73642 0 0 0 80 119 145 255
1.25843 0.66167 3.6628 0 0 0 118 146 146 255
0.243473 0.755789 4.08766 0 0 0 75 68 65 255
1.2032 0.682212 3.55331 0 0 0 62 96 84 255
-0.897301 0.714519 3.6127 0 0 0 62 64 81 255
-0.500521 0.710763 3.61182 0 0 0 165 168 167 255
1.24208 0.726811 3.52527 0 0 0 129 88 88 255
-0.631503 0.725351 3.53518 0 0 0 162 163 170 255
-0.461278 0.790746 3.65065 0 0 0 46 60 86 255
-0.420941 0.802327 3.69871 0 0 0 155 158 167 255
-0.899214 0.82587 3.6089 0 0 0 32 61 92 255
1.24122 0.81029 3.37106 0 0 0 141 142 146 255
-0.52664 0.861623 3.56944 0 0 0 167 171 169 255
-0.702554 0.864072 3.53499 0 0 0 47 70 107 255
0.827577 0.945549 3.8251 0 0 0 171 175 173 255
-0.804458 0.895755 3.56188 0 0 0 46 63 92 255
1.29156 0.897217 3.30702 0 0 0 74 64 68 255
0.42357 1.29771 4.36157 0 0 0 125 128 127 255
1.25506 1.02188 3.27535 0 0 0 92 111 121 255
1.29966 1.09562 3.25538 0 0 0 71 66 74 255
-0.798239 -0.810718 3.48055 0 0 0 146 149 147 255
-0.761433 -0.713114 3.47888 0 0 0 167 148 150 255
-0.547247 -0.508532 3.55678 0 0 0 35 85 74 255
-0.917226 -0.502235 3.53921 0 0 0 35 76 55 255
-0.615963 -0.424005 3.50894 0 0 0 161 162 166 255
-0.561193 -0.330273 3.54548 0 0 0 114 129 89 255
-0.459106 -0.351421 3.77788 0 0 0 137 138 81 255
-0.644883 -0.296486 3.50276 0 0 0 137 145 126 255
-0.943418 -0.197265 3.59748 0 0 0 50 81 50 255
-0.669137 -0.177597 3.49866 0 0 0 156 155 121 255
-0.439402 -0.0787139 3.78969 0 0 0 133 134 86 255
-0.938816 0.00476722 3.62214 0 0 0 26 54 40 255
0.157868 0.0774824 4.23555 0 0 0 52 56 70 255
0.139447 0.300687 4.22594 0 0 0 133 140 140 255
-0.941534 0.347294 3.65749 0 0 0 21 54 89 255
0.127529 0.418273 4.11836 0 0 0 140 119 104 255
0.0721879 0.497329 4.10683 0 0 0 49 59 63 255
0.419941 0.556321 4.3318 0 0 0 70 68 64 255
0.17944 0.554147 4.07925 0 0 0 143 147 149 255
-0.434066 0.500399 3.6921 0 0 0 117 90 107 255
0.233034 0.575758 4.07962 0 0 0 146 150 152 255
-0.836883 0.523042 3.56116 0 0 0 163 145 122 255
0.111137 0.605534 4.09545 0 0 0 126 125 126 255
-0.648709 0.536047 3.52843 0 0 0 41 101 92 255
-0.592087 0.555232 3.54207 0 0 0 112 152 172 255
-0.842073 0.571917 3.56954 0 0 0 161 131 97 255
1.14303 0.618857 3.56397 0 0 0 125 134 110 255
1.26021 0.663712 3.66512 0 0 0 125 149 149 255
-0.885148 0.723611 3.60399 0 0 0 46 58 84 255
-0.636961 0.727426 3.53514 0 0 0 142 138 162 255
1.25527 0.759998 3.48864 0 0 0 158 158 156 255
-0.725837 0.770593 3.53089 0 0 0 164 165 164 255
1.34382 0.8025 3.36176 0 0 0 155 147 149 255
1.38689 0.804651 3.37204 0 0 0 50 72 62 255
-0.70478 0.851887 3.53471 0 0 0 86 96 104 255
-0.732379 0.891287 3.537 0 0 0 171 168 169 255
-0.614501 0.896809 3.54521 0 0 0 170 170 170 255
-0.512359 0.921638 3.58416 0 0 0 88 101 126 255
-0.432551 1.12144 3.6755 0 0 0 174 154 94 255
-0.782966 1.12501 3.50489 0 0 0 152 157 158 255
-0.843788 -0.724654 3.49112 0 0 0 146 145 136 255
-0.569128 -0.537887 3.54498 0 0 0 159 160 155 255
-0.504676 -0.524221 3.58811 0 0 0 156 161 159 255
-0.750924 -0.503028 3.5073 0 0 0 56 99 52 255
-0.601447 -0.492154 3.55964 0 0 0 159 161 162 255
-0.736499 -0.389682 3.49088 0 0 0 157 161 162 255
-0.867382 -0.340209 3.52985 0 0 0 147 148 147 255
-0.524872 -0.0100703 3.55191 0 0 0 42 100 68 255
-0.464067 -1.3308e-05 3.84828 0 0 0 88 117 107 255
0.293527 0.135877 4.307 0 0 0 52 49 47 255
0.29228 0.174485 4.30818 0 0 0 65 69 73 255
0.106827 0.187998 4.27856 0 0 0 49 54 52 255
0.0153029 0.350863 4.32583 0 0 0 46 52 57 255
-0.458888 0.348598 3.87272 0 0 0 14 62 108 255
-0.543705 0.435935 3.56192 0 0 0 99 84 60 255
0.304459 0.545755 4.11147 0 0 0 148 148 152 255
0.0771387 0.577296 4.10716 0 0 0 59 65 64 255
-0.815078 0.525924 3.55426 0 0 0 159 142 91 255
-0.428544 0.536437 3.68751 0 0 0 158 134 144 255
1.24642 0.615912 3.60443 0 0 0 40 56 51 255
1.15488 0.622928 3.5399 0 0 0 139 144 149 255
1.34667 0.658864 3.5013 0 0 0 161 156 134 255
-0.476378 0.69211 3.62026 0 0 0 27 68 114 255
1.2631 0.695585 3.65694 0 0 0 134 152 151 255
-0.422796 0.716337 3.68097 0 0 0 156 158 158 255
-0.671042 0.729575 3.53305 0 0 0 31 69 117 255
0.352963 0.841987 4.23023 0 0 0 35 42 43 255
0.159877 0.910849 4.09315 0 0 0 128 128 128 255
0.284369 0.917755 4.12819 0 0 0 133 134 131 255
-0.899343 0.835012 3.61088 0 0 0 31 63 91 255
-0.50143 0.846473 3.60444 0 0 0 167 170 173 255
-0.617617 0.879209 3.54402 0 0 0 166 171 173 255
-0.780509 0.91957 3.56103 0 0 0 166 166 166 255
-0.46631 1.00817 3.66126 0 0 0 1 97 146 255
-0.645607 -0.259573 3.50066 0 0 0 125 141 113 255
-0.634107 -0.215027 3.50387 0 0 0 46 98 129 255
-0.52153 -0.145521 3.57851 0 0 0 167 133 44 255
-0.45983 -0.0210387 3.77191 0 0 0 45 96 67 255
0.0713372 0.117842 4.30936 0 0 0 83 51 48 255
0.266697 0.141346 4.28429 0 0 0 44 42 43 255
0.193783 0.292576 4.26629 0 0 0 177 178 178 255
-0.461103 0.348213 3.86959 0 0 0 13 62 109 255
-0.039039 0.421961 4.32925 0 0 0 117 118 116 255
0.338974 0.34879 4.29518 0 0 0 47 53 58 255
0.302179 0.574288 4.11202 0 0 0 146 147 147 255
-0.458227 0.550734 3.63876 0 0 0 158 155 160 255
0.0128552 0.673885 4.23778 0 0 0 33 39 42 255
1.2544 0.624488 3.61689 0 0 0 43 63 59 255
-0.479978 0.689077 3.61833 0 0 0 34 64 115 255
1.24554 0.748116 3.49775 0 0 0 145 134 131 255
1.33292 0.743824 3.49625 0 0 0 45 86 73 255
-0.680186 0.798289 3.53302 0 0 0 42 66 112 255
0.261095 0.951295 4.1201 0 0 0 119 122 122 255
-2.70217 -1.55389 5.22432 0 0 0 81 80 77 255
-0.772328 -0.799393 3.46005 0 0 0 47 74 67 255
-0.78907 -0.73574 3.48032 0 0 0 139 145 120 255
-0.563573 -0.723856 3.54553 0 0 0 111 48 54 255
-0.86478 -0.689156 3.50185 0 0 0 166 132 136 255
-0.522506 -0.566323 3.5689 0 0 0 155 160 158 255
-0.888444 -0.464587 3.51056 0 0 0 126 144 126 255
-0.728644 -0.329196 3.49117 0 0 0 88 129 88 255
-0.944699 -0.304001 3.58108 0 0 0 109 122 110 255
-0.591854 -0.283382 3.52897 0 0 0 36 93 130 255
-0.62216 -0.186778 3.51141 0 0 0 13 71 115 255
-0.816199 -0.161587 3.50544 0 0 0 67 103 56 255
-0.843805 -0.127617 3.517 0 0 0 137 82 100 255
-0.856529 -0.0956803 3.52835 0 0 0 133 116 121 255
-0.924821 -0.080434 3.58817 0 0 0 54 88 66 255
-0.984995 -0.0623008 3.66606 0 0 0 96 110 105 255
0.158871 0.0996134 4.23586 0 0 0 147 86 84 255
0.159391 0.105187 4.23535 0 0 0 138 94 88 255
-2.90425 0.31373 5.3766 0 0 0 79 89 88 255
-2.93645 0.373464 5.60989 0 0 0 93 95 94 255
-2.736 0.372142 5.61027 0 0 0 41 43 44 255
-0.409804 0.317844 3.83924 0 0 0 98 104 111 255
-0.932176 0.386338 3.66923 0 0 0 58 81 107 255
-0.53828 0.419112 3.56625 0 0 0 32 46 70 255
-0.441905 0.481765 3.69681 0 0 0 92 135 172 255
-0.516631 0.481902 3.58324 0 0 0 14 74 127 255
-0.488128 0.554351 3.60788 0 0 0 159 164 164 255
-0.627038 0.5886 3.53145 0 0 0 117 132 139 255
0.165795 0.734895 4.0826 0 0 0 113 89 56 255
1.06889 0.67513 3.34578 0 0 0 98 91 96 255
-2.69271 1.24046 5.21918 0 0 0 111 111 106 255
0.889392 1.24495 5.71344 0 0 0 130 124 120 255
-0.792633 0.889306 3.5621 0 0 0 47 69 107 255
-2.51356 1.222 4.74716 0 0 0 55 89 57 255
-2.56349 1.26305 4.95408 0 0 0 33 34 38 255
-0.595485 0.903473 3.55663 0 0 0 166 167 167 255
-2.52975 1.28049 4.84657 0 0 0 73 75 73 255
-2.44682 1.23979 4.60204 0 0 0 94 131 122 255
-0.898645 0.976419 3.62532 0 0 0 138 140 150 255
-0.670223 0.949596 3.53945 0 0 0 71 110 153 255
-2.31288 1.28932 4.55076 0 0 0 79 82 84 255
-2.70625 -1.54849 5.20266 0 0 0 86 79 77 255
-0.522721 -0.566455 3.56883 0 0 0 155 160 158 255
-0.518419 -0.463889 3.58146 0 0 0 38 84 78 255
-0.9403 -0.316832 3.57234 0 0 0 121 136 126 255
-0.820222 -0.166753 3.50608 0 0 0 62 101 56 255
-0.956643 0.0191448 3.62652 0 0 0 61 80 75 255
-2.90456 0.308763 5.37494 0 0 0 79 89 88 255
-0.45951 0.471716 3.66356 0 0 0 89 112 139 255
0.213489 0.511319 4.07486 0 0 0 66 72 77 255
0.1937 0.524506 4.07946 0 0 0 49 46 41 255
-0.471805 0.602917 3.64041 0 0 0 18 84 131 255
-0.902433 0.75784 3.61595 0 0 0 128 132 145 255
-0.893274 0.770826 3.5998 0 0 0 143 145 142 255
-0.408751 0.809858 3.74388 0 0 0 147 153 167 255
-2.69215 1.24063 5.21835 0 0 0 111 111 106 255
-2.50703 1.15638 4.74042 0 0 0 89 104 96 255
0.880693 1.23949 5.43433 0 0 0 124 121 116 255
-2.54852 1.26482 4.97721 0 0 0 116 116 119 255
-2.63974 -1.56139 5.28244 0 0 0 91 94 97 255
-2.70771 -1.53063 5.21029 0 0 0 88 88 88 255
-0.997789 -0.91466 3.58816 0 0 0 62 81 74 255
-0.930798 -0.799886 3.52957 0 0 0 105 109 108 255
-0.861505 -0.687415 3.49975 0 0 0 166 132 136 255
-0.935923 -0.523726 3.55469 0 0 0 34 71 56 255
-0.432715 0.332411 3.80891 0 0 0 45 64 89 255
-0.463148 0.474428 3.65404 0 0 0 95 125 147 255
-0.481472 0.468621 3.61884 0 0 0 6 75 127 255
-0.483165 0.538065 3.61183 0 0 0 132 138 145 255
-0.896942 0.667054 3.61604 0 0 0 147 148 146 255
-0.445809 0.711896 3.64201 0 0 0 161 164 166 255
-2.71134 1.11874 5.27851 0 0 0 45 45 44 255
-0.477833 0.766458 3.63829 0 0 0 166 169 170 255
-0.406129 0.797696 3.74722 0 0 0 148 150 152 255
-2.67378 1.1663 5.2479 0 0 0 118 116 110 255
-2.541 1.23908 5.12211 0 0 0 54 52 53 255
1.03932 0.756045 3.21466 0 0 0 146 149 158 255
-2.53916 1.28876 4.92001 0 0 0 115 118 119 255
-0.686587 -0.394081 3.49729 0 0 0 157 162 160 255
-0.607701 -0.2486 3.51888 0 0 0 16 91 135 255
-0.481808 0.83862 3.63692 0 0 0 166 170 170 255
-0.520541 0.854381 3.57548 0 0 0 169 173 172 255
-0.732144 0.904579 3.53927 0 0 0 167 169 168 255
-2.54304 1.28315 4.91777 0 0 0 96 99 99 255
-0.703961 -0.567725 3.49143 0 0 0 158 161 160 255
-0.508516 -0.540231 3.58345 0 0 0 156 161 159 255
-0.730215 -0.516807 3.48743 0 0 0 51 99 58 255
-0.599573 -0.439357 3.5119 0 0 0 160 162 161 255
-0.853482 -0.355364 3.50275 0 0 0 147 149 148 255
-0.943462 -0.213167 3.59184 0 0 0 54 86 46 255
-0.60779 -0.204764 3.51931 0 0 0 19 75 113 255
0.285471 0.0998617 4.29175 0 0 0 102 58 56 255
0.0769342 0.145573 4.30669 0 0 0 42 44 46 255
0.185558 0.228669 4.25035 0 0 0 151 151 151 255
0.182366 0.301796 4.25817 0 0 0 163 165 167 255
-0.433988 0.34132 3.80948 0 0 0 22 64 109 255
-0.939355 0.359804 3.67122 0 0 0 39 71 102 255
0.409393 0.411132 4.28645 0 0 0 94 84 76 255
-0.665666 0.438063 3.52166 0 0 0 130 122 91 255
-0.451334 0.483653 3.67474 0 0 0 94 128 153 255
0.0651235 0.513778 4.10941 0 0 0 111 117 118 255
0.281994 0.540458 4.09639 0 0 0 41 47 52 255
0.325074 0.545839 4.11527 0 0 0 140 144 147 255
-0.820521 0.681966 3.561 0 0 0 157 159 160 255
-0.722947 0.687447 3.53003 0 0 0 164 169 167 255
-0.613972 0.653805 3.53271 0 0 0 165 168 167 255
0.386055 0.83847 4.25229 0 0 0 40 49 48 255
0.0291874 0.841216 4.18587 0 0 0 40 42 41 255
0.928779 0.736631 3.51193 0 0 0 115 49 48 255
-0.493367 0.847552 3.61854 0 0 0 165 170 172 255
-0.709487 -0.408325 3.49674 0 0 0 158 161 161 255
-0.733422 -0.358353 3.49063 0 0 0 65 86 82 255
-0.933227 -0.0109341 3.63087 0 0 0 42 67 50 255
0.0407355 0.144488 4.31864 0 0 0 152 152 152 255
-0.0236755 0.355661 4.33853 0 0 0 154 155 152 255
-0.942843 0.426611 3.67909 0 0 0 17 56 94 255
0.142925 0.55434 4.08416 0 0 0 143 140 143 255
-0.783441 0.537412 3.53663 0 0 0 157 149 98 255
1.06072 0.578182 3.80664 0 0 0 133 133 127 255
-0.787821 0.697369 3.54415 0 0 0 160 162 161 255
-0.45687 0.720639 3.63138 0 0 0 26 64 109 255
-0.680768 0.743145 3.53431 0 0 0 34 65 112 255
-0.426013 0.910379 3.80943 0 0 0 14 79 128 255
0.204676 0.885708 4.14385 0 0 0 120 95 63 255
0.234767 0.915431 4.10107 0 0 0 133 135 134 255
-0.872616 -0.793791 3.49681 0 0 0 56 66 63 255
-0.973691 -0.798919 3.57884 0 0 0 98 111 100 255
-0.684391 -0.744772 3.4911 0 0 0 144 71 76 255
-0.873114 -0.730608 3.50265 0 0 0 122 115 118 255
-0.981604 -0.692717 3.57355 0 0 0 75 43 40 255
-0.93792 -0.679798 3.54763 0 0 0 104 54 62 255
-0.936461 -0.562515 3.54973 0 0 0 113 124 120 255
-2.8478 0.288614 5.2059 0 0 0 91 92 92 255
-2.81224 0.33186 5.13714 0 0 0 88 81 84 255
0.202583 0.395842 4.10197 0 0 0 137 118 86 255
0.410695 0.503553 4.20629 0 0 0 75 86 89 255
-0.516035 0.446368 3.57808 0 0 0 61 47 48 255
-0.876019 0.660085 3.60895 0 0 0 28 65 105 255
0.197811 0.716632 4.09128 0 0 0 94 86 69 255
-2.59472 0.997039 4.71614 0 0 0 26 41 38 255
0.22136 0.742875 4.08876 0 0 0 123 93 56 255
-2.59932 1.02451 4.73453 0 0 0 33 44 45 255
-2.59464 1.09558 4.73805 0 0 0 93 124 116 255
-2.64831 1.27536 5.1191 0 0 0 113 115 116 255
0.82903 1.21906 5.61027 0 0 0 126 119 112 255
-2.5675 1.22165 4.87903 0 0 0 90 108 103 255
0.956196 0.725662 3.53438 0 0 0 81 69 64 255
0.709604 1.27964 5.65197 0 0 0 131 125 123 255
0.46393 1.0051 4.44453 0 0 0 96 90 83 255
0.514193 1.04824 4.63928 0 0 0 110 108 102 255
0.872499 0.869871 4.01009 0 0 0 173 173 170 255
0.327796 0.944415 4.14763 0 0 0 79 85 90 255
0.293235 0.946602 4.13124 0 0 0 93 95 98 255
0.158414 0.958195 4.11638 0 0 0 80 87 84 255
0.240585 0.945336 4.10925 0 0 0 103 107 107 255
0.293152 0.956235 4.13109 0 0 0 88 90 92 255
0.858676 0.888394 3.96298 0 0 0 168 168 168 255
0.933897 0.79661 3.53171 0 0 0 142 136 134 255
-0.522914 0.934054 3.58069 0 0 0 66 102 137 255
-2.84247 0.287143 5.19423 0 0 0 91 92 92 255
-2.88224 0.303086 5.29632 0 0 0 94 93 91 255
0.028107 0.599184 4.13838 0 0 0 106 110 109 255
-0.575586 0.584858 3.54983 0 0 0 94 141 164 255
0.205614 0.720584 4.09238 0 0 0 102 87 63 255
-2.58786 0.978342 4.72289 0 0 0 123 142 138 255
-2.59735 1.00386 4.71856 0 0 0 22 37 35 255
-2.60358 1.04188 4.71731 0 0 0 106 113 113 255
-2.59559 1.06039 4.77287 0 0 0 126 133 132 255
0.941982 0.732241 3.54004 0 0 0 97 51 50 255
0.87439 0.868551 4.02371 0 0 0 177 175 171 255
0.715335 1.29234 5.67404 0 0 0 115 110 100 255
0.455726 1.01059 4.41453 0 0 0 145 148 147 255
0.897029 0.785433 3.54729 0 0 0 121 123 110 255
-0.903908 0.967689 3.62771 0 0 0 152 151 154 255
-1.01493 -0.793812 3.65663 0 0 0 50 77 51 255
-2.88694 0.313841 5.27248 0 0 0 90 88 85 255
-3.01412 0.384102 5.68416 0 0 0 101 101 99 255
0.313511 0.257772 4.28515 0 0 0 104 102 105 255
0.233422 0.437036 4.09965 0 0 0 79 62 57 255
-2.56548 0.726099 4.80149 0 0 0 149 153 152 255
0.252787 0.524885 4.08683 0 0 0 52 44 41 255
0.0283923 0.597858 4.13835 0 0 0 106 110 109 255
0.337133 0.596178 4.13011 0 0 0 35 42 48 255
-0.606932 0.564124 3.5376 0 0 0 146 163 170 255
-0.888254 0.582485 3.60066 0 0 0 134 104 98 255
-2.6236 0.901101 4.90575 0 0 0 88 107 95 255
-0.892583 0.637322 3.60972 0 0 0 97 110 128 255
-2.58692 0.983706 4.73329 0 0 0 139 139 139 255
-0.560779 0.758932 3.56487 0 0 0 76 96 124 255
-0.663456 0.801807 3.5309 0 0 0 168 170 169 255
0.882232 0.864378 4.06788 0 0 0 174 175 170 255
1.02052 1.24711 5.61305 0 0 0 126 117 107 255
0.517843 1.04808 4.65924 0 0 0 149 147 142 255
0.729889 1.29576 5.69206 0 0 0 112 105 103 255
-2.35109 1.20709 4.44878 0 0 0 136 135 138 255
0.901273 0.78417 3.52907 0 0 0 136 133 127 255
-0.725207 -0.590211 3.49467 0 0 0 157 162 160 255
-0.806826 -0.568075 3.48598 0 0 0 155 156 153 255
-0.945732 -0.0402517 3.61132 0 0 0 23 51 30 255
0.0603736 0.192697 4.31963 0 0 0 70 68 69 255
0.287157 0.242189 4.28285 0 0 0 101 104 104 255
-2.51296 0.365004 4.64791 0 0 0 88 89 89 255
0.139115 0.284865 4.22143 0 0 0 140 142 142 255
0.172385 0.543752 4.08034 0 0 0 143 147 149 255
-0.864504 0.576847 3.58927 0 0 0 153 129 108 255
0.237018 0.686187 4.08278 0 0 0 113 91 69 255
-0.506807 0.665692 3.60573 0 0 0 165 170 168 255
-0.6402 0.708888 3.53349 0 0 0 74 100 142 255
-0.714176 0.759216 3.53295 0 0 0 167 169 168 255
0.739213 1.29901 5.68965 0 0 0 108 102 99 255
1.01688 1.25399 5.62196 0 0 0 129 121 115 255
-1.04733 -0.906701 3.72878 0 0 0 27 53 37 255
-0.965589 -0.593227 3.56195 0 0 0 47 82 47 255
-0.709657 -0.581634 3.49523 0 0 0 159 162 162 255
-0.50617 -0.505637 3.5861 0 0 0 155 159 158 255
-0.696688 -0.079431 3.4931 0 0 0 58 106 65 255
-2.9029 0.402791 5.87744 0 0 0 31 34 34 255
0.163589 0.24346 4.25097 0 0 0 114 116 115 255
0.1909 0.262707 4.26243 0 0 0 123 128 131 255
-0.828579 0.554191 3.56094 0 0 0 156 150 133 255
-0.710679 0.570542 3.52574 0 0 0 117 132 105 255
-0.515083 0.656772 3.60566 0 0 0 162 170 167 255
-0.925001 0.6933 3.63155 0 0 0 22 55 93 255
-1.00049 -0.785986 3.62721 0 0 0 43 70 43 255
-0.946852 0.00923914 3.6728 0 0 0 42 79 59 255
0.00663575 0.36987 4.32777 0 0 0 49 50 50 255
-0.882815 0.343074 3.59203 0 0 0 30 62 98 255
-0.961629 -0.811197 3.5461 0 0 0 96 106 98 255
-0.935713 -0.785402 3.53413 0 0 0 99 102 101 255
-0.826792 -0.740307 3.48588 0 0 0 88 52 48 255
-0.812824 -0.738527 3.48329 0 0 0 150 116 116 255
-0.906676 -0.719458 3.51887 0 0 0 84 37 38 255
-0.678327 -0.705166 3.49063 0 0 0 119 56 61 255
-0.93941 -0.720659 3.54019 0 0 0 83 64 62 255
-0.994591 -0.729596 3.58437 0 0 0 86 49 48 255
-0.945351 -0.700661 3.54648 0 0 0 144 98 105 255
-0.893099 -0.689655 3.51281 0 0 0 150 113 114 255
-0.973479 -0.702978 3.56499 0 0 0 143 89 97 255
-0.964165 -0.561461 3.56845 0 0 0 81 93 81 255
-0.877595 -0.496799 3.51936 0 0 0 145 147 146 255
-0.897076 -0.467607 3.52718 0 0 0 128 137 131 255
-0.891668 -0.336671 3.53517 0 0 0 108 121 99 255
-0.550177 -0.161212 3.55575 0 0 0 124 104 27 255
-0.531108 -0.162176 3.57699 0 0 0 132 117 43 255
-0.953619 -0.170415 3.60284 0 0 0 116 124 114 255
-0.911142 -0.160721 3.5604 0 0 0 61 92 51 255
-0.6165 -0.150007 3.51858 0 0 0 84 76 50 255
-0.842575 -0.140516 3.51736 0 0 0 133 109 115 255
-0.935485 -0.138494 3.58163 0 0 0 75 79 85 255
-0.937481 -0.124306 3.58587 0 0 0 65 72 85 255
-0.976038 -0.105433 3.64774 0 0 0 121 126 125 255
-0.948877 -0.0925373 3.60569 0 0 0 74 77 86 255
-0.910502 -0.0823068 3.56496 0 0 0 63 89 75 255
-0.952501 -0.0716575 3.61575 0 0 0 113 120 116 255
-0.561885 0.102189 3.63945 0 0 0 108 104 101 255
-0.617004 0.13263 3.7086 0 0 0 214 213 216 255
-0.902312 0.353382 3.59394 0 0 0 64 89 117 255
-0.898214 0.379679 3.58998 0 0 0 57 80 105 255
-0.0406322 0.490536 4.32731 0 0 0 91 92 92 255
-0.503462 0.453491 3.59288 0 0 0 101 95 115 255
-0.680656 0.45301 3.51969 0 0 0 105 92 50 255
-0.894722 0.471697 3.59532 0 0 0 79 106 131 255
-0.033919 0.598182 4.30494 0 0 0 102 101 102 255
-0.682825 0.515107 3.52388 0 0 0 104 124 114 255
-0.850601 0.59077 3.56959 0 0 0 139 127 117 255
-0.833888 0.589998 3.56188 0 0 0 112 111 110 255
-0.911583 0.671576 3.61109 0 0 0 99 103 120 255
0.943523 0.730696 3.60759 0 0 0 150 143 128 255
-0.908438 0.729832 3.61311 0 0 0 119 136 167 255
-0.898567 0.803765 3.60987 0 0 0 141 143 156 255
0.985546 1.24659 5.5216 0 0 0 112 105 97 255
1.03365 1.21953 5.39459 0 0 0 133 129 121 255
0.866975 1.24727 5.49153 0 0 0 110 108 108 255
0.244935 0.967752 4.1168 0 0 0 100 103 104 255
0.933519 0.881854 3.62711 0 0 0 81 111 124 255
-0.863314 0.874447 3.59454 0 0 0 82 89 94 255
0.954083 0.908646 3.60582 0 0 0 58 68 78 255
0.271092 1.17272 4.10908 0 0 0 108 109 106 255
0.883742 1.08559 3.65807 0 0 0 102 111 113 255
-0.685487 1.05649 3.53165 0 0 0 57 107 142 255
-0.815401 1.10594 3.57543 0 0 0 104 105 127 255
-0.993317 -0.564053 3.60344 0 0 0 39 72 46 255
-0.872665 -0.319921 3.52103 0 0 0 146 148 147 255
-0.913118 -0.162935 3.56108 0 0 0 61 91 55 255
-0.954392 -0.164758 3.60264 0 0 0 122 125 124 255
-0.506478 -0.126509 3.59454 0 0 0 160 143 99 255
-0.938295 -0.128989 3.58639 0 0 0 72 78 94 255
-0.953859 -0.0725708 3.61744 0 0 0 113 120 116 255
-0.907586 0.677838 3.60773 0 0 0 140 141 151 255
0.961525 0.750464 3.68483 0 0 0 139 139 130 255
-0.898134 0.78768 3.61081 0 0 0 152 153 153 255
-0.87919 0.823124 3.60233 0 0 0 115 120 132 255
0.933519 0.881854 3.62711 0 0 0 81 111 124 255
-0.92047 0.96062 3.63652 0 0 0 121 138 162 255
0.906318 1.13594 3.82794 0 0 0 54 48 51 255
-0.684308 1.06636 3.53685 0 0 0 101 144 171 255
-0.957121 -0.807625 3.54299 0 0 0 112 110 108 255
-0.582451 -0.737306 3.5355 0 0 0 90 55 60 255
-0.945654 -0.671507 3.54947 0 0 0 130 127 128 255
-0.965827 -0.663701 3.56188 0 0 0 136 129 131 255
-1.00252 -0.565294 3.61859 0 0 0 52 80 56 255
-0.89146 -0.489408 3.52315 0 0 0 145 147 144 255
-0.875026 -0.320393 3.5214 0 0 0 146 148 147 255
-0.95101 -0.16153 3.59809 0 0 0 122 125 124 255
-0.468688 0.0953109 3.82745 0 0 0 117 115 116 255
-0.979107 0.350982 3.78066 0 0 0 24 56 93 255
0.344606 0.505968 4.13584 0 0 0 122 133 136 255
-0.887136 0.477038 3.59306 0 0 0 101 114 131 255
0.993199 0.678609 3.71248 0 0 0 129 128 127 255
-0.902104 0.780712 3.61231 0 0 0 151 153 152 255
1.02618 1.22325 5.43782 0 0 0 135 132 127 255
-0.891854 0.866791 3.60373 0 0 0 154 152 154 255
-0.869097 0.897047 3.59398 0 0 0 72 83 102 255
-0.470085 0.98041 3.65696 0 0 0 3 116 159 255
-0.682609 1.06658 3.53798 0 0 0 101 144 171 255
0.411713 1.30557 4.28008 0 0 0 116 122 124 255
-1.00372 -0.578315 3.61659 0 0 0 57 84 60 255
-0.890178 -0.507088 3.52333 0 0 0 146 147 144 255
-0.551452 -0.492455 3.55881 0 0 0 38 92 78 255
-0.936859 -0.340054 3.56567 0 0 0 137 140 141 255
0.147889 0.225826 4.23413 0 0 0 115 119 122 255
0.101096 0.536554 4.09417 0 0 0 91 85 82 255
-0.503256 0.696655 3.6146 0 0 0 164 168 169 255
0.446191 0.90571 4.26635 0 0 0 166 173 171 255
0.853945 0.847508 3.88645 0 0 0 147 145 146 255
0.465224 1.03151 4.36482 0 0 0 163 165 163 255
-0.48243 0.951516 3.63212 0 0 0 132 157 175 255
-0.525042 0.991677 3.59226 0 0 0 133 164 185 255
-0.446404 1.05395 3.6949 0 0 0 146 157 167 255
-0.54987 1.03874 3.58988 0 0 0 1 109 155 255
-0.73947 1.06962 3.5482 0 0 0 24 89 136 255
0.411704 1.30465 4.27998 0 0 0 116 122 124 255
-0.895981 -0.514492 3.52519 0 0 0 143 146 145 255
-0.605699 -0.414583 3.50265 0 0 0 126 143 141 255
-0.86848 -0.343703 3.51907 0 0 0 146 151 150 255
-0.706906 -0.0825399 3.49505 0 0 0 60 100 60 255
-0.518057 0.00125863 3.5509 0 0 0 52 100 72 255
-0.959423 0.0240833 3.65992 0 0 0 35 77 55 255
0.177379 0.237026 4.26472 0 0 0 147 148 148 255
0.0341745 0.343119 4.33201 0 0 0 46 48 47 255
-0.970809 0.359334 3.7773 0 0 0 17 55 97 255
-0.461097 0.522661 3.63443 0 0 0 155 162 165 255
0.135035 0.704743 4.08657 0 0 0 52 46 46 255
-0.531448 0.655385 3.61706 0 0 0 165 167 169 255
-0.853494 0.657217 3.58332 0 0 0 26 59 103 255
-0.476459 0.673353 3.62446 0 0 0 32 64 113 255
-0.63083 0.668411 3.53117 0 0 0 163 168 169 255
-0.013634 0.836496 4.32946 0 0 0 50 54 55 255
0.460029 0.896022 4.27113 0 0 0 177 180 178 255
-0.481646 0.826085 3.63895 0 0 0 166 171 169 255
0.983454 1.21719 5.42391 0 0 0 124 121 115 255
-0.923894 0.86171 3.63114 0 0 0 21 70 111 255
-0.695227 0.819136 3.54188 0 0 0 67 72 83 255
-0.804263 0.934034 3.55947 0 0 0 155 161 170 255
-0.975436 -0.21291 3.67583 0 0 0 51 87 46 255
0.267902 0.0886358 4.26941 0 0 0 57 50 50 255
0.00267666 0.305469 4.35604 0 0 0 154 157 153 255
0.031716 0.365512 4.32676 0 0 0 42 45 44 255
0.318398 0.334854 4.28446 0 0 0 51 58 66 255
-0.0127776 0.436869 4.32685 0 0 0 67 68 65 255
-0.974635 0.358759 3.77887 0 0 0 17 55 97 255
-0.444496 0.429964 3.71295 0 0 0 13 68 118 255
0.161879 0.558393 4.08565 0 0 0 134 130 136 255
-0.83255 0.565208 3.55954 0 0 0 150 145 131 255
-0.474797 0.657732 3.62729 0 0 0 24 68 115 255
-0.833599 0.702254 3.56955 0 0 0 156 160 159 255
-0.823954 0.701793 3.56215 0 0 0 157 161 160 255
-0.771485 0.695275 3.54127 0 0 0 164 166 168 255
-0.933799 0.85761 3.63641 0 0 0 22 73 115 255
-0.0944029 1.21402 5.01405 0 0 0 174 177 174 255
-0.604818 0.882061 3.55702 0 0 0 165 173 174 255
1.63091 -1.78896 5.9586 0 0 0 50 56 67 255
2.07349 -1.68638 5.92108 0 0 0 77 74 77 255
1.68907 -1.6669 5.88904 0 0 0 114 113 114 255
1.66917 -1.64336 5.91168 0 0 0 107 107 107 255
2.08132 -1.59774 5.93681 0 0 0 56 51 55 255
-1.03672 -0.90674 3.6954 0 0 0 20 46 35 255
-0.659383 -0.83318 3.4953 0 0 0 118 130 126 255
-0.714249 -0.826287 3.48213 0 0 0 142 144 142 255
-1.03306 -0.882389 3.69989 0 0 0 16 43 24 255
2.07224 -1.46617 5.921 0 0 0 71 67 68 255
-0.85324 -0.819193 3.49182 0 0 0 118 118 118 255
-0.693152 -0.81431 3.48658 0 0 0 118 132 126 255
-0.762648 -0.800726 3.47827 0 0 0 102 118 109 255
-0.742707 -0.798204 3.48179 0 0 0 126 140 138 255
-0.711779 -0.799654 3.48089 0 0 0 139 148 146 255
-0.672679 -0.802969 3.49469 0 0 0 126 139 137 255
-0.615691 -0.803791 3.50577 0 0 0 135 143 143 255
-0.659591 -0.797152 3.49401 0 0 0 133 140 144 255
-0.707705 -0.757462 3.48369 0 0 0 149 145 137 255
2.078 -1.37415 5.93276 0 0 0 101 94 97 255
-0.867022 -0.753265 3.49858 0 0 0 101 116 76 255
-0.949939 -0.733796 3.55285 0 0 0 120 129 114 255
-0.960756 -0.731165 3.55972 0 0 0 90 56 60 255
-0.896616 -0.708113 3.51708 0 0 0 160 78 84 255
-0.811492 -0.671593 3.49085 0 0 0 153 146 146 255
-0.956915 -0.673304 3.55897 0 0 0 102 74 79 255
-0.971441 -0.674552 3.56898 0 0 0 151 113 119 255
-0.986931 -0.668675 3.57995 0 0 0 136 123 123 255
-1.0045 -0.5458 3.62433 0 0 0 127 130 121 255
-0.927573 -0.0327676 3.57435 0 0 0 19 53 28 255
0.180231 0.10106 4.26404 0 0 0 103 67 66 255
0.216642 0.166886 4.24541 0 0 0 71 80 82 255
2.07789 0.695166 5.95983 0 0 0 86 75 68 255
2.06967 0.786927 5.94917 0 0 0 97 84 79 255
-0.57306 0.432618 3.54698 0 0 0 118 105 82 255
-0.702084 0.495406 3.51774 0 0 0 20 80 125 255
-0.877163 0.504141 3.58926 0 0 0 100 107 121 255
-0.564559 0.507079 3.56141 0 0 0 122 151 166 255
1.07028 0.583131 3.58773 0 0 0 77 104 96 255
1.04204 0.591777 3.62041 0 0 0 111 111 111 255
1.02203 0.60827 3.65919 0 0 0 116 132 126 255
1.11441 0.594593 3.55984 0 0 0 110 126 109 255
1.09911 0.608418 3.55072 0 0 0 92 71 62 255
1.04123 0.629898 3.60118 0 0 0 124 123 114 255
1.08277 0.627479 3.5417 0 0 0 139 104 87 255
1.02359 0.642003 3.61054 0 0 0 93 103 86 255
1.0854 0.628699 3.53919 0 0 0 146 121 104 255
-0.64325 0.579097 3.53203 0 0 0 80 124 119 255
0.162772 0.709562 4.07277 0 0 0 73 70 66 255
1.05155 0.668027 3.53446 0 0 0 157 154 149 255
0.935561 0.683273 3.5952 0 0 0 86 72 66 255
1.07919 0.676135 3.51392 0 0 0 154 147 144 255
1.08433 0.687345 3.50798 0 0 0 95 78 83 255
-0.407483 0.679312 3.76758 0 0 0 23 74 116 255
0.917287 0.708986 3.61931 0 0 0 129 123 100 255
1.04971 0.743963 3.47259 0 0 0 126 118 120 255
1.06579 0.751505 3.43942 0 0 0 126 124 120 255
0.896545 0.775493 3.55805 0 0 0 139 127 104 255
0.9371 0.77592 3.50631 0 0 0 84 75 88 255
0.814737 1.16122 5.34906 0 0 0 136 128 122 255
0.941903 0.785497 3.50168 0 0 0 124 127 132 255
-0.811149 0.732603 3.55657 0 0 0 155 159 164 255
0.465543 0.98367 4.33604 0 0 0 102 101 96 255
-0.921222 0.771689 3.62546 0 0 0 92 100 117 255
0.455192 0.99648 4.30837 0 0 0 157 166 166 255
0.953334 0.86851 3.4633 0 0 0 39 52 74 255
0.909673 0.892187 3.48635 0 0 0 49 49 53 255
0.952327 0.921814 3.47375 0 0 0 129 124 113 255
-0.796718 0.866589 3.55521 0 0 0 72 76 99 255
0.863092 0.966246 3.62118 0 0 0 61 83 101 255
-0.7133 0.867595 3.53891 0 0 0 64 67 76 255
-0.647674 0.956356 3.53934 0 0 0 113 124 152 255
0.944 1.09285 3.4716 0 0 0 122 127 136 255
2.07323 -1.68936 5.9229 0 0 0 87 84 87 255
1.83202 -1.66176 5.91867 0 0 0 99 109 103 255
2.08046 -1.60212 5.94032 0 0 0 103 98 99 255
-0.659271 -0.820421 3.49549 0 0 0 149 149 151 255
-0.924934 -0.729429 3.53293 0 0 0 122 132 101 255
-0.985169 -0.517652 3.60981 0 0 0 39 75 67 255
-0.726602 -0.157321 3.49507 0 0 0 154 159 158 255
2.07708 0.705594 5.96284 0 0 0 80 66 69 255
0.0407638 0.602767 4.13133 0 0 0 103 106 105 255
1.0639 0.586939 3.59212 0 0 0 103 121 114 255
-0.647726 0.517425 3.53483 0 0 0 44 95 85 255
-0.523722 0.581905 3.58098 0 0 0 105 131 158 255
0.8953 0.778314 3.55236 0 0 0 130 128 100 255
-0.888808 0.772481 3.60885 0 0 0 150 154 152 255
0.944068 0.923406 3.47805 0 0 0 139 127 106 255
-0.713863 0.868012 3.5384 0 0 0 64 67 76 255
0.958392 1.09332 3.53433 0 0 0 125 129 132 255
2.08208 -1.61163 5.9381 0 0 0 54 48 54 255
-1.03188 -0.88672 3.69786 0 0 0 19 49 28 255
-0.85083 -0.816681 3.49224 0 0 0 140 140 141 255
2.07108 -1.4534 5.92019 0 0 0 70 65 67 255
2.07826 -1.38457 5.92762 0 0 0 61 51 55 255
-0.888248 -0.747602 3.51021 0 0 0 114 122 95 255
-0.966246 -0.721201 3.56335 0 0 0 94 43 46 255
-0.995823 -0.711171 3.5878 0 0 0 106 66 69 255
-0.897106 -0.548235 3.52649 0 0 0 143 146 141 255
-0.711522 -0.528769 3.49863 0 0 0 58 104 70 255
-0.921668 -0.0314544 3.56949 0 0 0 16 47 27 255
-0.996382 0.0295055 3.77166 0 0 0 54 83 73 255
0.218011 0.167509 4.24579 0 0 0 71 80 82 255
0.237723 0.226916 4.23322 0 0 0 156 158 160 255
-0.987658 0.335525 3.79431 0 0 0 56 77 97 255
0.413992 0.435938 4.2354 0 0 0 70 73 79 255
2.07752 0.713883 5.96364 0 0 0 82 68 71 255
2.06815 0.768295 5.94851 0 0 0 93 81 80 255
-0.687115 0.424693 3.51857 0 0 0 97 105 108 255
1.9607 0.798785 5.61345 0 0 0 161 159 155 255
-0.0406877 0.575365 4.30336 0 0 0 107 112 112 255
1.0343 0.597683 3.63868 0 0 0 119 127 123 255
1.06629 0.586174 3.58626 0 0 0 126 143 137 255
1.02506 0.607804 3.65145 0 0 0 117 125 119 255
1.12121 0.594738 3.55391 0 0 0 126 137 115 255
-0.552811 0.557454 3.56606 0 0 0 134 144 153 255
1.03939 0.627984 3.60736 0 0 0 105 114 103 255
1.05296 0.658351 3.5446 0 0 0 136 134 134 255
0.941653 0.731882 3.56437 0 0 0 105 50 57 255
-0.895801 0.678529 3.60376 0 0 0 149 153 152 255
0.936345 0.774737 3.50759 0 0 0 84 75 88 255
-0.909088 0.7483 3.6175 0 0 0 148 150 155 255
-0.806882 0.736436 3.55436 0 0 0 160 162 163 255
0.4988 0.995991 4.39236 0 0 0 107 103 100 255
0.866189 0.955094 3.61291 0 0 0 115 122 123 255
-0.682644 0.924051 3.53671 0 0 0 60 65 72 255
-0.56119 -0.559663 3.55531 0 0 0 129 155 146 255
-0.971585 -0.553535 3.58417 0 0 0 90 105 87 255
-0.754043 -0.392671 3.48512 0 0 0 156 160 158 255
-0.941204 -0.324578 3.57162 0 0 0 138 140 137 255
0.026605 0.476665 4.13552 0 0 0 47 49 52 255
-0.425482 0.452335 3.77969 0 0 0 33 81 122 255
1.03709 0.599051 3.63154 0 0 0 116 120 116 255
-0.620668 0.707885 3.52265 0 0 0 165 171 171 255
0.903246 0.782356 3.53656 0 0 0 139 140 131 255
0.0662249 0.960611 4.15927 0 0 0 58 64 74 255
0.938066 0.871773 3.4744 0 0 0 88 68 66 255
-0.90638 0.824291 3.61247 0 0 0 31 72 113 255
-0.513177 0.85754 3.56807 0 0 0 167 167 167 255
-0.876477 0.910737 3.58815 0 0 0 107 106 109 255
-0.905656 0.952329 3.62803 0 0 0 156 158 159 255
-0.852127 -0.733479 3.49582 0 0 0 144 134 127 255
-0.696234 -0.726863 3.489 0 0 0 132 70 79 255
-0.524452 -0.707315 3.571 0 0 0 163 156 155 255
-0.71837 -0.503608 3.50134 0 0 0 60 107 65 255
-0.654303 -0.184898 3.50223 0 0 0 159 149 103 255
-0.979458 0.00377668 3.75735 0 0 0 38 79 53 255
0.0358598 0.254715 4.35798 0 0 0 154 156 155 255
0.410228 0.428868 4.24342 0 0 0 74 77 78 255
0.307934 0.499517 4.11647 0 0 0 145 149 150 255
-0.653795 0.450883 3.52557 0 0 0 100 94 109 255
-0.87629 0.499105 3.58877 0 0 0 94 104 115 255
0.389818 0.821378 4.25732 0 0 0 40 48 49 255
0.445217 1.02361 4.23958 0 0 0 171 176 174 255
-0.907568 0.831866 3.61224 0 0 0 29 73 113 255
-0.472282 -0.031796 3.76152 0 0 0 49 97 70 255
0.332544 0.356247 4.26259 0 0 0 46 51 56 255
0.0619767 0.562489 4.11739 0 0 0 121 126 127 255
0.186371 0.539193 4.08062 0 0 0 144 148 150 255
-0.0421739 0.819352 4.34331 0 0 0 69 70 71 255
2.08947 -1.82241 5.9426 0 0 0 64 64 63 255
-0.681734 -0.810316 3.49952 0 0 0 46 79 76 255
-0.966641 -0.786657 3.55875 0 0 0 86 101 88 255
-0.899935 -0.749857 3.5174 0 0 0 132 135 119 255
-0.897767 -0.737135 3.51768 0 0 0 75 47 48 255
-0.884415 -0.733695 3.51091 0 0 0 154 147 150 255
-0.834152 -0.711871 3.49521 0 0 0 152 152 152 255
-0.844859 -0.684293 3.49995 0 0 0 75 61 63 255
-0.994207 -0.692669 3.59166 0 0 0 88 33 33 255
-1.01132 -0.695142 3.61347 0 0 0 117 100 97 255
-0.996982 -0.675685 3.59336 0 0 0 124 97 97 255
-0.935119 -0.590574 3.54985 0 0 0 36 69 63 255
-0.934294 -0.577701 3.54984 0 0 0 24 63 52 255
-0.962716 -0.572269 3.56938 0 0 0 67 95 73 255
-0.913738 -0.5359 3.53836 0 0 0 107 120 113 255
-0.890744 -0.346338 3.53537 0 0 0 42 88 59 255
-0.662002 -0.142535 3.49649 0 0 0 111 92 43 255
0.0417038 0.481309 4.12189 0 0 0 50 60 68 255
1.30423 0.542627 3.65928 0 0 0 101 102 92 255
1.18034 0.578471 3.58661 0 0 0 90 116 109 255
1.20651 0.587636 3.54593 0 0 0 46 55 41 255
1.20217 0.61519 3.52847 0 0 0 160 163 164 255
-0.896049 0.591061 3.59385 0 0 0 110 110 120 255
1.13267 0.640443 3.52594 0 0 0 99 95 92 255
1.12297 0.657057 3.52345 0 0 0 133 137 138 255
1.13925 0.681929 3.49991 0 0 0 79 65 70 255
1.11662 0.698467 3.51641 0 0 0 99 86 94 255
0.961382 0.722211 3.55789 0 0 0 72 67 56 255
1.12888 0.722833 3.49129 0 0 0 163 162 165 255
1.17233 0.740829 3.46278 0 0 0 127 120 125 255
0.926455 0.783178 3.52673 0 0 0 141 139 138 255
1.20038 0.76732 3.42204 0 0 0 132 116 109 255
1.06197 0.78148 3.45375 0 0 0 100 90 88 255
1.18527 0.802566 3.42597 0 0 0 85 65 58 255
1.20009 0.800664 3.40414 0 0 0 160 155 159 255
1.08712 0.827348 3.44312 0 0 0 91 82 86 255
0.947098 0.836035 3.48628 0 0 0 77 73 75 255
0.956391 0.859265 3.48053 0 0 0 70 62 66 255
0.912261 0.875066 3.5024 0 0 0 56 57 68 255
-0.877532 0.849027 3.593 0 0 0 70 88 105 255
0.953485 0.942051 3.48881 0 0 0 72 73 77 255
1.13488 0.937735 3.39758 0 0 0 108 83 82 255
1.12927 0.966775 3.39978 0 0 0 102 79 64 255
-0.85282 0.966605 3.5791 0 0 0 128 135 148 255
-0.491086 1.01766 3.60593 0 0 0 16 112 150 255
-0.419372 1.07757 3.72222 0 0 0 101 112 125 255
0.935907 1.14162 3.6579 0 0 0 118 118 118 255
0.961702 1.148 3.58199 0 0 0 91 72 47 255
2.07779 -1.91671 5.92866 0 0 0 65 63 61 255
2.08608 -1.83114 5.95151 0 0 0 122 116 116 255
-1.0641 -0.921359 3.76601 0 0 0 83 95 89 255
-0.91097 -0.817427 3.52385 0 0 0 58 78 70 255
-0.700865 -0.80815 3.48993 0 0 0 112 116 114 255
-0.602123 -0.800156 3.51716 0 0 0 42 75 63 255
-0.963358 -0.683238 3.56459 0 0 0 98 42 46 255
0.287579 0.206958 4.29428 0 0 0 57 61 64 255
0.24418 0.473002 4.09388 0 0 0 43 51 59 255
0.0408631 0.487055 4.12307 0 0 0 94 97 101 255
0.97202 0.660525 3.64433 0 0 0 125 126 126 255
1.20499 0.657027 3.51184 0 0 0 158 162 165 255
1.15907 0.66416 3.51046 0 0 0 160 160 166 255
1.22563 0.674537 3.51369 0 0 0 106 123 116 255
0.958755 0.727876 3.5611 0 0 0 84 69 67 255
1.12377 0.720138 3.49377 0 0 0 147 148 155 255
1.18415 0.77005 3.44825 0 0 0 136 132 122 255
-0.887737 0.841211 3.59644 0 0 0 128 135 146 255
1.08884 0.961882 3.42664 0 0 0 85 85 86 255
-0.969441 1.07017 3.76391 0 0 0 148 150 150 255
2.08323 -1.85514 5.94644 0 0 0 117 114 115 255
1.64482 -1.82102 5.97938 0 0 0 57 60 68 255
1.98639 -1.81346 5.98919 0 0 0 104 102 98 255
-0.982546 -0.511908 3.60992 0 0 0 28 67 58 255
-0.621647 -0.437049 3.50303 0 0 0 151 162 159 255
-0.939986 -0.310327 3.57268 0 0 0 136 143 139 255
-1.00145 0.0186616 3.77257 0 0 0 60 90 74 255
0.248104 0.288425 4.23651 0 0 0 189 187 188 255
-0.425574 0.461212 3.71341 0 0 0 35 81 117 255
1.19663 0.619139 3.53268 0 0 0 149 148 153 255
1.12374 0.6801 3.51693 0 0 0 82 82 84 255
1.09719 0.873493 3.43773 0 0 0 85 82 83 255
-0.486396 -0.963687 3.72876 0 0 0 52 99 74 255
-0.931424 -0.507284 3.54884 0 0 0 32 80 52 255
-0.515431 -0.49114 3.57967 0 0 0 156 160 159 255
-0.511869 -0.0900256 3.61047 0 0 0 64 101 71 255
-0.424806 0.462336 3.71339 0 0 0 35 81 117 255
0.313355 0.535027 4.12093 0 0 0 145 147 149 255
-0.0237281 0.847451 4.36687 0 0 0 59 61 61 255
0.527968 0.931152 4.51899 0 0 0 175 176 171 255
-0.72307 0.717401 3.53124 0 0 0 41 59 103 255
0.507779 1.06307 4.45509 0 0 0 167 174 172 255
-0.864771 0.900805 3.5815 0 0 0 49 64 92 255
-0.799963 -0.558838 3.49443 0 0 0 151 156 154 255
-0.963791 -0.536994 3.58145 0 0 0 138 138 138 255
-0.974155 0.338099 3.79115 0 0 0 54 66 91 255
-0.435198 0.450089 3.71676 0 0 0 45 96 131 255
-0.472497 0.714329 3.62208 0 0 0 31 66 113 255
0.856103 0.85605 3.87176 0 0 0 93 96 106 255
-0.69634 0.841873 3.53109 0 0 0 50 68 109 255
-0.903279 0.928074 3.6183 0 0 0 155 157 159 255
-0.52962 -0.417579 3.58798 0 0 0 36 92 62 255
-0.899441 -0.117983 3.55364 0 0 0 138 135 133 255
-0.979246 -0.0256834 3.74991 0 0 0 36 81 54 255
0.263286 0.107463 4.26728 0 0 0 127 55 51 255
-0.966804 0.374819 3.78844 0 0 0 15 52 96 255
-0.462148 0.374984 3.73903 0 0 0 16 71 119 255
-0.870644 0.529587 3.57786 0 0 0 156 109 93 255
0.302682 0.668997 4.11565 0 0 0 35 42 42 255
0.0190588 0.828743 4.35256 0 0 0 36 45 44 255
-0.462051 -1.07533 3.72352 0 0 0 83 86 89 255
-1.01911 -0.868119 3.63579 0 0 0 5 33 21 255
-0.889983 -0.793298 3.51027 0 0 0 125 125 121 255
-0.961417 -0.750143 3.55801 0 0 0 84 101 65 255
-1.00275 -0.703048 3.59556 0 0 0 91 38 44 255
-0.71618 -0.692382 3.49337 0 0 0 136 127 125 255
-1.01445 -0.240342 3.71792 0 0 0 113 120 117 255
-0.966588 -0.134645 3.60864 0 0 0 72 80 85 255
-0.882402 -0.127129 3.53601 0 0 0 130 87 102 255
-0.720138 0.494378 3.52076 0 0 0 78 119 146 255
3.32405 0.876363 5.88872 0 0 0 58 53 55 255
-0.0442987 0.613997 4.35897 0 0 0 66 65 66 255
1.2726 0.601102 3.36309 0 0 0 80 69 67 255
1.26617 0.613201 3.41847 0 0 0 112 119 107 255
1.07263 0.648171 3.56622 0 0 0 136 131 133 255
1.86377 0.745161 3.99855 0 0 0 118 120 122 255
0.956947 0.679245 3.7492 0 0 0 82 80 84 255
1.06853 0.674228 3.52802 0 0 0 114 107 98 255
1.21385 0.720703 3.45437 0 0 0 120 96 96 255
-0.865383 0.659094 3.58325 0 0 0 38 66 91 255
1.29394 0.75294 3.41016 0 0 0 64 76 67 255
0.987012 0.763952 3.48073 0 0 0 93 88 89 255
1.33698 0.765441 3.41437 0 0 0 98 106 103 255
1.24828 0.774319 3.37897 0 0 0 134 122 119 255
1.26235 0.783737 3.37745 0 0 0 82 70 60 255
1.30726 0.789407 3.38682 0 0 0 70 69 56 255
1.33068 0.794799 3.40402 0 0 0 120 115 116 255
1.21603 0.790182 3.37052 0 0 0 133 93 86 255
1.37879 0.814172 3.41485 0 0 0 116 114 118 255
1.15056 0.806378 3.38209 0 0 0 119 114 115 255
1.22721 0.838155 3.35077 0 0 0 127 111 94 255
1.23783 0.863896 3.33885 0 0 0 125 123 117 255
1.3396 0.898788 3.40659 0 0 0 92 76 75 255
1.4966 0.963781 3.47556 0 0 0 99 99 101 255
1.22471 0.927001 3.34424 0 0 0 139 134 133 255
1.16703 0.96437 3.35706 0 0 0 85 83 87 255
1.12088 0.999037 3.3793 0 0 0 74 80 79 255
1.27407 1.02517 3.34405 0 0 0 79 76 84 255
1.33312 1.07353 3.43933 0 0 0 87 88 91 255
1.28077 1.06044 3.34229 0 0 0 85 84 86 255
1.3348 1.10326 3.45335 0 0 0 72 76 81 255
1.45033 1.11562 3.4821 0 0 0 128 129 126 255
