ply
format ascii 1.0
comment VCGLIB generated
element vertex 1015
property float x
property float y
property float z
property float nx
property float ny
property float nz
property uchar red
property uchar green
property uchar blue
property uchar alpha
element face 0
property list uchar int vertex_indices
end_header
-0.917491 0.592211 3.64363 0 0 0 91 103 131 255
1.32183 0.622576 3.51785 0 0 0 59 78 71 255
1.26015 0.649015 3.6511 0 0 0 92 128 124 255
1.34259 0.642356 3.51486 0 0 0 99 98 81 255
1.06124 0.656753 3.5684 0 0 0 139 120 124 255
-0.913209 0.649926 3.63684 0 0 0 111 123 144 255
1.18328 0.668433 3.52608 0 0 0 146 150 151 255
1.19161 0.682235 3.53185 0 0 0 77 91 84 255
1.15032 0.681605 3.49387 0 0 0 108 76 73 255
-0.415576 0.714428 3.70215 0 0 0 109 112 121 255
1.33461 0.695379 3.48874 0 0 0 30 49 43 255
-0.894571 0.705945 3.61272 0 0 0 111 107 119 255
-0.414509 0.748914 3.71226 0 0 0 85 95 108 255
1.1268 0.716873 3.46972 0 0 0 91 88 97 255
1.24561 0.731925 3.51926 0 0 0 119 93 91 255
-0.897596 0.742016 3.60965 0 0 0 102 115 129 255
1.14119 0.744281 3.44263 0 0 0 123 110 113 255
1.06766 0.762679 3.45756 0 0 0 155 149 151 255
-0.888307 0.78242 3.58741 0 0 0 103 104 107 255
1.38735 0.771968 3.39218 0 0 0 136 139 111 255
1.05842 0.786889 3.44449 0 0 0 118 110 113 255
1.03477 0.794779 3.44357 0 0 0 136 111 108 255
0.46826 1.08918 4.86494 0 0 0 155 151 147 255
1.16802 0.801662 3.38824 0 0 0 150 151 157 255
0.263921 0.9507 4.12186 0 0 0 94 96 97 255
0.209778 0.964529 4.09654 0 0 0 101 107 106 255
0.468546 1.11452 4.77564 0 0 0 112 112 112 255
0.838352 0.925597 3.85452 0 0 0 174 175 171 255
-0.488928 0.895873 3.60992 0 0 0 69 95 137 255
1.35537 0.874971 3.3131 0 0 0 96 102 111 255
-0.614276 0.936718 3.54738 0 0 0 116 132 170 255
1.05075 0.922265 3.3969 0 0 0 101 100 100 255
0.940473 0.948034 3.47746 0 0 0 90 90 92 255
-0.42239 1.02764 3.66872 0 0 0 28 76 121 255
1.26431 0.947896 3.30647 0 0 0 119 104 97 255
1.10586 0.966237 3.36926 0 0 0 95 84 81 255
0.269874 1.18094 4.12778 0 0 0 96 97 98 255
1.13804 1.01652 3.35434 0 0 0 135 132 116 255
1.2328 1.0026 3.3016 0 0 0 111 86 81 255
1.33903 1.00563 3.21927 0 0 0 114 112 111 255
1.2693 1.04143 3.26986 0 0 0 134 140 143 255
1.27162 1.08861 3.25444 0 0 0 125 129 135 255
-0.46073 1.21961 3.64439 0 0 0 118 123 145 255
-0.73746 1.21273 3.50486 0 0 0 37 87 124 255
-0.713344 1.22678 3.49866 0 0 0 80 103 141 255
-0.987485 -0.896753 3.55302 0 0 0 37 73 61 255
-0.756696 -0.804475 3.47339 0 0 0 77 92 84 255
-0.794701 -0.802003 3.47269 0 0 0 137 139 139 255
-0.768922 -0.731924 3.47752 0 0 0 112 42 50 255
-0.823032 -0.726089 3.48582 0 0 0 81 56 56 255
-0.846413 -0.721801 3.49194 0 0 0 156 141 140 255
-0.761553 -0.714343 3.47755 0 0 0 167 148 150 255
-0.894746 -0.723683 3.51282 0 0 0 68 54 52 255
-0.76299 -0.687656 3.47884 0 0 0 124 37 45 255
-0.914326 -0.69751 3.52216 0 0 0 146 130 132 255
-0.802515 -0.590382 3.47711 0 0 0 143 146 139 255
-0.759623 -0.54455 3.48181 0 0 0 151 151 151 255
-0.903219 -0.557101 3.53172 0 0 0 135 134 131 255
-0.458108 -0.347236 3.77731 0 0 0 137 138 81 255
-0.665492 -0.183341 3.4986 0 0 0 152 155 132 255
-0.869846 -0.172225 3.53412 0 0 0 130 134 118 255
-0.813487 -0.0871843 3.5095 0 0 0 57 96 62 255
-0.865607 -0.0741853 3.53501 0 0 0 132 124 125 255
-0.437125 -0.0743256 3.78889 0 0 0 133 134 86 255
0.0645901 0.0606413 4.31877 0 0 0 152 154 153 255
0.304847 0.24603 4.31311 0 0 0 100 102 104 255
-0.949756 0.340303 3.65856 0 0 0 40 57 77 255
0.326815 0.481384 4.12888 0 0 0 87 85 82 255
-0.668608 0.45592 3.5208 0 0 0 34 55 81 255
0.23845 0.517593 4.07745 0 0 0 120 122 122 255
-0.873481 0.480483 3.58806 0 0 0 97 119 139 255
-0.504179 0.478625 3.59853 0 0 0 79 106 139 255
0.239496 0.548967 4.07764 0 0 0 58 52 57 255
-0.695339 0.519453 3.52312 0 0 0 138 138 123 255
-0.415549 0.54637 3.71284 0 0 0 31 70 110 255
-0.495127 0.600612 3.61383 0 0 0 50 109 151 255
1.34819 0.646268 3.51756 0 0 0 91 104 95 255
-0.896378 0.653823 3.61757 0 0 0 126 134 138 255
1.33221 0.683366 3.4925 0 0 0 37 44 39 255
1.24092 0.73104 3.51138 0 0 0 120 89 88 255
1.3625 0.82381 3.36138 0 0 0 98 91 91 255
0.839036 0.925489 3.85443 0 0 0 166 167 163 255
-0.651807 1.06433 3.52891 0 0 0 31 97 139 255
-0.874556 -0.806629 3.4806 0 0 0 94 108 90 255
-0.755244 -0.72675 3.47694 0 0 0 167 144 144 255
-0.699154 -0.690851 3.48636 0 0 0 146 83 90 255
-0.822003 -0.689848 3.48636 0 0 0 117 34 34 255
-0.957521 -0.629375 3.55873 0 0 0 52 81 44 255
-0.800293 -0.579305 3.47817 0 0 0 154 154 151 255
-0.491449 -0.568412 3.6021 0 0 0 152 158 157 255
-0.953302 -0.582834 3.54703 0 0 0 59 81 73 255
-0.903811 -0.539511 3.53123 0 0 0 139 139 139 255
-0.926889 -0.533656 3.5437 0 0 0 36 64 53 255
-0.888785 -0.485947 3.51701 0 0 0 135 140 132 255
-0.748724 -0.410083 3.48626 0 0 0 158 158 158 255
-0.458058 -0.347319 3.77754 0 0 0 137 138 81 255
-0.885843 -0.321814 3.53851 0 0 0 137 140 126 255
-0.661054 -0.231908 3.49753 0 0 0 11 86 129 255
-0.609876 -0.18875 3.51598 0 0 0 10 70 118 255
-0.939491 -0.182854 3.59385 0 0 0 56 85 45 255
-0.511477 -0.159013 3.58792 0 0 0 164 141 61 255
-0.937561 -0.0645528 3.61185 0 0 0 42 80 53 255
0.260507 0.0775408 4.25657 0 0 0 48 44 45 255
0.261766 0.172548 4.30502 0 0 0 101 107 116 255
0.304799 0.244276 4.31323 0 0 0 100 102 104 255
0.133876 0.403652 4.11029 0 0 0 125 122 114 255
-0.494729 0.488543 3.60603 0 0 0 99 140 166 255
-0.428082 0.493233 3.72355 0 0 0 86 122 150 255
0.255151 0.551416 4.08459 0 0 0 43 49 54 255
-0.861192 0.497057 3.57519 0 0 0 113 126 133 255
-0.414591 0.533707 3.73654 0 0 0 80 119 145 255
1.25843 0.66167 3.6628 0 0 0 118 146 146 255
0.243168 0.755357 4.08491 0 0 0 75 68 65 255
1.2032 0.682212 3.55331 0 0 0 62 96 84 255
-0.897337 0.714136 3.61314 0 0 0 62 64 81 255
-0.501591 0.71278 3.61659 0 0 0 165 168 167 255
1.24208 0.726811 3.52527 0 0 0 129 88 88 255
-0.631268 0.724669 3.53415 0 0 0 162 163 170 255
-0.461468 0.790833 3.65113 0 0 0 46 60 86 255
-0.421156 0.802441 3.69938 0 0 0 155 158 167 255
-0.899298 0.825888 3.60908 0 0 0 32 61 92 255
1.24122 0.81029 3.37106 0 0 0 141 142 146 255
-0.526904 0.861736 3.57008 0 0 0 167 171 169 255
-0.703172 0.864552 3.53582 0 0 0 47 70 107 255
0.827425 0.946163 3.82511 0 0 0 171 175 173 255
-0.804783 0.895795 3.56262 0 0 0 46 63 92 255
1.29156 0.897217 3.30702 0 0 0 74 64 68 255
0.42357 1.29771 4.36157 0 0 0 125 128 127 255
1.25506 1.02188 3.27535 0 0 0 92 111 121 255
1.29963 1.09574 3.25538 0 0 0 71 66 74 255
-0.797682 -0.810759 3.47969 0 0 0 146 149 147 255
-0.760825 -0.712772 3.47758 0 0 0 167 148 150 255
-0.546846 -0.508294 3.55576 0 0 0 35 85 74 255
-0.91695 -0.501339 3.53917 0 0 0 35 76 55 255
-0.615608 -0.424148 3.50884 0 0 0 161 162 166 255
-0.561489 -0.330743 3.54659 0 0 0 114 129 89 255
-0.458705 -0.351241 3.77667 0 0 0 137 138 81 255
-0.644768 -0.296119 3.5017 0 0 0 137 145 126 255
-0.94319 -0.197231 3.59706 0 0 0 50 81 50 255
-0.668925 -0.177415 3.49893 0 0 0 156 155 121 255
-0.439143 -0.0786554 3.7889 0 0 0 133 134 86 255
-0.938652 0.00476875 3.62184 0 0 0 26 54 40 255
0.15898 0.077668 4.2405 0 0 0 52 56 70 255
0.140154 0.300244 4.22494 0 0 0 133 140 140 255
-0.941469 0.347274 3.65738 0 0 0 21 54 89 255
0.127102 0.418014 4.11209 0 0 0 140 119 104 255
0.0723868 0.497945 4.10709 0 0 0 49 59 63 255
0.419924 0.556358 4.33177 0 0 0 70 68 64 255
0.17942 0.554711 4.07828 0 0 0 143 147 149 255
-0.434316 0.500386 3.69501 0 0 0 117 90 107 255
0.233083 0.57488 4.07851 0 0 0 146 150 152 255
-0.836671 0.522567 3.55974 0 0 0 163 145 122 255
0.111222 0.605047 4.09238 0 0 0 126 125 126 255
-0.648799 0.536182 3.52925 0 0 0 41 101 92 255
-0.591944 0.554877 3.54148 0 0 0 112 152 172 255
-0.841848 0.571637 3.56792 0 0 0 161 131 97 255
1.14303 0.618857 3.56397 0 0 0 125 134 110 255
1.26021 0.663712 3.66512 0 0 0 125 149 149 255
-0.885105 0.723847 3.60433 0 0 0 46 58 84 255
-0.636822 0.726959 3.53483 0 0 0 142 138 162 255
1.25527 0.759998 3.48864 0 0 0 158 158 156 255
-0.726103 0.770647 3.53151 0 0 0 164 165 164 255
1.34382 0.8025 3.36176 0 0 0 155 147 149 255
1.38689 0.804651 3.37204 0 0 0 50 72 62 255
-0.705111 0.852777 3.53611 0 0 0 86 96 104 255
-0.732704 0.891369 3.53774 0 0 0 171 168 169 255
-0.614811 0.896941 3.54595 0 0 0 170 170 170 255
-0.512648 0.921802 3.58488 0 0 0 88 101 126 255
-0.432551 1.12144 3.6755 0 0 0 174 154 94 255
-0.782966 1.12501 3.50489 0 0 0 152 157 158 255
-0.843523 -0.724459 3.4915 0 0 0 146 145 136 255
-0.56873 -0.537661 3.54399 0 0 0 159 160 155 255
-0.503892 -0.522902 3.58422 0 0 0 156 161 159 255
-0.750526 -0.502882 3.50647 0 0 0 56 99 52 255
-0.601447 -0.492154 3.55964 0 0 0 159 161 162 255
-0.735583 -0.388917 3.48498 0 0 0 157 161 162 255
-0.86706 -0.340126 3.52923 0 0 0 147 148 147 255
-0.525542 -0.0104451 3.55707 0 0 0 42 100 68 255
-0.463981 -2.59924e-06 3.84804 0 0 0 88 117 107 255
0.293539 0.135916 4.30677 0 0 0 52 49 47 255
0.29229 0.174522 4.30797 0 0 0 65 69 73 255
0.105994 0.187991 4.27063 0 0 0 49 54 52 255
0.0153518 0.351069 4.33093 0 0 0 46 52 57 255
-0.458888 0.348598 3.87272 0 0 0 14 62 108 255
-0.543281 0.435925 3.56042 0 0 0 99 84 60 255
0.304419 0.545893 4.11122 0 0 0 148 148 152 255
0.0774313 0.577189 4.10647 0 0 0 59 65 64 255
-0.81455 0.525346 3.55143 0 0 0 159 142 91 255
-0.42815 0.535908 3.68476 0 0 0 158 134 144 255
1.24642 0.615912 3.60443 0 0 0 40 56 51 255
1.15488 0.622928 3.5399 0 0 0 139 144 149 255
1.34667 0.658864 3.5013 0 0 0 161 156 134 255
-0.476554 0.69218 3.62072 0 0 0 27 68 114 255
1.2631 0.695585 3.65694 0 0 0 134 152 151 255
-0.422941 0.716433 3.68135 0 0 0 156 158 158 255
-0.67128 0.72964 3.53361 0 0 0 31 69 117 255
0.351751 0.840807 4.21875 0 0 0 35 42 43 255
0.160279 0.913645 4.10011 0 0 0 128 128 128 255
0.284098 0.919049 4.12946 0 0 0 133 134 131 255
-0.899427 0.835031 3.61106 0 0 0 31 63 91 255
-0.501674 0.846607 3.60505 0 0 0 167 170 173 255
-0.617919 0.879333 3.54473 0 0 0 166 171 173 255
-0.780721 0.919635 3.5615 0 0 0 166 166 166 255
-0.46631 1.00817 3.66126 0 0 0 1 97 146 255
-0.645366 -0.258674 3.49791 0 0 0 125 141 113 255
-0.633709 -0.215605 3.50239 0 0 0 46 98 129 255
-0.522459 -0.146482 3.58306 0 0 0 167 133 44 255
-0.459602 -0.020994 3.77125 0 0 0 45 96 67 255
0.071395 0.118537 4.31785 0 0 0 83 51 48 255
0.266206 0.141103 4.27399 0 0 0 44 42 43 255
0.193949 0.291652 4.26188 0 0 0 177 178 178 255
-0.461103 0.348213 3.86959 0 0 0 13 62 109 255
-0.038881 0.421904 4.32831 0 0 0 117 118 116 255
0.338969 0.348821 4.29507 0 0 0 47 53 58 255
0.302589 0.573573 4.11192 0 0 0 146 147 147 255
-0.458898 0.551795 3.64306 0 0 0 158 155 160 255
0.012837 0.673915 4.2378 0 0 0 33 39 42 255
1.2544 0.624488 3.61689 0 0 0 43 63 59 255
-0.480152 0.68914 3.61878 0 0 0 34 64 115 255
1.24554 0.748116 3.49775 0 0 0 145 134 131 255
1.33292 0.743824 3.49625 0 0 0 45 86 73 255
-0.680459 0.798366 3.53365 0 0 0 42 66 112 255
0.260826 0.95141 4.12127 0 0 0 119 122 122 255
-2.69815 -1.55191 5.21826 0 0 0 81 80 77 255
-0.771739 -0.799022 3.45868 0 0 0 47 74 67 255
-0.78862 -0.735841 3.47992 0 0 0 139 145 120 255
-0.562908 -0.723189 3.54112 0 0 0 111 48 54 255
-0.864231 -0.689104 3.501 0 0 0 166 132 136 255
-0.52174 -0.563947 3.56375 0 0 0 155 160 158 255
-0.887956 -0.464424 3.50951 0 0 0 126 144 126 255
-0.727765 -0.328796 3.4857 0 0 0 88 129 88 255
-0.943796 -0.301522 3.57751 0 0 0 109 122 110 255
-0.59164 -0.283265 3.52934 0 0 0 36 93 130 255
-0.621846 -0.187312 3.50993 0 0 0 13 71 115 255
-0.816017 -0.161441 3.50574 0 0 0 67 103 56 255
-0.843635 -0.127858 3.51798 0 0 0 137 82 100 255
-0.856064 -0.0955805 3.52652 0 0 0 133 116 121 255
-0.92364 -0.0809391 3.58146 0 0 0 54 88 66 255
-0.984589 -0.0623233 3.66518 0 0 0 96 110 105 255
0.159472 0.100508 4.23972 0 0 0 147 86 84 255
0.160895 0.105841 4.24036 0 0 0 138 94 88 255
-2.90251 0.3136 5.37407 0 0 0 79 89 88 255
-2.9346 0.373306 5.6071 0 0 0 93 95 94 255
-2.73432 0.371997 5.60759 0 0 0 41 43 44 255
-0.409713 0.317824 3.83889 0 0 0 98 104 111 255
-0.932103 0.386305 3.66909 0 0 0 58 81 107 255
-0.537654 0.419899 3.56576 0 0 0 32 46 70 255
-0.442122 0.481567 3.70039 0 0 0 92 135 172 255
-0.516627 0.48229 3.5835 0 0 0 14 74 127 255
-0.488441 0.555103 3.61013 0 0 0 159 164 164 255
-0.626749 0.588004 3.52978 0 0 0 117 132 139 255
0.165321 0.73462 4.08004 0 0 0 113 89 56 255
1.06898 0.675327 3.34662 0 0 0 98 91 96 255
-2.6922 1.24028 5.21842 0 0 0 111 111 106 255
0.889242 1.24473 5.71179 0 0 0 130 124 120 255
-0.792347 0.889975 3.56485 0 0 0 47 69 107 255
-2.51325 1.22186 4.74675 0 0 0 55 89 57 255
-2.56313 1.2629 4.95356 0 0 0 33 34 38 255
-0.595786 0.903618 3.55741 0 0 0 166 167 167 255
-2.52949 1.28038 4.84622 0 0 0 73 75 73 255
-2.44664 1.23969 4.6018 0 0 0 94 131 122 255
-0.89902 0.975349 3.62489 0 0 0 138 140 150 255
-0.671119 0.949829 3.53948 0 0 0 71 110 153 255
-2.31303 1.28936 4.55107 0 0 0 79 82 84 255
-2.70224 -1.54653 5.19665 0 0 0 86 79 77 255
-0.521951 -0.564043 3.56364 0 0 0 155 160 158 255
-0.518013 -0.462806 3.57882 0 0 0 38 84 78 255
-0.939751 -0.316743 3.57113 0 0 0 121 136 126 255
-0.82003 -0.166672 3.50683 0 0 0 62 101 56 255
-0.956374 0.0191363 3.62596 0 0 0 61 80 75 255
-2.90281 0.308635 5.3724 0 0 0 79 89 88 255
-0.459966 0.472845 3.67 0 0 0 89 112 139 255
0.213325 0.511274 4.07364 0 0 0 66 72 77 255
0.194165 0.525026 4.07988 0 0 0 49 46 41 255
-0.471913 0.602979 3.64065 0 0 0 18 84 131 255
-0.903016 0.758378 3.6166 0 0 0 128 132 145 255
-0.89342 0.770873 3.60016 0 0 0 143 145 142 255
-0.408958 0.810005 3.7447 0 0 0 147 153 167 255
-2.69164 1.24045 5.21759 0 0 0 111 111 106 255
-2.50673 1.15626 4.74002 0 0 0 89 104 96 255
0.880572 1.23936 5.43316 0 0 0 124 121 116 255
-2.54811 1.26465 4.97662 0 0 0 116 116 119 255
-2.63581 -1.55941 5.27634 0 0 0 91 94 97 255
-2.70372 -1.52871 5.2043 0 0 0 88 88 88 255
-0.996916 -0.914127 3.58634 0 0 0 62 81 74 255
-0.930569 -0.800465 3.53075 0 0 0 105 109 108 255
-0.861049 -0.687466 3.4994 0 0 0 166 132 136 255
-0.935076 -0.522509 3.55259 0 0 0 34 71 56 255
-0.43265 0.332404 3.80876 0 0 0 45 64 89 255
-0.463626 0.47548 3.65904 0 0 0 95 125 147 255
-0.482145 0.469991 3.62561 0 0 0 6 75 127 255
-0.483537 0.539228 3.61474 0 0 0 132 138 145 255
-0.896652 0.665708 3.61342 0 0 0 147 148 146 255
-0.446027 0.711407 3.64153 0 0 0 161 164 166 255
-2.71067 1.11852 5.27751 0 0 0 45 45 44 255
-0.478021 0.766545 3.6388 0 0 0 166 169 170 255
-0.406329 0.797832 3.74802 0 0 0 148 150 152 255
-2.67317 1.1661 5.24698 0 0 0 118 116 110 255
-2.54055 1.23891 5.12142 0 0 0 54 52 53 255
1.03942 0.75629 3.21562 0 0 0 146 149 158 255
-2.53884 1.28862 4.91956 0 0 0 115 118 119 255
-0.686351 -0.394484 3.49885 0 0 0 157 162 160 255
-0.607735 -0.24818 3.51792 0 0 0 16 91 135 255
-0.48203 0.838752 3.63752 0 0 0 166 170 170 255
-0.520795 0.854494 3.57611 0 0 0 169 173 172 255
-0.732318 0.905114 3.54127 0 0 0 167 169 168 255
-2.54273 1.28301 4.91732 0 0 0 96 99 99 255
-0.704371 -0.568487 3.49593 0 0 0 158 161 160 255
-0.507908 -0.538732 3.57915 0 0 0 156 161 159 255
-0.730191 -0.516373 3.48915 0 0 0 51 99 58 255
-0.599569 -0.440131 3.51157 0 0 0 160 162 161 255
-0.853074 -0.355258 3.50187 0 0 0 147 149 148 255
-0.943063 -0.21311 3.591 0 0 0 54 86 46 255
-0.607275 -0.205411 3.51753 0 0 0 19 75 113 255
0.284284 0.100674 4.27997 0 0 0 102 58 56 255
0.0769354 0.144873 4.31395 0 0 0 42 44 46 255
0.186446 0.22859 4.25194 0 0 0 151 151 151 255
0.182083 0.301566 4.25565 0 0 0 163 165 167 255
-0.434139 0.340763 3.80802 0 0 0 22 64 109 255
-0.939266 0.35977 3.67105 0 0 0 39 71 102 255
0.407618 0.410553 4.2717 0 0 0 94 84 76 255
-0.665522 0.438119 3.52172 0 0 0 130 122 91 255
-0.451578 0.48344 3.67764 0 0 0 94 128 153 255
0.0655908 0.514672 4.11059 0 0 0 111 117 118 255
0.281956 0.54146 4.09532 0 0 0 41 47 52 255
0.325192 0.546031 4.11991 0 0 0 140 144 147 255
-0.820363 0.682025 3.55913 0 0 0 157 159 160 255
-0.723063 0.687994 3.53319 0 0 0 164 169 167 255
-0.614016 0.652824 3.52876 0 0 0 165 168 167 255
0.384687 0.838544 4.2431 0 0 0 40 49 48 255
0.0291397 0.841283 4.18603 0 0 0 40 42 41 255
0.928817 0.736819 3.51268 0 0 0 115 49 48 255
-0.493601 0.847691 3.61917 0 0 0 165 170 172 255
-0.709583 -0.407997 3.49652 0 0 0 158 161 161 255
-0.732593 -0.357392 3.48401 0 0 0 65 86 82 255
-0.932946 -0.0109352 3.63027 0 0 0 42 67 50 255
0.0424142 0.143861 4.33303 0 0 0 152 152 152 255
-0.0235286 0.355619 4.33735 0 0 0 154 155 152 255
-0.942788 0.42658 3.67899 0 0 0 17 56 94 255
0.142872 0.554759 4.08292 0 0 0 143 140 143 255
-0.783482 0.537026 3.53596 0 0 0 157 149 98 255
1.06073 0.578294 3.80704 0 0 0 133 133 127 255
-0.788179 0.697445 3.54543 0 0 0 160 162 161 255
-0.457055 0.720901 3.63157 0 0 0 26 64 109 255
-0.681011 0.743213 3.53493 0 0 0 34 65 112 255
-0.426141 0.910477 3.80984 0 0 0 14 79 128 255
0.204643 0.885798 4.14387 0 0 0 120 95 63 255
0.234613 0.918522 4.1082 0 0 0 133 135 134 255
-0.872146 -0.794122 3.49751 0 0 0 56 66 63 255
-0.972726 -0.798392 3.57665 0 0 0 98 111 100 255
-0.684028 -0.74479 3.49238 0 0 0 144 71 76 255
-0.872789 -0.731138 3.50407 0 0 0 122 115 118 255
-0.981265 -0.693392 3.57516 0 0 0 75 43 40 255
-0.937215 -0.679769 3.54613 0 0 0 104 54 62 255
-0.935956 -0.561783 3.55106 0 0 0 113 124 120 255
-2.84151 0.287392 5.19581 0 0 0 91 92 92 255
-2.80617 0.33081 5.1276 0 0 0 88 81 84 255
0.202823 0.395907 4.10062 0 0 0 137 118 86 255
0.403722 0.50168 4.1793 0 0 0 75 86 89 255
-0.516049 0.447617 3.58421 0 0 0 61 47 48 255
-0.875696 0.659081 3.60641 0 0 0 28 65 105 255
0.198031 0.71696 4.09167 0 0 0 94 86 69 255
-2.5905 0.99512 4.7095 0 0 0 26 41 38 255
0.221623 0.742881 4.08773 0 0 0 123 93 56 255
-2.59507 1.02254 4.72782 0 0 0 33 44 45 255
-2.59045 1.09351 4.73139 0 0 0 93 124 116 255
-2.64369 1.27285 5.11128 0 0 0 113 115 116 255
0.828486 1.21812 5.60524 0 0 0 126 119 112 255
-2.56336 1.21903 4.87196 0 0 0 90 108 103 255
0.956156 0.725976 3.53458 0 0 0 81 69 64 255
0.709334 1.27915 5.64877 0 0 0 131 125 123 255
0.463847 1.00513 4.44417 0 0 0 96 90 83 255
0.514096 1.04821 4.63858 0 0 0 110 108 102 255
0.8724 0.869969 4.01007 0 0 0 173 173 170 255
0.33064 0.946521 4.15985 0 0 0 79 85 90 255
0.293493 0.9476 4.13327 0 0 0 93 95 98 255
0.158305 0.958351 4.11626 0 0 0 80 87 84 255
0.241588 0.946884 4.11588 0 0 0 103 107 107 255
0.293193 0.9567 4.13325 0 0 0 88 90 92 255
0.858601 0.888593 3.96303 0 0 0 168 168 168 255
0.934095 0.797238 3.53308 0 0 0 142 136 134 255
-0.523095 0.935509 3.58317 0 0 0 66 102 137 255
-2.83622 0.285929 5.18423 0 0 0 91 92 92 255
-2.87564 0.302049 5.28585 0 0 0 94 93 91 255
0.0288909 0.59942 4.13825 0 0 0 106 110 109 255
-0.574979 0.584065 3.54764 0 0 0 94 141 164 255
0.205962 0.720931 4.09359 0 0 0 102 87 63 255
-2.58365 0.976457 4.71625 0 0 0 123 142 138 255
-2.59312 1.00193 4.7119 0 0 0 22 37 35 255
-2.59935 1.03988 4.71065 0 0 0 106 113 113 255
-2.59134 1.05836 4.76608 0 0 0 126 133 132 255
0.942 0.732763 3.54055 0 0 0 97 51 50 255
0.87429 0.868647 4.02368 0 0 0 177 175 171 255
0.715058 1.29183 5.67079 0 0 0 115 110 100 255
0.455644 1.01063 4.41424 0 0 0 145 148 147 255
0.896997 0.785763 3.54758 0 0 0 121 123 110 255
-0.904164 0.966498 3.62727 0 0 0 152 151 154 255
-1.01405 -0.793386 3.65473 0 0 0 50 77 51 255
-2.88035 0.31278 5.26209 0 0 0 90 88 85 255
-3.00632 0.382765 5.67133 0 0 0 101 101 99 255
0.309759 0.256647 4.26768 0 0 0 104 102 105 255
0.232697 0.436919 4.09466 0 0 0 79 62 57 255
-2.56112 0.724581 4.79449 0 0 0 149 153 152 255
0.25157 0.525454 4.08269 0 0 0 52 44 41 255
0.0291694 0.598096 4.13828 0 0 0 106 110 109 255
0.338055 0.596677 4.13676 0 0 0 35 42 48 255
-0.606723 0.563507 3.5365 0 0 0 146 163 170 255
-0.887913 0.582038 3.59958 0 0 0 134 104 98 255
-2.619 0.899234 4.8983 0 0 0 88 107 95 255
-0.892765 0.636291 3.61055 0 0 0 97 110 128 255
-2.58271 0.98181 4.72663 0 0 0 139 139 139 255
-0.560792 0.758709 3.56552 0 0 0 76 96 124 255
-0.663729 0.801891 3.53157 0 0 0 168 170 169 255
0.882128 0.86447 4.06781 0 0 0 174 175 170 255
1.01979 1.2462 5.60794 0 0 0 126 117 107 255
0.517745 1.04804 4.65849 0 0 0 149 147 142 255
0.729601 1.29523 5.68876 0 0 0 112 105 103 255
-2.34821 1.20499 4.44388 0 0 0 136 135 138 255
0.901244 0.784505 3.52939 0 0 0 136 133 127 255
-0.724222 -0.587618 3.48284 0 0 0 157 162 160 255
-0.806631 -0.567607 3.48805 0 0 0 155 156 153 255
-0.944686 -0.0393909 3.59973 0 0 0 23 51 30 255
0.0615213 0.1919 4.32995 0 0 0 70 68 69 255
0.28492 0.240958 4.26765 0 0 0 101 104 104 255
-2.5086 0.363867 4.64092 0 0 0 88 89 89 255
0.141063 0.284533 4.2252 0 0 0 140 142 142 255
0.172184 0.544666 4.07873 0 0 0 143 147 149 255
-0.864014 0.575934 3.58511 0 0 0 153 129 108 255
0.236688 0.686831 4.08294 0 0 0 113 91 69 255
-0.507502 0.667289 3.60953 0 0 0 165 170 168 255
-0.640162 0.708411 3.53473 0 0 0 74 100 142 255
-0.714431 0.759266 3.5336 0 0 0 167 169 168 255
0.738921 1.29849 5.68637 0 0 0 108 102 99 255
1.01615 1.25307 5.61683 0 0 0 129 121 115 255
-1.0463 -0.906126 3.72652 0 0 0 27 53 37 255
-0.965403 -0.593164 3.56417 0 0 0 47 82 47 255
-0.709565 -0.581712 3.4979 0 0 0 159 162 162 255
-0.506445 -0.50353 3.58001 0 0 0 155 159 158 255
-0.69647 -0.0789147 3.4912 0 0 0 58 106 65 255
-2.89543 0.401441 5.86429 0 0 0 31 34 34 255
0.163567 0.243931 4.25002 0 0 0 114 116 115 255
0.190158 0.262615 4.25763 0 0 0 123 128 131 255
-0.828558 0.554117 3.56012 0 0 0 156 150 133 255
-0.710448 0.570579 3.52793 0 0 0 117 132 105 255
-0.515547 0.65796 3.6078 0 0 0 162 170 167 255
-0.924506 0.692643 3.63163 0 0 0 22 55 93 255
-0.999462 -0.785454 3.62486 0 0 0 43 70 43 255
-0.946468 0.009171 3.6719 0 0 0 42 79 59 255
0.0065949 0.369973 4.33417 0 0 0 49 50 50 255
-0.882735 0.342514 3.5884 0 0 0 30 62 98 255
-0.961295 -0.812473 3.55068 0 0 0 96 106 98 255
-0.935161 -0.786171 3.53577 0 0 0 99 102 101 255
-0.826274 -0.740971 3.48772 0 0 0 88 52 48 255
-0.812321 -0.739338 3.48503 0 0 0 150 116 116 255
-0.906247 -0.720162 3.52136 0 0 0 84 37 38 255
-0.677718 -0.704723 3.49023 0 0 0 119 56 61 255
-0.93909 -0.721808 3.54415 0 0 0 83 64 62 255
-0.994253 -0.730967 3.58917 0 0 0 86 49 48 255
-0.94491 -0.701329 3.54858 0 0 0 144 98 105 255
-0.892567 -0.690352 3.51367 0 0 0 150 113 114 255
-0.973162 -0.704499 3.56938 0 0 0 143 89 97 255
-0.963907 -0.5619 3.57152 0 0 0 81 93 81 255
-0.877085 -0.497689 3.5195 0 0 0 145 147 146 255
-0.896518 -0.467363 3.5261 0 0 0 128 137 131 255
-0.891211 -0.336354 3.53505 0 0 0 108 121 99 255
-0.550996 -0.16039 3.55215 0 0 0 124 104 27 255
-0.531904 -0.161419 3.57303 0 0 0 132 117 43 255
-0.953628 -0.171385 3.60495 0 0 0 116 124 114 255
-0.910793 -0.160493 3.56156 0 0 0 61 92 51 255
-0.615801 -0.150225 3.51552 0 0 0 84 76 50 255
-0.842347 -0.140704 3.51851 0 0 0 133 109 115 255
-0.934926 -0.138868 3.58326 0 0 0 75 79 85 255
-0.936833 -0.124643 3.5863 0 0 0 65 72 85 255
-0.974592 -0.105019 3.63958 0 0 0 121 126 125 255
-0.948459 -0.0922046 3.60543 0 0 0 74 77 86 255
-0.909792 -0.0830337 3.56561 0 0 0 63 89 75 255
-0.951705 -0.0712106 3.61271 0 0 0 113 120 116 255
-0.562336 0.102323 3.63227 0 0 0 108 104 101 255
-0.616848 0.1326 3.70847 0 0 0 214 213 216 255
-0.902313 0.353398 3.5934 0 0 0 64 89 117 255
-0.897976 0.379549 3.58988 0 0 0 57 80 105 255
-0.0372667 0.491505 4.3392 0 0 0 91 92 92 255
-0.502643 0.455639 3.60547 0 0 0 101 95 115 255
-0.680302 0.452782 3.51922 0 0 0 105 92 50 255
-0.894897 0.47188 3.59778 0 0 0 79 106 131 255
-0.0374229 0.594919 4.27522 0 0 0 102 101 102 255
-0.682957 0.515011 3.52361 0 0 0 104 124 114 255
-0.850541 0.590687 3.57039 0 0 0 139 127 117 255
-0.833742 0.589937 3.56198 0 0 0 112 111 110 255
-0.911453 0.672191 3.61536 0 0 0 99 103 120 255
0.929869 0.726119 3.58002 0 0 0 150 143 128 255
-0.908424 0.730594 3.61941 0 0 0 119 136 167 255
-0.898935 0.803092 3.61616 0 0 0 141 143 156 255
0.985634 1.24637 5.52013 0 0 0 112 105 97 255
1.03383 1.21954 5.39364 0 0 0 133 129 121 255
0.866725 1.24667 5.48854 0 0 0 110 108 108 255
0.244737 0.967914 4.11637 0 0 0 100 103 104 255
0.933774 0.88284 3.62831 0 0 0 81 111 124 255
-0.864991 0.876936 3.60387 0 0 0 82 89 94 255
0.954369 0.909686 3.60712 0 0 0 58 68 78 255
0.273917 1.17662 4.11789 0 0 0 108 109 106 255
0.883012 1.08623 3.65711 0 0 0 102 111 113 255
-0.687255 1.05749 3.53429 0 0 0 57 107 142 255
-0.816036 1.10475 3.57316 0 0 0 104 105 127 255
-0.99316 -0.56479 3.60917 0 0 0 39 72 46 255
-0.87217 -0.3197 3.521 0 0 0 146 148 147 255
-0.912827 -0.162856 3.5634 0 0 0 61 91 55 255
-0.954397 -0.165547 3.60512 0 0 0 122 125 124 255
-0.506266 -0.126394 3.59406 0 0 0 160 143 99 255
-0.93776 -0.12941 3.58719 0 0 0 72 78 94 255
-0.953028 -0.0721085 3.61418 0 0 0 113 120 116 255
-0.907513 0.678584 3.61262 0 0 0 140 141 151 255
0.961576 0.751238 3.68521 0 0 0 139 139 130 255
-0.899376 0.788528 3.61632 0 0 0 152 153 153 255
-0.878769 0.823189 3.60464 0 0 0 115 120 132 255
0.933774 0.88284 3.62831 0 0 0 81 111 124 255
-0.920651 0.961458 3.64539 0 0 0 121 138 162 255
0.906673 1.13708 3.82967 0 0 0 54 48 51 255
-0.684822 1.0628 3.52563 0 0 0 101 144 171 255
-0.956771 -0.808934 3.54712 0 0 0 112 110 108 255
-0.582155 -0.73698 3.53331 0 0 0 90 55 60 255
-0.945058 -0.671681 3.54945 0 0 0 130 127 128 255
-0.965284 -0.664568 3.56334 0 0 0 136 129 131 255
-1.0021 -0.564452 3.62098 0 0 0 52 80 56 255
-0.890914 -0.490129 3.5234 0 0 0 145 147 144 255
-0.874521 -0.320156 3.52156 0 0 0 146 148 147 255
-0.950928 -0.162306 3.60127 0 0 0 122 125 124 255
-0.468766 0.0939744 3.81989 0 0 0 117 115 116 255
-0.979679 0.351134 3.78814 0 0 0 24 56 93 255
0.343208 0.505356 4.13533 0 0 0 122 133 136 255
-0.887336 0.476948 3.5947 0 0 0 101 114 131 255
0.993117 0.679294 3.71236 0 0 0 129 128 127 255
-0.902347 0.78063 3.61312 0 0 0 151 153 152 255
1.02637 1.22323 5.43684 0 0 0 135 132 127 255
-0.892478 0.867206 3.60343 0 0 0 154 152 154 255
-0.86869 0.898791 3.60177 0 0 0 72 83 102 255
-0.470396 0.980524 3.65751 0 0 0 3 116 159 255
-0.684108 1.06346 3.52697 0 0 0 101 144 171 255
0.411514 1.30581 4.28014 0 0 0 116 122 124 255
-1.00297 -0.578137 3.61508 0 0 0 57 84 60 255
-0.889621 -0.507686 3.52399 0 0 0 146 147 144 255
-0.55105 -0.492171 3.55769 0 0 0 38 92 78 255
-0.936513 -0.340706 3.56755 0 0 0 137 140 141 255
0.148293 0.225749 4.23347 0 0 0 115 119 122 255
0.101511 0.535208 4.0946 0 0 0 91 85 82 255
-0.504237 0.697521 3.61561 0 0 0 164 168 169 255
0.446129 0.905934 4.26604 0 0 0 166 173 171 255
0.85343 0.848056 3.88527 0 0 0 147 145 146 255
0.465074 1.03158 4.36404 0 0 0 163 165 163 255
-0.484093 0.949622 3.62611 0 0 0 132 157 175 255
-0.525391 0.991801 3.59289 0 0 0 133 164 185 255
-0.446733 1.05406 3.69549 0 0 0 146 157 167 255
-0.550245 1.03887 3.59058 0 0 0 1 109 155 255
-0.740164 1.0703 3.55129 0 0 0 24 89 136 255
0.411505 1.30489 4.28003 0 0 0 116 122 124 255
-0.895409 -0.514906 3.52632 0 0 0 143 146 145 255
-0.605467 -0.416074 3.50195 0 0 0 126 143 141 255
-0.868126 -0.343269 3.51944 0 0 0 146 151 150 255
-0.706942 -0.0821961 3.49255 0 0 0 60 100 60 255
-0.518985 -0.000256169 3.5621 0 0 0 52 100 72 255
-0.95919 0.0239004 3.65995 0 0 0 35 77 55 255
0.177783 0.236873 4.26115 0 0 0 147 148 148 255
0.0368713 0.343259 4.34731 0 0 0 46 48 47 255
-0.973308 0.358018 3.79026 0 0 0 17 55 97 255
-0.46009 0.525238 3.64657 0 0 0 155 162 165 255
0.135546 0.705599 4.08767 0 0 0 52 46 46 255
-0.532653 0.655009 3.61137 0 0 0 165 167 169 255
-0.853331 0.65753 3.58597 0 0 0 26 59 103 255
-0.477407 0.67517 3.63709 0 0 0 32 64 113 255
-0.630792 0.668702 3.5313 0 0 0 163 168 169 255
-0.0107627 0.840599 4.34406 0 0 0 50 54 55 255
0.459883 0.896128 4.27028 0 0 0 177 180 178 255
-0.481891 0.826172 3.63934 0 0 0 166 171 169 255
0.983683 1.21718 5.42307 0 0 0 124 121 115 255
-0.92439 0.861861 3.6332 0 0 0 21 70 111 255
-0.695523 0.819137 3.54252 0 0 0 67 72 83 255
-0.804612 0.934047 3.56032 0 0 0 155 161 170 255
-0.974333 -0.212815 3.67049 0 0 0 51 87 46 255
0.266267 0.0893252 4.26114 0 0 0 57 50 50 255
0.00549428 0.305584 4.37397 0 0 0 154 157 153 255
0.0350329 0.366849 4.34628 0 0 0 42 45 44 255
0.315129 0.335754 4.27092 0 0 0 51 58 66 255
-0.0095235 0.437255 4.34494 0 0 0 67 68 65 255
-0.975705 0.358908 3.79907 0 0 0 17 55 97 255
-0.444799 0.431872 3.72848 0 0 0 13 68 118 255
0.160811 0.558087 4.08148 0 0 0 134 130 136 255
-0.832615 0.565293 3.56068 0 0 0 150 145 131 255
-0.474531 0.660046 3.64592 0 0 0 24 68 115 255
-0.833802 0.702746 3.5726 0 0 0 156 160 159 255
-0.824319 0.702144 3.5643 0 0 0 157 161 160 255
-0.77155 0.695395 3.54234 0 0 0 164 166 168 255
-0.934322 0.857722 3.63884 0 0 0 22 73 115 255
-0.0942036 1.21352 5.01353 0 0 0 174 177 174 255
-0.605132 0.882144 3.55761 0 0 0 165 173 174 255
1.66222 -1.8077 6.02104 0 0 0 50 56 67 255
2.09804 -1.69464 5.9599 0 0 0 77 74 77 255
1.70977 -1.67711 5.92483 0 0 0 114 113 114 255
1.68899 -1.65263 5.94631 0 0 0 107 107 107 255
2.08394 -1.59753 5.93286 0 0 0 56 51 55 255
-1.03588 -0.906978 3.69537 0 0 0 20 46 35 255
-0.658625 -0.832891 3.4967 0 0 0 118 130 126 255
-0.713565 -0.826474 3.48103 0 0 0 142 144 142 255
-1.03224 -0.882603 3.69995 0 0 0 16 43 24 255
2.09866 -1.4742 5.96375 0 0 0 71 67 68 255
-0.852491 -0.820733 3.49481 0 0 0 118 118 118 255
-0.692501 -0.813713 3.48496 0 0 0 118 132 126 255
-0.761887 -0.800187 3.47792 0 0 0 102 118 109 255
-0.74205 -0.797103 3.4791 0 0 0 126 140 138 255
-0.711116 -0.799267 3.47988 0 0 0 139 148 146 255
-0.672102 -0.801923 3.49343 0 0 0 126 139 137 255
-0.61507 -0.803548 3.50532 0 0 0 135 143 143 255
-0.658898 -0.796217 3.49424 0 0 0 133 140 144 255
-0.707014 -0.757458 3.48483 0 0 0 149 145 137 255
2.09265 -1.37975 5.95288 0 0 0 101 94 97 255
-0.86635 -0.75385 3.50041 0 0 0 101 116 76 255
-0.949282 -0.735247 3.55586 0 0 0 120 129 114 255
-0.960054 -0.732495 3.56244 0 0 0 90 56 60 255
-0.895962 -0.708747 3.51826 0 0 0 160 78 84 255
-0.81091 -0.670838 3.48876 0 0 0 153 146 146 255
-0.956219 -0.674076 3.55979 0 0 0 102 74 79 255
-0.970666 -0.675394 3.56979 0 0 0 151 113 119 255
-0.986108 -0.669161 3.58177 0 0 0 136 123 123 255
-1.00418 -0.544845 3.62357 0 0 0 127 130 121 255
-0.926689 -0.0326348 3.57853 0 0 0 19 53 28 255
0.180521 0.101025 4.25901 0 0 0 103 67 66 255
0.215902 0.166714 4.23908 0 0 0 71 80 82 255
2.10188 0.703458 6.00157 0 0 0 86 75 68 255
2.08696 0.790479 5.97822 0 0 0 97 84 79 255
-0.572614 0.43206 3.5463 0 0 0 118 105 82 255
-0.701998 0.495445 3.51788 0 0 0 20 80 125 255
-0.877145 0.504042 3.59075 0 0 0 100 107 121 255
-0.564909 0.506697 3.55912 0 0 0 122 151 166 255
1.06744 0.582572 3.58245 0 0 0 77 104 96 255
1.03568 0.589828 3.60897 0 0 0 111 111 111 255
1.01163 0.605177 3.64038 0 0 0 116 132 126 255
1.10591 0.592901 3.54513 0 0 0 110 126 109 255
1.09329 0.60742 3.54074 0 0 0 92 71 62 255
1.03179 0.628177 3.58393 0 0 0 124 123 114 255
1.07314 0.625845 3.52483 0 0 0 139 104 87 255
1.01328 0.639325 3.59207 0 0 0 93 103 86 255
1.0755 0.626933 3.52187 0 0 0 146 121 104 255
-0.643129 0.578554 3.52974 0 0 0 80 124 119 255
0.16316 0.710585 4.07518 0 0 0 73 70 66 255
1.04075 0.666243 3.51549 0 0 0 157 154 149 255
0.928932 0.681265 3.58292 0 0 0 86 72 66 255
1.07339 0.675474 3.50368 0 0 0 154 147 144 255
1.07817 0.686652 3.49723 0 0 0 95 78 83 255
-0.407639 0.67929 3.76767 0 0 0 23 74 116 255
0.907043 0.704952 3.60025 0 0 0 129 123 100 255
1.04315 0.743001 3.46122 0 0 0 126 118 120 255
1.05943 0.750715 3.42868 0 0 0 126 124 120 255
0.884323 0.771426 3.53534 0 0 0 139 127 104 255
0.932698 0.77545 3.4983 0 0 0 84 75 88 255
0.815889 1.16165 5.35097 0 0 0 136 128 122 255
0.936382 0.784611 3.4916 0 0 0 124 127 132 255
-0.811211 0.732209 3.55772 0 0 0 155 159 164 255
0.46563 0.984013 4.33638 0 0 0 102 101 96 255
-0.922214 0.773001 3.63979 0 0 0 92 100 117 255
0.455278 0.99686 4.30882 0 0 0 157 166 166 255
0.954349 0.869646 3.46641 0 0 0 39 52 74 255
0.908032 0.892633 3.48379 0 0 0 49 49 53 255
0.950276 0.921233 3.4709 0 0 0 129 124 113 255
-0.796213 0.868896 3.56335 0 0 0 72 76 99 255
0.861656 0.966617 3.61886 0 0 0 61 83 101 255
-0.713274 0.869241 3.54305 0 0 0 64 67 76 255
-0.647981 0.956358 3.5402 0 0 0 113 124 152 255
0.943438 1.09392 3.47166 0 0 0 122 127 136 255
2.09749 -1.6975 5.96115 0 0 0 87 84 87 255
1.85309 -1.67338 5.95392 0 0 0 99 109 103 255
2.08995 -1.60704 5.9504 0 0 0 103 98 99 255
-0.65852 -0.8197 3.49651 0 0 0 149 149 151 255
-0.924269 -0.730288 3.5357 0 0 0 122 132 101 255
-0.98464 -0.520313 3.61242 0 0 0 39 75 67 255
-0.726226 -0.15752 3.49339 0 0 0 154 159 158 255
2.10074 0.713782 6.00394 0 0 0 80 66 69 255
0.0419508 0.602844 4.13172 0 0 0 103 106 105 255
1.05943 0.585877 3.58402 0 0 0 103 121 114 255
-0.647922 0.517025 3.53298 0 0 0 44 95 85 255
-0.523071 0.580603 3.58157 0 0 0 105 131 158 255
0.888572 0.777179 3.5398 0 0 0 130 128 100 255
-0.889047 0.772388 3.60964 0 0 0 150 154 152 255
0.942359 0.923845 3.47545 0 0 0 139 127 106 255
-0.714215 0.868 3.53887 0 0 0 64 67 76 255
0.956577 1.09368 3.53171 0 0 0 125 129 132 255
2.08561 -1.61247 5.93604 0 0 0 54 48 54 255
-1.03106 -0.886932 3.69792 0 0 0 19 49 28 255
-0.850076 -0.817682 3.49321 0 0 0 140 140 141 255
2.0977 -1.46137 5.9634 0 0 0 70 65 67 255
2.08035 -1.38398 5.92486 0 0 0 61 51 55 255
-0.887599 -0.748364 3.51232 0 0 0 114 122 95 255
-0.965534 -0.722537 3.56669 0 0 0 94 43 46 255
-0.99515 -0.712501 3.59321 0 0 0 106 66 69 255
-0.896632 -0.548935 3.52683 0 0 0 143 146 141 255
-0.711339 -0.527466 3.49545 0 0 0 58 104 70 255
-0.921302 -0.0314401 3.5717 0 0 0 16 47 27 255
-0.996861 0.0295818 3.78758 0 0 0 54 83 73 255
0.216977 0.167322 4.23896 0 0 0 71 80 82 255
0.235614 0.226551 4.22956 0 0 0 156 158 160 255
-0.989281 0.335489 3.81111 0 0 0 56 77 97 255
0.409647 0.435243 4.21939 0 0 0 70 73 79 255
2.09993 0.721394 6.00231 0 0 0 82 68 71 255
2.06872 0.768615 5.9463 0 0 0 93 81 80 255
-0.687132 0.424857 3.51951 0 0 0 97 105 108 255
1.96328 0.799909 5.61584 0 0 0 161 159 155 255
-0.0404345 0.57535 4.30351 0 0 0 107 112 112 255
1.0253 0.595211 3.62234 0 0 0 119 127 123 255
1.06228 0.585323 3.57896 0 0 0 126 143 137 255
1.01461 0.604752 3.63258 0 0 0 117 125 119 255
1.10936 0.592624 3.53331 0 0 0 126 137 115 255
-0.553029 0.556625 3.56316 0 0 0 134 144 153 255
1.03026 0.626281 3.59061 0 0 0 105 114 103 255
1.04246 0.656603 3.52606 0 0 0 136 134 134 255
0.930231 0.728984 3.54321 0 0 0 105 50 57 255
-0.895519 0.679214 3.60875 0 0 0 149 153 152 255
0.928458 0.772336 3.49398 0 0 0 84 75 88 255
-0.908385 0.750652 3.62298 0 0 0 148 150 155 255
-0.807136 0.736386 3.55493 0 0 0 160 162 163 255
0.498943 0.996348 4.39278 0 0 0 107 103 100 255
0.864742 0.955473 3.61057 0 0 0 115 122 123 255
-0.683269 0.925381 3.53983 0 0 0 60 65 72 255
-0.561488 -0.557561 3.54731 0 0 0 129 155 146 255
-0.970952 -0.554142 3.58477 0 0 0 90 105 87 255
-0.753753 -0.392305 3.48297 0 0 0 156 160 158 255
-0.940775 -0.325215 3.57102 0 0 0 138 140 137 255
0.0278019 0.477835 4.13835 0 0 0 47 49 52 255
-0.425502 0.452307 3.77953 0 0 0 33 81 122 255
1.02834 0.596614 3.61575 0 0 0 116 120 116 255
-0.620027 0.708111 3.52696 0 0 0 165 171 171 255
0.895433 0.779609 3.5231 0 0 0 139 140 131 255
0.0659979 0.960614 4.15872 0 0 0 58 64 74 255
0.936382 0.872242 3.47177 0 0 0 88 68 66 255
-0.906377 0.826414 3.61865 0 0 0 31 72 113 255
-0.513549 0.85757 3.56816 0 0 0 167 167 167 255
-0.876813 0.910614 3.58901 0 0 0 107 106 109 255
-0.906048 0.950398 3.62609 0 0 0 156 158 159 255
-0.85141 -0.734002 3.49735 0 0 0 144 134 127 255
-0.695586 -0.72629 3.48944 0 0 0 132 70 79 255
-0.525142 -0.706728 3.56212 0 0 0 163 156 155 255
-0.718194 -0.502577 3.49912 0 0 0 60 107 65 255
-0.653878 -0.184666 3.5001 0 0 0 159 149 103 255
-0.979579 0.00342376 3.75691 0 0 0 38 79 53 255
0.0384162 0.253035 4.36645 0 0 0 154 156 155 255
0.406719 0.427614 4.22881 0 0 0 74 77 78 255
0.306996 0.500744 4.11605 0 0 0 145 149 150 255
-0.653857 0.450743 3.52379 0 0 0 100 94 109 255
-0.876375 0.499076 3.59028 0 0 0 94 104 115 255
0.383302 0.819985 4.23667 0 0 0 40 48 49 255
0.44526 1.02404 4.24013 0 0 0 171 176 174 255
-0.907132 0.832038 3.61837 0 0 0 29 73 113 255
-0.472011 -0.0317361 3.76114 0 0 0 49 97 70 255
0.326922 0.357054 4.24446 0 0 0 46 51 56 255
0.0628524 0.562469 4.11757 0 0 0 121 126 127 255
0.186926 0.540461 4.08061 0 0 0 144 148 150 255
-0.0420348 0.819323 4.3436 0 0 0 69 70 71 255
2.11027 -1.83555 5.97165 0 0 0 64 64 63 255
-0.681768 -0.808029 3.49278 0 0 0 46 79 76 255
-0.965773 -0.786196 3.55688 0 0 0 86 101 88 255
-0.899167 -0.750429 3.51912 0 0 0 132 135 119 255
-0.896966 -0.737638 3.51957 0 0 0 75 47 48 255
-0.883596 -0.734537 3.51301 0 0 0 154 147 150 255
-0.833558 -0.71134 3.49318 0 0 0 152 152 152 255
-0.844411 -0.683137 3.49553 0 0 0 75 61 63 255
-0.993263 -0.693392 3.59379 0 0 0 88 33 33 255
-1.01066 -0.694811 3.61205 0 0 0 117 100 97 255
-0.996024 -0.67647 3.59637 0 0 0 124 97 97 255
-0.934339 -0.590783 3.55156 0 0 0 36 69 63 255
-0.933516 -0.57771 3.5511 0 0 0 24 63 52 255
-0.962064 -0.572561 3.57116 0 0 0 67 95 73 255
-0.913188 -0.535371 3.53701 0 0 0 107 120 113 255
-0.890228 -0.346196 3.53499 0 0 0 42 88 59 255
-0.661397 -0.141921 3.4927 0 0 0 111 92 43 255
0.0437809 0.482882 4.12792 0 0 0 50 60 68 255
1.30181 0.543326 3.65504 0 0 0 101 102 92 255
1.16082 0.575547 3.55573 0 0 0 90 116 109 255
1.19678 0.586587 3.53047 0 0 0 46 55 41 255
1.19971 0.615822 3.52441 0 0 0 160 163 164 255
-0.894832 0.592471 3.60238 0 0 0 110 110 120 255
1.12297 0.639144 3.51028 0 0 0 99 95 92 255
1.11303 0.655673 3.50742 0 0 0 133 137 138 255
1.13683 0.682484 3.496 0 0 0 79 65 70 255
1.11426 0.698996 3.51257 0 0 0 99 86 94 255
0.944907 0.718489 3.52982 0 0 0 72 67 56 255
1.11251 0.719051 3.46523 0 0 0 163 162 165 255
1.16974 0.741344 3.4588 0 0 0 127 120 125 255
0.910653 0.779488 3.49982 0 0 0 141 139 138 255
1.19756 0.767808 3.41788 0 0 0 132 116 109 255
1.05957 0.781931 3.45004 0 0 0 100 90 88 255
1.18254 0.803024 3.42194 0 0 0 85 65 58 255
1.19728 0.801132 3.40007 0 0 0 160 155 159 255
1.05918 0.817955 3.39969 0 0 0 91 82 86 255
0.937899 0.833958 3.47083 0 0 0 77 73 75 255
0.954197 0.85962 3.47711 0 0 0 70 62 66 255
0.897728 0.870738 3.47757 0 0 0 56 57 68 255
-0.877136 0.850898 3.60011 0 0 0 70 88 105 255
0.945178 0.940266 3.47529 0 0 0 72 73 77 255
1.13213 0.938072 3.39373 0 0 0 108 83 82 255
1.10011 0.956029 3.35788 0 0 0 102 79 64 255
-0.85145 0.970252 3.59354 0 0 0 128 135 148 255
-0.49155 1.01769 3.606 0 0 0 16 112 150 255
-0.419823 1.07757 3.72223 0 0 0 101 112 125 255
0.933832 1.14172 3.65478 0 0 0 118 118 118 255
0.959471 1.1481 3.57877 0 0 0 91 72 47 255
2.10745 -1.92803 5.97249 0 0 0 65 63 61 255
2.08827 -1.8305 5.9482 0 0 0 122 116 116 255
-1.06325 -0.921925 3.76685 0 0 0 83 95 89 255
-0.910142 -0.818153 3.52534 0 0 0 58 78 70 255
-0.700784 -0.806297 3.48285 0 0 0 112 116 114 255
-0.602413 -0.798699 3.50981 0 0 0 42 75 63 255
-0.962468 -0.684108 3.56525 0 0 0 98 42 46 255
0.278347 0.205987 4.26666 0 0 0 57 61 64 255
0.240487 0.472839 4.08454 0 0 0 43 51 59 255
0.0431287 0.488616 4.12911 0 0 0 94 97 101 255
0.957 0.657062 3.61851 0 0 0 125 126 126 255
1.19861 0.656988 3.50207 0 0 0 158 162 165 255
1.15664 0.664737 3.50651 0 0 0 160 160 166 255
1.20313 0.669608 3.47901 0 0 0 106 123 116 255
0.941768 0.724043 3.53209 0 0 0 84 69 67 255
1.12134 0.720653 3.4899 0 0 0 147 148 155 255
1.18149 0.770541 3.44424 0 0 0 136 132 122 255
-0.888013 0.841176 3.5973 0 0 0 128 135 146 255
1.08631 0.962212 3.42302 0 0 0 85 85 86 255
-0.969757 1.07009 3.76519 0 0 0 148 150 150 255
2.08544 -1.85449 5.94315 0 0 0 117 114 115 255
1.68018 -1.84207 6.04564 0 0 0 57 60 68 255
1.99997 -1.82187 6.00553 0 0 0 104 102 98 255
-0.981951 -0.5159 3.61172 0 0 0 28 67 58 255
-0.620145 -0.439119 3.50728 0 0 0 151 162 159 255
-0.939531 -0.310088 3.5721 0 0 0 136 143 139 255
-1.00116 0.018748 3.78933 0 0 0 60 90 74 255
0.246312 0.287359 4.23014 0 0 0 189 187 188 255
-0.424836 0.462764 3.7176 0 0 0 35 81 117 255
1.19418 0.619765 3.52864 0 0 0 149 148 153 255
1.12137 0.680649 3.51307 0 0 0 82 82 84 255
1.09463 0.873865 3.43396 0 0 0 85 82 83 255
-0.488397 -0.960074 3.71222 0 0 0 52 99 74 255
-0.930519 -0.506449 3.55003 0 0 0 32 80 52 255
-0.517248 -0.487736 3.56688 0 0 0 156 160 159 255
-0.511641 -0.0899279 3.61013 0 0 0 64 101 71 255
-0.423934 0.463994 3.71836 0 0 0 35 81 117 255
0.310298 0.533916 4.11406 0 0 0 145 147 149 255
-0.0201227 0.848834 4.3803 0 0 0 59 61 61 255
0.528392 0.931554 4.51989 0 0 0 175 176 171 255
-0.722647 0.71853 3.53708 0 0 0 41 59 103 255
0.507998 1.06346 4.45582 0 0 0 167 174 172 255
-0.865093 0.900788 3.58234 0 0 0 49 64 92 255
-0.799846 -0.556741 3.4899 0 0 0 151 156 154 255
-0.963316 -0.537395 3.58225 0 0 0 138 138 138 255
-0.973347 0.338329 3.81694 0 0 0 54 66 91 255
-0.435488 0.451346 3.71802 0 0 0 45 96 131 255
-0.471714 0.716654 3.62844 0 0 0 31 66 113 255
0.857262 0.854985 3.8735 0 0 0 93 96 106 255
-0.695464 0.845017 3.53969 0 0 0 50 68 109 255
-0.903593 0.928043 3.61927 0 0 0 155 157 159 255
-0.530749 -0.415114 3.58012 0 0 0 36 92 62 255
-0.898781 -0.11875 3.55663 0 0 0 138 135 133 255
-0.978916 -0.0259597 3.75071 0 0 0 36 81 54 255
0.258862 0.108251 4.25283 0 0 0 127 55 51 255
-0.966692 0.375772 3.80344 0 0 0 15 52 96 255
-0.462145 0.37502 3.7388 0 0 0 16 71 119 255
-0.869806 0.529873 3.58593 0 0 0 156 109 93 255
0.316061 0.672481 4.15381 0 0 0 35 42 42 255
0.0246977 0.830789 4.37247 0 0 0 36 45 44 255
-0.461081 -1.07541 3.72337 0 0 0 83 86 89 255
-1.0187 -0.865918 3.6261 0 0 0 5 33 21 255
-0.888988 -0.793356 3.51053 0 0 0 125 125 121 255
-0.960124 -0.751676 3.56257 0 0 0 84 101 65 255
-1.00124 -0.704385 3.60196 0 0 0 91 38 44 255
-0.716717 -0.691214 3.48615 0 0 0 136 127 125 255
-1.01442 -0.236494 3.72084 0 0 0 113 120 117 255
-0.964512 -0.135079 3.62173 0 0 0 72 80 85 255
-0.881177 -0.127559 3.54231 0 0 0 130 87 102 255
-0.719558 0.494268 3.52261 0 0 0 78 119 146 255
3.34147 0.879986 5.90809 0 0 0 58 53 55 255
-0.0351449 0.615034 4.38636 0 0 0 66 65 66 255
1.26956 0.601762 3.35865 0 0 0 80 69 67 255
1.26329 0.613849 3.41416 0 0 0 112 119 107 255
1.04595 0.643177 3.5258 0 0 0 136 131 133 255
1.86059 0.745777 3.99359 0 0 0 118 120 122 255
0.931647 0.670826 3.70784 0 0 0 82 80 84 255
1.05963 0.672865 3.51395 0 0 0 114 107 98 255
1.21067 0.721151 3.44965 0 0 0 120 96 96 255
-0.863299 0.660958 3.59517 0 0 0 38 66 91 255
1.29045 0.753374 3.40524 0 0 0 64 76 67 255
0.975535 0.761606 3.46271 0 0 0 93 88 89 255
1.33335 0.765863 3.40932 0 0 0 98 106 103 255
1.24486 0.774731 3.37418 0 0 0 134 122 119 255
1.25888 0.784139 3.37263 0 0 0 82 70 60 255
1.30368 0.789805 3.38188 0 0 0 70 69 56 255
1.32703 0.795186 3.39901 0 0 0 120 115 116 255
1.21269 0.790576 3.36584 0 0 0 133 93 86 255
1.375 0.814535 3.4097 0 0 0 116 114 118 255
1.14742 0.806745 3.3776 0 0 0 119 114 115 255
1.2238 0.838502 3.34609 0 0 0 127 111 94 255
1.23436 0.864218 3.33416 0 0 0 125 123 117 255
1.3363 0.899121 3.40217 0 0 0 92 76 75 255
1.49302 0.964066 3.47089 0 0 0 99 99 101 255
1.17621 0.91385 3.28039 0 0 0 139 134 133 255
1.16375 0.96458 3.35265 0 0 0 85 83 87 255
1.11774 0.999208 3.37504 0 0 0 74 80 79 255
1.27044 1.02531 3.33938 0 0 0 79 76 84 255
1.32973 1.07364 3.43494 0 0 0 87 88 91 255
1.2771 1.06054 3.33763 0 0 0 85 84 86 255
1.33142 1.10334 3.44898 0 0 0 72 76 81 255
1.44674 1.11571 3.47754 0 0 0 128 129 126 255
0.931129 1.12377 3.57442 0 0 0 54 70 71 255
1.33577 1.1253 3.46668 0 0 0 64 66 81 255
1.28544 1.10362 3.35182 0 0 0 77 67 70 255
1.31284 1.13471 3.37965 0 0 0 121 135 139 255
-0.688048 1.06771 3.54562 0 0 0 76 123 158 255
-0.793251 1.06567 3.5492 0 0 0 78 133 174 255
1.33436 1.21153 3.47858 0 0 0 128 147 154 255
1.40776 1.23791 3.55941 0 0 0 118 125 135 255
-0.669309 1.09579 3.54604 0 0 0 126 108 128 255
-0.767572 1.09453 3.52404 0 0 0 90 98 119 255
-0.766768 1.11224 3.5251 0 0 0 86 94 116 255
-0.785278 1.14055 3.53541 0 0 0 90 91 109 255
-0.727951 1.14337 3.53792 0 0 0 146 152 173 255
-0.448664 1.22671 3.69291 0 0 0 100 138 167 255
-0.510089 1.2163 3.59526 0 0 0 123 160 195 255
-0.961661 1.23194 3.71527 0 0 0 151 153 156 255
-0.509375 1.22858 3.5856 0 0 0 137 159 196 255
-0.825751 1.19275 3.53709 0 0 0 79 133 179 255
-0.784392 1.19504 3.52558 0 0 0 89 138 171 255
-0.78665 1.21496 3.53098 0 0 0 61 97 133 255
-0.741688 1.21814 3.51348 0 0 0 27 83 132 255
-0.739596 1.22933 3.51981 0 0 0 87 127 157 255
-0.700711 1.23109 3.51098 0 0 0 54 106 150 255
-0.822004 1.23538 3.54597 0 0 0 113 134 157 255
-0.787098 1.23528 3.53043 0 0 0 100 131 154 255
-0.756592 1.23071 3.5201 0 0 0 97 134 157 255
-0.825384 -0.757155 3.49006 0 0 0 111 131 75 255
-1.01229 -0.744693 3.61541 0 0 0 84 107 68 255
-0.54626 -0.529772 3.54892 0 0 0 81 104 104 255
-1.01462 -0.237753 3.71988 0 0 0 113 120 117 255
-0.0460499 0.45534 4.35745 0 0 0 119 120 117 255
1.28344 0.606345 3.37188 0 0 0 64 56 57 255
-0.901275 0.689805 3.61229 0 0 0 144 147 148 255
1.29523 0.755442 3.40494 0 0 0 57 65 60 255
1.33934 0.77213 3.41162 0 0 0 125 114 116 255
1.06551 0.792434 3.42483 0 0 0 141 144 149 255
1.13267 0.772379 3.32213 0 0 0 140 137 138 255
1.25583 0.786668 3.37125 0 0 0 73 72 67 255
1.16654 0.794357 3.31911 0 0 0 119 55 54 255
1.3608 0.808547 3.40951 0 0 0 132 127 129 255
1.1493 0.822797 3.37181 0 0 0 126 123 125 255
1.48748 0.960029 3.47468 0 0 0 106 108 116 255
-0.776843 0.945291 3.55371 0 0 0 165 168 167 255
1.33307 1.09002 3.44736 0 0 0 83 93 96 255
-0.745044 1.07387 3.52219 0 0 0 28 90 135 255
-0.773015 1.11013 3.54756 0 0 0 83 88 111 255
-0.837043 1.13446 3.55523 0 0 0 125 140 171 255
-0.794592 1.16199 3.54002 0 0 0 134 137 142 255
-0.963585 1.23079 3.71399 0 0 0 151 153 156 255
-0.827932 1.22909 3.54386 0 0 0 101 124 144 255
-1.01744 -0.868684 3.62664 0 0 0 18 47 32 255
-0.744664 -0.811672 3.48085 0 0 0 148 150 152 255
-1.01099 -0.743005 3.61318 0 0 0 84 107 68 255
-0.882883 -0.721051 3.51275 0 0 0 102 39 44 255
-0.683577 -0.59546 3.50397 0 0 0 162 165 168 255
-1.01307 -0.244499 3.71047 0 0 0 131 134 128 255
0.291375 0.242721 4.24238 0 0 0 104 106 105 255
0.156172 0.407515 4.10076 0 0 0 121 97 60 255
-0.020851 0.579833 4.35546 0 0 0 105 105 105 255
1.11172 0.590999 3.51599 0 0 0 131 139 123 255
1.21973 0.594527 3.53039 0 0 0 36 49 47 255
1.33115 0.617438 3.42031 0 0 0 56 55 56 255
1.2788 0.625311 3.4233 0 0 0 134 135 115 255
1.9036 0.753438 4.03559 0 0 0 139 143 144 255
1.22956 0.6884 3.47683 0 0 0 130 140 131 255
0.184627 0.792747 4.09664 0 0 0 90 86 77 255
1.06521 0.735203 3.46115 0 0 0 85 81 66 255
1.25723 0.722187 3.41542 0 0 0 91 89 74 255
1.16454 0.774062 3.40684 0 0 0 131 113 110 255
1.17868 0.780262 3.36925 0 0 0 162 165 173 255
1.14906 0.784199 3.4019 0 0 0 105 98 98 255
1.26622 0.791916 3.36254 0 0 0 44 74 59 255
1.20241 0.806373 3.36046 0 0 0 94 57 58 255
-0.908993 0.770378 3.62868 0 0 0 151 152 153 255
1.08313 0.928822 3.3681 0 0 0 100 76 61 255
1.16764 0.977799 3.35084 0 0 0 90 78 78 255
1.26216 1.09944 3.38639 0 0 0 68 67 72 255
-0.685469 1.06956 3.54156 0 0 0 110 150 182 255
-0.727592 1.07094 3.5489 0 0 0 24 92 137 255
-0.627869 1.14324 3.52025 0 0 0 41 82 118 255
-0.585553 1.15808 3.53132 0 0 0 165 158 141 255
-0.738158 1.15575 3.5344 0 0 0 43 77 121 255
-0.693658 1.16447 3.52858 0 0 0 127 134 144 255
-0.480988 1.20592 3.60485 0 0 0 139 149 160 255
-0.961786 1.21704 3.7176 0 0 0 151 154 153 255
-0.723166 -0.573959 3.48397 0 0 0 162 164 165 255
-0.802594 -0.580974 3.49051 0 0 0 153 156 154 255
-0.602655 -0.0179605 3.51124 0 0 0 116 140 139 255
0.203384 0.0945702 4.23756 0 0 0 82 63 69 255
0.2046 0.223276 4.24362 0 0 0 143 144 144 255
-0.0368961 0.459782 4.36232 0 0 0 60 61 65 255
-0.432779 0.44085 3.70873 0 0 0 30 81 121 255
0.161877 0.531412 4.07949 0 0 0 83 78 74 255
0.363756 0.65719 4.19261 0 0 0 44 47 47 255
1.24664 0.602959 3.52596 0 0 0 31 61 56 255
-0.445447 0.625795 3.69237 0 0 0 59 98 135 255
0.347971 0.870928 4.19702 0 0 0 84 71 55 255
-0.870461 0.731456 3.59161 0 0 0 27 52 98 255
-0.814813 0.762969 3.55301 0 0 0 147 152 151 255
0.977523 1.18248 5.36915 0 0 0 154 153 149 255
-0.638866 0.886008 3.53311 0 0 0 171 175 175 255
1.08441 0.923849 3.36513 0 0 0 98 78 63 255
-0.739901 1.07461 3.55445 0 0 0 27 90 135 255
1.40296 1.27181 3.59833 0 0 0 128 149 155 255
-0.746217 -0.71987 3.47857 0 0 0 158 161 160 255
2.11826 -1.44588 6.00886 0 0 0 120 117 118 255
-0.733754 -0.495568 3.52456 0 0 0 65 107 66 255
-0.855108 -0.348677 3.51415 0 0 0 148 153 151 255
0.266587 0.12663 4.25044 0 0 0 124 47 41 255
2.06968 0.737525 5.95658 0 0 0 134 132 131 255
-0.70761 0.509879 3.52573 0 0 0 134 137 132 255
