ply
format ascii 1.0
comment VCGLIB generated
element vertex 1011
property float x
property float y
property float z
property float nx
property float ny
property float nz
property uchar red
property uchar green
property uchar blue
property uchar alpha
element face 0
property list uchar int vertex_indices
end_header
-0.638074 0.454 3.52475 0 0 0 74 60 52 255
-0.611129 0.448584 3.53023 0 0 0 77 57 29 255
-0.572932 0.458715 3.54568 0 0 0 140 121 93 255
-0.789687 0.46382 3.53087 0 0 0 102 107 107 255
-0.698925 0.463782 3.51836 0 0 0 125 129 136 255
-0.625338 0.460234 3.52793 0 0 0 135 116 88 255
0.0654332 0.541224 4.11163 0 0 0 52 46 48 255
-0.736688 0.46407 3.52062 0 0 0 123 119 106 255
-0.648862 0.464002 3.52373 0 0 0 124 107 89 255
0.155705 0.543214 4.08206 0 0 0 93 80 73 255
-0.832764 0.475832 3.54547 0 0 0 95 114 139 255
-0.471024 0.486444 3.63951 0 0 0 32 94 135 255
2.12915 0.815459 6.10818 0 0 0 108 99 93 255
0.0340036 0.557815 4.13105 0 0 0 44 49 47 255
0.32513 0.563564 4.12243 0 0 0 99 97 93 255
-0.532099 0.491274 3.5708 0 0 0 89 126 159 255
-0.558134 0.497081 3.56288 0 0 0 10 82 131 255
-0.827393 0.494881 3.54743 0 0 0 60 94 123 255
-0.808669 0.497598 3.54313 0 0 0 88 116 142 255
-0.632585 0.492348 3.52999 0 0 0 50 110 161 255
-0.614195 0.493506 3.53105 0 0 0 8 80 129 255
-0.598584 0.494505 3.5368 0 0 0 60 116 161 255
-0.418234 0.522893 3.72942 0 0 0 45 90 124 255
-0.0470305 0.620928 4.2818 0 0 0 86 87 84 255
0.0393944 0.575553 4.12715 0 0 0 42 44 46 255
0.1561 0.573544 4.08257 0 0 0 54 49 45 255
-0.48186 0.51412 3.61594 0 0 0 53 63 79 255
-0.472265 0.517473 3.62544 0 0 0 155 159 169 255
-0.453676 0.514477 3.64785 0 0 0 97 101 114 255
0.112115 0.57776 4.09145 0 0 0 50 44 41 255
0.256007 0.574623 4.08687 0 0 0 46 54 57 255
-0.532251 0.513803 3.57323 0 0 0 51 81 116 255
-0.0455043 0.622216 4.28434 0 0 0 72 73 71 255
0.0165748 0.596488 4.15221 0 0 0 96 102 103 255
0.214234 0.582501 4.0774 0 0 0 84 84 86 255
0.355902 0.587873 4.14393 0 0 0 141 148 148 255
-0.581494 0.513125 3.54767 0 0 0 37 100 134 255
-0.560414 0.518446 3.55919 0 0 0 156 165 174 255
-0.47106 0.520532 3.62629 0 0 0 157 160 170 255
0.0508321 0.596624 4.12184 0 0 0 113 118 116 255
0.272077 0.588884 4.09582 0 0 0 101 110 112 255
0.30778 0.594255 4.11687 0 0 0 146 149 150 255
0.0873803 0.599057 4.10166 0 0 0 121 120 120 255
0.199414 0.593069 4.08081 0 0 0 143 152 154 255
-0.589918 0.526343 3.54218 0 0 0 123 168 188 255
-0.409802 0.553717 3.74676 0 0 0 35 69 107 255
-0.40802 0.556768 3.7681 0 0 0 22 74 118 255
0.129419 0.601702 4.08802 0 0 0 138 137 135 255
-0.603582 0.530791 3.53746 0 0 0 63 93 102 255
-0.548389 0.53297 3.56523 0 0 0 161 166 168 255
-0.525065 0.533622 3.57775 0 0 0 139 148 161 255
-0.495971 0.539752 3.60096 0 0 0 158 162 166 255
-0.512306 0.542676 3.59021 0 0 0 91 99 108 255
-0.602744 0.54115 3.53771 0 0 0 45 90 106 255
-0.571423 0.539411 3.5508 0 0 0 63 98 123 255
-0.472908 0.553741 3.62703 0 0 0 74 78 109 255
-0.542961 0.550687 3.56743 0 0 0 118 125 134 255
-0.5037 0.555238 3.59833 0 0 0 26 66 116 255
-0.580277 0.552941 3.54691 0 0 0 130 171 188 255
-0.56333 0.553013 3.55608 0 0 0 28 106 148 255
-0.658272 0.55903 3.52603 0 0 0 133 154 149 255
-0.47882 0.57879 3.62539 0 0 0 81 118 145 255
-0.427418 0.590458 3.71523 0 0 0 64 100 136 255
-0.678833 0.567914 3.52336 0 0 0 118 136 127 255
-0.589865 0.568157 3.54162 0 0 0 61 101 125 255
-0.466853 0.587745 3.64559 0 0 0 65 90 118 255
1.07681 0.596656 3.59227 0 0 0 110 131 127 255
-0.699529 0.588438 3.5238 0 0 0 97 115 128 255
1.1913 0.5915 3.50577 0 0 0 54 59 52 255
1.02052 0.621316 3.64232 0 0 0 117 133 119 255
1.11143 0.600229 3.54557 0 0 0 77 108 98 255
0.221865 0.714049 4.08626 0 0 0 112 88 64 255
1.0962 0.616121 3.53624 0 0 0 87 79 64 255
-0.502816 0.638735 3.61145 0 0 0 157 164 171 255
0.144238 0.719902 4.08656 0 0 0 107 97 81 255
1.18638 0.620184 3.5104 0 0 0 153 156 158 255
1.03604 0.636222 3.58138 0 0 0 124 122 112 255
-0.802122 0.637505 3.5453 0 0 0 133 147 161 255
1.08331 0.635365 3.53003 0 0 0 152 116 95 255
-0.770525 0.639057 3.54143 0 0 0 121 131 157 255
-0.634826 0.639402 3.53238 0 0 0 140 158 185 255
0.200616 0.743248 4.08944 0 0 0 111 97 80 255
1.0155 0.6464 3.58102 0 0 0 90 102 89 255
1.3033 0.631287 3.47013 0 0 0 127 129 117 255
1.30671 0.629812 3.46701 0 0 0 127 129 117 255
-0.819364 0.656877 3.55455 0 0 0 31 53 98 255
-0.75465 0.656353 3.53482 0 0 0 52 65 81 255
-0.544251 0.671985 3.59067 0 0 0 115 115 116 255
-0.414873 0.700771 3.7884 0 0 0 96 116 144 255
1.11485 0.645331 3.48669 0 0 0 98 89 90 255
1.15383 0.643027 3.48021 0 0 0 98 89 97 255
-0.699569 0.669011 3.52968 0 0 0 160 164 167 255
-0.58616 0.668345 3.54101 0 0 0 92 92 96 255
-0.414105 0.718458 3.75378 0 0 0 120 121 125 255
1.05782 0.679692 3.50415 0 0 0 128 107 97 255
-0.877849 0.698718 3.6034 0 0 0 98 99 103 255
1.07078 0.678656 3.48935 0 0 0 151 149 152 255
-0.542409 0.708349 3.59332 0 0 0 122 121 124 255
-0.433168 0.718237 3.65833 0 0 0 134 136 138 255
-0.863747 0.717418 3.59089 0 0 0 148 150 154 255
-0.697152 0.698566 3.52912 0 0 0 164 165 166 255
1.11317 0.681393 3.44887 0 0 0 88 74 80 255
-0.585094 0.704828 3.54035 0 0 0 95 98 102 255
-0.49908 0.732429 3.62187 0 0 0 162 164 166 255
1.07338 0.690859 3.4776 0 0 0 91 94 101 255
1.35598 0.687253 3.42495 0 0 0 102 94 74 255
-0.801348 0.721733 3.55518 0 0 0 88 89 96 255
-0.411897 0.748483 3.74337 0 0 0 120 121 122 255
1.1021 0.693492 3.4502 0 0 0 128 140 146 255
-0.487334 0.736719 3.63073 0 0 0 55 72 107 255
-0.474444 0.750883 3.63553 0 0 0 114 126 149 255
-0.43121 0.757405 3.65714 0 0 0 118 124 131 255
0.955763 0.728473 3.54654 0 0 0 90 82 77 255
-0.884715 0.75781 3.6017 0 0 0 138 149 153 255
-0.699886 0.739004 3.53257 0 0 0 129 141 150 255
1.09657 0.713919 3.44125 0 0 0 137 134 135 255
-0.807013 0.753426 3.5544 0 0 0 112 121 125 255
-0.635417 0.744606 3.53364 0 0 0 164 166 179 255
-0.412322 0.785768 3.73072 0 0 0 112 116 120 255
-0.885214 0.76306 3.60469 0 0 0 148 154 155 255
-0.54711 0.762434 3.56626 0 0 0 167 169 170 255
-0.575449 0.768223 3.56311 0 0 0 155 165 178 255
-0.505575 0.786481 3.60653 0 0 0 106 106 110 255
-0.433657 0.79951 3.67029 0 0 0 88 94 110 255
0.759419 1.14828 5.26204 0 0 0 152 149 143 255
0.770075 1.10681 5.05711 0 0 0 131 125 122 255
-0.510271 0.786414 3.5945 0 0 0 83 89 99 255
-0.765541 0.77861 3.55011 0 0 0 123 124 134 255
-0.74323 0.780841 3.53679 0 0 0 107 112 121 255
-0.66727 0.779162 3.53372 0 0 0 128 146 176 255
-0.422788 0.817317 3.69875 0 0 0 154 157 170 255
0.90355 0.79206 3.58367 0 0 0 150 127 103 255
-0.816944 0.782641 3.56098 0 0 0 89 95 99 255
0.941765 0.781675 3.50074 0 0 0 77 78 89 255
-0.462735 0.821169 3.65295 0 0 0 88 93 96 255
0.923884 0.789622 3.51557 0 0 0 141 139 130 255
1.14384 0.758043 3.38511 0 0 0 157 155 156 255
1.15594 0.757687 3.38049 0 0 0 125 120 121 255
1.25724 0.767493 3.40712 0 0 0 134 90 80 255
1.28838 0.764209 3.39456 0 0 0 70 66 55 255
0.767767 1.11481 4.86562 0 0 0 81 78 78 255
-0.613761 0.810054 3.54957 0 0 0 74 80 102 255
0.94468 0.798058 3.49736 0 0 0 146 142 141 255
1.3268 0.766797 3.38885 0 0 0 94 109 108 255
-0.770106 0.811615 3.54457 0 0 0 120 126 131 255
-0.624684 0.814951 3.54325 0 0 0 73 83 93 255
-0.504851 0.82545 3.60084 0 0 0 133 136 141 255
-0.448604 0.838378 3.66162 0 0 0 164 164 170 255
1.16998 0.772274 3.36622 0 0 0 123 105 88 255
1.2948 0.776787 3.38308 0 0 0 127 137 120 255
-0.508447 0.831059 3.5928 0 0 0 84 89 97 255
0.206422 0.945487 4.0993 0 0 0 105 106 103 255
-0.456957 0.849581 3.65004 0 0 0 69 73 102 255
1.29061 0.783121 3.37844 0 0 0 131 121 97 255
1.37129 0.78807 3.39326 0 0 0 124 123 123 255
-0.755308 0.831309 3.54186 0 0 0 106 110 129 255
1.24634 0.791424 3.36301 0 0 0 118 104 105 255
1.36151 0.798783 3.3926 0 0 0 88 92 85 255
-0.890126 0.857524 3.61232 0 0 0 101 117 145 255
1.15075 0.801204 3.36357 0 0 0 79 64 60 255
1.31388 0.80004 3.36704 0 0 0 131 140 142 255
-0.612743 0.851611 3.54607 0 0 0 147 147 147 255
-0.484976 0.867002 3.62119 0 0 0 157 159 161 255
-0.623739 0.861372 3.54254 0 0 0 81 87 94 255
-0.502916 0.870638 3.60021 0 0 0 152 153 156 255
-0.865294 0.890432 3.59655 0 0 0 74 78 92 255
-0.810652 0.874179 3.56527 0 0 0 75 83 100 255
0.975972 0.835649 3.44344 0 0 0 102 97 96 255
1.06378 0.824692 3.39437 0 0 0 114 77 81 255
1.36713 0.818103 3.38492 0 0 0 139 135 134 255
0.891951 0.860384 3.51682 0 0 0 71 107 122 255
-0.542532 0.880133 3.5681 0 0 0 166 166 166 255
-0.682155 0.884417 3.53745 0 0 0 43 69 114 255
-0.570237 0.885482 3.56476 0 0 0 168 172 172 255
-0.570683 0.894128 3.56466 0 0 0 168 169 169 255
-0.692475 0.901205 3.5375 0 0 0 165 173 175 255
0.946832 0.872898 3.45312 0 0 0 47 46 65 255
1.2214 0.842484 3.33474 0 0 0 132 115 102 255
0.90773 0.883228 3.48679 0 0 0 61 72 80 255
-0.681092 0.912751 3.53878 0 0 0 123 128 138 255
-0.664931 0.918234 3.5381 0 0 0 153 155 167 255
-0.44973 0.955579 3.67287 0 0 0 117 147 169 255
-0.587201 0.929856 3.55726 0 0 0 103 119 143 255
-0.459857 0.971311 3.66768 0 0 0 27 106 144 255
1.23907 0.875036 3.32408 0 0 0 120 123 122 255
-0.809327 0.954484 3.56746 0 0 0 78 82 107 255
1.29389 0.888 3.32532 0 0 0 69 63 59 255
0.93742 0.923836 3.44292 0 0 0 134 128 115 255
-0.82772 0.965493 3.57867 0 0 0 158 160 161 255
-0.536266 0.97753 3.592 0 0 0 49 108 152 255
1.21978 0.913559 3.32742 0 0 0 123 116 116 255
1.16435 0.922827 3.34217 0 0 0 98 87 84 255
1.10813 0.935392 3.3542 0 0 0 117 97 81 255
-0.620243 0.991047 3.54954 0 0 0 64 115 150 255
-0.453231 1.02725 3.67046 0 0 0 29 89 132 255
-0.537603 1.00886 3.59056 0 0 0 79 109 136 255
1.22873 0.934611 3.32888 0 0 0 134 131 132 255
-0.490608 1.02282 3.60702 0 0 0 7 112 153 255
-0.422809 1.04956 3.70567 0 0 0 96 127 146 255
1.06036 0.955773 3.37501 0 0 0 99 92 86 255
1.19167 0.946296 3.33123 0 0 0 85 78 80 255
-0.465401 1.04603 3.66239 0 0 0 111 143 163 255
0.231674 1.18129 4.10867 0 0 0 104 103 107 255
-0.428034 1.07273 3.70651 0 0 0 118 125 134 255
1.16876 0.971998 3.34552 0 0 0 93 103 111 255
-0.615046 1.05281 3.54542 0 0 0 67 109 132 255
-0.797471 1.07 3.56974 0 0 0 68 135 176 255
0.888295 1.09235 3.67916 0 0 0 104 113 113 255
-0.632168 1.06561 3.54536 0 0 0 79 131 177 255
-0.831053 1.08039 3.5709 0 0 0 25 89 129 255
-0.626099 1.08309 3.54664 0 0 0 75 85 111 255
-0.83409 1.09246 3.5724 0 0 0 52 101 138 255
-0.645073 1.08912 3.54323 0 0 0 159 167 170 255
-0.701279 1.09302 3.5486 0 0 0 122 110 126 255
-0.770944 1.10096 3.54604 0 0 0 103 107 121 255
1.0309 1.0597 3.40117 0 0 0 62 81 91 255
1.28663 1.03544 3.33948 0 0 0 92 81 87 255
1.3238 1.03454 3.33043 0 0 0 105 103 103 255
1.29578 1.06769 3.3371 0 0 0 86 81 83 255
1.29628 1.07342 3.33894 0 0 0 79 73 81 255
1.27297 1.08854 3.34307 0 0 0 95 103 112 255
-0.452309 1.20844 3.64789 0 0 0 95 135 171 255
1.25277 1.10843 3.34498 0 0 0 68 74 83 255
1.30931 1.11508 3.35049 0 0 0 85 80 82 255
-0.816647 1.20241 3.56332 0 0 0 82 133 166 255
-0.449629 1.23258 3.65235 0 0 0 161 164 173 255
-0.779266 1.20319 3.55609 0 0 0 63 121 167 255
-0.507541 1.21629 3.6037 0 0 0 129 158 181 255
-0.505814 1.23556 3.59996 0 0 0 167 169 172 255
-0.535029 1.24228 3.59326 0 0 0 86 126 155 255
-0.812603 1.23657 3.55131 0 0 0 110 122 134 255
1.33372 1.17805 3.40497 0 0 0 46 65 84 255
-0.778082 1.24073 3.54222 0 0 0 111 131 145 255
1.31705 1.1997 3.42663 0 0 0 123 134 142 255
1.33595 1.19992 3.42653 0 0 0 125 129 134 255
-0.658533 -0.820983 3.49337 0 0 0 142 149 149 255
-0.725092 -0.743112 3.4783 0 0 0 106 32 37 255
-0.696873 -0.746943 3.48821 0 0 0 111 41 51 255
-0.651174 -0.739927 3.49689 0 0 0 113 49 55 255
-0.640894 -0.734864 3.49991 0 0 0 123 51 59 255
-0.604 -0.738259 3.52155 0 0 0 159 158 158 255
-0.682108 -0.721155 3.48986 0 0 0 134 63 70 255
-0.543931 -0.732233 3.55262 0 0 0 128 130 132 255
-0.688954 -0.699662 3.48963 0 0 0 139 50 55 255
-0.575358 -0.702213 3.53711 0 0 0 132 39 50 255
-0.600672 -0.688898 3.52252 0 0 0 163 153 154 255
-0.755773 -0.597625 3.48158 0 0 0 100 119 104 255
-0.637344 -0.605916 3.49957 0 0 0 158 160 154 255
-0.642628 -0.585616 3.50013 0 0 0 154 163 163 255
-0.615784 -0.575357 3.50892 0 0 0 158 162 161 255
-0.537077 -0.587231 3.55733 0 0 0 34 91 63 255
-0.557311 -0.574594 3.54763 0 0 0 139 161 147 255
-0.622333 -0.568905 3.50422 0 0 0 156 160 159 255
-0.705266 -0.544046 3.49311 0 0 0 92 117 112 255
-0.491646 -0.50252 3.59547 0 0 0 157 161 162 255
-0.634252 -0.431923 3.50109 0 0 0 108 140 119 255
-0.507365 -0.276685 3.58739 0 0 0 129 134 113 255
-0.561785 -0.229012 3.538 0 0 0 119 140 94 255
-0.70693 -0.1697 3.49417 0 0 0 72 111 63 255
-0.661414 -0.152655 3.49631 0 0 0 91 80 27 255
-0.63264 -0.153827 3.50328 0 0 0 96 90 38 255
-0.703367 -0.097716 3.49448 0 0 0 77 107 83 255
-0.620401 -0.0286185 3.50595 0 0 0 135 149 136 255
0.184752 0.0741756 4.24756 0 0 0 43 40 41 255
0.0588916 0.0799379 4.32328 0 0 0 106 103 104 255
0.0445428 0.171883 4.32839 0 0 0 140 140 142 255
0.107982 0.423518 4.11766 0 0 0 120 100 76 255
0.426603 0.446633 4.271 0 0 0 62 67 70 255
0.423217 0.488762 4.2761 0 0 0 82 84 88 255
0.0175964 0.494898 4.14604 0 0 0 99 108 110 255
0.260215 0.481817 4.09067 0 0 0 110 112 116 255
2.13049 0.718854 6.11759 0 0 0 116 108 102 255
0.0879077 0.499182 4.10083 0 0 0 125 131 135 255
0.224701 0.488199 4.07376 0 0 0 60 67 72 255
-0.699586 0.427554 3.51905 0 0 0 124 126 124 255
0.23892 0.502932 4.07945 0 0 0 136 142 142 255
-0.58392 0.457805 3.54032 0 0 0 136 116 98 255
-0.839811 0.475224 3.54961 0 0 0 86 113 142 255
0.066442 0.5432 4.11145 0 0 0 52 46 48 255
-0.410656 0.517317 3.76869 0 0 0 55 92 119 255
0.0384332 0.570258 4.12724 0 0 0 45 48 47 255
0.113673 0.577761 4.09078 0 0 0 41 47 52 255
0.248754 0.568691 4.08393 0 0 0 54 49 49 255
0.329161 0.574683 4.12584 0 0 0 44 41 38 255
0.156876 0.583139 4.08206 0 0 0 48 46 44 255
0.30416 0.594473 4.11428 0 0 0 132 132 132 255
-0.620355 0.520503 3.53284 0 0 0 125 150 152 255
-0.5625 0.518568 3.55796 0 0 0 156 165 174 255
0.218542 0.596281 4.07742 0 0 0 74 68 68 255
0.254889 0.594129 4.0882 0 0 0 143 146 152 255
-0.510748 0.554315 3.59147 0 0 0 35 79 126 255
-0.639248 0.559901 3.5299 0 0 0 43 99 91 255
-0.616276 0.55791 3.53255 0 0 0 159 164 162 255
-0.434919 0.594701 3.67687 0 0 0 103 128 147 255
1.11193 0.602847 3.54275 0 0 0 110 135 119 255
0.150001 0.720963 4.08544 0 0 0 112 97 73 255
-0.508427 0.644005 3.6069 0 0 0 163 168 170 255
-0.798538 0.63681 3.54397 0 0 0 133 147 161 255
-0.413497 0.679794 3.81694 0 0 0 22 69 113 255
0.149239 0.726382 4.0858 0 0 0 112 97 73 255
-0.635891 0.64218 3.53241 0 0 0 140 158 185 255
1.30477 0.633667 3.46696 0 0 0 126 130 118 255
1.14772 0.642193 3.47991 0 0 0 108 85 90 255
-0.546082 0.674292 3.58783 0 0 0 90 94 106 255
-0.417577 0.700643 3.73862 0 0 0 150 155 164 255
1.07748 0.655237 3.50502 0 0 0 103 81 75 255
-0.701982 0.670656 3.52972 0 0 0 160 164 167 255
-0.583564 0.672505 3.54257 0 0 0 78 82 99 255
1.04409 0.668014 3.5285 0 0 0 137 132 133 255
-0.451556 0.701729 3.64712 0 0 0 57 80 125 255
-0.698678 0.694196 3.52941 0 0 0 164 166 168 255
-0.855664 0.729921 3.58117 0 0 0 54 57 83 255
0.92701 0.73831 3.59801 0 0 0 126 125 111 255
-0.636148 0.739342 3.53588 0 0 0 164 166 180 255
-0.478915 0.75093 3.63469 0 0 0 153 163 173 255
0.941639 0.735982 3.54845 0 0 0 107 52 50 255
-0.706598 0.744446 3.53159 0 0 0 165 170 168 255
1.09663 0.718614 3.43899 0 0 0 153 154 153 255
-0.815949 0.782129 3.55968 0 0 0 99 105 108 255
-0.585903 0.779391 3.55968 0 0 0 168 173 172 255
-0.462664 0.804281 3.6512 0 0 0 76 78 89 255
-0.667856 0.780655 3.53256 0 0 0 128 146 176 255
0.903207 0.795429 3.57007 0 0 0 133 130 109 255
1.3541 0.764755 3.39624 0 0 0 36 72 60 255
-0.44881 0.83084 3.66111 0 0 0 164 165 174 255
0.712146 1.28808 5.66394 0 0 0 126 125 119 255
-0.476249 0.859977 3.63555 0 0 0 164 168 169 255
1.25278 0.792634 3.35599 0 0 0 78 79 73 255
-0.612091 0.855197 3.54739 0 0 0 92 96 111 255
-0.867241 0.891996 3.5982 0 0 0 120 125 126 255
-0.801391 0.880233 3.56088 0 0 0 50 67 106 255
-0.537917 0.873722 3.56795 0 0 0 170 172 171 255
-0.584828 0.896768 3.56275 0 0 0 167 170 169 255
-0.810612 0.911696 3.56758 0 0 0 65 78 103 255
-0.705744 0.902956 3.53665 0 0 0 169 171 171 255
-0.620528 0.906324 3.54421 0 0 0 128 128 130 255
-0.681145 0.91406 3.53879 0 0 0 92 97 114 255
-0.711258 0.927644 3.53992 0 0 0 168 168 168 255
-0.523368 0.947961 3.5866 0 0 0 153 160 169 255
-0.783344 0.95391 3.56079 0 0 0 162 164 164 255
-0.421037 1.04951 3.69561 0 0 0 125 137 144 255
-0.607798 1.04915 3.54718 0 0 0 20 119 157 255
0.858729 1.09519 3.70702 0 0 0 50 60 60 255
-0.632433 1.05908 3.54846 0 0 0 151 161 170 255
-0.653303 1.05648 3.53815 0 0 0 33 96 141 255
-0.74272 1.08332 3.55447 0 0 0 27 92 136 255
0.253077 1.32338 4.24373 0 0 0 185 190 195 255
0.269681 1.32654 4.2629 0 0 0 213 216 225 255
1.27417 1.03773 3.34329 0 0 0 81 78 88 255
-0.762611 1.11038 3.52948 0 0 0 85 93 112 255
-0.718629 1.13194 3.5404 0 0 0 163 166 168 255
1.27834 1.07208 3.34279 0 0 0 99 107 111 255
-0.628382 1.14185 3.54443 0 0 0 87 111 134 255
1.29523 1.07803 3.34102 0 0 0 80 74 82 255
-0.786909 1.16657 3.55611 0 0 0 129 134 137 255
1.25585 1.10104 3.34518 0 0 0 65 66 71 255
-0.50748 1.22702 3.60531 0 0 0 168 168 170 255
1.32927 1.14171 3.36355 0 0 0 145 150 151 255
-0.545172 1.24171 3.59496 0 0 0 75 123 153 255
1.31992 1.20829 3.43035 0 0 0 140 149 149 255
1.31781 1.19578 3.42407 0 0 0 123 134 142 255
-0.66114 -0.818945 3.49363 0 0 0 150 152 152 255
-0.556153 -0.754182 3.54771 0 0 0 162 145 145 255
-0.68085 -0.716501 3.49005 0 0 0 137 77 84 255
-0.5732 -0.728045 3.53832 0 0 0 140 84 89 255
-0.703289 -0.701092 3.48518 0 0 0 126 43 53 255
-0.576008 -0.701912 3.53641 0 0 0 132 39 50 255
-0.627024 -0.69267 3.50712 0 0 0 128 80 89 255
-0.740498 -0.593144 3.48151 0 0 0 157 157 157 255
-0.686168 -0.597825 3.48486 0 0 0 161 163 162 255
-0.623754 -0.596527 3.50096 0 0 0 155 162 163 255
-0.630701 -0.575349 3.49982 0 0 0 160 165 165 255
-0.745544 -0.554297 3.4808 0 0 0 154 161 163 255
-0.498554 -0.573267 3.5887 0 0 0 156 159 158 255
-0.547108 -0.526746 3.55349 0 0 0 69 94 88 255
-0.487869 -0.467048 3.59218 0 0 0 137 142 140 255
-0.700397 -0.449208 3.49448 0 0 0 51 102 65 255
-0.530239 -0.448968 3.56963 0 0 0 138 146 139 255
-0.631769 -0.42975 3.50175 0 0 0 160 163 157 255
-0.755476 -0.421085 3.48744 0 0 0 81 106 88 255
-0.620505 -0.413031 3.50222 0 0 0 159 164 162 255
-0.677195 -0.386837 3.49878 0 0 0 158 163 163 255
-0.754711 -0.372718 3.48651 0 0 0 152 159 157 255
-0.549206 -0.32601 3.55185 0 0 0 130 142 124 255
-0.506369 -0.276478 3.5884 0 0 0 129 134 113 255
-0.599877 -0.265961 3.52346 0 0 0 19 102 140 255
-0.625808 -0.222161 3.50794 0 0 0 111 132 92 255
-0.587718 -0.210161 3.5245 0 0 0 10 69 118 255
-0.585069 -0.155653 3.52316 0 0 0 81 77 29 255
-0.509683 -0.144902 3.59246 0 0 0 165 139 53 255
-0.703181 -0.100525 3.49424 0 0 0 77 107 83 255
-0.763116 -0.0772733 3.49633 0 0 0 130 134 129 255
-0.55644 -0.0300824 3.54679 0 0 0 146 154 152 255
-0.618912 -0.0255173 3.50582 0 0 0 155 163 158 255
-0.429329 -0.0122772 3.80229 0 0 0 71 108 89 255
0.0829205 0.0703336 4.31254 0 0 0 61 61 61 255
0.29699 0.0689073 4.28263 0 0 0 82 82 82 255
0.210647 0.116325 4.24475 0 0 0 151 102 105 255
0.317219 0.155837 4.27775 0 0 0 70 74 77 255
0.3093 0.186766 4.28066 0 0 0 50 54 55 255
0.220712 0.231391 4.25193 0 0 0 186 184 185 255
0.296178 0.227775 4.28291 0 0 0 125 125 125 255
0.226648 0.297962 4.25388 0 0 0 254 254 254 255
0.0260637 0.320355 4.32339 0 0 0 63 63 63 255
-0.417906 0.325262 3.79831 0 0 0 41 64 106 255
0.114654 0.400938 4.11745 0 0 0 205 198 193 255
0.215743 0.399594 4.10143 0 0 0 143 109 71 255
0.109195 0.420707 4.11703 0 0 0 145 129 116 255
0.217756 0.420416 4.0994 0 0 0 167 135 93 255
0.302194 0.426692 4.13762 0 0 0 101 104 109 255
0.429079 0.448418 4.29217 0 0 0 68 72 75 255
-0.526568 0.430181 3.57376 0 0 0 155 128 98 255
0.239177 0.487738 4.08149 0 0 0 94 105 115 255
-0.78959 0.434868 3.52992 0 0 0 143 138 103 255
-0.749788 0.436215 3.52321 0 0 0 123 116 114 255
-0.690865 0.43455 3.51908 0 0 0 122 111 69 255
-0.651568 0.434573 3.52304 0 0 0 83 74 67 255
-0.626496 0.43463 3.52729 0 0 0 147 133 95 255
0.159453 0.502137 4.08107 0 0 0 140 146 146 255
0.196291 0.500556 4.07835 0 0 0 43 47 48 255
-0.724279 0.442636 3.51967 0 0 0 135 129 114 255
0.313547 0.516578 4.11789 0 0 0 139 143 144 255
-0.791023 0.463306 3.53136 0 0 0 102 107 107 255
-0.492265 0.460813 3.60954 0 0 0 32 62 109 255
0.215725 0.523589 4.0746 0 0 0 147 150 153 255
-0.410771 0.509409 3.79051 0 0 0 23 78 122 255
0.110463 0.551549 4.09152 0 0 0 45 44 39 255
-0.810747 0.489762 3.54094 0 0 0 10 68 120 255
0.251606 0.571261 4.08507 0 0 0 58 59 60 255
0.311966 0.565392 4.11694 0 0 0 143 149 150 255
0.351845 0.583295 4.13977 0 0 0 138 144 144 255
0.0174361 0.583521 4.14979 0 0 0 92 101 101 255
0.129325 0.589842 4.08759 0 0 0 117 120 121 255
0.191913 0.597037 4.08131 0 0 0 146 149 147 255
-0.617736 0.530214 3.53263 0 0 0 161 164 166 255
-0.408806 0.578411 3.77478 0 0 0 34 88 134 255
-0.617503 0.560366 3.53228 0 0 0 159 164 162 255
-0.444227 0.574833 3.67579 0 0 0 154 161 165 255
1.12278 0.60155 3.53954 0 0 0 125 137 119 255
1.20538 0.595255 3.50798 0 0 0 41 52 46 255
1.18209 0.612533 3.50647 0 0 0 140 144 146 255
-0.507252 0.645536 3.60773 0 0 0 163 168 170 255
0.147605 0.724177 4.08653 0 0 0 112 97 73 255
0.217335 0.73132 4.08865 0 0 0 121 92 61 255
-0.837363 0.657731 3.56852 0 0 0 21 59 105 255
-0.789412 0.647068 3.54314 0 0 0 160 162 161 255
-0.63173 0.644943 3.53191 0 0 0 160 163 176 255
-0.741355 0.65586 3.53427 0 0 0 30 61 108 255
1.3153 0.635506 3.46075 0 0 0 143 143 126 255
-0.430306 0.698529 3.68097 0 0 0 135 151 172 255
-0.441538 0.701853 3.65839 0 0 0 159 165 171 255
-0.706305 0.680017 3.52994 0 0 0 165 168 167 255
-0.031729 0.849901 4.30786 0 0 0 60 60 60 255
-0.558247 0.70437 3.56873 0 0 0 105 110 125 255
-0.481894 0.720232 3.62777 0 0 0 45 66 109 255
-0.737607 0.717738 3.5329 0 0 0 60 75 98 255
-0.865893 0.739128 3.59077 0 0 0 25 57 98 255
1.35605 0.715382 3.41441 0 0 0 138 136 121 255
-0.70905 0.748602 3.53234 0 0 0 167 170 169 255
-0.653425 0.748314 3.53485 0 0 0 33 73 121 255
-0.48865 0.775739 3.6332 0 0 0 167 170 170 255
-0.810039 0.775705 3.5577 0 0 0 66 71 96 255
0.771642 1.0935 4.99732 0 0 0 138 134 129 255
-0.660227 0.784564 3.53396 0 0 0 165 171 176 255
-0.589889 0.789986 3.56121 0 0 0 170 175 173 255
-0.434494 0.822032 3.67172 0 0 0 49 62 96 255
1.35508 0.746634 3.41259 0 0 0 32 68 56 255
0.768086 1.11341 4.87493 0 0 0 111 109 107 255
-0.751476 0.832934 3.54 0 0 0 79 86 103 255
1.34264 0.784111 3.38539 0 0 0 141 120 127 255
1.17452 0.787517 3.35736 0 0 0 161 166 174 255
1.1422 0.801086 3.36754 0 0 0 86 81 69 255
1.195 0.810408 3.34414 0 0 0 95 54 54 255
1.36347 0.812244 3.38585 0 0 0 125 122 121 255
-0.689479 0.86355 3.53674 0 0 0 41 74 116 255
-0.532313 0.878742 3.56863 0 0 0 166 171 169 255
-0.803411 0.88364 3.56122 0 0 0 51 66 106 255
-0.589746 0.885274 3.56208 0 0 0 171 174 174 255
1.1524 0.827112 3.35304 0 0 0 134 131 132 255
-0.651413 0.91127 3.54068 0 0 0 168 170 170 255
1.06512 0.875131 3.38342 0 0 0 97 96 97 255
-0.708008 0.924224 3.53829 0 0 0 167 169 168 255
-0.447881 0.957844 3.6694 0 0 0 117 147 169 255
-0.744285 0.932109 3.54482 0 0 0 69 77 97 255
-0.838339 0.954299 3.58283 0 0 0 159 162 162 255
-0.520585 0.990075 3.58824 0 0 0 151 158 165 255
1.09078 0.937038 3.36241 0 0 0 105 74 55 255
-0.616401 0.998172 3.55013 0 0 0 148 163 178 255
-0.440474 1.04749 3.6983 0 0 0 147 159 159 255
-0.629315 1.04786 3.5451 0 0 0 128 144 161 255
-0.592091 1.04272 3.54418 0 0 0 17 115 155 255
0.864265 1.101 3.73125 0 0 0 50 60 60 255
1.17033 0.986932 3.34167 0 0 0 86 75 77 255
-0.801938 1.07923 3.551 0 0 0 99 140 170 255
-0.687008 1.07054 3.54061 0 0 0 92 130 159 255
-0.430484 1.11249 3.70118 0 0 0 159 154 140 255
-0.786905 1.16149 3.55496 0 0 0 133 139 143 255
-0.685084 1.16366 3.53631 0 0 0 135 139 149 255
1.25349 1.09928 3.34505 0 0 0 65 66 71 255
-0.812219 1.21439 3.55393 0 0 0 100 130 154 255
1.33467 1.14195 3.36296 0 0 0 148 152 153 255
-0.667438 -0.819102 3.49269 0 0 0 143 143 143 255
-0.701037 -0.711254 3.48558 0 0 0 131 41 47 255
-0.576226 -0.719214 3.53633 0 0 0 131 61 67 255
-0.66793 -0.699338 3.49165 0 0 0 167 142 146 255
-0.538709 -0.674983 3.56213 0 0 0 136 137 134 255
-0.710566 -0.594472 3.50149 0 0 0 158 163 160 255
-0.624702 -0.5761 3.50156 0 0 0 158 164 163 255
-0.710919 -0.444806 3.49089 0 0 0 48 98 65 255
-0.487028 -0.476727 3.59132 0 0 0 124 144 143 255
-0.748993 -0.384022 3.48609 0 0 0 155 159 158 255
-0.506373 -0.267983 3.58731 0 0 0 124 134 109 255
-0.597419 -0.209916 3.51986 0 0 0 14 72 120 255
-0.763261 -0.172339 3.49604 0 0 0 134 144 127 255
-0.64804 -0.160649 3.49833 0 0 0 123 112 56 255
-0.517838 -0.131213 3.58748 0 0 0 160 128 41 255
0.0665036 0.0801602 4.32019 0 0 0 70 67 68 255
0.295016 0.0812783 4.28399 0 0 0 55 55 55 255
-0.466109 0.112763 3.83298 0 0 0 172 170 170 255
0.0483153 0.218313 4.33136 0 0 0 153 153 153 255
0.1546 0.226583 4.22872 0 0 0 114 116 120 255
0.217925 0.220749 4.23996 0 0 0 99 98 101 255
0.0337115 0.245803 4.34049 0 0 0 154 156 155 255
0.351344 0.314812 4.27995 0 0 0 63 61 60 255
0.0267184 0.315032 4.32301 0 0 0 63 63 63 255
0.0374736 0.498891 4.13137 0 0 0 60 60 58 255
2.13348 0.766738 6.11187 0 0 0 52 41 38 255
-0.458062 0.490079 3.65873 0 0 0 110 139 157 255
0.259014 0.534219 4.08543 0 0 0 43 49 49 255
0.338182 0.565634 4.12762 0 0 0 133 139 140 255
-0.836932 0.505485 3.55418 0 0 0 107 112 119 255
-0.807186 0.474462 3.53735 0 0 0 15 58 109 255
-0.692479 0.559211 3.52333 0 0 0 150 157 154 255
-0.609609 0.538781 3.53511 0 0 0 80 122 136 255
-0.454328 0.571439 3.65707 0 0 0 149 156 162 255
1.12889 0.604983 3.53107 0 0 0 131 142 120 255
1.21476 0.60151 3.51148 0 0 0 43 65 60 255
-0.837875 0.644274 3.56478 0 0 0 16 70 113 255
-0.520519 0.669444 3.60489 0 0 0 167 170 170 255
-0.412832 0.678485 3.81976 0 0 0 22 69 113 255
-0.626442 0.649599 3.53134 0 0 0 164 168 169 255
-0.61139 0.689496 3.53124 0 0 0 169 171 173 255
-0.869478 0.739893 3.59325 0 0 0 25 57 98 255
-0.711416 0.717731 3.5313 0 0 0 44 59 93 255
-0.720009 0.78501 3.5329 0 0 0 165 170 170 255
-0.412864 0.825358 3.71786 0 0 0 103 109 122 255
0.8636 0.857793 3.86185 0 0 0 111 97 100 255
-0.6305 0.868945 3.54054 0 0 0 140 151 163 255
0.942354 0.876572 3.45603 0 0 0 51 49 60 255
-0.508054 0.94033 3.58839 0 0 0 133 157 171 255
-0.824905 0.964138 3.57595 0 0 0 158 160 161 255
-0.476174 1.00609 3.64849 0 0 0 4 110 156 255
-0.472051 1.02304 3.6555 0 0 0 6 104 150 255
-0.578068 1.03824 3.55042 0 0 0 3 115 159 255
-0.804984 1.08979 3.57549 0 0 0 147 151 155 255
-0.724612 1.0644 3.54119 0 0 0 24 91 137 255
-0.43695 1.12607 3.66152 0 0 0 161 146 99 255
-0.819853 1.13171 3.56434 0 0 0 149 160 171 255
1.25038 1.07528 3.3471 0 0 0 68 84 92 255
-0.736158 1.15984 3.54855 0 0 0 40 85 131 255
-0.580852 1.16714 3.56806 0 0 0 173 164 128 255
-0.805247 1.2222 3.55649 0 0 0 108 137 156 255
-0.719232 -0.574311 3.48317 0 0 0 155 162 162 255
-0.507804 -0.574582 3.57864 0 0 0 153 159 157 255
-0.493993 -0.507833 3.59433 0 0 0 150 156 155 255
-0.727519 -0.401873 3.48639 0 0 0 157 162 160 255
-0.549219 -0.316284 3.54963 0 0 0 120 136 94 255
-0.654778 -0.275584 3.49689 0 0 0 132 142 120 255
-0.597291 -0.202478 3.51973 0 0 0 12 68 117 255
-0.522162 -0.163829 3.57994 0 0 0 163 141 53 255
-0.760528 -0.0830145 3.49566 0 0 0 136 133 134 255
-0.442511 -0.0214151 3.79846 0 0 0 59 104 80 255
0.0812547 0.0940574 4.31519 0 0 0 82 52 55 255
0.293754 0.0877564 4.2845 0 0 0 52 52 52 255
0.0880367 0.178523 4.31331 0 0 0 41 47 52 255
0.276877 0.184867 4.28726 0 0 0 53 54 52 255
0.216531 0.288846 4.25644 0 0 0 192 194 198 255
0.354196 0.336913 4.28517 0 0 0 53 57 63 255
0.11934 0.406925 4.11568 0 0 0 171 163 157 255
0.0743908 0.523665 4.10648 0 0 0 51 54 53 255
0.321551 0.525937 4.11975 0 0 0 120 122 123 255
-0.456115 0.4979 3.65865 0 0 0 139 156 164 255
0.188965 0.568087 4.08064 0 0 0 141 149 153 255
0.280347 0.553142 4.09547 0 0 0 41 49 55 255
-0.868912 0.516724 3.58778 0 0 0 138 116 107 255
1.07263 0.577355 3.79771 0 0 0 112 115 111 255
-0.421383 0.663608 3.79964 0 0 0 36 92 129 255
0.14986 0.728508 4.0856 0 0 0 115 95 72 255
0.228898 0.728743 4.08691 0 0 0 111 92 70 255
-0.883668 0.67565 3.60878 0 0 0 150 155 153 255
-0.612439 0.682834 3.53104 0 0 0 168 171 171 255
-0.491725 0.694818 3.62239 0 0 0 109 117 124 255
0.400236 0.840957 4.24287 0 0 0 50 55 59 255
-0.876259 0.747733 3.59875 0 0 0 27 58 94 255
0.129894 0.925356 4.13915 0 0 0 130 133 131 255
0.265307 0.920129 4.12018 0 0 0 137 141 140 255
0.860298 0.875308 3.8835 0 0 0 108 103 105 255
-0.41851 0.842293 3.70837 0 0 0 38 73 113 255
-0.473347 0.849574 3.64087 0 0 0 164 168 169 255
1.12259 0.806379 3.37078 0 0 0 85 89 86 255
-0.841696 0.962261 3.58772 0 0 0 158 161 160 255
-0.799731 0.947819 3.56193 0 0 0 154 155 157 255
-0.451283 1.01665 3.66449 0 0 0 18 90 137 255
-0.613414 1.00952 3.54888 0 0 0 152 155 163 255
-0.446599 1.06812 3.66229 0 0 0 140 122 113 255
-0.620585 -0.20653 3.51101 0 0 0 72 97 70 255
-0.461199 -0.0344461 3.75228 0 0 0 52 100 72 255
-0.710095 -0.00553091 3.50038 0 0 0 26 67 39 255
0.253055 0.0944176 4.25151 0 0 0 102 50 48 255
0.0556718 0.0808149 4.32455 0 0 0 106 103 104 255
0.251358 0.140341 4.22864 0 0 0 50 42 45 255
0.0148942 0.324282 4.32641 0 0 0 61 64 67 255
0.343816 0.369089 4.29872 0 0 0 52 51 56 255
-0.450328 0.35754 3.79106 0 0 0 22 69 117 255
-0.814419 0.539084 3.55209 0 0 0 157 140 91 255
-0.463274 0.650286 3.62457 0 0 0 19 72 123 255
-0.785787 0.737031 3.5508 0 0 0 161 163 168 255
0.00569684 0.84831 4.30758 0 0 0 40 45 46 255
0.343439 0.827215 4.22103 0 0 0 39 44 46 255
-0.684191 0.723376 3.53328 0 0 0 35 66 115 255
-0.681753 0.785693 3.53276 0 0 0 41 68 109 255
0.19299 0.920518 4.10032 0 0 0 138 144 147 255
-0.425917 0.864861 3.68246 0 0 0 42 78 117 255
-0.743294 -0.827593 3.47528 0 0 0 122 130 124 255
-0.788244 -0.823556 3.47619 0 0 0 81 101 87 255
-0.760637 -0.820414 3.47893 0 0 0 145 146 145 255
-0.743811 -0.819812 3.47414 0 0 0 154 155 154 255
-0.83153 -0.820307 3.48272 0 0 0 80 106 89 255
-0.737231 -0.807668 3.48003 0 0 0 107 121 119 255
-0.682941 -0.804163 3.48857 0 0 0 53 76 70 255
-0.885115 -0.815949 3.50424 0 0 0 71 89 69 255
-0.804125 -0.808694 3.48495 0 0 0 136 137 135 255
-0.761674 -0.800781 3.47201 0 0 0 72 92 80 255
-0.741955 -0.800241 3.47159 0 0 0 120 120 120 255
-0.712996 -0.80807 3.48412 0 0 0 70 80 72 255
-0.669971 -0.804335 3.49172 0 0 0 141 139 137 255
-0.926264 -0.81581 3.51733 0 0 0 81 82 74 255
-0.90452 -0.807421 3.51158 0 0 0 53 51 49 255
-0.794585 -0.795437 3.47785 0 0 0 105 122 118 255
-0.964684 -0.815811 3.55401 0 0 0 116 115 113 255
-0.839969 -0.79006 3.48688 0 0 0 101 100 92 255
-0.870833 -0.784174 3.49803 0 0 0 83 96 91 255
-0.918348 -0.788828 3.51992 0 0 0 120 125 123 255
-0.633661 -0.753972 3.50477 0 0 0 155 149 137 255
-0.764688 -0.740726 3.47807 0 0 0 99 90 88 255
-0.820913 -0.727897 3.4851 0 0 0 81 56 56 255
-0.814426 -0.725267 3.48397 0 0 0 116 64 63 255
-0.897335 -0.725199 3.51467 0 0 0 68 54 52 255
-0.76592 -0.713215 3.47847 0 0 0 169 133 136 255
-0.86135 -0.715167 3.49738 0 0 0 86 71 73 255
-0.845216 -0.712079 3.49236 0 0 0 150 148 148 255
-0.80661 -0.7088 3.48316 0 0 0 158 147 151 255
-0.787863 -0.704768 3.48145 0 0 0 93 55 58 255
-0.952481 -0.718432 3.55141 0 0 0 73 52 49 255
-0.806932 -0.689002 3.48429 0 0 0 112 57 62 255
-0.759562 -0.684771 3.47927 0 0 0 128 41 45 255
-0.926235 -0.700952 3.53579 0 0 0 120 102 105 255
-0.836416 -0.675708 3.49196 0 0 0 109 49 54 255
-0.887529 -0.677056 3.51172 0 0 0 106 81 85 255
-0.940486 -0.612838 3.55049 0 0 0 120 121 114 255
-0.810858 -0.596332 3.49672 0 0 0 135 141 134 255
-0.793896 -0.591295 3.48517 0 0 0 149 156 155 255
-0.76138 -0.584152 3.48184 0 0 0 153 154 151 255
-0.902784 -0.566667 3.53244 0 0 0 113 123 116 255
-0.761503 -0.542344 3.48284 0 0 0 151 152 145 255
-0.936435 -0.536499 3.5512 0 0 0 51 78 71 255
-0.562814 -0.373359 3.54079 0 0 0 66 117 87 255
-0.620007 -0.359362 3.50334 0 0 0 68 112 88 255
-0.461528 -0.352474 3.77378 0 0 0 122 137 87 255
-0.886317 -0.33236 3.5211 0 0 0 125 125 120 255
-0.442756 -0.336208 3.78607 0 0 0 141 139 84 255
-0.877791 -0.301792 3.52808 0 0 0 136 137 134 255
-0.552963 -0.246795 3.54255 0 0 0 64 88 82 255
-0.681884 -0.191419 3.49785 0 0 0 79 109 55 255
-0.768349 -0.184905 3.49707 0 0 0 99 126 78 255
-0.869159 -0.174314 3.53373 0 0 0 130 134 118 255
-0.941885 -0.167563 3.60826 0 0 0 50 86 62 255
-0.949376 -0.134845 3.60203 0 0 0 93 99 102 255
-0.750228 -0.0978678 3.49408 0 0 0 110 104 113 255
-0.817203 -0.0900594 3.51042 0 0 0 77 99 82 255
-0.437048 -0.068613 3.79023 0 0 0 132 133 86 255
-0.951854 0.0314096 3.62266 0 0 0 43 82 70 255
0.321122 0.0851204 4.2757 0 0 0 83 78 78 255
0.0500627 0.0979007 4.32807 0 0 0 106 107 108 255
0.254059 0.168691 4.29225 0 0 0 107 113 112 255
0.172758 0.391639 4.10298 0 0 0 85 87 83 255
0.330265 0.419832 4.18444 0 0 0 92 100 105 255
0.435404 0.461938 4.28545 0 0 0 72 73 75 255
0.407063 0.488197 4.26089 0 0 0 71 75 82 255
-0.666769 0.45292 3.52071 0 0 0 34 55 81 255
-0.913398 0.480045 3.63307 0 0 0 91 108 132 255
-0.440013 0.498876 3.68643 0 0 0 111 75 98 255
-0.50252 0.516438 3.59479 0 0 0 52 77 110 255
-0.435793 0.520839 3.67709 0 0 0 115 91 111 255
-0.639601 0.513356 3.53248 0 0 0 66 104 99 255
-0.542304 0.516754 3.56943 0 0 0 52 82 113 255
1.35395 0.571508 3.77852 0 0 0 104 103 88 255
-0.467151 0.539213 3.63145 0 0 0 112 111 116 255
-0.415044 0.547776 3.71348 0 0 0 31 70 110 255
-0.448461 0.544729 3.65316 0 0 0 112 120 128 255
-0.435034 0.558993 3.67647 0 0 0 123 113 118 255
-0.522605 0.563041 3.58036 0 0 0 36 74 122 255
-0.488454 0.573003 3.61165 0 0 0 130 131 138 255
-0.648996 0.567648 3.52845 0 0 0 73 99 91 255
-0.629506 0.568515 3.53017 0 0 0 72 104 102 255
-0.551036 0.579211 3.5615 0 0 0 36 87 128 255
-0.917499 0.592224 3.64363 0 0 0 91 103 131 255
1.32183 0.622576 3.51785 0 0 0 59 78 71 255
1.26015 0.649015 3.6511 0 0 0 92 128 124 255
1.34259 0.642356 3.51486 0 0 0 99 98 81 255
1.06124 0.656753 3.5684 0 0 0 139 120 124 255
-0.913204 0.649935 3.63681 0 0 0 111 123 144 255
1.18328 0.668433 3.52608 0 0 0 146 150 151 255
1.19161 0.682235 3.53185 0 0 0 77 91 84 255
1.15032 0.681605 3.49387 0 0 0 108 76 73 255
-0.415535 0.714405 3.70202 0 0 0 109 112 121 255
1.33461 0.695379 3.48874 0 0 0 30 49 43 255
-0.894507 0.706038 3.61241 0 0 0 111 107 119 255
-0.414466 0.748894 3.71213 0 0 0 85 95 108 255
1.1268 0.716873 3.46972 0 0 0 91 88 97 255
1.24561 0.731925 3.51926 0 0 0 119 93 91 255
-0.897509 0.74207 3.60943 0 0 0 102 115 129 255
1.14119 0.744281 3.44263 0 0 0 123 110 113 255
1.06766 0.762679 3.45756 0 0 0 155 149 151 255
-0.888274 0.782419 3.58733 0 0 0 103 104 107 255
1.38735 0.771968 3.39218 0 0 0 136 139 111 255
1.05842 0.786889 3.44449 0 0 0 118 110 113 255
1.03477 0.794779 3.44357 0 0 0 136 111 108 255
0.46826 1.08918 4.86494 0 0 0 155 151 147 255
1.16802 0.801662 3.38824 0 0 0 150 151 157 255
0.264326 0.950219 4.12211 0 0 0 94 96 97 255
0.209369 0.963508 4.09575 0 0 0 101 107 106 255
0.468546 1.11452 4.77564 0 0 0 112 112 112 255
0.838368 0.925533 3.85452 0 0 0 174 175 171 255
-0.488823 0.895818 3.60962 0 0 0 69 95 137 255
1.35537 0.874971 3.3131 0 0 0 96 102 111 255
-0.614342 0.93647 3.54672 0 0 0 116 132 170 255
1.05075 0.922265 3.3969 0 0 0 101 100 100 255
0.940473 0.948034 3.47746 0 0 0 90 90 92 255
-0.42239 1.02764 3.66872 0 0 0 28 76 121 255
1.26431 0.947896 3.30647 0 0 0 119 104 97 255
1.10586 0.966237 3.36926 0 0 0 95 84 81 255
0.269874 1.18094 4.12778 0 0 0 96 97 98 255
1.13804 1.01652 3.35434 0 0 0 135 132 116 255
1.2328 1.0026 3.3016 0 0 0 111 86 81 255
1.33903 1.00563 3.21927 0 0 0 114 112 111 255
1.2693 1.04143 3.26986 0 0 0 134 140 143 255
1.27162 1.08861 3.25444 0 0 0 125 129 135 255
-0.46073 1.21961 3.64439 0 0 0 118 123 145 255
-0.73746 1.21273 3.50486 0 0 0 37 87 124 255
-0.713344 1.22678 3.49866 0 0 0 80 103 141 255
-0.987485 -0.896753 3.55302 0 0 0 37 73 61 255
-0.756834 -0.804562 3.47367 0 0 0 77 92 84 255
-0.79485 -0.802094 3.47299 0 0 0 137 139 139 255
-0.769153 -0.73204 3.47803 0 0 0 112 42 50 255
-0.823272 -0.726193 3.48632 0 0 0 81 56 56 255
-0.846657 -0.721899 3.49244 0 0 0 156 141 140 255
-0.761778 -0.714455 3.47805 0 0 0 167 148 150 255
-0.895004 -0.723773 3.51333 0 0 0 68 54 52 255
-0.763209 -0.68776 3.47932 0 0 0 124 37 45 255
-0.914583 -0.697588 3.52266 0 0 0 146 130 132 255
-0.802657 -0.590433 3.47739 0 0 0 143 146 139 255
-0.759737 -0.544562 3.48248 0 0 0 151 151 151 255
-0.903439 -0.557136 3.53216 0 0 0 135 134 131 255
-0.458289 -0.347301 3.77787 0 0 0 137 138 81 255
-0.665735 -0.183295 3.49858 0 0 0 152 155 132 255
-0.869942 -0.172332 3.53418 0 0 0 130 134 118 255
-0.813673 -0.0869926 3.50959 0 0 0 57 96 62 255
-0.865678 -0.074063 3.53528 0 0 0 132 124 125 255
-0.43725 -0.0743415 3.78928 0 0 0 133 134 86 255
0.0643402 0.0606982 4.31962 0 0 0 152 154 153 255
0.304816 0.246022 4.31339 0 0 0 100 102 104 255
-0.949805 0.340318 3.65865 0 0 0 40 57 77 255
0.326845 0.481354 4.12945 0 0 0 87 85 82 255
-0.668653 0.456022 3.52052 0 0 0 34 55 81 255
0.239012 0.517823 4.07857 0 0 0 120 122 122 255
-0.873439 0.480603 3.58795 0 0 0 97 119 139 255
-0.504293 0.478609 3.59818 0 0 0 79 106 139 255
0.239655 0.548361 4.07781 0 0 0 58 52 57 255
-0.695314 0.5196 3.52291 0 0 0 138 138 123 255
-0.415542 0.546366 3.71282 0 0 0 31 70 110 255
-0.495313 0.601029 3.61396 0 0 0 50 109 151 255
1.34819 0.646268 3.51756 0 0 0 91 104 95 255
-0.896191 0.653795 3.61753 0 0 0 126 134 138 255
1.33221 0.683366 3.4925 0 0 0 37 44 39 255
1.24092 0.73104 3.51138 0 0 0 120 89 88 255
1.3625 0.82381 3.36138 0 0 0 98 91 91 255
0.839052 0.925424 3.85443 0 0 0 166 167 163 255
-0.651807 1.06433 3.52891 0 0 0 31 97 139 255
-0.87476 -0.806735 3.48099 0 0 0 94 108 90 255
-0.755472 -0.726866 3.47745 0 0 0 167 144 144 255
-0.699368 -0.690968 3.48686 0 0 0 146 83 90 255
-0.822233 -0.689941 3.48684 0 0 0 117 34 34 255
-0.957778 -0.629423 3.55922 0 0 0 52 81 44 255
-0.800432 -0.579354 3.47845 0 0 0 154 154 151 255
-0.491638 -0.568521 3.60266 0 0 0 152 158 157 255
-0.95348 -0.582905 3.54735 0 0 0 59 81 73 255
-0.904026 -0.539541 3.53166 0 0 0 139 139 139 255
-0.927109 -0.533683 3.54413 0 0 0 36 64 53 255
-0.888917 -0.485992 3.51726 0 0 0 135 140 132 255
-0.748616 -0.410292 3.48691 0 0 0 158 158 158 255
-0.458238 -0.347384 3.7781 0 0 0 137 138 81 255
-0.885967 -0.321827 3.53874 0 0 0 137 140 126 255
-0.661083 -0.232119 3.49766 0 0 0 11 86 129 255
-0.610079 -0.188914 3.51585 0 0 0 10 70 118 255
-0.939605 -0.182868 3.59406 0 0 0 56 85 45 255
-0.511422 -0.158579 3.58894 0 0 0 164 141 61 255
-0.937656 -0.0645561 3.61202 0 0 0 42 80 53 255
0.261346 0.0777267 4.25868 0 0 0 48 44 45 255
0.261731 0.172535 4.30531 0 0 0 101 107 116 255
0.304768 0.244268 4.31352 0 0 0 100 102 104 255
0.134248 0.403185 4.11087 0 0 0 125 122 114 255
-0.494232 0.489089 3.60699 0 0 0 99 140 166 255
-0.428092 0.49324 3.7236 0 0 0 86 122 150 255
0.255046 0.550729 4.08447 0 0 0 43 49 54 255
-0.86098 0.497286 3.57545 0 0 0 113 126 133 255
-0.414596 0.533712 3.73657 0 0 0 80 119 145 255
1.25843 0.66167 3.6628 0 0 0 118 146 146 255
0.24336 0.755306 4.0853 0 0 0 75 68 65 255
1.2032 0.682212 3.55331 0 0 0 62 96 84 255
-0.897289 0.714178 3.61276 0 0 0 62 64 81 255
-0.501342 0.713188 3.61682 0 0 0 165 168 167 255
1.24208 0.726811 3.52527 0 0 0 129 88 88 255
-0.631187 0.724178 3.53354 0 0 0 162 163 170 255
-0.461396 0.790798 3.65091 0 0 0 46 60 86 255
-0.4211 0.802412 3.69922 0 0 0 155 158 167 255
-0.899265 0.825886 3.609 0 0 0 32 61 92 255
1.24122 0.81029 3.37106 0 0 0 141 142 146 255
-0.526793 0.861686 3.56978 0 0 0 167 171 169 255
-0.70273 0.864138 3.53539 0 0 0 47 70 107 255
0.827444 0.946087 3.82511 0 0 0 171 175 173 255
-0.804645 0.895798 3.5623 0 0 0 46 63 92 255
1.29156 0.897217 3.30702 0 0 0 74 64 68 255
0.42357 1.29771 4.36157 0 0 0 125 128 127 255
1.25506 1.02188 3.27535 0 0 0 92 111 121 255
1.29963 1.09572 3.25538 0 0 0 71 66 74 255
-0.797938 -0.810894 3.48024 0 0 0 146 149 147 255
-0.76105 -0.712883 3.47808 0 0 0 167 148 150 255
-0.547009 -0.50837 3.5562 0 0 0 35 85 74 255
-0.91716 -0.501156 3.53994 0 0 0 35 76 55 255
-0.615687 -0.424521 3.50861 0 0 0 161 162 166 255
-0.561468 -0.330736 3.5473 0 0 0 114 129 89 255
-0.458888 -0.351308 3.77724 0 0 0 137 138 81 255
-0.644665 -0.296198 3.50235 0 0 0 137 145 126 255
-0.943309 -0.197247 3.59728 0 0 0 50 81 50 255
-0.669105 -0.177347 3.49906 0 0 0 156 155 121 255
-0.439259 -0.0786702 3.78925 0 0 0 133 134 86 255
-0.938741 0.00477017 3.622 0 0 0 26 54 40 255
0.15809 0.0778759 4.24074 0 0 0 52 56 70 255
0.139406 0.300497 4.22511 0 0 0 133 140 140 255
-0.941516 0.347289 3.65746 0 0 0 21 54 89 255
0.127481 0.417776 4.11284 0 0 0 140 119 104 255
0.0722685 0.497772 4.10729 0 0 0 49 59 63 255
0.419903 0.556368 4.33204 0 0 0 70 68 64 255
0.179446 0.554886 4.07882 0 0 0 143 147 149 255
-0.434312 0.500387 3.695 0 0 0 117 90 107 255
0.23301 0.574204 4.07841 0 0 0 146 150 152 255
-0.836558 0.522861 3.5598 0 0 0 163 145 122 255
0.111126 0.604834 4.09249 0 0 0 126 125 126 255
-0.648826 0.536272 3.52893 0 0 0 41 101 92 255
-0.591955 0.55485 3.54113 0 0 0 112 152 172 255
-0.841696 0.571658 3.56784 0 0 0 161 131 97 255
1.14303 0.618857 3.56397 0 0 0 125 134 110 255
1.26021 0.663712 3.66512 0 0 0 125 149 149 255
-0.885082 0.723937 3.6039 0 0 0 46 58 84 255
-0.636773 0.726459 3.53416 0 0 0 142 138 162 255
1.25527 0.759998 3.48864 0 0 0 158 158 156 255
-0.725988 0.770642 3.53123 0 0 0 164 165 164 255
1.34382 0.8025 3.36176 0 0 0 155 147 149 255
1.38689 0.804651 3.37204 0 0 0 50 72 62 255
-0.704952 0.851951 3.53509 0 0 0 86 96 104 255
-0.732564 0.891351 3.5374 0 0 0 171 168 169 255
-0.614678 0.896897 3.54561 0 0 0 170 170 170 255
-0.512529 0.921742 3.58455 0 0 0 88 101 126 255
-0.432551 1.12144 3.6755 0 0 0 174 154 94 255
-0.782966 1.12501 3.50489 0 0 0 152 157 158 255
-0.843767 -0.724558 3.492 0 0 0 146 145 136 255
-0.568874 -0.537726 3.54436 0 0 0 159 160 155 255
-0.504069 -0.522995 3.58473 0 0 0 156 161 159 255
-0.750711 -0.502939 3.50687 0 0 0 56 99 52 255
-0.601447 -0.492154 3.55964 0 0 0 159 161 162 255
-0.735301 -0.38927 3.48577 0 0 0 157 161 162 255
-0.867164 -0.34015 3.52943 0 0 0 147 148 147 255
-0.525607 -0.0104616 3.55726 0 0 0 42 100 68 255
-0.464033 -9.03934e-06 3.84819 0 0 0 88 117 107 255
0.293506 0.1359 4.30707 0 0 0 52 49 47 255
0.292257 0.174509 4.30826 0 0 0 65 69 73 255
0.106781 0.18797 4.27242 0 0 0 49 54 52 255
0.0152296 0.351096 4.33162 0 0 0 46 52 57 255
-0.458888 0.348598 3.87272 0 0 0 14 62 108 255
-0.543401 0.435769 3.55996 0 0 0 99 84 60 255
0.304412 0.545986 4.11176 0 0 0 148 148 152 255
0.0771752 0.576712 4.10626 0 0 0 59 65 64 255
-0.814435 0.525641 3.55148 0 0 0 159 142 91 255
-0.428136 0.535901 3.68472 0 0 0 158 134 144 255
1.24642 0.615912 3.60443 0 0 0 40 56 51 255
1.15488 0.622928 3.5399 0 0 0 139 144 149 255
1.34667 0.658864 3.5013 0 0 0 161 156 134 255
-0.476498 0.692161 3.62058 0 0 0 27 68 114 255
1.2631 0.695585 3.65694 0 0 0 134 152 151 255
-0.422893 0.716407 3.6812 0 0 0 156 158 158 255
-0.671178 0.72963 3.53336 0 0 0 31 69 117 255
0.351733 0.84078 4.21908 0 0 0 35 42 43 255
0.16005 0.912923 4.09964 0 0 0 128 128 128 255
0.284402 0.918541 4.12963 0 0 0 133 134 131 255
-0.899395 0.835029 3.61098 0 0 0 31 63 91 255
-0.501576 0.846562 3.60477 0 0 0 167 170 173 255
-0.61779 0.879293 3.5444 0 0 0 166 171 173 255
-0.780596 0.919595 3.56122 0 0 0 166 166 166 255
-0.46631 1.00817 3.66126 0 0 0 1 97 146 255
-0.645109 -0.25887 3.49865 0 0 0 125 141 113 255
-0.633744 -0.215952 3.50234 0 0 0 46 98 129 255
-0.522496 -0.146025 3.58391 0 0 0 167 133 44 255
-0.45972 -0.021002 3.77162 0 0 0 45 96 67 255
0.0714648 0.118675 4.3191 0 0 0 83 51 48 255
0.266106 0.141051 4.27485 0 0 0 44 42 43 255
0.193475 0.292146 4.26262 0 0 0 177 178 178 255
-0.461103 0.348213 3.86959 0 0 0 13 62 109 255
-0.0389988 0.421942 4.32897 0 0 0 117 118 116 255
0.338944 0.348819 4.29533 0 0 0 47 53 58 255
0.302115 0.573317 4.11181 0 0 0 146 147 147 255
-0.458869 0.551785 3.64297 0 0 0 158 155 160 255
0.0127989 0.673931 4.23801 0 0 0 33 39 42 255
1.2544 0.624488 3.61689 0 0 0 43 63 59 255
-0.480096 0.689123 3.61864 0 0 0 34 64 115 255
1.24554 0.748116 3.49775 0 0 0 145 134 131 255
1.33292 0.743824 3.49625 0 0 0 45 86 73 255
-0.680341 0.79835 3.53337 0 0 0 42 66 112 255
0.261093 0.950843 4.12136 0 0 0 119 122 122 255
-2.7023 -1.55399 5.22456 0 0 0 81 80 77 255
-0.771981 -0.799178 3.45924 0 0 0 47 74 67 255
-0.788852 -0.735958 3.48045 0 0 0 139 145 120 255
-0.56312 -0.723348 3.54174 0 0 0 111 48 54 255
-0.864468 -0.68919 3.50151 0 0 0 166 132 136 255
-0.521918 -0.564065 3.5643 0 0 0 155 160 158 255
-0.888173 -0.464495 3.50997 0 0 0 126 144 126 255
-0.727842 -0.328678 3.48635 0 0 0 88 129 88 255
-0.943902 -0.301776 3.57766 0 0 0 109 122 110 255
-0.591898 -0.283024 3.5297 0 0 0 36 93 130 255
-0.621924 -0.187592 3.50985 0 0 0 13 71 115 255
-0.816101 -0.161617 3.50568 0 0 0 67 103 56 255
-0.843829 -0.127847 3.51781 0 0 0 137 82 100 255
-0.856118 -0.0955962 3.52669 0 0 0 133 116 121 255
-0.923737 -0.0807868 3.58181 0 0 0 54 88 66 255
-0.98475 -0.0623057 3.66551 0 0 0 96 110 105 255
0.159374 0.100463 4.24058 0 0 0 147 86 84 255
0.159884 0.106156 4.24018 0 0 0 138 94 88 255
-2.9055 0.313798 5.37845 0 0 0 79 89 88 255
-2.93782 0.373565 5.61199 0 0 0 93 95 94 255
-2.73722 0.372239 5.61225 0 0 0 41 43 44 255
-0.409775 0.317843 3.83912 0 0 0 98 104 111 255
-0.932163 0.38633 3.66921 0 0 0 58 81 107 255
-0.537955 0.419324 3.56458 0 0 0 32 46 70 255
-0.442122 0.481578 3.70041 0 0 0 92 135 172 255
-0.516586 0.482312 3.58338 0 0 0 14 74 127 255
-0.488404 0.555089 3.60999 0 0 0 159 164 164 255
-0.62678 0.588142 3.52938 0 0 0 117 132 139 255
0.165678 0.734272 4.08056 0 0 0 113 89 56 255
1.06891 0.675222 3.34608 0 0 0 98 91 96 255
-2.69417 1.24096 5.22139 0 0 0 111 111 106 255
0.889441 1.24543 5.71543 0 0 0 130 124 120 255
-0.792817 0.889354 3.56255 0 0 0 47 69 107 255
-2.51468 1.22239 4.74879 0 0 0 55 89 57 255
-2.56475 1.2635 4.95596 0 0 0 33 34 38 255
-0.59566 0.903567 3.55704 0 0 0 166 167 167 255
-2.53096 1.28094 4.84836 0 0 0 73 75 73 255
-2.44787 1.24017 4.60354 0 0 0 94 131 122 255
-0.898852 0.976442 3.62583 0 0 0 138 140 150 255
-0.670418 0.949687 3.53991 0 0 0 71 110 153 255
-2.31395 1.28976 4.55237 0 0 0 79 82 84 255
-2.70639 -1.54859 5.20289 0 0 0 86 79 77 255
-0.522129 -0.564162 3.56418 0 0 0 155 160 158 255
-0.518172 -0.462891 3.57934 0 0 0 38 84 78 255
-0.939938 -0.316753 3.57153 0 0 0 121 136 126 255
-0.820166 -0.166882 3.50657 0 0 0 62 101 56 255
-0.956521 0.0191441 3.62626 0 0 0 61 80 75 255
-2.90581 0.308828 5.37678 0 0 0 79 89 88 255
-0.460061 0.472157 3.66906 0 0 0 89 112 139 255
0.213451 0.510603 4.07382 0 0 0 66 72 77 255
0.193698 0.524233 4.07919 0 0 0 49 46 41 255
-0.471877 0.602967 3.64054 0 0 0 18 84 131 255
-0.902576 0.757832 3.61634 0 0 0 128 132 145 255
-0.893353 0.770856 3.59998 0 0 0 143 145 142 255
-0.408911 0.809973 3.74453 0 0 0 147 153 167 255
-2.69361 1.24113 5.22056 0 0 0 111 111 106 255
-2.50814 1.15675 4.74204 0 0 0 89 104 96 255
0.880737 1.23994 5.4361 0 0 0 124 121 116 255
-2.54976 1.26527 4.97908 0 0 0 116 116 119 255
-2.63986 -1.56149 5.28266 0 0 0 91 94 97 255
-2.70786 -1.53074 5.21054 0 0 0 88 88 88 255
-0.997394 -0.914426 3.58734 0 0 0 62 81 74 255
-0.930857 -0.800573 3.53134 0 0 0 105 109 108 255
-0.861285 -0.687551 3.49991 0 0 0 166 132 136 255
-0.935329 -0.522521 3.55289 0 0 0 34 71 56 255
-0.432707 0.332424 3.80895 0 0 0 45 64 89 255
-0.463617 0.475477 3.659 0 0 0 95 125 147 255
-0.482128 0.469985 3.62555 0 0 0 6 75 127 255
-0.483503 0.539215 3.61462 0 0 0 132 138 145 255
-0.8966 0.665644 3.61299 0 0 0 147 148 146 255
-0.445906 0.711943 3.64218 0 0 0 161 164 166 255
-2.71278 1.11918 5.28071 0 0 0 45 45 44 255
-0.477951 0.766509 3.63856 0 0 0 166 169 170 255
-0.406286 0.797803 3.74786 0 0 0 148 150 152 255
-2.67519 1.16676 5.25006 0 0 0 118 116 110 255
-2.54229 1.23955 5.12412 0 0 0 54 52 53 255
1.03934 0.756145 3.21497 0 0 0 146 149 158 255
-2.54039 1.28922 4.92186 0 0 0 115 118 119 255
-0.686708 -0.394373 3.49883 0 0 0 157 162 160 255
-0.607666 -0.247945 3.519 0 0 0 16 91 135 255
-0.481946 0.838708 3.63724 0 0 0 166 170 170 255
-0.52069 0.854441 3.5758 0 0 0 169 173 172 255
