ply
format ascii 1.0
comment VCGLIB generated
element vertex 1011
property float x
property float y
property float z
property float nx
property float ny
property float nz
property uchar red
property uchar green
property uchar blue
property uchar alpha
element face 0
property list uchar int vertex_indices
end_header
-0.46674 0.112888 3.83491 0 0 0 172 170 170 255
0.0473816 0.218607 4.34486 0 0 0 153 153 153 255
0.153322 0.227073 4.24041 0 0 0 114 116 120 255
0.217312 0.22064 4.25382 0 0 0 99 98 101 255
0.0339303 0.247059 4.35735 0 0 0 154 156 155 255
0.349933 0.315079 4.29408 0 0 0 63 61 60 255
0.0250118 0.315788 4.33462 0 0 0 63 63 63 255
0.0367512 0.500108 4.14234 0 0 0 60 60 58 255
2.13348 0.766738 6.11187 0 0 0 52 41 38 255
-0.458232 0.489555 3.65477 0 0 0 110 139 157 255
0.258997 0.534239 4.09834 0 0 0 43 49 49 255
0.337086 0.565483 4.13823 0 0 0 133 139 140 255
-0.835664 0.504759 3.54901 0 0 0 107 112 119 255
-0.805879 0.473937 3.53243 0 0 0 15 58 109 255
-0.691231 0.559063 3.51925 0 0 0 150 157 154 255
-0.608564 0.538649 3.53333 0 0 0 80 122 136 255
-0.454213 0.56992 3.65278 0 0 0 149 156 162 255
1.12889 0.604983 3.53107 0 0 0 131 142 120 255
1.21476 0.60151 3.51148 0 0 0 43 65 60 255
-0.83673 0.643401 3.55916 0 0 0 16 70 113 255
-0.519926 0.667408 3.60168 0 0 0 167 170 170 255
-0.413104 0.678569 3.82073 0 0 0 22 69 113 255
-0.625594 0.649392 3.52869 0 0 0 164 168 169 255
-0.610559 0.690206 3.52991 0 0 0 169 171 173 255
-0.868362 0.738715 3.58887 0 0 0 25 57 98 255
-0.710317 0.716583 3.52562 0 0 0 44 59 93 255
-0.71873 0.784363 3.52964 0 0 0 165 170 170 255
-0.412488 0.823714 3.71544 0 0 0 103 109 122 255
0.8636 0.857793 3.86185 0 0 0 111 97 100 255
-0.629346 0.868184 3.53749 0 0 0 140 151 163 255
0.942354 0.876572 3.45603 0 0 0 51 49 60 255
-0.507248 0.939597 3.58612 0 0 0 133 157 171 255
-0.82316 0.964005 3.57341 0 0 0 158 160 161 255
-0.475626 1.00551 3.64685 0 0 0 4 110 156 255
-0.472051 1.02304 3.6555 0 0 0 6 104 150 255
-0.576948 1.03729 3.54734 0 0 0 3 115 159 255
-0.804902 1.09094 3.57655 0 0 0 147 151 155 255
-0.724612 1.0644 3.54119 0 0 0 24 91 137 255
-0.436819 1.12592 3.66124 0 0 0 161 146 99 255
-0.82316 1.13628 3.57148 0 0 0 149 160 171 255
1.25038 1.07528 3.3471 0 0 0 68 84 92 255
-0.739408 1.16375 3.55678 0 0 0 40 85 131 255
-0.576141 1.16365 3.55615 0 0 0 173 164 128 255
-0.805247 1.2222 3.55649 0 0 0 108 137 156 255
-0.718857 -0.574077 3.48231 0 0 0 155 162 162 255
-0.507742 -0.574251 3.57868 0 0 0 153 159 157 255
-0.493956 -0.507585 3.59428 0 0 0 150 156 155 255
-0.726951 -0.401396 3.48527 0 0 0 157 162 160 255
-0.549055 -0.316417 3.54848 0 0 0 120 136 94 255
-0.654344 -0.274626 3.49516 0 0 0 132 142 120 255
-0.596178 -0.202067 3.52108 0 0 0 12 68 117 255
-0.522061 -0.164114 3.57849 0 0 0 163 141 53 255
-0.759287 -0.0831881 3.49284 0 0 0 136 133 134 255
-0.442724 -0.0223862 3.80593 0 0 0 59 104 80 255
0.0788049 0.093293 4.32524 0 0 0 82 52 55 255
0.292615 0.0868576 4.29837 0 0 0 52 52 52 255
0.0850189 0.178654 4.3226 0 0 0 41 47 52 255
0.275783 0.185309 4.30101 0 0 0 53 54 52 255
0.216798 0.289007 4.27197 0 0 0 192 194 198 255
0.351193 0.336936 4.29433 0 0 0 53 57 63 255
0.118874 0.407874 4.12785 0 0 0 171 163 157 255
0.0735339 0.524405 4.11614 0 0 0 51 54 53 255
0.320621 0.525959 4.13056 0 0 0 120 122 123 255
-0.455656 0.496122 3.65488 0 0 0 139 156 164 255
0.188999 0.569438 4.09253 0 0 0 141 149 153 255
0.280497 0.555268 4.10818 0 0 0 41 49 55 255
-0.867958 0.516098 3.58336 0 0 0 138 116 107 255
1.07263 0.577407 3.79882 0 0 0 112 115 111 255
-0.419314 0.662714 3.79336 0 0 0 36 92 129 255
0.149653 0.730423 4.09756 0 0 0 115 95 72 255
0.228856 0.730087 4.09856 0 0 0 111 92 70 255
-0.882521 0.675765 3.6057 0 0 0 150 155 153 255
-0.611557 0.683653 3.5297 0 0 0 168 171 171 255
-0.491687 0.693883 3.62012 0 0 0 109 117 124 255
0.400936 0.842352 4.25718 0 0 0 50 55 59 255
-0.875167 0.747431 3.59598 0 0 0 27 58 94 255
0.128347 0.926841 4.14758 0 0 0 130 133 131 255
0.264628 0.921879 4.1312 0 0 0 137 141 140 255
0.860298 0.875308 3.8835 0 0 0 108 103 105 255
-0.418371 0.842122 3.70793 0 0 0 38 73 113 255
-0.47283 0.84908 3.63932 0 0 0 164 168 169 255
1.12259 0.806379 3.37078 0 0 0 85 89 86 255
-0.840663 0.962587 3.58415 0 0 0 158 161 160 255
-0.798417 0.947164 3.55866 0 0 0 154 155 157 255
-0.451283 1.01665 3.66449 0 0 0 18 90 137 255
-0.613414 1.00952 3.54888 0 0 0 152 155 163 255
-0.446605 1.06815 3.66236 0 0 0 140 122 113 255
-0.61978 -0.205753 3.51038 0 0 0 72 97 70 255
-0.462252 -0.0339138 3.75671 0 0 0 52 100 72 255
-0.708402 -0.00506451 3.50025 0 0 0 26 67 39 255
0.251934 0.0946544 4.2647 0 0 0 102 50 48 255
0.054218 0.0805525 4.33688 0 0 0 106 103 104 255
0.250296 0.140382 4.23646 0 0 0 50 42 45 255
0.0141256 0.32567 4.3389 0 0 0 61 64 67 255
0.342996 0.369771 4.30967 0 0 0 52 51 56 255
-0.450686 0.355391 3.79467 0 0 0 22 69 117 255
-0.813263 0.537849 3.54845 0 0 0 157 140 91 255
-0.462807 0.649901 3.6232 0 0 0 19 72 123 255
-0.784543 0.736536 3.54769 0 0 0 161 163 168 255
0.00379791 0.85057 4.31513 0 0 0 40 45 46 255
0.34532 0.830943 4.24536 0 0 0 39 44 46 255
-0.683362 0.721731 3.52774 0 0 0 35 66 115 255
-0.680535 0.785033 3.52963 0 0 0 41 68 109 255
0.19058 0.921618 4.10601 0 0 0 138 144 147 255
-0.425716 0.864651 3.68185 0 0 0 42 78 117 255
-0.74276 -0.827179 3.47408 0 0 0 122 130 124 255
-0.787269 -0.822708 3.47541 0 0 0 81 101 87 255
-0.759854 -0.819638 3.47703 0 0 0 145 146 145 255
-0.743033 -0.819038 3.47229 0 0 0 154 155 154 255
-0.830433 -0.819774 3.48187 0 0 0 80 106 89 255
-0.736707 -0.807264 3.47884 0 0 0 107 121 119 255
-0.682939 -0.804118 3.48853 0 0 0 53 76 70 255
-0.884249 -0.815185 3.50197 0 0 0 71 89 69 255
-0.803189 -0.807885 3.48383 0 0 0 136 137 135 255
-0.76172 -0.800761 3.47206 0 0 0 72 92 80 255
-0.741974 -0.800206 3.47159 0 0 0 120 120 120 255
-0.712484 -0.807665 3.48295 0 0 0 70 80 72 255
-0.673582 -0.805492 3.49962 0 0 0 141 139 137 255
-0.925402 -0.815067 3.51501 0 0 0 81 82 74 255
-0.903657 -0.806675 3.50929 0 0 0 53 51 49 255
-0.793551 -0.79472 3.47708 0 0 0 105 122 118 255
-0.965322 -0.81612 3.55516 0 0 0 116 115 113 255
-0.838906 -0.789436 3.48586 0 0 0 101 100 92 255
-0.869938 -0.783427 3.49573 0 0 0 83 96 91 255
-0.917497 -0.788107 3.51762 0 0 0 120 125 123 255
-0.633178 -0.753345 3.50368 0 0 0 155 149 137 255
-0.76385 -0.740007 3.47604 0 0 0 99 90 88 255
-0.820107 -0.726788 3.48278 0 0 0 81 56 56 255
-0.813522 -0.724552 3.48173 0 0 0 116 64 63 255
-0.896451 -0.724514 3.51233 0 0 0 68 54 52 255
-0.765067 -0.712517 3.4764 0 0 0 169 133 136 255
-0.860429 -0.714469 3.49503 0 0 0 86 71 73 255
-0.844297 -0.711133 3.49051 0 0 0 150 148 148 255
-0.805522 -0.708153 3.48229 0 0 0 158 147 151 255
-0.786871 -0.704259 3.47978 0 0 0 93 55 58 255
-0.951708 -0.717797 3.54916 0 0 0 73 52 49 255
-0.806021 -0.68832 3.48205 0 0 0 112 57 62 255
-0.758707 -0.684099 3.47719 0 0 0 128 41 45 255
-0.926581 -0.701073 3.53639 0 0 0 120 102 105 255
-0.835486 -0.675037 3.48962 0 0 0 109 49 54 255
-0.886617 -0.676401 3.50933 0 0 0 106 81 85 255
-0.939425 -0.612644 3.54973 0 0 0 120 121 114 255
-0.810228 -0.59602 3.49206 0 0 0 135 141 134 255
-0.792939 -0.590349 3.48193 0 0 0 149 156 155 255
-0.760479 -0.583561 3.47964 0 0 0 153 154 151 255
-0.901557 -0.566351 3.53062 0 0 0 113 123 116 255
-0.760392 -0.541786 3.47999 0 0 0 151 152 145 255
-0.935577 -0.53597 3.54878 0 0 0 51 78 71 255
-0.562136 -0.373632 3.5414 0 0 0 66 117 87 255
-0.618959 -0.359706 3.50506 0 0 0 68 112 88 255
-0.462295 -0.352509 3.77735 0 0 0 122 137 87 255
-0.886288 -0.332289 3.52101 0 0 0 125 125 120 255
-0.443483 -0.336288 3.7883 0 0 0 141 139 84 255
-0.876637 -0.301971 3.52597 0 0 0 136 137 134 255
-0.553063 -0.246789 3.54007 0 0 0 64 88 82 255
-0.680895 -0.191091 3.49529 0 0 0 79 109 55 255
-0.767528 -0.183776 3.49308 0 0 0 99 126 78 255
-0.868205 -0.173436 3.53069 0 0 0 130 134 118 255
-0.943451 -0.168739 3.61432 0 0 0 50 86 62 255
-0.948165 -0.134966 3.59844 0 0 0 93 99 102 255
-0.749039 -0.0977008 3.49145 0 0 0 110 104 113 255
-0.816024 -0.0896361 3.50685 0 0 0 77 99 82 255
-0.436747 -0.0696924 3.79095 0 0 0 132 133 86 255
-0.956265 0.0303668 3.63505 0 0 0 43 82 70 255
0.320439 0.0847013 4.29169 0 0 0 83 78 78 255
0.0484547 0.0972674 4.33985 0 0 0 106 107 108 255
0.253383 0.168637 4.29709 0 0 0 107 113 112 255
0.172408 0.392749 4.11469 0 0 0 85 87 83 255
0.329142 0.420527 4.19638 0 0 0 92 100 105 255
0.433534 0.460903 4.29854 0 0 0 72 73 75 255
0.406807 0.488865 4.28156 0 0 0 71 75 82 255
-0.665515 0.452398 3.51819 0 0 0 34 55 81 255
-0.912428 0.47941 3.63091 0 0 0 91 108 132 255
-0.439866 0.499279 3.68483 0 0 0 111 75 98 255
-0.501974 0.515419 3.59385 0 0 0 52 77 110 255
-0.435631 0.520655 3.67682 0 0 0 115 91 111 255
-0.638575 0.512719 3.52869 0 0 0 66 104 99 255
-0.541474 0.516528 3.56778 0 0 0 52 82 113 255
1.35395 0.571508 3.77852 0 0 0 104 103 88 255
-0.466758 0.538934 3.6305 0 0 0 112 111 116 255
-0.414874 0.547395 3.70968 0 0 0 31 70 110 255
-0.448141 0.544443 3.6538 0 0 0 112 120 128 255
-0.434962 0.558143 3.67511 0 0 0 123 113 118 255
-0.521455 0.562015 3.58046 0 0 0 36 74 122 255
-0.48794 0.572672 3.61041 0 0 0 130 131 138 255
-0.647845 0.566973 3.52516 0 0 0 73 99 91 255
-0.62815 0.568108 3.52852 0 0 0 72 104 102 255
-0.55021 0.577713 3.5596 0 0 0 36 87 128 255
-0.920171 0.59379 3.65064 0 0 0 91 103 131 255
1.32183 0.622576 3.51785 0 0 0 59 78 71 255
1.26015 0.649015 3.6511 0 0 0 92 128 124 255
1.34259 0.642356 3.51486 0 0 0 99 98 81 255
1.06124 0.656753 3.5684 0 0 0 139 120 124 255
-0.915663 0.651639 3.64334 0 0 0 111 123 144 255
1.18328 0.668433 3.52608 0 0 0 146 150 151 255
1.19161 0.682235 3.53185 0 0 0 77 91 84 255
1.15032 0.681605 3.49387 0 0 0 108 76 73 255
-0.414648 0.714511 3.70741 0 0 0 109 112 121 255
1.33461 0.695379 3.48874 0 0 0 30 49 43 255
-0.893323 0.705801 3.6092 0 0 0 111 107 119 255
-0.414296 0.748646 3.71162 0 0 0 85 95 108 255
1.1268 0.716873 3.46972 0 0 0 91 88 97 255
1.24561 0.731925 3.51926 0 0 0 119 93 91 255
-0.896422 0.741551 3.60384 0 0 0 102 115 129 255
1.14119 0.744281 3.44263 0 0 0 123 110 113 255
1.06766 0.762679 3.45756 0 0 0 155 149 151 255
-0.888625 0.783022 3.58862 0 0 0 103 104 107 255
1.38735 0.771968 3.39218 0 0 0 136 139 111 255
1.05842 0.786889 3.44449 0 0 0 118 110 113 255
1.03477 0.794779 3.44357 0 0 0 136 111 108 255
0.46826 1.08918 4.86494 0 0 0 155 151 147 255
1.16802 0.801662 3.38824 0 0 0 150 151 157 255
0.261781 0.951496 4.12845 0 0 0 94 96 97 255
0.209358 0.96648 4.10756 0 0 0 101 107 106 255
0.468546 1.11452 4.77564 0 0 0 112 112 112 255
0.838301 0.925806 3.85452 0 0 0 174 175 171 255
-0.488341 0.894707 3.60343 0 0 0 69 95 137 255
1.35537 0.874971 3.3131 0 0 0 96 102 111 255
-0.612928 0.936023 3.54391 0 0 0 116 132 170 255
1.05075 0.922265 3.3969 0 0 0 101 100 100 255
0.940473 0.948034 3.47746 0 0 0 90 90 92 255
-0.426273 1.02855 3.67669 0 0 0 28 76 121 255
1.26431 0.947896 3.30647 0 0 0 119 104 97 255
1.10586 0.966237 3.36926 0 0 0 95 84 81 255
0.269874 1.18094 4.12778 0 0 0 96 97 98 255
1.13804 1.01652 3.35434 0 0 0 135 132 116 255
1.2328 1.0026 3.3016 0 0 0 111 86 81 255
1.33903 1.00563 3.21927 0 0 0 114 112 111 255
1.2693 1.04143 3.26986 0 0 0 134 140 143 255
1.27162 1.08861 3.25444 0 0 0 125 129 135 255
-0.46073 1.21961 3.64439 0 0 0 118 123 145 255
-0.73746 1.21273 3.50486 0 0 0 37 87 124 255
-0.713344 1.22678 3.49866 0 0 0 80 103 141 255
-0.987485 -0.896753 3.55302 0 0 0 37 73 61 255
-0.756878 -0.804542 3.47372 0 0 0 77 92 84 255
-0.79494 -0.8021 3.47313 0 0 0 137 139 139 255
-0.768303 -0.731326 3.47596 0 0 0 112 42 50 255
-0.822365 -0.725478 3.48406 0 0 0 81 56 56 255
-0.845739 -0.721191 3.49011 0 0 0 156 141 140 255
-0.760931 -0.713757 3.47599 0 0 0 167 148 150 255
-0.894116 -0.723087 3.51099 0 0 0 68 54 52 255
-0.762479 -0.686279 3.47571 0 0 0 124 37 45 255
-0.913699 -0.696929 3.52028 0 0 0 146 130 132 255
-0.799629 -0.588616 3.47079 0 0 0 143 146 139 255
-0.758626 -0.544409 3.481 0 0 0 151 151 151 255
-0.902532 -0.556216 3.53042 0 0 0 135 134 131 255
-0.458974 -0.347366 3.77994 0 0 0 137 138 81 255
-0.664619 -0.183101 3.49739 0 0 0 152 155 132 255
-0.869079 -0.171459 3.53071 0 0 0 130 134 118 255
-0.812492 -0.0866633 3.50574 0 0 0 57 96 62 255
-0.864498 -0.0743481 3.53245 0 0 0 132 124 125 255
-0.43785 -0.0743212 3.7911 0 0 0 133 134 86 255
0.062418 0.0608884 4.33142 0 0 0 152 154 153 255
0.305666 0.244801 4.3156 0 0 0 100 102 104 255
-0.955196 0.342763 3.67139 0 0 0 40 57 77 255
0.324829 0.481815 4.13764 0 0 0 87 85 82 255
-0.667406 0.455528 3.51803 0 0 0 34 55 81 255
0.2378 0.517627 4.08891 0 0 0 120 122 122 255
-0.8724 0.480411 3.58413 0 0 0 97 119 139 255
-0.504036 0.478075 3.59432 0 0 0 79 106 139 255
0.238379 0.550174 4.08731 0 0 0 58 52 57 255
-0.69425 0.518821 3.51833 0 0 0 138 138 123 255
-0.415523 0.546239 3.71287 0 0 0 31 70 110 255
-0.494663 0.599518 3.61129 0 0 0 50 109 151 255
1.34819 0.646268 3.51756 0 0 0 91 104 95 255
-0.895199 0.653791 3.61415 0 0 0 126 134 138 255
1.33221 0.683366 3.4925 0 0 0 37 44 39 255
1.24092 0.73104 3.51138 0 0 0 120 89 88 255
1.3625 0.82381 3.36138 0 0 0 98 91 91 255
0.838985 0.925697 3.85443 0 0 0 166 167 163 255
-0.651807 1.06433 3.52891 0 0 0 31 97 139 255
-0.877409 -0.807931 3.48894 0 0 0 94 108 90 255
-0.754639 -0.726161 3.47543 0 0 0 167 144 144 255
-0.698659 -0.690327 3.48517 0 0 0 146 83 90 255
-0.82131 -0.689256 3.48454 0 0 0 117 34 34 255
-0.956987 -0.628846 3.5569 0 0 0 52 81 44 255
-0.801638 -0.581049 3.48492 0 0 0 154 154 151 255
-0.491666 -0.568224 3.60279 0 0 0 152 158 157 255
-0.956977 -0.584707 3.55607 0 0 0 59 81 73 255
-0.903124 -0.538988 3.52914 0 0 0 139 139 139 255
-0.926225 -0.533152 3.54169 0 0 0 36 64 53 255
-0.888605 -0.486843 3.51809 0 0 0 135 140 132 255
-0.74798 -0.409728 3.48421 0 0 0 158 158 158 255
-0.458793 -0.348424 3.78706 0 0 0 137 138 81 255
-0.888063 -0.321241 3.54473 0 0 0 137 140 126 255
-0.660374 -0.231221 3.49578 0 0 0 11 86 129 255
-0.609196 -0.188242 3.51549 0 0 0 10 70 118 255
-0.944531 -0.183917 3.60674 0 0 0 56 85 45 255
-0.511567 -0.159081 3.58593 0 0 0 164 141 61 255
-0.929887 -0.0635932 3.59186 0 0 0 42 80 53 255
0.258993 0.0775234 4.27036 0 0 0 48 44 45 255
0.261048 0.172483 4.31028 0 0 0 101 107 116 255
0.301753 0.24368 4.34012 0 0 0 100 102 104 255
0.133815 0.404184 4.12317 0 0 0 125 122 114 255
-0.494331 0.487774 3.60443 0 0 0 99 140 166 255
-0.427896 0.494426 3.71907 0 0 0 86 122 150 255
0.254169 0.552042 4.09474 0 0 0 43 49 54 255
-0.860031 0.496759 3.57124 0 0 0 113 126 133 255
-0.414672 0.533649 3.73687 0 0 0 80 119 145 255
1.25843 0.66167 3.6628 0 0 0 118 146 146 255
0.24314 0.756258 4.09706 0 0 0 75 68 65 255
1.2032 0.682212 3.55331 0 0 0 62 96 84 255
-0.896418 0.713497 3.60716 0 0 0 62 64 81 255
-0.501339 0.711771 3.61316 0 0 0 165 168 167 255
1.24208 0.726811 3.52527 0 0 0 129 88 88 255
-0.629948 0.724908 3.5317 0 0 0 162 163 170 255
-0.460947 0.790391 3.64974 0 0 0 46 60 86 255
-0.420851 0.80211 3.69848 0 0 0 155 158 167 255
-0.898808 0.825691 3.60814 0 0 0 32 61 92 255
1.24122 0.81029 3.37106 0 0 0 141 142 146 255
-0.525872 0.860997 3.56746 0 0 0 167 171 169 255
-0.701729 0.863131 3.52767 0 0 0 47 70 107 255
0.827365 0.946408 3.82511 0 0 0 171 175 173 255
-0.803309 0.89525 3.5592 0 0 0 46 63 92 255
1.29156 0.897217 3.30702 0 0 0 74 64 68 255
0.42357 1.29771 4.36157 0 0 0 125 128 127 255
1.25506 1.02188 3.27535 0 0 0 92 111 121 255
1.29961 1.09578 3.25538 0 0 0 71 66 74 255
-0.797091 -0.810116 3.47816 0 0 0 146 149 147 255
-0.760203 -0.712187 3.47602 0 0 0 167 148 150 255
-0.546723 -0.508075 3.55543 0 0 0 35 85 74 255
-0.916254 -0.50112 3.53659 0 0 0 35 76 55 255
-0.615176 -0.423325 3.50861 0 0 0 161 162 166 255
-0.561091 -0.330888 3.54654 0 0 0 114 129 89 255
-0.459487 -0.351664 3.77936 0 0 0 137 138 81 255
-0.644153 -0.295692 3.50032 0 0 0 137 145 126 255
-0.937923 -0.198375 3.58696 0 0 0 50 81 50 255
-0.668156 -0.177146 3.49688 0 0 0 156 155 121 255
-0.439839 -0.078677 3.791 0 0 0 133 134 86 255
-0.949344 0.00554109 3.64752 0 0 0 26 54 40 255
0.156207 0.0775633 4.25026 0 0 0 52 56 70 255
0.138546 0.300783 4.23652 0 0 0 133 140 140 255
-0.936767 0.345751 3.64569 0 0 0 21 54 89 255
0.12685 0.418461 4.12449 0 0 0 140 119 104 255
0.0713223 0.498513 4.11686 0 0 0 49 59 63 255
0.41872 0.558405 4.35384 0 0 0 70 68 64 255
0.17911 0.555224 4.09016 0 0 0 143 147 149 255
-0.434231 0.500258 3.695 0 0 0 117 90 107 255
0.232676 0.576294 4.08978 0 0 0 146 150 152 255
-0.835483 0.521972 3.5549 0 0 0 163 145 122 255
0.1106 0.605616 4.10285 0 0 0 126 125 126 255
-0.647802 0.53567 3.52529 0 0 0 41 101 92 255
-0.590823 0.554549 3.53972 0 0 0 112 152 172 255
-0.8405 0.571935 3.56537 0 0 0 161 131 97 255
1.14303 0.618857 3.56397 0 0 0 125 134 110 255
1.26021 0.663712 3.66512 0 0 0 125 149 149 255
-0.883883 0.723679 3.60011 0 0 0 46 58 84 255
-0.635655 0.726686 3.5311 0 0 0 142 138 162 255
1.25527 0.759998 3.48864 0 0 0 158 158 156 255
-0.72465 0.770048 3.52809 0 0 0 164 165 164 255
1.34382 0.8025 3.36176 0 0 0 155 147 149 255
1.38689 0.804651 3.37204 0 0 0 50 72 62 255
-0.703661 0.852075 3.53264 0 0 0 86 96 104 255
-0.731186 0.890661 3.53419 0 0 0 171 168 169 255
-0.613498 0.896135 3.54273 0 0 0 170 170 170 255
-0.51166 0.921024 3.58233 0 0 0 88 101 126 255
-0.432551 1.12144 3.6755 0 0 0 174 154 94 255
-0.782966 1.12501 3.50489 0 0 0 152 157 158 255
-0.842854 -0.723848 3.48969 0 0 0 146 145 136 255
-0.568529 -0.537426 3.54347 0 0 0 159 160 155 255
-0.503985 -0.522721 3.58456 0 0 0 156 161 159 255
-0.749946 -0.502497 3.50506 0 0 0 56 99 52 255
-0.601447 -0.492154 3.55964 0 0 0 159 161 162 255
-0.73476 -0.388476 3.48411 0 0 0 157 161 162 255
-0.86675 -0.339978 3.52852 0 0 0 147 148 147 255
-0.525109 -0.0104207 3.55605 0 0 0 42 100 68 255
-0.464397 -5.23988e-05 3.84922 0 0 0 88 117 107 255
0.292854 0.135808 4.31209 0 0 0 52 49 47 255
0.2916 0.174461 4.31333 0 0 0 65 69 73 255
0.103631 0.188031 4.28064 0 0 0 49 54 52 255
0.0144177 0.351829 4.34727 0 0 0 46 52 57 255
-0.454659 0.345752 3.85611 0 0 0 14 62 108 255
-0.542197 0.435976 3.56065 0 0 0 99 84 60 255
0.303833 0.545867 4.12335 0 0 0 148 148 152 255
0.0767 0.578542 4.11693 0 0 0 59 65 64 255
-0.813241 0.524743 3.54803 0 0 0 159 142 91 255
-0.428308 0.534948 3.68196 0 0 0 158 134 144 255
1.24642 0.615912 3.60443 0 0 0 40 56 51 255
1.15488 0.622928 3.5399 0 0 0 139 144 149 255
1.34667 0.658864 3.5013 0 0 0 161 156 134 255
-0.475945 0.691763 3.61915 0 0 0 27 68 114 255
1.2631 0.695585 3.65694 0 0 0 134 152 151 255
-0.422337 0.715985 3.68306 0 0 0 156 158 158 255
-0.669948 0.729045 3.53041 0 0 0 31 69 117 255
0.351001 0.842234 4.23137 0 0 0 35 42 43 255
0.159073 0.91501 4.10798 0 0 0 128 128 128 255
0.282648 0.919581 4.13767 0 0 0 133 134 131 255
-0.898946 0.834834 3.61014 0 0 0 31 63 91 255
-0.500851 0.845979 3.6029 0 0 0 167 170 173 255
-0.616609 0.878549 3.54152 0 0 0 166 171 173 255
-0.779923 0.919276 3.55986 0 0 0 166 166 166 255
-0.46631 1.00817 3.66126 0 0 0 1 97 146 255
-0.644732 -0.258124 3.49651 0 0 0 125 141 113 255
-0.632928 -0.214924 3.50184 0 0 0 46 98 129 255
-0.522389 -0.146665 3.58143 0 0 0 167 133 44 255
-0.460192 -0.0209285 3.77296 0 0 0 45 96 67 255
0.0690375 0.118735 4.32969 0 0 0 83 51 48 255
0.264643 0.141369 4.28785 0 0 0 44 42 43 255
0.192519 0.291966 4.27489 0 0 0 177 178 178 255
-0.460744 0.345824 3.87352 0 0 0 13 62 109 255
-0.0409732 0.422988 4.34 0 0 0 117 118 116 255
0.334977 0.350607 4.35997 0 0 0 47 53 58 255
0.302768 0.574586 4.12599 0 0 0 146 147 147 255
-0.458527 0.55152 3.64216 0 0 0 158 155 160 255
0.0119187 0.674386 4.24254 0 0 0 33 39 42 255
1.2544 0.624488 3.61689 0 0 0 43 63 59 255
-0.47953 0.688769 3.61718 0 0 0 34 64 115 255
1.24554 0.748116 3.49775 0 0 0 145 134 131 255
1.33292 0.743824 3.49625 0 0 0 45 86 73 255
-0.679065 0.797706 3.53034 0 0 0 42 66 112 255
0.2587 0.952189 4.12782 0 0 0 119 122 122 255
-2.73977 -1.57268 5.28127 0 0 0 81 80 77 255
-0.771939 -0.799076 3.45905 0 0 0 47 74 67 255
-0.788012 -0.735189 3.47815 0 0 0 139 145 120 255
-0.562887 -0.722815 3.54138 0 0 0 111 48 54 255
-0.863587 -0.688459 3.49891 0 0 0 166 132 136 255
-0.521758 -0.563672 3.56416 0 0 0 155 160 158 255
-0.888136 -0.46439 3.50979 0 0 0 126 144 126 255
-0.726507 -0.328908 3.48672 0 0 0 88 129 88 255
-0.942903 -0.301113 3.57698 0 0 0 109 122 110 255
-0.590996 -0.283262 3.52955 0 0 0 36 93 130 255
-0.621205 -0.186587 3.50866 0 0 0 13 71 115 255
-0.815145 -0.160976 3.5019 0 0 0 67 103 56 255
-0.842771 -0.126959 3.51442 0 0 0 137 82 100 255
-0.854996 -0.0956965 3.5234 0 0 0 133 116 121 255
-0.922904 -0.0805905 3.57839 0 0 0 54 88 66 255
-0.985186 -0.0622586 3.66639 0 0 0 96 110 105 255
0.158057 0.100781 4.25298 0 0 0 147 86 84 255
0.159105 0.10548 4.25246 0 0 0 138 94 88 255
-2.93615 0.315683 5.42339 0 0 0 79 89 88 255
-2.97151 0.376144 5.66319 0 0 0 93 95 94 255
-2.76776 0.374669 5.66146 0 0 0 41 43 44 255
-0.410404 0.318002 3.84142 0 0 0 98 104 111 255
-0.93286 0.385926 3.6716 0 0 0 58 81 107 255
-0.536485 0.420801 3.56653 0 0 0 32 46 70 255
-0.442064 0.481468 3.70053 0 0 0 92 135 172 255
-0.516114 0.482199 3.58163 0 0 0 14 74 127 255
-0.487895 0.554744 3.60873 0 0 0 159 164 164 255
-0.625375 0.587501 3.52817 0 0 0 117 132 139 255
0.165575 0.736054 4.0931 0 0 0 113 89 56 255
1.0693 0.675766 3.34901 0 0 0 98 91 96 255
-2.71631 1.2485 5.25497 0 0 0 111 111 106 255
0.892187 1.25643 5.77048 0 0 0 130 124 120 255
-0.79064 0.889267 3.55939 0 0 0 47 69 107 255
-2.52979 1.22778 4.77073 0 0 0 55 89 57 255
-2.58249 1.26993 4.98249 0 0 0 33 34 38 255
-0.594573 0.902752 3.5541 0 0 0 166 167 167 255
-2.54707 1.28693 4.87216 0 0 0 73 75 73 255
-2.46072 1.24493 4.62199 0 0 0 94 131 122 255
-0.897729 0.974072 3.61749 0 0 0 138 140 150 255
-0.669814 0.948323 3.53184 0 0 0 71 110 153 255
-2.3246 1.294 4.56814 0 0 0 79 82 84 255
-2.74371 -1.56712 5.25907 0 0 0 86 79 77 255
-0.521969 -0.563769 3.56404 0 0 0 155 160 158 255
-0.518015 -0.462587 3.57896 0 0 0 38 84 78 255
-0.939639 -0.316567 3.5707 0 0 0 121 136 126 255
-0.819158 -0.166125 3.5032 0 0 0 62 101 56 255
-0.956564 0.0192055 3.62628 0 0 0 61 80 75 255
-2.93647 0.310671 5.42172 0 0 0 79 89 88 255
-0.45979 0.472685 3.66964 0 0 0 89 112 139 255
0.213737 0.51285 4.0879 0 0 0 66 72 77 255
0.19413 0.526694 4.09256 0 0 0 49 46 41 255
-0.471471 0.602632 3.63939 0 0 0 18 84 131 255
-0.901816 0.757438 3.60845 0 0 0 128 132 145 255
-0.892598 0.770502 3.59835 0 0 0 143 145 142 255
-0.408848 0.80976 3.74423 0 0 0 147 153 167 255
-2.71573 1.24867 5.25411 0 0 0 111 111 106 255
-2.52319 1.16181 4.76388 0 0 0 89 104 96 255
0.883116 1.24969 5.48272 0 0 0 124 121 116 255
-2.56769 1.2718 5.00616 0 0 0 116 116 119 255
-2.67656 -1.58025 5.33993 0 0 0 91 94 97 255
-2.74515 -1.54905 5.26673 0 0 0 88 88 88 255
-0.999038 -0.915396 3.59074 0 0 0 62 81 74 255
-0.930095 -0.799787 3.52882 0 0 0 105 109 108 255
-0.8604 -0.686821 3.49731 0 0 0 166 132 136 255
-0.934491 -0.521936 3.55031 0 0 0 34 71 56 255
-0.433169 0.332539 3.81041 0 0 0 45 64 89 255
-0.463378 0.475295 3.65853 0 0 0 95 125 147 255
-0.481735 0.469741 3.62462 0 0 0 6 75 127 255
-0.483028 0.538892 3.61346 0 0 0 132 138 145 255
-0.895486 0.665609 3.60959 0 0 0 147 148 146 255
-0.445431 0.711513 3.64632 0 0 0 161 164 166 255
-2.73621 1.12627 5.31644 0 0 0 45 45 44 255
-0.477449 0.766042 3.63711 0 0 0 166 169 170 255
-0.405922 0.795357 3.74484 0 0 0 148 150 152 255
-2.69772 1.17398 5.28462 0 0 0 118 116 110 255
-2.56179 1.24649 5.15453 0 0 0 54 52 53 255
1.03959 0.756535 3.2168 0 0 0 146 149 158 255
-2.55745 1.29557 4.94738 0 0 0 115 118 119 255
-0.686006 -0.393449 3.49458 0 0 0 157 162 160 255
-0.607309 -0.248032 3.51603 0 0 0 16 91 135 255
-0.481398 0.838177 3.63569 0 0 0 166 170 170 255
-0.519819 0.853703 3.57338 0 0 0 169 173 172 255
-0.73079 0.904212 3.53385 0 0 0 167 169 168 255
-2.56135 1.28993 4.94511 0 0 0 96 99 99 255
-0.703838 -0.568004 3.49449 0 0 0 158 161 160 255
-0.507978 -0.538518 3.57951 0 0 0 156 161 159 255
-0.729544 -0.515893 3.48737 0 0 0 51 99 58 255
-0.599156 -0.439811 3.51071 0 0 0 160 162 161 255
-0.852941 -0.355115 3.50146 0 0 0 147 149 148 255
-0.943444 -0.21309 3.59173 0 0 0 54 86 46 255
-0.606661 -0.204827 3.51686 0 0 0 19 75 113 255
0.283154 0.100916 4.29519 0 0 0 102 58 56 255
0.0743631 0.14496 4.32497 0 0 0 42 44 46 255
0.185255 0.228581 4.26555 0 0 0 151 151 151 255
0.180755 0.302234 4.26881 0 0 0 163 165 167 255
-0.434187 0.341156 3.82232 0 0 0 22 64 109 255
-0.939262 0.359809 3.67099 0 0 0 39 71 102 255
0.406965 0.411437 4.28717 0 0 0 94 84 76 255
-0.664435 0.437822 3.51853 0 0 0 130 122 91 255
-0.451767 0.483448 3.6757 0 0 0 94 128 153 255
0.0645014 0.515054 4.12001 0 0 0 111 117 118 255
0.28179 0.542807 4.1079 0 0 0 41 47 52 255
0.324596 0.546785 4.132 0 0 0 140 144 147 255
-0.81935 0.68055 3.55173 0 0 0 157 159 160 255
-0.722084 0.686817 3.5258 0 0 0 164 169 167 255
-0.612672 0.652817 3.52766 0 0 0 165 168 167 255
0.384081 0.840163 4.25663 0 0 0 40 49 48 255
0.0278318 0.842836 4.1954 0 0 0 40 42 41 255
0.929165 0.737471 3.51635 0 0 0 115 49 48 255
-0.492866 0.847047 3.61705 0 0 0 165 170 172 255
-0.709461 -0.407014 3.49197 0 0 0 158 161 161 255
-0.731477 -0.357254 3.48444 0 0 0 65 86 82 255
-0.933176 -0.010873 3.63069 0 0 0 42 67 50 255
0.0398513 0.143981 4.34439 0 0 0 152 152 152 255
-0.0255345 0.356634 4.34983 0 0 0 154 155 152 255
-0.942765 0.426606 3.67891 0 0 0 17 56 94 255
0.142584 0.555854 4.09487 0 0 0 143 140 143 255
-0.782312 0.536107 3.53111 0 0 0 157 149 98 255
1.06171 0.57936 3.8153 0 0 0 133 133 127 255
-0.787098 0.696254 3.5391 0 0 0 160 162 161 255
-0.456519 0.72042 3.63014 0 0 0 26 64 109 255
-0.679678 0.74255 3.5314 0 0 0 34 65 112 255
-0.426553 0.910737 3.81156 0 0 0 14 79 128 255
0.203765 0.887207 4.15277 0 0 0 120 95 63 255
0.233915 0.919632 4.11802 0 0 0 133 135 134 255
-0.871599 -0.79335 3.49535 0 0 0 56 66 63 255
-0.973005 -0.798281 3.5767 0 0 0 98 111 100 255
-0.683645 -0.7442 3.49139 0 0 0 144 71 76 255
-0.872227 -0.730408 3.50184 0 0 0 122 115 118 255
-0.980957 -0.692687 3.57282 0 0 0 75 43 40 255
-0.936773 -0.679065 3.54375 0 0 0 104 54 62 255
-0.935439 -0.561143 3.54853 0 0 0 113 124 120 255
-2.89058 0.291504 5.26909 0 0 0 91 92 92 255
-2.85344 0.335433 5.19802 0 0 0 88 81 84 255
0.202933 0.396702 4.11418 0 0 0 137 118 86 255
0.403518 0.502463 4.19384 0 0 0 75 86 89 255
-0.515414 0.447306 3.58277 0 0 0 61 47 48 255
-0.874667 0.659075 3.60162 0 0 0 28 65 105 255
0.196834 0.717781 4.10022 0 0 0 94 86 69 255
-2.6294 1.00856 4.76756 0 0 0 26 41 38 255
0.221911 0.744243 4.10038 0 0 0 123 93 56 255
-2.63452 1.03652 4.7869 0 0 0 33 44 45 255
-2.63026 1.10865 4.79129 0 0 0 93 124 116 255
-2.69051 1.29287 5.1862 0 0 0 113 115 116 255
0.83089 1.22875 5.65855 0 0 0 126 119 112 255
-2.60459 1.23699 4.93682 0 0 0 90 108 103 255
0.956575 0.726118 3.53941 0 0 0 81 69 64 255
0.710285 1.28906 5.69875 0 0 0 131 125 123 255
0.46331 1.00782 4.45948 0 0 0 96 90 83 255
0.513643 1.0518 4.65844 0 0 0 110 108 102 255
0.873026 0.87167 4.02022 0 0 0 173 173 170 255
0.330174 0.947841 4.17159 0 0 0 79 85 90 255
0.291996 0.949396 4.14153 0 0 0 93 95 98 255
0.157464 0.959485 4.12504 0 0 0 80 87 84 255
0.240993 0.948002 4.12604 0 0 0 103 107 107 255
0.292706 0.957921 4.14422 0 0 0 88 90 92 255
0.859073 0.889758 3.97241 0 0 0 168 168 168 255
0.934186 0.796968 3.53627 0 0 0 142 136 134 255
-0.522123 0.936517 3.58179 0 0 0 66 102 137 255
-2.88493 0.289997 5.25691 0 0 0 91 92 92 255
-2.92728 0.306466 5.36356 0 0 0 94 93 91 255
0.0280031 0.600461 4.14842 0 0 0 106 110 109 255
-0.57324 0.583723 3.54902 0 0 0 94 141 164 255
0.204558 0.721703 4.10168 0 0 0 102 87 63 255
-2.62227 0.989557 4.77406 0 0 0 123 142 138 255
-2.63218 1.0155 4.7702 0 0 0 22 37 35 255
-2.63886 1.05412 4.76956 0 0 0 106 113 113 255
-2.63134 1.07302 4.82658 0 0 0 126 133 132 255
0.942932 0.733264 3.5477 0 0 0 97 51 50 255
0.874931 0.870378 4.03404 0 0 0 177 175 171 255
0.716074 1.30197 5.72153 0 0 0 115 110 100 255
0.455098 1.01321 4.42883 0 0 0 145 148 147 255
0.897285 0.785821 3.55187 0 0 0 121 123 110 255
-0.902966 0.966129 3.6234 0 0 0 152 151 154 255
-1.0148 -0.793618 3.65563 0 0 0 50 77 51 255
-2.93191 0.317371 5.33923 0 0 0 90 88 85 255
-3.06898 0.389326 5.7692 0 0 0 101 101 99 255
0.308866 0.257209 4.28276 0 0 0 104 102 105 255
0.233483 0.437794 4.11017 0 0 0 79 62 57 255
-2.59845 0.733873 4.85123 0 0 0 149 153 152 255
0.250936 0.526043 4.09372 0 0 0 52 44 41 255
0.0282509 0.599151 4.14837 0 0 0 106 110 109 255
0.337178 0.596708 4.14836 0 0 0 35 42 48 255
-0.60544 0.563255 3.53508 0 0 0 146 163 170 255
-0.886333 0.582693 3.59863 0 0 0 134 104 98 255
-2.66049 0.91185 4.96188 0 0 0 88 107 95 255
-0.891666 0.636173 3.60645 0 0 0 97 110 128 255
-2.62145 0.995021 4.78478 0 0 0 139 139 139 255
-0.559909 0.757445 3.56236 0 0 0 76 96 124 255
-0.662363 0.801117 3.52793 0 0 0 168 170 169 255
0.882819 0.866292 4.07886 0 0 0 174 175 170 255
1.02417 1.25731 5.66316 0 0 0 126 117 107 255
0.5173 1.05172 4.67886 0 0 0 149 147 142 255
0.730759 1.30551 5.74018 0 0 0 112 105 103 255
-2.37772 1.2195 4.48991 0 0 0 136 135 138 255
0.901521 0.784521 3.53347 0 0 0 136 133 127 255
-0.723607 -0.587074 3.48116 0 0 0 157 162 160 255
-0.805932 -0.567007 3.48577 0 0 0 155 156 153 255
-0.944053 -0.0389953 3.59628 0 0 0 23 51 30 255
0.0582994 0.19207 4.33918 0 0 0 70 68 69 255
0.283845 0.241483 4.28232 0 0 0 101 104 104 255
-2.54077 0.367983 4.68858 0 0 0 88 89 89 255
0.139677 0.285094 4.2375 0 0 0 140 142 142 255
0.172419 0.545568 4.09202 0 0 0 143 147 149 255
-0.862715 0.576254 3.58187 0 0 0 153 129 108 255
0.236808 0.687897 4.09575 0 0 0 113 91 69 255
-0.506855 0.666835 3.60786 0 0 0 165 170 168 255
-0.63894 0.707778 3.53141 0 0 0 74 100 142 255
-0.713037 0.758598 3.52985 0 0 0 167 169 168 255
0.740156 1.30877 5.7377 0 0 0 108 102 99 255
1.02051 1.26428 5.67229 0 0 0 129 121 115 255
-1.04773 -0.906839 3.72887 0 0 0 27 53 37 255
-0.964962 -0.592496 3.56161 0 0 0 47 82 47 255
-0.709056 -0.581192 3.49642 0 0 0 159 162 162 255
-0.506196 -0.503599 3.58297 0 0 0 155 159 158 255
-0.694911 -0.0791076 3.49202 0 0 0 58 106 65 255
-2.95675 0.408311 5.96664 0 0 0 31 34 34 255
0.162234 0.244508 4.26319 0 0 0 114 116 115 255
0.188888 0.263225 4.27115 0 0 0 123 128 131 255
-0.827285 0.554128 3.55662 0 0 0 156 150 133 255
-0.709661 0.569782 3.52075 0 0 0 117 132 105 255
-0.515814 0.65589 3.60149 0 0 0 162 170 167 255
-0.923439 0.692611 3.62746 0 0 0 22 55 93 255
-1.00013 -0.78554 3.62573 0 0 0 43 70 43 255
-0.946965 0.00932193 3.67288 0 0 0 42 79 59 255
0.00448773 0.370948 4.34611 0 0 0 49 50 50 255
-0.881379 0.342868 3.5873 0 0 0 30 62 98 255
-0.961003 -0.81162 3.54826 0 0 0 96 106 98 255
-0.934782 -0.785339 3.53336 0 0 0 99 102 101 255
-0.82569 -0.740226 3.48566 0 0 0 88 52 48 255
-0.811734 -0.738606 3.48305 0 0 0 150 116 116 255
-0.905757 -0.719379 3.51891 0 0 0 84 37 38 255
-0.677271 -0.704158 3.48928 0 0 0 119 56 61 255
-0.938706 -0.721011 3.54164 0 0 0 83 64 62 255
-0.994101 -0.730153 3.58665 0 0 0 86 49 48 255
-0.94453 -0.70054 3.54602 0 0 0 144 98 105 255
-0.892022 -0.689594 3.5112 0 0 0 150 113 114 255
-0.972884 -0.703701 3.5668 0 0 0 143 89 97 255
-0.963535 -0.561176 3.56871 0 0 0 81 93 81 255
-0.876415 -0.497064 3.51688 0 0 0 145 147 146 255
-0.895843 -0.466739 3.52331 0 0 0 128 137 131 255
-0.890491 -0.335823 3.53208 0 0 0 108 121 99 255
-0.5506 -0.160277 3.55152 0 0 0 124 104 27 255
-0.531627 -0.161311 3.57273 0 0 0 132 117 43 255
-0.953128 -0.170882 3.60177 0 0 0 116 124 114 255
-0.910199 -0.159646 3.55611 0 0 0 61 92 51 255
-0.614752 -0.150321 3.51573 0 0 0 84 76 50 255
-0.841623 -0.1397 3.51436 0 0 0 133 109 115 255
-0.933952 -0.138562 3.58231 0 0 0 75 79 85 255
-0.936199 -0.124196 3.58298 0 0 0 65 72 85 255
-0.974753 -0.104255 3.63241 0 0 0 121 126 125 255
-0.947649 -0.0915783 3.60409 0 0 0 74 77 86 255
-0.90903 -0.0826549 3.5622 0 0 0 63 89 75 255
-0.951175 -0.070763 3.60936 0 0 0 113 120 116 255
-0.562133 0.102365 3.63167 0 0 0 108 104 101 255
-0.616987 0.132759 3.70799 0 0 0 214 213 216 255
-0.90138 0.353459 3.58933 0 0 0 64 89 117 255
-0.897007 0.379577 3.58576 0 0 0 57 80 105 255
-0.0395495 0.4927 4.34997 0 0 0 91 92 92 255
-0.503619 0.454383 3.59698 0 0 0 101 95 115 255
-0.679035 0.452409 3.51659 0 0 0 105 92 50 255
-0.893014 0.472629 3.5993 0 0 0 79 106 131 255
-0.0393507 0.596183 4.28523 0 0 0 102 101 102 255
-0.682091 0.514328 3.51833 0 0 0 104 124 114 255
-0.84887 0.591113 3.56878 0 0 0 139 127 117 255
-0.831922 0.5905 3.5621 0 0 0 112 111 110 255
-0.910387 0.672034 3.61078 0 0 0 99 103 120 255
0.933015 0.725527 3.59407 0 0 0 150 143 128 255
-0.90734 0.730394 3.61477 0 0 0 119 136 167 255
-0.897787 0.802822 3.6114 0 0 0 141 143 156 255
0.988895 1.2565 5.56929 0 0 0 112 105 97 255
1.03678 1.22819 5.4376 0 0 0 133 129 121 255
0.869366 1.25714 5.53783 0 0 0 110 108 108 255
0.244159 0.969079 4.12631 0 0 0 100 103 104 255
0.936871 0.88373 3.64197 0 0 0 81 111 124 255
-0.863767 0.8765 3.5995 0 0 0 82 89 94 255
0.957594 0.910593 3.62076 0 0 0 58 68 78 255
0.273393 1.17792 4.12732 0 0 0 108 109 106 255
0.885042 1.08588 3.66852 0 0 0 102 111 113 255
-0.684998 1.05439 3.52324 0 0 0 57 107 142 255
-0.814418 1.10235 3.56349 0 0 0 104 105 127 255
-0.992996 -0.564053 3.60646 0 0 0 39 72 46 255
-0.870927 -0.319975 3.52046 0 0 0 146 148 147 255
-0.912206 -0.162038 3.55813 0 0 0 61 91 55 255
-0.953627 -0.16499 3.604 0 0 0 122 125 124 255
-0.506078 -0.126318 3.59384 0 0 0 160 143 99 255
-0.937134 -0.128958 3.58387 0 0 0 72 78 94 255
-0.952507 -0.0716578 3.61084 0 0 0 113 120 116 255
-0.90643 0.67841 3.60803 0 0 0 140 141 151 255
0.965193 0.752287 3.70128 0 0 0 139 139 130 255
-0.898241 0.788197 3.61173 0 0 0 152 153 153 255
-0.87756 0.822824 3.59987 0 0 0 115 120 132 255
0.936871 0.88373 3.64197 0 0 0 81 111 124 255
-0.919533 0.961171 3.64071 0 0 0 121 138 162 255
0.909122 1.13876 3.84376 0 0 0 54 48 51 255
-0.683395 1.06133 3.52181 0 0 0 101 144 171 255
-0.956458 -0.808083 3.5447 0 0 0 112 110 108 255
-0.582031 -0.736548 3.5336 0 0 0 90 55 60 255
-0.944659 -0.670907 3.54683 0 0 0 130 127 128 255
-0.964943 -0.663791 3.56068 0 0 0 136 129 131 255
-1.002 -0.563708 3.61829 0 0 0 52 80 56 255
-0.889915 -0.490286 3.52236 0 0 0 145 147 144 255
-0.873269 -0.320435 3.52109 0 0 0 146 148 147 255
-0.950126 -0.16179 3.60017 0 0 0 122 125 124 255
-0.469556 0.0941538 3.82156 0 0 0 117 115 116 255
-0.979905 0.351673 3.78566 0 0 0 24 56 93 255
0.342802 0.50599 4.1484 0 0 0 122 133 136 255
-0.88587 0.477333 3.59342 0 0 0 101 114 131 255
0.997202 0.680398 3.7301 0 0 0 129 128 127 255
-0.901202 0.780352 3.60884 0 0 0 151 153 152 255
1.02924 1.2321 5.48168 0 0 0 135 132 127 255
-0.891223 0.867698 3.6035 0 0 0 154 152 154 255
-0.867441 0.898301 3.5971 0 0 0 72 83 102 255
-0.469766 0.979857 3.65568 0 0 0 3 116 159 255
-0.682418 1.06191 3.52117 0 0 0 101 144 171 255
0.411078 1.3081 4.29288 0 0 0 116 122 124 255
-1.00313 -0.577735 3.61429 0 0 0 57 84 60 255
-0.888972 -0.507046 3.52135 0 0 0 146 147 144 255
-0.55092 -0.491913 3.55764 0 0 0 38 92 78 255
-0.935894 -0.340662 3.56436 0 0 0 137 140 141 255
0.146779 0.226217 4.24585 0 0 0 115 119 122 255
0.100557 0.535854 4.10424 0 0 0 91 85 82 255
-0.503586 0.697058 3.614 0 0 0 164 168 169 255
0.446338 0.908443 4.28293 0 0 0 166 173 171 255
0.855641 0.848632 3.90062 0 0 0 147 145 146 255
0.4655 1.03519 4.38403 0 0 0 163 165 163 255
-0.483288 0.94877 3.62466 0 0 0 132 157 175 255
-0.524383 0.990901 3.59007 0 0 0 133 164 185 255
-0.446252 1.05347 3.69404 0 0 0 146 157 167 255
-0.549162 1.03792 3.5875 0 0 0 1 109 155 255
-0.738217 1.06818 3.54349 0 0 0 24 89 136 255
0.411071 1.30718 4.29277 0 0 0 116 122 124 255
-0.894772 -0.514258 3.52368 0 0 0 143 146 145 255
-0.604937 -0.415772 3.50108 0 0 0 126 143 141 255
-0.867083 -0.343427 3.51778 0 0 0 146 151 150 255
-0.705654 -0.0822763 3.49158 0 0 0 60 100 60 255
-0.519584 -0.00040617 3.55665 0 0 0 52 100 72 255
-0.958941 0.0242876 3.65745 0 0 0 35 77 55 255
0.174633 0.236552 4.26987 0 0 0 147 148 148 255
0.03476 0.344253 4.35963 0 0 0 46 48 47 255
-0.97352 0.358544 3.7875 0 0 0 17 55 97 255
-0.460612 0.524988 3.64048 0 0 0 155 162 165 255
0.135789 0.707382 4.10041 0 0 0 52 46 46 255
-0.532003 0.654577 3.60954 0 0 0 165 167 169 255
-0.852591 0.656569 3.57914 0 0 0 26 59 103 255
-0.477721 0.674792 3.63244 0 0 0 32 64 113 255
-0.629492 0.66862 3.52908 0 0 0 163 168 169 255
-0.0127468 0.842389 4.35472 0 0 0 50 54 55 255
0.4604 0.89894 4.28892 0 0 0 177 180 178 255
-0.481271 0.825601 3.63761 0 0 0 166 171 169 255
0.98604 1.22582 5.46666 0 0 0 124 121 115 255
-0.922816 0.860794 3.62633 0 0 0 21 70 111 255
-0.694175 0.818351 3.53852 0 0 0 67 72 83 255
-0.803136 0.933329 3.55578 0 0 0 155 161 170 255
-0.974254 -0.212234 3.66779 0 0 0 51 87 46 255
0.265104 0.0895746 4.27592 0 0 0 57 50 50 255
0.00311882 0.306526 4.38618 0 0 0 154 157 153 255
0.0329335 0.367881 4.3585 0 0 0 42 45 44 255
0.314171 0.336468 4.28568 0 0 0 51 58 66 255
-0.011678 0.438417 4.35663 0 0 0 67 68 65 255
-0.976067 0.359469 3.79587 0 0 0 17 55 97 255
-0.444932 0.431782 3.72824 0 0 0 13 68 118 255
0.160859 0.55867 4.0942 0 0 0 134 130 136 255
-0.831095 0.565698 3.55869 0 0 0 150 145 131 255
-0.474084 0.659676 3.64485 0 0 0 24 68 115 255
-0.832929 0.702053 3.56572 0 0 0 156 160 159 255
-0.823204 0.701526 3.559 0 0 0 157 161 160 255
-0.770746 0.694406 3.53427 0 0 0 164 166 168 255
-0.932608 0.856504 3.63067 0 0 0 22 73 115 255
-0.0984074 1.21958 5.03645 0 0 0 174 177 174 255
-0.603929 0.881306 3.55424 0 0 0 165 173 174 255
1.6675 -1.82106 6.0884 0 0 0 50 56 67 255
2.11093 -1.7092 6.03572 0 0 0 77 74 77 255
1.71596 -1.68946 5.99102 0 0 0 114 113 114 255
1.69485 -1.66471 6.01242 0 0 0 107 107 107 255
2.09607 -1.61108 6.00671 0 0 0 56 51 55 255
-1.03666 -0.906037 3.69376 0 0 0 20 46 35 255
-0.658342 -0.83225 3.49621 0 0 0 118 130 126 255
-0.713142 -0.825761 3.47994 0 0 0 142 144 142 255
-1.03303 -0.881698 3.69839 0 0 0 16 43 24 255
2.11057 -1.48662 6.03743 0 0 0 71 67 68 255
-0.85202 -0.819872 3.49262 0 0 0 118 118 118 255
-0.692109 -0.813035 3.48405 0 0 0 118 132 126 255
-0.761386 -0.79943 3.47632 0 0 0 102 118 109 255
-0.741571 -0.796373 3.47768 0 0 0 126 140 138 255
-0.710669 -0.798573 3.47873 0 0 0 139 148 146 255
-0.671767 -0.801281 3.49272 0 0 0 126 139 137 255
-0.61484 -0.802987 3.50522 0 0 0 135 143 143 255
-0.658573 -0.795596 3.49365 0 0 0 133 140 144 255
-0.706566 -0.7568 3.48366 0 0 0 149 145 137 255
2.10532 -1.39162 6.02744 0 0 0 101 94 97 255
-0.865846 -0.753022 3.498 0 0 0 101 116 76 255
-0.94903 -0.734372 3.55313 0 0 0 120 129 114 255
-0.959831 -0.731614 3.55968 0 0 0 90 56 60 255
-0.895502 -0.707927 3.51564 0 0 0 160 78 84 255
-0.810323 -0.670124 3.48655 0 0 0 153 146 146 255
-0.955934 -0.673233 3.55691 0 0 0 102 74 79 255
-0.970432 -0.674539 3.56687 0 0 0 151 113 119 255
-0.985933 -0.668297 3.57881 0 0 0 136 123 123 255
-1.00409 -0.544077 3.62087 0 0 0 127 130 121 255
-0.92597 -0.032259 3.5749 0 0 0 19 53 28 255
0.178184 0.100711 4.27037 0 0 0 103 67 66 255
0.216896 0.166907 4.25827 0 0 0 71 80 82 255
2.11477 0.710125 6.07121 0 0 0 86 75 68 255
2.09952 0.797714 6.04667 0 0 0 97 84 79 255
-0.57118 0.432239 3.54662 0 0 0 118 105 82 255
-0.700574 0.495035 3.51516 0 0 0 20 80 125 255
-0.876116 0.503936 3.5865 0 0 0 100 107 121 255
-0.564387 0.506438 3.55561 0 0 0 122 151 166 255
1.07289 0.58205 3.60122 0 0 0 77 104 96 255
1.0408 0.589361 3.62739 0 0 0 111 111 111 255
1.01656 0.60488 3.65875 0 0 0 116 132 126 255
1.1116 0.5923 3.56387 0 0 0 110 126 109 255
1.09887 0.606825 3.55919 0 0 0 92 71 62 255
1.03718 0.627917 3.60231 0 0 0 124 123 114 255
1.07907 0.625482 3.54348 0 0 0 139 104 87 255
1.01828 0.638881 3.60986 0 0 0 93 103 86 255
1.08147 0.626568 3.54054 0 0 0 146 121 104 255
-0.642038 0.57769 3.52623 0 0 0 80 124 119 255
0.163081 0.711606 4.08631 0 0 0 73 70 66 255
1.0459 0.665779 3.53245 0 0 0 157 154 149 255
0.93337 0.680803 3.59921 0 0 0 86 72 66 255
1.07913 0.675164 3.52159 0 0 0 154 147 144 255
1.08398 0.686353 3.51515 0 0 0 95 78 83 255
-0.407721 0.679228 3.76827 0 0 0 23 74 116 255
0.911275 0.704492 3.61629 0 0 0 129 123 100 255
1.0488 0.742664 3.47817 0 0 0 126 118 120 255
1.06532 0.750333 3.44566 0 0 0 126 124 120 255
0.88863 0.770902 3.55034 0 0 0 139 127 104 255
0.937417 0.775114 3.51364 0 0 0 84 75 88 255
0.816106 1.16964 5.3896 0 0 0 136 128 122 255
0.941151 0.784274 3.50693 0 0 0 124 127 132 255
-0.809858 0.732406 3.556 0 0 0 155 159 164 255
0.465324 0.986441 4.35226 0 0 0 102 101 96 255
-0.921224 0.77286 3.63503 0 0 0 92 100 117 255
0.454782 0.999082 4.32329 0 0 0 157 166 166 255
0.959085 0.869125 3.48122 0 0 0 39 52 74 255
0.912031 0.89218 3.49717 0 0 0 49 49 53 255
0.955005 0.920749 3.48558 0 0 0 129 124 113 255
-0.794832 0.868243 3.55886 0 0 0 72 76 99 255
0.865031 0.966578 3.6324 0 0 0 61 83 101 255
-0.712199 0.867863 3.534 0 0 0 64 67 76 255
-0.646759 0.955056 3.53569 0 0 0 113 124 152 255
0.947555 1.094 3.48451 0 0 0 122 127 136 255
2.11029 -1.71207 6.03686 0 0 0 87 84 87 255
1.86138 -1.68643 6.02355 0 0 0 99 109 103 255
2.10188 -1.62127 6.02422 0 0 0 103 98 99 255
-0.658226 -0.819066 3.49598 0 0 0 149 149 151 255
-0.92391 -0.729432 3.53301 0 0 0 122 132 101 255
-0.98454 -0.51954 3.60937 0 0 0 39 75 67 255
-0.725531 -0.156888 3.48996 0 0 0 154 159 158 255
2.11359 0.720534 6.07351 0 0 0 80 66 69 255
0.0418521 0.603548 4.14443 0 0 0 103 106 105 255
1.06482 0.585359 3.60265 0 0 0 103 121 114 255
-0.647797 0.516037 3.52562 0 0 0 44 95 85 255
-0.521361 0.579584 3.58343 0 0 0 105 131 158 255
0.893116 0.776902 3.55521 0 0 0 130 128 100 255
-0.887893 0.772166 3.60551 0 0 0 150 154 152 255
0.946585 0.92344 3.48919 0 0 0 139 127 106 255
-0.712717 0.867324 3.5352 0 0 0 64 67 76 255
0.96091 1.09345 3.54594 0 0 0 125 129 132 255
2.09806 -1.6264 6.0106 0 0 0 54 48 54 255
-1.03184 -0.886022 3.69635 0 0 0 19 49 28 255
-0.849595 -0.816825 3.49102 0 0 0 140 140 141 255
2.11042 -1.47378 6.03835 0 0 0 70 65 67 255
2.09348 -1.39667 5.99996 0 0 0 61 51 55 255
-0.887144 -0.747524 3.50981 0 0 0 114 122 95 255
-0.965325 -0.721658 3.56389 0 0 0 94 43 46 255
-0.995077 -0.711609 3.59034 0 0 0 106 66 69 255
-0.896093 -0.548229 3.52394 0 0 0 143 146 141 255
-0.71077 -0.526969 3.49383 0 0 0 58 104 70 255
-0.920546 -0.0310778 3.56805 0 0 0 16 47 27 255
-0.997408 0.0302476 3.78478 0 0 0 54 83 73 255
0.217811 0.167518 4.25775 0 0 0 71 80 82 255
0.234258 0.226964 4.24268 0 0 0 156 158 160 255
-0.98968 0.336088 3.80822 0 0 0 56 77 97 255
0.409132 0.435898 4.23427 0 0 0 70 73 79 255
2.11268 0.72814 6.0717 0 0 0 82 68 71 255
2.08279 0.776239 6.01728 0 0 0 93 81 80 255
-0.686328 0.424706 3.51444 0 0 0 97 105 108 255
1.98096 0.80874 5.68858 0 0 0 161 159 155 255
-0.0427017 0.576598 4.31302 0 0 0 107 112 112 255
1.03029 0.594778 3.64067 0 0 0 119 127 123 255
1.06771 0.584794 3.5976 0 0 0 126 143 137 255
1.01956 0.604416 3.65091 0 0 0 117 125 119 255
1.11536 0.592205 3.55237 0 0 0 126 137 115 255
-0.552079 0.555887 3.56147 0 0 0 134 144 153 255
1.03562 0.626032 3.60902 0 0 0 105 114 103 255
1.04782 0.656197 3.54356 0 0 0 136 134 134 255
0.934809 0.728476 3.55909 0 0 0 105 50 57 255
-0.894444 0.679033 3.60412 0 0 0 149 153 152 255
0.933014 0.771778 3.50902 0 0 0 84 75 88 255
-0.907685 0.750406 3.61595 0 0 0 148 150 155 255
-0.805754 0.735952 3.55095 0 0 0 160 162 163 255
0.49867 0.999072 4.40992 0 0 0 107 103 100 255
0.868157 0.955403 3.62412 0 0 0 115 122 123 255
-0.682473 0.92362 3.52999 0 0 0 60 65 72 255
-0.561332 -0.557216 3.54746 0 0 0 129 155 146 255
-0.970712 -0.55336 3.58171 0 0 0 90 105 87 255
-0.752498 -0.392273 3.48318 0 0 0 156 160 158 255
-0.94024 -0.324635 3.5678 0 0 0 138 140 137 255
0.0257619 0.478723 4.14584 0 0 0 47 49 52 255
-0.425837 0.452326 3.78032 0 0 0 33 81 122 255
1.03337 0.59617 3.63408 0 0 0 116 120 116 255
-0.618759 0.707452 3.52382 0 0 0 165 171 171 255
0.899633 0.77917 3.53767 0 0 0 139 140 131 255
0.0648422 0.961817 4.16715 0 0 0 58 64 74 255
0.940596 0.871781 3.48556 0 0 0 88 68 66 255
-0.905273 0.825391 3.61552 0 0 0 31 72 113 255
-0.512403 0.856862 3.56614 0 0 0 167 167 167 255
-0.875429 0.910196 3.58472 0 0 0 107 106 109 255
-0.904862 0.950021 3.62135 0 0 0 156 158 159 255
-0.850887 -0.733203 3.495 0 0 0 144 134 127 255
-0.695151 -0.725668 3.48834 0 0 0 132 70 79 255
-0.525189 -0.706362 3.56305 0 0 0 163 156 155 255
-0.717632 -0.502072 3.49725 0 0 0 60 107 65 255
-0.652965 -0.184266 3.49907 0 0 0 159 149 103 255
-0.97996 0.00405649 3.75399 0 0 0 38 79 53 255
0.0323948 0.253538 4.36862 0 0 0 154 156 155 255
0.406157 0.428277 4.24376 0 0 0 74 77 78 255
0.306454 0.501293 4.12832 0 0 0 145 149 150 255
-0.652955 0.450158 3.51978 0 0 0 100 94 109 255
-0.87539 0.498946 3.58581 0 0 0 94 104 115 255
0.382843 0.821318 4.25052 0 0 0 40 48 49 255
0.445086 1.02609 4.25414 0 0 0 171 176 174 255
-0.905996 0.831716 3.61372 0 0 0 29 73 113 255
-0.472642 -0.0315908 3.76233 0 0 0 49 97 70 255
0.32599 0.357702 4.2588 0 0 0 46 51 56 255
0.0612068 0.562908 4.12544 0 0 0 121 126 127 255
0.186581 0.541561 4.09219 0 0 0 144 148 150 255
-0.0443141 0.820982 4.35291 0 0 0 69 70 71 255
2.12179 -1.85056 6.04618 0 0 0 64 64 63 255
-0.681385 -0.807395 3.49212 0 0 0 46 79 76 255
-0.965575 -0.785265 3.55405 0 0 0 86 101 88 255
-0.898755 -0.749575 3.51652 0 0 0 132 135 119 255
-0.896549 -0.736795 3.51697 0 0 0 75 47 48 255
-0.883146 -0.733709 3.51047 0 0 0 154 147 150 255
-0.833008 -0.710578 3.4909 0 0 0 152 152 152 255
-0.843845 -0.682383 3.49311 0 0 0 75 61 63 255
-0.993209 -0.692493 3.59078 0 0 0 88 33 33 255
-1.01072 -0.693898 3.60903 0 0 0 117 100 97 255
-0.995971 -0.675577 3.59332 0 0 0 124 97 97 255
-0.933979 -0.589998 3.54852 0 0 0 36 69 63 255
-0.933143 -0.576935 3.54803 0 0 0 24 63 52 255
-0.961792 -0.571759 3.56798 0 0 0 67 95 73 255
-0.912709 -0.534647 3.53393 0 0 0 107 120 113 255
-0.889531 -0.345652 3.53199 0 0 0 42 88 59 255
-0.659213 -0.142539 3.49594 0 0 0 111 92 43 255
0.0429891 0.484267 4.13917 0 0 0 50 60 68 255
1.30866 0.543049 3.67759 0 0 0 101 102 92 255
1.16702 0.575039 3.57554 0 0 0 90 116 109 255
1.20367 0.586158 3.55111 0 0 0 46 55 41 255
1.20602 0.615339 3.54402 0 0 0 160 163 164 255
-0.893814 0.592356 3.59778 0 0 0 110 110 120 255
1.12933 0.638721 3.52948 0 0 0 99 95 92 255
1.11934 0.655267 3.52641 0 0 0 133 137 138 255
1.14269 0.681991 3.51417 0 0 0 79 65 70 255
1.11989 0.698547 3.53044 0 0 0 99 86 94 255
0.950192 0.718095 3.54664 0 0 0 72 67 56 255
1.11903 0.718665 3.48385 0 0 0 163 162 165 255
1.17597 0.740879 3.47706 0 0 0 127 120 125 255
0.915344 0.778962 3.51492 0 0 0 141 139 138 255
1.20358 0.767009 3.43558 0 0 0 132 116 109 255
1.06499 0.78138 3.46636 0 0 0 100 90 88 255
1.1888 0.8025 3.43975 0 0 0 85 65 58 255
1.20391 0.800632 3.41817 0 0 0 160 155 159 255
1.06454 0.817093 3.41533 0 0 0 91 82 86 255
0.943179 0.833577 3.48653 0 0 0 77 73 75 255
0.958815 0.859103 3.49178 0 0 0 70 62 66 255
0.902257 0.870076 3.49188 0 0 0 56 57 68 255
-0.875921 0.850449 3.5953 0 0 0 70 88 105 255
0.950599 0.940057 3.49099 0 0 0 72 73 77 255
1.13753 0.937255 3.40953 0 0 0 108 83 82 255
1.10528 0.954886 3.37285 0 0 0 102 79 64 255
-0.850132 0.969621 3.58856 0 0 0 128 135 148 255
-0.490433 1.01703 3.6044 0 0 0 16 112 150 255
-0.419277 1.07729 3.72205 0 0 0 101 112 125 255
0.937813 1.14198 3.6697 0 0 0 118 118 118 255
0.963825 1.14815 3.59345 0 0 0 91 72 47 255
2.11962 -1.9441 6.04816 0 0 0 65 63 61 255
2.09896 -1.8457 6.02096 0 0 0 122 116 116 255
-1.06446 -0.92073 3.76453 0 0 0 83 95 89 255
-0.909811 -0.817249 3.52285 0 0 0 58 78 70 255
-0.700332 -0.805635 3.48194 0 0 0 112 116 114 255
-0.602152 -0.798187 3.51002 0 0 0 42 75 63 255
-0.962246 -0.68324 3.56228 0 0 0 98 42 46 255
0.277066 0.206477 4.28095 0 0 0 57 61 64 255
0.239901 0.473634 4.09644 0 0 0 43 51 59 255
0.0422057 0.48973 4.13994 0 0 0 94 97 101 255
0.961683 0.656576 3.63579 0 0 0 125 126 126 255
1.20569 0.65665 3.52245 0 0 0 158 162 165 255
1.16263 0.664259 3.52512 0 0 0 160 160 166 255
1.21033 0.669246 3.49929 0 0 0 106 123 116 255
0.947027 0.72366 3.54887 0 0 0 84 69 67 255
1.12709 0.720186 3.50766 0 0 0 147 148 155 255
1.18704 0.769744 3.46152 0 0 0 136 132 122 255
-0.886729 0.840886 3.59291 0 0 0 128 135 146 255
1.09115 0.961387 3.43804 0 0 0 85 85 86 255
-0.969283 1.07036 3.76126 0 0 0 148 150 150 255
2.09605 -1.86987 6.01576 0 0 0 117 114 115 255
