ply
format ascii 1.0
comment VCGLIB generated
element vertex 1015
property float x
property float y
property float z
property float nx
property float ny
property float nz
property uchar red
property uchar green
property uchar blue
property uchar alpha
element face 0
property list uchar int vertex_indices
end_header
0.048665 0.0972627 4.3386 0 0 0 106 107 108 255
0.25348 0.16863 4.29645 0 0 0 107 113 112 255
0.172575 0.392634 4.11345 0 0 0 85 87 83 255
0.3293 0.420368 4.19485 0 0 0 92 100 105 255
0.432569 0.460975 4.28616 0 0 0 72 73 75 255
0.407135 0.4879 4.27425 0 0 0 71 75 82 255
-0.66551 0.452365 3.51837 0 0 0 34 55 81 255
-0.912525 0.479455 3.63116 0 0 0 91 108 132 255
-0.439782 0.499269 3.68462 0 0 0 111 75 98 255
-0.501821 0.515589 3.59334 0 0 0 52 77 110 255
-0.435555 0.520636 3.67657 0 0 0 115 91 111 255
-0.638413 0.512793 3.52793 0 0 0 66 104 99 255
-0.541445 0.516753 3.56739 0 0 0 52 82 113 255
1.35395 0.571508 3.77852 0 0 0 104 103 88 255
-0.466699 0.538918 3.6303 0 0 0 112 111 116 255
-0.41549 0.547163 3.70913 0 0 0 31 70 110 255
-0.448127 0.544481 3.65367 0 0 0 112 120 128 255
-0.435161 0.557366 3.67565 0 0 0 123 113 118 255
-0.521244 0.561557 3.58158 0 0 0 36 74 122 255
-0.487883 0.572657 3.61021 0 0 0 130 131 138 255
-0.647812 0.566687 3.52479 0 0 0 73 99 91 255
-0.62797 0.568014 3.52887 0 0 0 72 104 102 255
-0.550253 0.57724 3.55973 0 0 0 36 87 128 255
-0.920248 0.593838 3.65086 0 0 0 91 103 131 255
1.32183 0.622576 3.51785 0 0 0 59 78 71 255
1.26015 0.649015 3.6511 0 0 0 92 128 124 255
1.34259 0.642356 3.51486 0 0 0 99 98 81 255
1.06124 0.656753 3.5684 0 0 0 139 120 124 255
-0.915739 0.651691 3.64355 0 0 0 111 123 144 255
1.18328 0.668433 3.52608 0 0 0 146 150 151 255
1.19161 0.682235 3.53185 0 0 0 77 91 84 255
1.15032 0.681605 3.49387 0 0 0 108 76 73 255
-0.414521 0.714473 3.70703 0 0 0 109 112 121 255
1.33461 0.695379 3.48874 0 0 0 30 49 43 255
-0.893278 0.705867 3.60918 0 0 0 111 107 119 255
-0.414171 0.7486 3.71123 0 0 0 85 95 108 255
1.1268 0.716873 3.46972 0 0 0 91 88 97 255
1.24561 0.731925 3.51926 0 0 0 119 93 91 255
-0.896367 0.741596 3.60379 0 0 0 102 115 129 255
1.14119 0.744281 3.44263 0 0 0 123 110 113 255
1.06766 0.762679 3.45756 0 0 0 155 149 151 255
-0.888711 0.783083 3.58885 0 0 0 103 104 107 255
1.38735 0.771968 3.39218 0 0 0 136 139 111 255
1.05842 0.786889 3.44449 0 0 0 118 110 113 255
1.03477 0.794779 3.44357 0 0 0 136 111 108 255
0.46826 1.08918 4.86494 0 0 0 155 151 147 255
1.16802 0.801662 3.38824 0 0 0 150 151 157 255
0.261956 0.951166 4.12665 0 0 0 94 96 97 255
0.209762 0.966486 4.10744 0 0 0 101 107 106 255
0.468546 1.11452 4.77564 0 0 0 112 112 112 255
0.838179 0.926302 3.85453 0 0 0 174 175 171 255
-0.488318 0.89541 3.60509 0 0 0 69 95 137 255
1.35537 0.874971 3.3131 0 0 0 96 102 111 255
-0.612729 0.936433 3.5434 0 0 0 116 132 170 255
1.05075 0.922265 3.3969 0 0 0 101 100 100 255
0.940473 0.948034 3.47746 0 0 0 90 90 92 255
-0.429047 1.02901 3.68165 0 0 0 28 76 121 255
1.26431 0.947896 3.30647 0 0 0 119 104 97 255
1.10586 0.966237 3.36926 0 0 0 95 84 81 255
0.269874 1.18094 4.12778 0 0 0 96 97 98 255
1.13804 1.01652 3.35434 0 0 0 135 132 116 255
1.2328 1.0026 3.3016 0 0 0 111 86 81 255
1.33903 1.00563 3.21927 0 0 0 114 112 111 255
1.2693 1.04143 3.26986 0 0 0 134 140 143 255
1.27162 1.08861 3.25444 0 0 0 125 129 135 255
-0.46073 1.21961 3.64439 0 0 0 118 123 145 255
-0.73746 1.21273 3.50486 0 0 0 37 87 124 255
-0.713344 1.22678 3.49866 0 0 0 80 103 141 255
-0.987485 -0.896753 3.55302 0 0 0 37 73 61 255
-0.756998 -0.804619 3.47397 0 0 0 77 92 84 255
-0.795059 -0.802173 3.47337 0 0 0 137 139 139 255
-0.768659 -0.731503 3.47678 0 0 0 112 42 50 255
-0.822732 -0.725636 3.48489 0 0 0 81 56 56 255
-0.846108 -0.721338 3.49094 0 0 0 156 141 140 255
-0.761281 -0.71393 3.4768 0 0 0 167 148 150 255
-0.894487 -0.723213 3.51182 0 0 0 68 54 52 255
-0.762818 -0.686438 3.4766 0 0 0 124 37 45 255
-0.914063 -0.697038 3.5211 0 0 0 146 130 132 255
-0.799864 -0.588604 3.47126 0 0 0 143 146 139 255
-0.758761 -0.544981 3.48261 0 0 0 151 151 151 255
-0.902853 -0.556283 3.53116 0 0 0 135 134 131 255
-0.459019 -0.347398 3.78009 0 0 0 137 138 81 255
-0.664799 -0.183011 3.49761 0 0 0 152 155 132 255
-0.869291 -0.171461 3.53125 0 0 0 130 134 118 255
-0.812769 -0.0865906 3.50469 0 0 0 57 96 62 255
-0.864608 -0.0745831 3.53454 0 0 0 132 124 125 255
-0.437833 -0.0743273 3.79106 0 0 0 133 134 86 255
0.0626236 0.0608886 4.33021 0 0 0 152 154 153 255
0.305731 0.2448 4.31491 0 0 0 100 102 104 255
-0.955293 0.342801 3.67164 0 0 0 40 57 77 255
0.32408 0.481817 4.13299 0 0 0 87 85 82 255
-0.667366 0.455417 3.51829 0 0 0 34 55 81 255
0.238042 0.517783 4.08785 0 0 0 120 122 122 255
-0.872419 0.480478 3.58426 0 0 0 97 119 139 255
-0.504118 0.478098 3.59256 0 0 0 79 106 139 255
0.238539 0.549996 4.08592 0 0 0 58 52 57 255
-0.694269 0.519039 3.5179 0 0 0 138 138 123 255
-0.415428 0.546216 3.71257 0 0 0 31 70 110 255
-0.494478 0.599118 3.61052 0 0 0 50 109 151 255
1.34819 0.646268 3.51756 0 0 0 91 104 95 255
-0.895156 0.653884 3.6142 0 0 0 126 134 138 255
1.33221 0.683366 3.4925 0 0 0 37 44 39 255
1.24092 0.73104 3.51138 0 0 0 120 89 88 255
1.3625 0.82381 3.36138 0 0 0 98 91 91 255
0.838862 0.926193 3.85443 0 0 0 166 167 163 255
-0.651807 1.06433 3.52891 0 0 0 31 97 139 255
-0.877728 -0.808088 3.48962 0 0 0 94 108 90 255
-0.75499 -0.72634 3.47625 0 0 0 167 144 144 255
-0.69898 -0.690505 3.48593 0 0 0 146 83 90 255
-0.821539 -0.68958 3.48584 0 0 0 117 34 34 255
-0.957323 -0.628911 3.55767 0 0 0 52 81 44 255
-0.801915 -0.581156 3.48555 0 0 0 154 154 151 255
-0.491847 -0.568363 3.60331 0 0 0 152 158 157 255
-0.957263 -0.584802 3.55668 0 0 0 59 81 73 255
-0.903439 -0.539053 3.52989 0 0 0 139 139 139 255
-0.926539 -0.533208 3.5424 0 0 0 36 64 53 255
-0.888885 -0.486928 3.5187 0 0 0 135 140 132 255
-0.748154 -0.410198 3.48561 0 0 0 158 158 158 255
-0.458839 -0.348444 3.78726 0 0 0 137 138 81 255
-0.888269 -0.321263 3.54522 0 0 0 137 140 126 255
-0.660531 -0.231162 3.49617 0 0 0 11 86 129 255
-0.609332 -0.188028 3.51573 0 0 0 10 70 118 255
-0.944733 -0.183932 3.60719 0 0 0 56 85 45 255
-0.511766 -0.158974 3.5848 0 0 0 164 141 61 255
-0.930068 -0.0635929 3.59227 0 0 0 42 80 53 255
0.257728 0.0780796 4.26487 0 0 0 48 44 45 255
0.261147 0.172476 4.30962 0 0 0 101 107 116 255
0.302837 0.244028 4.33292 0 0 0 100 102 104 255
0.134 0.404074 4.12197 0 0 0 125 122 114 255
-0.494337 0.487722 3.60354 0 0 0 99 140 166 255
-0.427559 0.495742 3.71678 0 0 0 86 122 150 255
0.254331 0.551862 4.09333 0 0 0 43 49 54 255
-0.860052 0.496823 3.57137 0 0 0 113 126 133 255
-0.41457 0.533625 3.73656 0 0 0 80 119 145 255
1.25843 0.66167 3.6628 0 0 0 118 146 146 255
0.24336 0.755614 4.09626 0 0 0 75 68 65 255
1.2032 0.682212 3.55331 0 0 0 62 96 84 255
-0.896373 0.713559 3.60713 0 0 0 62 64 81 255
-0.501246 0.711754 3.61292 0 0 0 165 168 167 255
1.24208 0.726811 3.52527 0 0 0 129 88 88 255
-0.629687 0.725247 3.53289 0 0 0 162 163 170 255
-0.460833 0.79035 3.64938 0 0 0 46 60 86 255
-0.420719 0.802053 3.69807 0 0 0 155 158 167 255
-0.898771 0.825689 3.60806 0 0 0 32 61 92 255
1.24122 0.81029 3.37106 0 0 0 141 142 146 255
-0.525787 0.860973 3.5672 0 0 0 167 171 169 255
-0.701833 0.862858 3.52737 0 0 0 47 70 107 255
0.827222 0.946986 3.82512 0 0 0 171 175 173 255
-0.803238 0.895269 3.55904 0 0 0 46 63 92 255
1.29156 0.897217 3.30702 0 0 0 74 64 68 255
0.42357 1.29771 4.36157 0 0 0 125 128 127 255
1.25506 1.02188 3.27535 0 0 0 92 111 121 255
1.29958 1.0959 3.25537 0 0 0 71 66 74 255
-0.797474 -0.81031 3.47904 0 0 0 146 149 147 255
-0.760552 -0.71236 3.47683 0 0 0 167 148 150 255
-0.546921 -0.508187 3.55595 0 0 0 35 85 74 255
-0.916554 -0.501177 3.53729 0 0 0 35 76 55 255
-0.615398 -0.423435 3.5092 0 0 0 161 162 166 255
-0.561296 -0.330947 3.54658 0 0 0 114 129 89 255
-0.459538 -0.351687 3.77957 0 0 0 137 138 81 255
-0.644288 -0.295909 3.50151 0 0 0 137 145 126 255
-0.938147 -0.198394 3.58745 0 0 0 50 81 50 255
-0.668355 -0.177062 3.49691 0 0 0 156 155 121 255
-0.439817 -0.0786797 3.79094 0 0 0 133 134 86 255
-0.949498 0.00555336 3.64788 0 0 0 26 54 40 255
0.156369 0.0775343 4.24906 0 0 0 52 56 70 255
0.138746 0.300698 4.23522 0 0 0 133 140 140 255
-0.936875 0.345789 3.64596 0 0 0 21 54 89 255
0.127037 0.418347 4.12328 0 0 0 140 119 104 255
0.0717788 0.499032 4.11541 0 0 0 49 59 63 255
0.418686 0.558166 4.35378 0 0 0 70 68 64 255
0.179509 0.555196 4.08954 0 0 0 143 147 149 255
-0.434151 0.500241 3.69473 0 0 0 117 90 107 255
0.232837 0.576111 4.08837 0 0 0 146 150 152 255
-0.83547 0.522233 3.55596 0 0 0 163 145 122 255
0.110946 0.604885 4.1024 0 0 0 126 125 126 255
-0.647786 0.535588 3.52506 0 0 0 41 101 92 255
-0.590755 0.554553 3.54042 0 0 0 112 152 172 255
-0.840453 0.572144 3.56675 0 0 0 161 131 97 255
1.14303 0.618857 3.56397 0 0 0 125 134 110 255
1.26021 0.663712 3.66512 0 0 0 125 149 149 255
-0.883835 0.723742 3.6001 0 0 0 46 58 84 255
-0.635614 0.726703 3.53101 0 0 0 142 138 162 255
1.25527 0.759998 3.48864 0 0 0 158 158 156 255
-0.724619 0.770069 3.52801 0 0 0 164 165 164 255
1.34382 0.8025 3.36176 0 0 0 155 147 149 255
1.38689 0.804651 3.37204 0 0 0 50 72 62 255
-0.703608 0.852087 3.5325 0 0 0 86 96 104 255
-0.731126 0.890674 3.53404 0 0 0 171 168 169 255
-0.613423 0.896127 3.54252 0 0 0 170 170 170 255
-0.511555 0.92099 3.58201 0 0 0 88 101 126 255
-0.432551 1.12144 3.6755 0 0 0 174 154 94 255
-0.782966 1.12501 3.50489 0 0 0 152 157 158 255
-0.843222 -0.723997 3.49052 0 0 0 146 145 136 255
-0.568725 -0.537532 3.54397 0 0 0 159 160 155 255
-0.504166 -0.522844 3.58506 0 0 0 156 161 159 255
-0.750226 -0.502602 3.50569 0 0 0 56 99 52 255
-0.601447 -0.492154 3.55964 0 0 0 159 161 162 255
-0.73489 -0.388961 3.48598 0 0 0 157 161 162 255
-0.866888 -0.340019 3.5288 0 0 0 147 148 147 255
-0.525203 -0.0104601 3.55629 0 0 0 42 100 68 255
-0.464356 -4.77007e-05 3.8491 0 0 0 88 117 107 255
0.292947 0.135806 4.31143 0 0 0 52 49 47 255
0.291695 0.174453 4.31265 0 0 0 65 69 73 255
0.103053 0.187732 4.27607 0 0 0 49 54 52 255
0.0146755 0.351768 4.3459 0 0 0 46 52 57 255
-0.454699 0.345775 3.85627 0 0 0 14 62 108 255
-0.542644 0.436127 3.5594 0 0 0 99 84 60 255
0.303832 0.545329 4.12114 0 0 0 148 148 152 255
0.0770205 0.578201 4.11578 0 0 0 59 65 64 255
-0.813196 0.524989 3.54961 0 0 0 159 142 91 255
-0.428402 0.534473 3.67984 0 0 0 158 134 144 255
1.24642 0.615912 3.60443 0 0 0 40 56 51 255
1.15488 0.622928 3.5399 0 0 0 139 144 149 255
1.34667 0.658864 3.5013 0 0 0 161 156 134 255
-0.47587 0.691744 3.61893 0 0 0 27 68 114 255
1.2631 0.695585 3.65694 0 0 0 134 152 151 255
-0.42222 0.715949 3.68271 0 0 0 156 158 158 255
-0.66992 0.72906 3.53033 0 0 0 31 69 117 255
0.351163 0.841924 4.22939 0 0 0 35 42 43 255
0.15929 0.914738 4.10638 0 0 0 128 128 128 255
0.282792 0.919506 4.13523 0 0 0 133 134 131 255
-0.898906 0.83483 3.61005 0 0 0 31 63 91 255
-0.50075 0.845948 3.60259 0 0 0 167 170 173 255
-0.616539 0.878543 3.54133 0 0 0 166 171 173 255
-0.779854 0.919261 3.5597 0 0 0 166 166 166 255
-0.46631 1.00817 3.66126 0 0 0 1 97 146 255
-0.644851 -0.258312 3.49789 0 0 0 125 141 113 255
-0.633035 -0.214829 3.50267 0 0 0 46 98 129 255
-0.522629 -0.14672 3.58014 0 0 0 167 133 44 255
-0.46018 -0.0209366 3.77294 0 0 0 45 96 67 255
0.0692476 0.118722 4.32844 0 0 0 83 51 48 255
0.26481 0.141301 4.28648 0 0 0 44 42 43 255
0.192701 0.291886 4.27346 0 0 0 177 178 178 255
-0.460834 0.34586 3.87382 0 0 0 13 62 109 255
-0.0407028 0.422909 4.33861 0 0 0 117 118 116 255
0.335241 0.347653 4.35727 0 0 0 47 53 58 255
0.302881 0.574172 4.12403 0 0 0 146 147 147 255
-0.458459 0.551502 3.64193 0 0 0 158 155 160 255
0.0120739 0.674296 4.24178 0 0 0 33 39 42 255
1.2544 0.624488 3.61689 0 0 0 43 63 59 255
-0.479458 0.688749 3.61697 0 0 0 34 64 115 255
1.24554 0.748116 3.49775 0 0 0 145 134 131 255
1.33292 0.743824 3.49625 0 0 0 45 86 73 255
-0.679023 0.797719 3.53023 0 0 0 42 66 112 255
0.258877 0.951862 4.12603 0 0 0 119 122 122 255
-2.73604 -1.57076 5.27558 0 0 0 81 80 77 255
-0.772163 -0.799222 3.45958 0 0 0 47 74 67 255
-0.788365 -0.735368 3.47903 0 0 0 139 145 120 255
-0.563139 -0.723018 3.54209 0 0 0 111 48 54 255
-0.863939 -0.688594 3.49978 0 0 0 166 132 136 255
-0.521956 -0.563829 3.56472 0 0 0 155 160 158 255
-0.888293 -0.464449 3.51014 0 0 0 126 144 126 255
-0.726569 -0.329364 3.4891 0 0 0 88 129 88 255
-0.943131 -0.301096 3.57759 0 0 0 109 122 110 255
-0.591209 -0.283347 3.52955 0 0 0 36 93 130 255
-0.621368 -0.186304 3.50877 0 0 0 13 71 115 255
-0.815379 -0.160733 3.50191 0 0 0 67 103 56 255
-0.842931 -0.126784 3.51631 0 0 0 137 82 100 255
-0.85507 -0.0959433 3.52568 0 0 0 133 116 121 255
-0.922523 -0.0804333 3.58005 0 0 0 54 88 66 255
-0.985202 -0.0622339 3.66643 0 0 0 96 110 105 255
0.158212 0.100727 4.25173 0 0 0 147 86 84 255
0.159256 0.105441 4.25119 0 0 0 138 94 88 255
-2.93229 0.315494 5.41768 0 0 0 79 89 88 255
-2.96723 0.375864 5.65664 0 0 0 93 95 94 255
-2.76388 0.374403 5.65516 0 0 0 41 43 44 255
-0.410285 0.317983 3.84098 0 0 0 98 104 111 255
-0.933039 0.385992 3.67206 0 0 0 58 81 107 255
-0.536431 0.421113 3.56741 0 0 0 32 46 70 255
-0.441987 0.48145 3.70023 0 0 0 92 135 172 255
-0.516071 0.482418 3.58177 0 0 0 14 74 127 255
-0.487847 0.554727 3.60851 0 0 0 159 164 164 255
-0.62493 0.587759 3.52889 0 0 0 117 132 139 255
0.166343 0.736096 4.09405 0 0 0 113 89 56 255
1.06921 0.675578 3.34818 0 0 0 98 91 96 255
-2.71303 1.24742 5.24995 0 0 0 111 111 106 255
0.891841 1.2549 5.76302 0 0 0 130 124 120 255
-0.790644 0.889362 3.55931 0 0 0 47 69 107 255
-2.52744 1.22698 4.76727 0 0 0 55 89 57 255
-2.57978 1.26898 4.97838 0 0 0 33 34 38 255
-0.594492 0.902735 3.55383 0 0 0 166 167 167 255
-2.54456 1.28603 4.8684 0 0 0 73 75 73 255
-2.45865 1.2442 4.61897 0 0 0 94 131 122 255
-0.897605 0.974103 3.61733 0 0 0 138 140 150 255
-0.669734 0.948334 3.53172 0 0 0 71 110 153 255
-2.3228 1.29334 4.56539 0 0 0 79 82 84 255
-2.74 -1.56522 5.25344 0 0 0 86 79 77 255
-0.522167 -0.563925 3.56461 0 0 0 155 160 158 255
-0.518187 -0.462707 3.57948 0 0 0 38 84 78 255
-0.939818 -0.316578 3.57111 0 0 0 121 136 126 255
-0.819359 -0.165799 3.50337 0 0 0 62 101 56 255
-0.95659 0.019208 3.62633 0 0 0 61 80 75 255
-2.93261 0.310488 5.41601 0 0 0 79 89 88 255
-0.459727 0.472668 3.6694 0 0 0 89 112 139 255
0.214132 0.513388 4.087 0 0 0 66 72 77 255
0.194218 0.527022 4.09 0 0 0 49 46 41 255
-0.471403 0.60261 3.63913 0 0 0 18 84 131 255
-0.901752 0.757495 3.60842 0 0 0 128 132 145 255
-0.892523 0.770482 3.59816 0 0 0 143 145 142 255
-0.408695 0.809674 3.74366 0 0 0 147 153 167 255
-2.71246 1.24759 5.2491 0 0 0 111 111 106 255
-2.52087 1.16107 4.76046 0 0 0 89 104 96 255
0.882814 1.2483 5.47628 0 0 0 124 121 116 255
-2.56495 1.27084 5.00198 0 0 0 116 116 119 255
-2.67291 -1.57832 5.33419 0 0 0 91 94 97 255
-2.74143 -1.54716 5.26108 0 0 0 88 88 88 255
-0.999125 -0.915444 3.59091 0 0 0 62 81 74 255
-0.930475 -0.799923 3.52976 0 0 0 105 109 108 255
-0.860752 -0.686957 3.49818 0 0 0 166 132 136 255
-0.934786 -0.521993 3.55108 0 0 0 34 71 56 255
-0.433073 0.332528 3.81008 0 0 0 45 64 89 255
-0.463322 0.475277 3.65829 0 0 0 95 125 147 255
-0.481697 0.469725 3.62443 0 0 0 6 75 127 255
-0.482981 0.538874 3.61324 0 0 0 132 138 145 255
-0.895441 0.665701 3.60964 0 0 0 147 148 146 255
-0.445492 0.711869 3.64999 0 0 0 161 164 166 255
-2.73283 1.12528 5.31124 0 0 0 45 45 44 255
-0.477351 0.766002 3.63675 0 0 0 166 169 170 255
-0.405773 0.794182 3.74391 0 0 0 148 150 152 255
-2.69444 1.17296 5.27954 0 0 0 118 116 110 255
-2.55886 1.24548 5.14993 0 0 0 54 52 53 255
1.03951 0.75634 3.21605 0 0 0 146 149 158 255
-2.55481 1.29462 4.94338 0 0 0 115 118 119 255
-0.686236 -0.39339 3.49562 0 0 0 157 162 160 255
-0.607483 -0.248223 3.51628 0 0 0 16 91 135 255
-0.481288 0.838134 3.63529 0 0 0 166 170 170 255
-0.519735 0.853674 3.57309 0 0 0 169 173 172 255
-0.730692 0.904403 3.533 0 0 0 167 169 168 255
-2.55872 1.28899 4.94113 0 0 0 96 99 99 255
-0.70412 -0.568147 3.49522 0 0 0 158 161 160 255
-0.508161 -0.538656 3.58006 0 0 0 156 161 159 255
-0.729825 -0.516017 3.48808 0 0 0 51 99 58 255
-0.599371 -0.43994 3.5113 0 0 0 160 162 161 255
-0.853097 -0.355165 3.50181 0 0 0 147 149 148 255
-0.943512 -0.213102 3.59187 0 0 0 54 86 46 255
-0.606794 -0.20457 3.51705 0 0 0 19 75 113 255
0.283287 0.100841 4.29374 0 0 0 102 58 56 255
0.0745632 0.144937 4.32367 0 0 0 42 44 46 255
0.185414 0.228512 4.26414 0 0 0 151 151 151 255
0.180927 0.302137 4.26736 0 0 0 163 165 167 255
-0.434074 0.341156 3.82205 0 0 0 22 64 109 255
-0.939211 0.359808 3.67086 0 0 0 39 71 102 255
0.407072 0.411256 4.28534 0 0 0 94 84 76 255
-0.664396 0.438005 3.51853 0 0 0 130 122 91 255
-0.451688 0.483438 3.6755 0 0 0 94 128 153 255
0.0647441 0.515662 4.11779 0 0 0 111 117 118 255
0.281916 0.542614 4.10638 0 0 0 41 47 52 255
0.324704 0.546571 4.13036 0 0 0 140 144 147 255
-0.819401 0.680375 3.55069 0 0 0 157 159 160 255
-0.722061 0.686845 3.52581 0 0 0 164 169 167 255
-0.612642 0.652813 3.52763 0 0 0 165 168 167 255
0.384208 0.839821 4.25452 0 0 0 40 49 48 255
0.0280718 0.842546 4.19379 0 0 0 40 42 41 255
0.929096 0.737255 3.51536 0 0 0 115 49 48 255
-0.492763 0.847008 3.61669 0 0 0 165 170 172 255
-0.709705 -0.40711 3.49262 0 0 0 158 161 161 255
-0.731568 -0.357749 3.4865 0 0 0 65 86 82 255
-0.933202 -0.0108717 3.63074 0 0 0 42 67 50 255
0.0400646 0.143968 4.34309 0 0 0 152 152 152 255
-0.0252929 0.356572 4.34836 0 0 0 154 155 152 255
-0.942696 0.426601 3.67874 0 0 0 17 56 94 255
0.142915 0.555915 4.09439 0 0 0 143 140 143 255
-0.782216 0.536502 3.53292 0 0 0 157 149 98 255
1.06157 0.579141 3.8139 0 0 0 133 133 127 255
-0.78701 0.696435 3.54008 0 0 0 160 162 161 255
-0.45643 0.720385 3.62979 0 0 0 26 64 109 255
-0.679648 0.742567 3.53131 0 0 0 34 65 112 255
-0.426346 0.910586 3.81082 0 0 0 14 79 128 255
0.20394 0.886897 4.15115 0 0 0 120 95 63 255
0.234075 0.919319 4.11622 0 0 0 133 135 134 255
-0.871976 -0.793518 3.49631 0 0 0 56 66 63 255
-0.973336 -0.798422 3.57754 0 0 0 98 111 100 255
-0.68396 -0.744405 3.49222 0 0 0 144 71 76 255
-0.872585 -0.730552 3.50276 0 0 0 122 115 118 255
-0.981292 -0.692758 3.57372 0 0 0 75 43 40 255
-0.937111 -0.679158 3.54465 0 0 0 104 54 62 255
-0.935742 -0.561205 3.54937 0 0 0 113 124 120 255
-2.88492 0.291474 5.26079 0 0 0 91 92 92 255
-2.84799 0.335183 5.18994 0 0 0 88 81 84 255
0.203075 0.396569 4.11286 0 0 0 137 118 86 255
0.4036 0.502237 4.19204 0 0 0 75 86 89 255
-0.515407 0.44729 3.58265 0 0 0 61 47 48 255
-0.874624 0.659158 3.60169 0 0 0 28 65 105 255
0.196292 0.717159 4.0971 0 0 0 94 86 69 255
-2.62445 1.00712 4.76021 0 0 0 26 41 38 255
0.221634 0.743458 4.09855 0 0 0 123 93 56 255
-2.62949 1.03501 4.7794 0 0 0 33 44 45 255
-2.62515 1.10699 4.78363 0 0 0 93 124 116 255
-2.68439 1.29056 5.17646 0 0 0 113 115 116 255
0.830602 1.22731 5.65124 0 0 0 126 119 112 255
-2.59923 1.235 4.92847 0 0 0 90 108 103 255
0.956546 0.725916 3.53853 0 0 0 81 69 64 255
0.710173 1.28753 5.69156 0 0 0 131 125 123 255
0.463423 1.00729 4.45691 0 0 0 96 90 83 255
0.513737 1.05114 4.65524 0 0 0 110 108 102 255
0.872959 0.871292 4.01847 0 0 0 173 173 170 255
0.330308 0.947493 4.16958 0 0 0 79 85 90 255
0.29171 0.94936 4.138 0 0 0 93 95 98 255
0.157663 0.959175 4.12331 0 0 0 80 87 84 255
0.241157 0.947688 4.12421 0 0 0 103 107 107 255
0.29284 0.957578 4.14227 0 0 0 88 90 92 255
0.859021 0.889403 3.97077 0 0 0 168 168 168 255
0.934104 0.796686 3.53512 0 0 0 142 136 134 255
-0.522043 0.936446 3.58183 0 0 0 66 102 137 255
-2.87931 0.289971 5.24867 0 0 0 91 92 92 255
-2.92134 0.306251 5.35466 0 0 0 94 93 91 255
0.0282213 0.600324 4.1471 0 0 0 106 110 109 255
-0.572904 0.583889 3.54929 0 0 0 94 141 164 255
0.203477 0.72093 4.0978 0 0 0 102 87 63 255
-2.61736 0.988169 4.76675 0 0 0 123 142 138 255
-2.6272 1.01405 4.7628 0 0 0 22 37 35 255
-2.63381 1.05258 4.76207 0 0 0 106 113 113 255
-2.62622 1.07142 4.81888 0 0 0 126 133 132 255
0.942824 0.732979 3.54644 0 0 0 97 51 50 255
0.874861 0.869995 4.03226 0 0 0 177 175 171 255
0.715953 1.30041 5.71424 0 0 0 115 110 100 255
0.455214 1.01269 4.42635 0 0 0 145 148 147 255
0.897275 0.785624 3.55103 0 0 0 121 123 110 255
-0.902837 0.966177 3.62322 0 0 0 152 151 154 255
-1.01505 -0.793721 3.65627 0 0 0 50 77 51 255
-2.92597 0.317136 5.33038 0 0 0 90 88 85 255
-3.06175 0.388887 5.75799 0 0 0 101 101 99 255
0.309006 0.257086 4.28119 0 0 0 104 102 105 255
0.233166 0.437088 4.10907 0 0 0 79 62 57 255
-2.59386 0.732994 4.84428 0 0 0 149 153 152 255
0.251054 0.525851 4.09222 0 0 0 52 44 41 255
0.0284689 0.599013 4.14705 0 0 0 106 110 109 255
0.337286 0.596475 4.14664 0 0 0 35 42 48 255
-0.605245 0.563282 3.53607 0 0 0 146 163 170 255
-0.886313 0.582779 3.59875 0 0 0 134 104 98 255
-2.65529 0.910549 4.95395 0 0 0 88 107 95 255
-0.891628 0.636267 3.60653 0 0 0 97 110 128 255
-2.61652 0.993618 4.77742 0 0 0 139 139 139 255
-0.56021 0.757395 3.56201 0 0 0 76 96 124 255
-0.662323 0.80113 3.52778 0 0 0 168 170 169 255
0.882739 0.865893 4.07697 0 0 0 174 175 170 255
1.02361 1.25576 5.65558 0 0 0 126 117 107 255
0.517392 1.05104 4.6756 0 0 0 149 147 142 255
0.730617 1.30393 5.7328 0 0 0 112 105 103 255
-2.37376 1.21798 4.48386 0 0 0 136 135 138 255
0.901512 0.784329 3.53266 0 0 0 136 133 127 255
-0.723907 -0.587222 3.48192 0 0 0 157 162 160 255
-0.806244 -0.567128 3.48657 0 0 0 155 156 153 255
-0.94419 -0.0389367 3.59682 0 0 0 23 51 30 255
0.0585169 0.192042 4.33785 0 0 0 70 68 69 255
0.283995 0.241373 4.2808 0 0 0 101 104 104 255
-2.53712 0.367888 4.68331 0 0 0 88 89 89 255
0.139864 0.285004 4.23618 0 0 0 140 142 142 255
0.172521 0.545795 4.09048 0 0 0 143 147 149 255
-0.862705 0.576331 3.58199 0 0 0 153 129 108 255
0.236435 0.687454 4.09457 0 0 0 113 91 69 255
-0.506793 0.666813 3.60757 0 0 0 165 170 168 255
-0.638913 0.707792 3.53129 0 0 0 74 100 142 255
-0.713008 0.758623 3.52975 0 0 0 167 169 168 255
0.740002 1.30719 5.73032 0 0 0 108 102 99 255
1.01995 1.26273 5.66467 0 0 0 129 121 115 255
-1.04795 -0.906931 3.72945 0 0 0 27 53 37 255
-0.965275 -0.592549 3.56246 0 0 0 47 82 47 255
-0.709339 -0.581338 3.49716 0 0 0 159 162 162 255
-0.506364 -0.503726 3.58353 0 0 0 155 159 158 255
-0.695196 -0.0793956 3.4922 0 0 0 58 106 65 255
-2.94963 0.407822 5.95483 0 0 0 31 34 34 255
0.162409 0.244425 4.26182 0 0 0 114 116 115 255
0.18906 0.263132 4.26972 0 0 0 123 128 131 255
-0.827169 0.554275 3.55824 0 0 0 156 150 133 255
-0.709922 0.569333 3.51882 0 0 0 117 132 105 255
-0.516024 0.655648 3.59798 0 0 0 162 170 167 255
-0.923373 0.692721 3.62753 0 0 0 22 55 93 255
-1.00041 -0.785641 3.62647 0 0 0 43 70 43 255
-0.946982 0.00935646 3.67294 0 0 0 42 79 59 255
0.00475749 0.370877 4.34472 0 0 0 49 50 50 255
-0.881426 0.342944 3.58755 0 0 0 30 62 98 255
-0.961374 -0.811737 3.54926 0 0 0 96 106 98 255
-0.935149 -0.785464 3.53434 0 0 0 99 102 101 255
-0.826047 -0.74039 3.48657 0 0 0 88 52 48 255
-0.812089 -0.738775 3.48396 0 0 0 150 116 116 255
-0.90611 -0.719499 3.51984 0 0 0 84 37 38 255
-0.67758 -0.70435 3.49007 0 0 0 119 56 61 255
-0.939053 -0.721112 3.54258 0 0 0 83 64 62 255
-0.994435 -0.73022 3.5876 0 0 0 86 49 48 255
-0.944871 -0.700632 3.54695 0 0 0 144 98 105 255
-0.892368 -0.689713 3.51211 0 0 0 150 113 114 255
-0.973219 -0.703776 3.56774 0 0 0 143 89 97 255
-0.96383 -0.561216 3.56956 0 0 0 81 93 81 255
-0.876703 -0.497141 3.51768 0 0 0 145 147 146 255
-0.896124 -0.466799 3.5241 0 0 0 128 137 131 255
-0.890733 -0.33585 3.5328 0 0 0 108 121 99 255
-0.550735 -0.160349 3.55184 0 0 0 124 104 27 255
-0.531746 -0.161381 3.57302 0 0 0 132 117 43 255
-0.953297 -0.170841 3.60239 0 0 0 116 124 114 255
-0.910396 -0.159625 3.55661 0 0 0 61 92 51 255
-0.614989 -0.150279 3.51562 0 0 0 84 76 50 255
-0.841756 -0.139435 3.51606 0 0 0 133 109 115 255
-0.934128 -0.138524 3.58287 0 0 0 75 79 85 255
-0.936365 -0.124155 3.58357 0 0 0 65 72 85 255
-0.974897 -0.104188 3.63292 0 0 0 121 126 125 255
-0.947802 -0.0915233 3.60461 0 0 0 74 77 86 255
-0.909194 -0.0826195 3.56277 0 0 0 63 89 75 255
-0.951314 -0.0707029 3.60991 0 0 0 113 120 116 255
-0.562176 0.102352 3.63177 0 0 0 108 104 101 255
-0.616986 0.132778 3.70809 0 0 0 214 213 216 255
-0.901419 0.353548 3.58962 0 0 0 64 89 117 255
-0.89704 0.379665 3.58603 0 0 0 57 80 105 255
-0.0392656 0.492631 4.34853 0 0 0 91 92 92 255
-0.503477 0.454294 3.5951 0 0 0 101 95 115 255
-0.678933 0.452473 3.517 0 0 0 105 92 50 255
-0.893015 0.472721 3.59951 0 0 0 79 106 131 255
-0.039036 0.596102 4.28391 0 0 0 102 101 102 255
-0.681807 0.514668 3.51883 0 0 0 104 124 114 255
-0.848856 0.591191 3.56892 0 0 0 139 127 117 255
-0.831941 0.590537 3.56196 0 0 0 112 111 110 255
-0.910336 0.672135 3.61087 0 0 0 99 103 120 255
0.9325 0.724918 3.59174 0 0 0 150 143 128 255
-0.907272 0.730493 3.61482 0 0 0 119 136 167 255
-0.897705 0.80292 3.61139 0 0 0 141 143 156 255
0.988578 1.2553 5.56287 0 0 0 112 105 97 255
1.03651 1.22715 5.43185 0 0 0 133 129 121 255
0.869035 1.25579 5.53099 0 0 0 110 108 108 255
0.244315 0.968735 4.12443 0 0 0 100 103 104 255
0.936401 0.883136 3.63954 0 0 0 81 111 124 255
-0.863676 0.876565 3.59941 0 0 0 82 89 94 255
0.957095 0.909972 3.61829 0 0 0 58 68 78 255
0.273537 1.17746 4.12521 0 0 0 108 109 106 255
0.88462 1.08516 3.666 0 0 0 102 111 113 255
-0.684937 1.05443 3.5233 0 0 0 57 107 142 255
-0.814284 1.10237 3.56338 0 0 0 104 105 127 255
-0.993274 -0.564071 3.60731 0 0 0 39 72 46 255
-0.871171 -0.320006 3.52114 0 0 0 146 148 147 255
-0.912402 -0.162016 3.55864 0 0 0 61 91 55 255
-0.953801 -0.164944 3.60456 0 0 0 122 125 124 255
-0.506177 -0.126372 3.59414 0 0 0 160 143 99 255
-0.937301 -0.128918 3.58447 0 0 0 72 78 94 255
-0.952645 -0.0715972 3.61138 0 0 0 113 120 116 255
-0.906378 0.678509 3.60812 0 0 0 140 141 151 255
0.964752 0.751772 3.69891 0 0 0 139 139 130 255
-0.898157 0.788277 3.61173 0 0 0 152 153 153 255
-0.877477 0.822907 3.59984 0 0 0 115 120 132 255
0.936401 0.883136 3.63954 0 0 0 81 111 124 255
-0.919398 0.96125 3.64058 0 0 0 121 138 162 255
0.908568 1.13787 3.84056 0 0 0 54 48 51 255
-0.683333 1.06137 3.52187 0 0 0 101 144 171 255
-0.956829 -0.808203 3.54569 0 0 0 112 110 108 255
-0.5823 -0.736755 3.53431 0 0 0 90 55 60 255
-0.944991 -0.67099 3.54775 0 0 0 130 127 128 255
-0.96527 -0.66386 3.56159 0 0 0 136 129 131 255
-1.00228 -0.563717 3.61913 0 0 0 52 80 56 255
-0.890205 -0.49035 3.52313 0 0 0 145 147 144 255
-0.873513 -0.320466 3.52177 0 0 0 146 148 147 255
-0.9503 -0.161746 3.60073 0 0 0 122 125 124 255
-0.469488 0.0941582 3.82151 0 0 0 117 115 116 255
-0.979835 0.351804 3.78581 0 0 0 24 56 93 255
0.342892 0.505779 4.14672 0 0 0 122 133 136 255
-0.885875 0.477419 3.59361 0 0 0 101 114 131 255
0.996763 0.679919 3.72775 0 0 0 129 128 127 255
-0.901129 0.780432 3.60883 0 0 0 151 153 152 255
1.02899 1.23105 5.47586 0 0 0 135 132 127 255
-0.891128 0.867763 3.6035 0 0 0 154 152 154 255
-0.867339 0.898369 3.59704 0 0 0 72 83 102 255
-0.469624 0.979789 3.65513 0 0 0 3 116 159 255
-0.682294 1.06182 3.52069 0 0 0 101 144 171 255
0.411177 1.30748 4.29017 0 0 0 116 122 124 255
-1.00338 -0.577762 3.61496 0 0 0 57 84 60 255
-0.889262 -0.507121 3.52216 0 0 0 146 147 144 255
-0.551117 -0.492047 3.55826 0 0 0 38 92 78 255
-0.936131 -0.340664 3.56504 0 0 0 137 140 141 255
0.146974 0.226137 4.24459 0 0 0 115 119 122 255
0.100729 0.53571 4.10292 0 0 0 91 85 82 255
-0.503519 0.697034 3.61368 0 0 0 164 168 169 255
0.446387 0.907976 4.28039 0 0 0 166 173 171 255
0.855332 0.848062 3.89813 0 0 0 147 145 146 255
0.465472 1.03449 4.38073 0 0 0 163 165 163 255
-0.483146 0.948739 3.62435 0 0 0 132 157 175 255
-0.524269 0.990854 3.58963 0 0 0 133 164 185 255
-0.446078 1.05338 3.69338 0 0 0 146 157 167 255
-0.549039 1.03788 3.58705 0 0 0 1 109 155 255
-0.738081 1.06809 3.54299 0 0 0 24 89 136 255
0.41117 1.30655 4.29007 0 0 0 116 122 124 255
-0.895063 -0.514333 3.5245 0 0 0 143 146 145 255
-0.605152 -0.415903 3.50167 0 0 0 126 143 141 255
-0.867333 -0.343464 3.51847 0 0 0 146 151 150 255
-0.706041 -0.0825096 3.49112 0 0 0 60 100 60 255
-0.519956 -0.000643003 3.55546 0 0 0 52 100 72 255
-0.959027 0.0243638 3.65786 0 0 0 35 77 55 255
0.174784 0.236468 4.26843 0 0 0 147 148 148 255
0.0350308 0.344207 4.35826 0 0 0 46 48 47 255
-0.973441 0.358677 3.7877 0 0 0 17 55 97 255
-0.460442 0.525389 3.63863 0 0 0 155 162 165 255
0.136018 0.707829 4.09849 0 0 0 52 46 46 255
-0.531943 0.654567 3.60929 0 0 0 165 167 169 255
-0.852556 0.656648 3.57922 0 0 0 26 59 103 255
-0.477617 0.674781 3.63221 0 0 0 32 64 113 255
-0.629104 0.669483 3.53056 0 0 0 163 168 169 255
-0.012429 0.842113 4.35286 0 0 0 50 54 55 255
0.460381 0.898397 4.28606 0 0 0 177 180 178 255
-0.481166 0.825561 3.6372 0 0 0 166 171 169 255
0.985848 1.22481 5.46098 0 0 0 124 121 115 255
-0.922639 0.860746 3.62585 0 0 0 21 70 111 255
-0.694124 0.818367 3.53836 0 0 0 67 72 83 255
-0.803054 0.933375 3.55566 0 0 0 155 161 170 255
-0.974395 -0.212176 3.66839 0 0 0 51 87 46 255
0.265248 0.0894904 4.27455 0 0 0 57 50 50 255
0.00341535 0.306492 4.38487 0 0 0 154 157 153 255
0.0332065 0.367831 4.35712 0 0 0 42 45 44 255
0.314315 0.336324 4.28404 0 0 0 51 58 66 255
-0.0113804 0.438358 4.35528 0 0 0 67 68 65 255
-0.975991 0.359615 3.79604 0 0 0 17 55 97 255
-0.444848 0.431778 3.72804 0 0 0 13 68 118 255
0.160683 0.558284 4.09321 0 0 0 134 130 136 255
-0.830925 0.565883 3.56051 0 0 0 150 145 131 255
-0.474006 0.659646 3.64448 0 0 0 24 68 115 255
-0.832857 0.702335 3.56613 0 0 0 156 160 159 255
-0.823085 0.701814 3.55988 0 0 0 157 161 160 255
-0.770778 0.694616 3.5336 0 0 0 164 166 168 255
-0.932413 0.856442 3.63007 0 0 0 22 73 115 255
-0.0977861 1.21885 5.03253 0 0 0 174 177 174 255
-0.603854 0.881298 3.55397 0 0 0 165 173 174 255
1.66715 -1.82013 6.08414 0 0 0 50 56 67 255
2.11004 -1.70832 6.03064 0 0 0 77 74 77 255
1.71554 -1.68862 5.98672 0 0 0 114 113 114 255
1.69445 -1.66387 6.00809 0 0 0 107 107 107 255
2.0952 -1.61025 6.00162 0 0 0 56 51 55 255
-1.03698 -0.906111 3.69476 0 0 0 20 46 35 255
-0.658679 -0.832476 3.49703 0 0 0 118 130 126 255
-0.7135 -0.825978 3.48081 0 0 0 142 144 142 255
-1.03333 -0.881769 3.69934 0 0 0 16 43 24 255
2.10961 -1.48582 6.03207 0 0 0 71 67 68 255
-0.852401 -0.820042 3.49359 0 0 0 118 118 118 255
-0.692457 -0.813252 3.48489 0 0 0 118 132 126 255
-0.76175 -0.799627 3.47722 0 0 0 102 118 109 255
-0.741929 -0.796573 3.47856 0 0 0 126 140 138 255
-0.71102 -0.798783 3.47959 0 0 0 139 148 146 255
-0.672102 -0.801495 3.49353 0 0 0 126 139 137 255
-0.615156 -0.803211 3.50599 0 0 0 135 143 143 255
-0.658904 -0.795811 3.49445 0 0 0 133 140 144 255
-0.706904 -0.756996 3.48449 0 0 0 149 145 137 255
2.10439 -1.39085 6.02203 0 0 0 101 94 97 255
-0.866211 -0.753166 3.49894 0 0 0 101 116 76 255
-0.949374 -0.734461 3.55409 0 0 0 120 129 114 255
-0.960173 -0.731697 3.56064 0 0 0 90 56 60 255
-0.895852 -0.708042 3.51657 0 0 0 160 78 84 255
-0.810662 -0.670265 3.4874 0 0 0 153 146 146 255
-0.956262 -0.673302 3.55784 0 0 0 102 74 79 255
-0.970757 -0.674601 3.56781 0 0 0 151 113 119 255
-0.986252 -0.668347 3.57974 0 0 0 136 123 123 255
-1.00435 -0.544088 3.62171 0 0 0 127 130 121 255
-0.926113 -0.0322064 3.57545 0 0 0 19 53 28 255
0.17834 0.10067 4.26908 0 0 0 103 67 66 255
0.217049 0.166839 4.2569 0 0 0 71 80 82 255
2.11345 0.709398 6.06351 0 0 0 86 75 68 255
2.09824 0.796923 6.03902 0 0 0 97 84 79 255
-0.570946 0.432551 3.54687 0 0 0 118 105 82 255
-0.70058 0.495065 3.5157 0 0 0 20 80 125 255
-0.876114 0.504022 3.58669 0 0 0 100 107 121 255
-0.564459 0.506761 3.55457 0 0 0 122 151 166 255
1.07232 0.581433 3.59883 0 0 0 77 104 96 255
1.04026 0.588762 3.62503 0 0 0 111 111 111 255
1.01606 0.604295 3.65641 0 0 0 116 132 126 255
1.11099 0.591661 3.56146 0 0 0 110 126 109 255
1.09827 0.606185 3.5568 0 0 0 92 71 62 255
1.03659 0.627289 3.59986 0 0 0 124 123 114 255
1.07841 0.624825 3.54099 0 0 0 139 104 87 255
1.01776 0.638272 3.60752 0 0 0 93 103 86 255
1.0808 0.625909 3.53805 0 0 0 146 121 104 255
-0.641853 0.577454 3.52598 0 0 0 80 124 119 255
0.163258 0.7114 4.08483 0 0 0 73 70 66 255
1.04525 0.665114 3.52996 0 0 0 157 154 149 255
0.932912 0.680216 3.59698 0 0 0 86 72 66 255
1.07848 0.674496 3.51911 0 0 0 154 147 144 255
1.08331 0.685677 3.51266 0 0 0 95 78 83 255
-0.407574 0.679192 3.76781 0 0 0 23 74 116 255
0.910836 0.7039 3.61407 0 0 0 129 123 100 255
1.04815 0.741973 3.47571 0 0 0 126 118 120 255
1.06463 0.749624 3.44318 0 0 0 126 124 120 255
0.888186 0.770298 3.54815 0 0 0 139 127 104 255
0.936876 0.774468 3.51131 0 0 0 84 75 88 255
0.816342 1.16892 5.38516 0 0 0 136 128 122 255
0.940603 0.783621 3.50459 0 0 0 124 127 132 255
-0.809877 0.733091 3.55821 0 0 0 155 159 164 255
0.465525 0.986041 4.35006 0 0 0 102 101 96 255
-0.921129 0.77297 3.63507 0 0 0 92 100 117 255
0.454949 0.998649 4.32101 0 0 0 157 166 166 255
0.958589 0.868454 3.47896 0 0 0 39 52 74 255
0.911566 0.891536 3.49494 0 0 0 49 49 53 255
0.954506 0.920062 3.48328 0 0 0 129 124 113 255
-0.794755 0.8683 3.55881 0 0 0 72 76 99 255
0.864652 0.96594 3.63009 0 0 0 61 83 101 255
-0.712127 0.867908 3.534 0 0 0 64 67 76 255
-0.646554 0.955952 3.53873 0 0 0 113 124 152 255
0.947073 1.09326 3.48215 0 0 0 122 127 136 255
2.1094 -1.7112 6.03178 0 0 0 87 84 87 255
1.8608 -1.68557 6.01894 0 0 0 99 109 103 255
2.10126 -1.62053 6.01957 0 0 0 103 98 99 255
-0.658561 -0.819288 3.49679 0 0 0 149 149 151 255
-0.92426 -0.729536 3.53396 0 0 0 122 132 101 255
-0.984801 -0.519537 3.61021 0 0 0 39 75 67 255
-0.725861 -0.156693 3.48972 0 0 0 154 159 158 255
2.11227 0.719797 6.06581 0 0 0 80 66 69 255
0.0428873 0.603494 4.14455 0 0 0 103 106 105 255
1.06425 0.584745 3.60028 0 0 0 103 121 114 255
-0.647755 0.516226 3.52474 0 0 0 44 95 85 255
-0.520839 0.579267 3.58381 0 0 0 105 131 158 255
0.892613 0.776272 3.5529 0 0 0 130 128 100 255
-0.887819 0.772259 3.60553 0 0 0 150 154 152 255
0.946082 0.922762 3.48688 0 0 0 139 127 106 255
-0.712655 0.867359 3.53508 0 0 0 64 67 76 255
0.960414 1.0927 3.54346 0 0 0 125 129 132 255
2.09718 -1.62555 6.00549 0 0 0 54 48 54 255
-1.03214 -0.886096 3.69731 0 0 0 19 49 28 255
-0.849976 -0.816996 3.49199 0 0 0 140 140 141 255
2.10946 -1.47297 6.03296 0 0 0 70 65 67 255
2.09262 -1.39591 5.99474 0 0 0 61 51 55 255
-0.887505 -0.747654 3.51075 0 0 0 114 122 95 255
-0.965662 -0.721735 3.56485 0 0 0 94 43 46 255
-0.995402 -0.711661 3.5913 0 0 0 106 66 69 255
-0.896397 -0.548299 3.52477 0 0 0 143 146 141 255
-0.711051 -0.527097 3.49452 0 0 0 58 104 70 255
-0.920692 -0.0310284 3.5686 0 0 0 16 47 27 255
-0.997416 0.0303897 3.7852 0 0 0 54 83 73 255
0.217963 0.16745 4.25638 0 0 0 71 80 82 255
0.234429 0.22686 4.24132 0 0 0 156 158 160 255
-0.989588 0.336239 3.80846 0 0 0 56 77 97 255
0.409228 0.435697 4.23249 0 0 0 70 73 79 255
2.11138 0.727412 6.06402 0 0 0 82 68 71 255
2.08134 0.775369 6.00935 0 0 0 93 81 80 255
-0.68658 0.424908 3.51336 0 0 0 97 105 108 255
1.97954 0.807782 5.68129 0 0 0 161 159 155 255
-0.0423499 0.576523 4.31187 0 0 0 107 112 112 255
1.02977 0.594184 3.63832 0 0 0 119 127 123 255
1.06714 0.584179 3.59523 0 0 0 126 143 137 255
1.01906 0.603828 3.64857 0 0 0 117 125 119 255
1.11468 0.591547 3.54985 0 0 0 126 137 115 255
-0.552055 0.555546 3.56146 0 0 0 134 144 153 255
1.03504 0.625407 3.60656 0 0 0 105 114 103 255
1.04718 0.655541 3.54109 0 0 0 136 134 134 255
0.934331 0.727865 3.55685 0 0 0 105 50 57 255
-0.894389 0.679135 3.60421 0 0 0 149 153 152 255
0.932515 0.771147 3.50678 0 0 0 84 75 88 255
-0.907609 0.750501 3.61599 0 0 0 148 150 155 255
-0.805718 0.736018 3.55097 0 0 0 160 162 163 255
0.498869 0.99865 4.40758 0 0 0 107 103 100 255
0.867772 0.954767 3.62182 0 0 0 115 122 123 255
-0.68239 0.923656 3.53067 0 0 0 60 65 72 255
-0.561562 -0.557369 3.54801 0 0 0 129 155 146 255
-0.970997 -0.553386 3.58256 0 0 0 90 105 87 255
-0.752577 -0.392856 3.48468 0 0 0 156 160 158 255
-0.940466 -0.324628 3.56853 0 0 0 138 140 137 255
0.0259733 0.478624 4.14462 0 0 0 47 49 52 255
-0.425721 0.452323 3.78009 0 0 0 33 81 122 255
1.03285 0.595572 3.63173 0 0 0 116 120 116 255
-0.618734 0.707461 3.52369 0 0 0 165 171 171 255
0.899179 0.778562 3.53547 0 0 0 139 140 131 255
0.0651292 0.961591 4.1656 0 0 0 58 64 74 255
0.940097 0.871128 3.4833 0 0 0 88 68 66 255
-0.905177 0.825494 3.61555 0 0 0 31 72 113 255
-0.512322 0.856838 3.56583 0 0 0 167 167 167 255
-0.875334 0.910281 3.58469 0 0 0 107 106 109 255
-0.904732 0.950121 3.62131 0 0 0 156 158 159 255
-0.851245 -0.733347 3.49592 0 0 0 144 134 127 255
-0.695477 -0.725855 3.48913 0 0 0 132 70 79 255
-0.525435 -0.706556 3.56365 0 0 0 163 156 155 255
-0.717905 -0.502192 3.49795 0 0 0 60 107 65 255
-0.653202 -0.184122 3.49906 0 0 0 159 149 103 255
-0.979993 0.00418434 3.75442 0 0 0 38 79 53 255
0.0326372 0.253513 4.36724 0 0 0 154 156 155 255
0.406258 0.42808 4.24198 0 0 0 74 77 78 255
0.306556 0.501092 4.12673 0 0 0 145 149 150 255
-0.653099 0.450012 3.51952 0 0 0 100 94 109 255
-0.87539 0.499032 3.586 0 0 0 94 104 115 255
0.382989 0.82102 4.24847 0 0 0 40 48 49 255
0.445256 1.02567 4.252 0 0 0 171 176 174 255
-0.905905 0.831807 3.61369 0 0 0 29 73 113 255
-0.472631 -0.0316059 3.76244 0 0 0 49 97 70 255
0.326126 0.357545 4.25716 0 0 0 46 51 56 255
0.0612047 0.562655 4.12347 0 0 0 121 126 127 255
0.186589 0.541714 4.08992 0 0 0 144 148 150 255
-0.0439165 0.820841 4.3515 0 0 0 69 70 71 255
2.12085 -1.84961 6.04109 0 0 0 64 64 63 255
-0.68173 -0.807605 3.49293 0 0 0 46 79 76 255
-0.965934 -0.785358 3.55506 0 0 0 86 101 88 255
-0.899115 -0.749696 3.51747 0 0 0 132 135 119 255
-0.896904 -0.736913 3.51791 0 0 0 75 47 48 255
-0.883502 -0.733833 3.51141 0 0 0 154 147 150 255
-0.83336 -0.710719 3.49179 0 0 0 152 152 152 255
-0.844191 -0.682512 3.49399 0 0 0 75 61 63 255
-0.993526 -0.692536 3.59173 0 0 0 88 33 33 255
-1.01103 -0.693928 3.60998 0 0 0 117 100 97 255
-0.996283 -0.675615 3.59426 0 0 0 124 97 97 255
-0.934285 -0.590053 3.54939 0 0 0 36 69 63 255
-0.933446 -0.576987 3.5489 0 0 0 24 63 52 255
-0.962086 -0.571794 3.56885 0 0 0 67 95 73 255
-0.913007 -0.534701 3.53476 0 0 0 107 120 113 255
-0.889771 -0.345681 3.53272 0 0 0 42 88 59 255
-0.659275 -0.142872 3.49718 0 0 0 111 92 43 255
0.0430852 0.484116 4.13762 0 0 0 50 60 68 255
1.30785 0.542367 3.67474 0 0 0 101 102 92 255
1.16623 0.574338 3.57283 0 0 0 90 116 109 255
1.20289 0.585453 3.54845 0 0 0 46 55 41 255
1.20525 0.614645 3.54138 0 0 0 160 163 164 255
-0.893782 0.592459 3.59793 0 0 0 110 110 120 255
1.12861 0.638023 3.52691 0 0 0 99 95 92 255
1.11862 0.654566 3.52384 0 0 0 133 137 138 255
1.14199 0.681297 3.51163 0 0 0 79 65 70 255
1.11922 0.697861 3.52792 0 0 0 99 86 94 255
0.949606 0.717438 3.54424 0 0 0 72 67 56 255
1.11828 0.717929 3.48125 0 0 0 163 162 165 255
1.17522 0.74014 3.47445 0 0 0 127 120 125 255
0.91476 0.778291 3.51253 0 0 0 141 139 138 255
1.20277 0.766236 3.43294 0 0 0 132 116 109 255
1.06434 0.780678 3.46393 0 0 0 100 90 88 255
1.18801 0.80172 3.43709 0 0 0 85 65 58 255
1.2031 0.799845 3.41552 0 0 0 160 155 159 255
1.06397 0.816404 3.41307 0 0 0 91 82 86 255
0.942577 0.832877 3.48411 0 0 0 77 73 75 255
0.958284 0.858431 3.48947 0 0 0 70 62 66 255
0.901797 0.86943 3.48968 0 0 0 56 57 68 255
-0.875826 0.850533 3.59532 0 0 0 70 88 105 255
0.949974 0.939304 3.48846 0 0 0 72 73 77 255
1.1368 0.936448 3.40692 0 0 0 108 83 82 255
1.1047 0.954137 3.37051 0 0 0 102 79 64 255
-0.850013 0.969685 3.58848 0 0 0 128 135 148 255
-0.4903 1.01699 3.60393 0 0 0 16 112 150 255
-0.419079 1.07722 3.72136 0 0 0 101 112 125 255
0.937381 1.14123 3.66711 0 0 0 118 118 118 255
0.963338 1.14737 3.59087 0 0 0 91 72 47 255
2.11868 -1.94312 6.04315 0 0 0 65 63 61 255
2.09806 -1.84474 6.01595 0 0 0 122 116 116 255
-1.06474 -0.920768 3.76555 0 0 0 83 95 89 255
-0.910186 -0.817383 3.52385 0 0 0 58 78 70 255
-0.700685 -0.805844 3.48278 0 0 0 112 116 114 255
-0.602469 -0.798407 3.51074 0 0 0 42 75 63 255
-0.962572 -0.683303 3.56322 0 0 0 98 42 46 255
0.2772 0.206367 4.27944 0 0 0 57 61 64 255
0.239343 0.473829 4.09385 0 0 0 43 51 59 255
0.0424871 0.490251 4.13907 0 0 0 94 97 101 255
0.961208 0.655977 3.6335 0 0 0 125 126 126 255
1.20488 0.655907 3.51974 0 0 0 158 162 165 255
1.16191 0.663564 3.52256 0 0 0 160 160 166 255
1.20951 0.668493 3.49658 0 0 0 106 123 116 255
0.946443 0.723002 3.54647 0 0 0 84 69 67 255
1.1264 0.719484 3.50513 0 0 0 147 148 155 255
1.18626 0.768981 3.45888 0 0 0 136 132 122 255
-0.886644 0.840984 3.59292 0 0 0 128 135 146 255
1.09048 0.960603 3.43549 0 0 0 85 85 86 255
-0.969035 1.07048 3.7611 0 0 0 148 150 150 255
2.09516 -1.86891 6.01079 0 0 0 117 114 115 255
1.6846 -1.85414 6.10856 0 0 0 57 60 68 255
2.00875 -1.83521 6.07331 0 0 0 104 102 98 255
-0.982135 -0.515108 3.60937 0 0 0 28 67 58 255
-0.619897 -0.438879 3.50672 0 0 0 151 162 159 255
-0.939295 -0.30947 3.56925 0 0 0 136 143 139 255
-1.0018 0.0196087 3.78664 0 0 0 60 90 74 255
0.245213 0.287734 4.24187 0 0 0 189 187 188 255
-0.424727 0.462674 3.71793 0 0 0 35 81 117 255
1.19967 0.618602 3.54554 0 0 0 149 148 153 255
1.12638 0.679498 3.52859 0 0 0 82 82 84 255
1.09965 0.872655 3.4479 0 0 0 85 82 83 255
-0.48962 -0.959984 3.71574 0 0 0 52 99 74 255
-0.93027 -0.505818 3.54808 0 0 0 32 80 52 255
-0.517394 -0.487584 3.56757 0 0 0 156 160 159 255
-0.511595 -0.0899121 3.61018 0 0 0 64 101 71 255
-0.423827 0.463904 3.7187 0 0 0 35 81 117 255
0.309904 0.534266 4.12467 0 0 0 145 147 149 255
-0.021982 0.850516 4.38913 0 0 0 59 61 61 255
0.527093 0.933367 4.53335 0 0 0 175 176 171 255
-0.721761 0.717786 3.53119 0 0 0 41 59 103 255
0.506879 1.0652 4.46793 0 0 0 167 174 172 255
-0.863591 0.900477 3.57789 0 0 0 49 64 92 255
-0.799497 -0.556238 3.48832 0 0 0 151 156 154 255
-0.963364 -0.536634 3.5799 0 0 0 138 138 138 255
-0.973818 0.339165 3.81379 0 0 0 54 66 91 255
-0.435381 0.451271 3.71836 0 0 0 45 96 131 255
-0.47093 0.716194 3.62711 0 0 0 31 66 113 255
0.860585 0.855174 3.88897 0 0 0 93 96 106 255
-0.694479 0.844035 3.53072 0 0 0 50 68 109 255
-0.902236 0.927886 3.61479 0 0 0 155 157 159 255
-0.530883 -0.41496 3.58061 0 0 0 36 92 62 255
-0.897896 -0.118083 3.55547 0 0 0 138 135 133 255
-0.979347 -0.0252335 3.74844 0 0 0 36 81 54 255
0.257629 0.108489 4.26555 0 0 0 127 55 51 255
-0.96702 0.376511 3.80024 0 0 0 15 52 96 255
-0.462229 0.375028 3.73915 0 0 0 16 71 119 255
-0.868928 0.529141 3.58057 0 0 0 156 109 93 255
0.315839 0.673127 4.16477 0 0 0 35 42 42 255
0.022967 0.832404 4.38175 0 0 0 36 45 44 255
-0.462681 -1.07498 3.72627 0 0 0 83 86 89 255
-1.01929 -0.865032 3.62466 0 0 0 5 33 21 255
-0.888894 -0.792662 3.50918 0 0 0 125 125 121 255
-0.960262 -0.750879 3.56082 0 0 0 84 101 65 255
-1.00154 -0.703529 3.59996 0 0 0 91 38 44 255
-0.716458 -0.690812 3.4858 0 0 0 136 127 125 255
-1.01498 -0.23561 3.71803 0 0 0 113 120 117 255
-0.964919 -0.133761 3.61585 0 0 0 72 80 85 255
-0.880325 -0.127092 3.54068 0 0 0 130 87 102 255
-0.719186 0.493267 3.5158 0 0 0 78 119 146 255
3.37556 0.887826 5.99324 0 0 0 58 53 55 255
-0.0372771 0.616505 4.39568 0 0 0 66 65 66 255
1.27611 0.600162 3.37564 0 0 0 80 69 67 255
1.26962 0.612396 3.43133 0 0 0 112 119 107 255
1.05164 0.641983 3.54228 0 0 0 136 131 133 255
1.87158 0.746312 4.02445 0 0 0 118 120 122 255
0.93562 0.669921 3.72329 0 0 0 82 80 84 255
1.06523 0.671719 3.53014 0 0 0 114 107 98 255
1.21712 0.719888 3.46683 0 0 0 120 96 96 255
-0.862431 0.660607 3.58963 0 0 0 38 66 91 255
1.29772 0.75209 3.42327 0 0 0 64 76 67 255
0.980893 0.760428 3.4773 0 0 0 93 88 89 255
1.34098 0.764638 3.428 0 0 0 98 106 103 255
1.25188 0.773375 3.39132 0 0 0 134 122 119 255
1.26603 0.782804 3.38995 0 0 0 82 70 60 255
1.31117 0.788533 3.39991 0 0 0 70 69 56 255
1.33467 0.793985 3.41748 0 0 0 120 115 116 255
1.21949 0.789202 3.38242 0 0 0 133 93 86 255
1.38305 0.813434 3.42893 0 0 0 116 114 118 255
1.1537 0.805384 3.39326 0 0 0 119 114 115 255
1.23079 0.837153 3.36263 0 0 0 127 111 94 255
1.2415 0.862882 3.35074 0 0 0 125 123 117 255
1.3432 0.89796 3.41936 0 0 0 92 76 75 255
1.50108 0.963369 3.49067 0 0 0 99 99 101 255
1.18485 0.912774 3.2977 0 0 0 139 134 133 255
1.17037 0.963365 3.36807 0 0 0 85 83 87 255
1.12399 0.998053 3.38984 0 0 0 74 80 79 255
1.27799 1.02427 3.35617 0 0 0 79 76 84 255
1.33642 1.07276 3.45158 0 0 0 87 88 91 255
1.28475 1.05955 3.35444 0 0 0 85 84 86 255
1.33807 1.10254 3.46561 0 0 0 72 76 81 255
1.45424 1.11517 3.496 0 0 0 128 129 126 255
0.935666 1.12318 3.58752 0 0 0 54 70 71 255
1.3424 1.12458 3.4834 0 0 0 64 66 81 255
1.29314 1.10275 3.36873 0 0 0 77 67 70 255
1.3207 1.13402 3.39706 0 0 0 121 135 139 255
-0.687117 1.06548 3.5358 0 0 0 76 123 158 255
-0.791224 1.06599 3.54682 0 0 0 78 133 174 255
1.34124 1.21109 3.49549 0 0 0 128 147 154 255
1.41469 1.23774 3.57739 0 0 0 118 125 135 255
-0.668224 1.09272 3.5354 0 0 0 126 108 128 255
-0.765619 1.09382 3.51977 0 0 0 90 98 119 255
-0.764801 1.11152 3.52081 0 0 0 86 94 116 255
-0.783319 1.13987 3.53103 0 0 0 90 91 109 255
-0.726251 1.14211 3.53232 0 0 0 146 152 173 255
-0.447573 1.22628 3.69162 0 0 0 100 138 167 255
-0.50891 1.21494 3.59093 0 0 0 123 160 195 255
-0.960489 1.23215 3.71096 0 0 0 151 153 156 255
-0.507756 1.22776 3.58314 0 0 0 137 159 196 255
-0.823711 1.19209 3.53241 0 0 0 79 133 179 255
-0.782319 1.19429 3.52107 0 0 0 89 138 171 255
-0.784581 1.21422 3.52646 0 0 0 61 97 133 255
-0.73956 1.21727 3.5091 0 0 0 27 83 132 255
-0.737489 1.22848 3.51547 0 0 0 87 127 157 255
-0.698588 1.23016 3.50682 0 0 0 54 106 150 255
-0.819966 1.23473 3.54131 0 0 0 113 134 157 255
-0.785003 1.23452 3.52587 0 0 0 100 131 154 255
-0.754472 1.22988 3.51566 0 0 0 97 134 157 255
-0.825169 -0.756567 3.489 0 0 0 111 131 75 255
-1.01271 -0.743815 3.61355 0 0 0 84 107 68 255
-0.546311 -0.529585 3.54951 0 0 0 81 104 104 255
-1.01517 -0.23687 3.71706 0 0 0 113 120 117 255
-0.0482443 0.456537 4.36676 0 0 0 119 120 117 255
1.29006 0.604788 3.38914 0 0 0 64 56 57 255
-0.900194 0.689755 3.60753 0 0 0 144 147 148 255
1.30254 0.754163 3.42304 0 0 0 57 65 60 255
1.34702 0.770926 3.43039 0 0 0 125 114 116 255
1.07105 0.791136 3.43961 0 0 0 141 144 149 255
1.13877 0.770739 3.33701 0 0 0 140 137 138 255
1.26296 0.785331 3.38851 0 0 0 73 72 67 255
1.17307 0.792814 3.33465 0 0 0 119 55 54 255
1.36871 0.807422 3.42853 0 0 0 132 127 129 255
1.15563 0.821442 3.38743 0 0 0 126 123 125 255
1.49548 0.959329 3.49442 0 0 0 106 108 116 255
-0.77535 0.944436 3.54648 0 0 0 165 168 167 255
1.33974 1.0892 3.46406 0 0 0 83 93 96 255
-0.743123 1.07314 3.51806 0 0 0 28 90 135 255
-0.771329 1.10901 3.54192 0 0 0 83 88 111 255
-0.835159 1.13392 3.55067 0 0 0 125 140 171 255
-0.792627 1.16133 3.53558 0 0 0 134 137 142 255
-0.962406 1.231 3.70967 0 0 0 151 153 156 255
-0.825884 1.22845 3.53916 0 0 0 101 124 144 255
-1.01804 -0.8678 3.62522 0 0 0 18 47 32 255
-0.744469 -0.8112 3.48061 0 0 0 148 150 152 255
-1.01139 -0.742129 3.61131 0 0 0 84 107 68 255
-0.882741 -0.720381 3.51122 0 0 0 102 39 44 255
-0.683343 -0.595127 3.50371 0 0 0 162 165 168 255
-1.01358 -0.243626 3.70759 0 0 0 131 134 128 255
0.290471 0.243085 4.25514 0 0 0 104 106 105 255
0.155307 0.407799 4.10989 0 0 0 121 97 60 255
-0.0228405 0.581161 4.36477 0 0 0 105 105 105 255
1.11786 0.589709 3.53346 0 0 0 131 139 123 255
1.22588 0.59326 3.54846 0 0 0 36 49 47 255
1.33804 0.616032 3.43856 0 0 0 56 55 56 255
1.28522 0.623903 3.44072 0 0 0 134 135 115 255
1.91504 0.754144 4.06758 0 0 0 139 143 144 255
1.23603 0.68716 3.49452 0 0 0 130 140 131 255
0.183956 0.792568 4.10395 0 0 0 90 86 77 255
1.07058 0.733933 3.47626 0 0 0 85 81 66 255
1.26416 0.720859 3.43309 0 0 0 91 89 74 255
1.17082 0.772743 3.42298 0 0 0 131 113 110 255
1.1852 0.778862 3.38537 0 0 0 162 165 173 255
1.15525 0.782873 3.41777 0 0 0 105 98 98 255
1.27346 0.790572 3.3799 0 0 0 44 74 59 255
1.20917 0.805001 3.37683 0 0 0 94 57 58 255
-0.907907 0.770227 3.62407 0 0 0 151 152 153 255
1.0891 0.927534 3.38252 0 0 0 100 76 61 255
1.1743 0.976599 3.36627 0 0 0 90 78 78 255
1.26956 1.09864 3.40316 0 0 0 68 67 72 255
-0.68428 1.06717 3.53469 0 0 0 110 150 182 255
-0.725912 1.07013 3.54433 0 0 0 24 92 137 255
-0.625949 1.14233 3.51674 0 0 0 41 82 118 255
-0.583703 1.15717 3.52812 0 0 0 165 158 141 255
-0.736414 1.15447 3.5287 0 0 0 43 77 121 255
-0.691708 1.16365 3.52467 0 0 0 127 134 144 255
-0.479498 1.20517 3.60276 0 0 0 139 149 160 255
-0.960643 1.21727 3.71334 0 0 0 151 154 153 255
-0.722799 -0.573584 3.48317 0 0 0 162 164 165 255
-0.802241 -0.580474 3.48907 0 0 0 153 156 154 255
-0.60068 -0.0174218 3.51554 0 0 0 116 140 139 255
