ply
format ascii 1.0
comment VCGLIB generated
element vertex 60
property float x
property float y
property float z
property float nx
property float ny
property float nz
property uchar red
property uchar green
property uchar blue
property uchar alpha
element face 0
property list uchar int vertex_indices
end_header
2.51074 0.143938 4.05287 0 0 0 255 255 0 255
2.46756 -0.0557982 4.058 0 0 0 255 255 0 255
2.51681 0.148512 4.03919 0 0 0 255 255 0 255
2.47228 -0.062863 4.03733 0 0 0 255 255 0 255
2.49734 0.0417912 4.02818 0 0 0 255 255 0 255
2.52031 0.137724 4.0198 0 0 0 255 255 0 255
2.52634 0.162919 4.0176 0 0 0 255 255 0 255
2.5288 0.169163 4.01313 0 0 0 255 255 0 255
2.43789 -0.215225 4.0418 0 0 0 255 255 0 255
2.44677 -0.180724 4.03583 0 0 0 255 255 0 255
2.44333 -0.197574 4.03433 0 0 0 255 255 0 255
2.47906 -0.0483447 4.02129 0 0 0 255 255 0 255
2.47806 -0.0533136 4.02074 0 0 0 255 255 0 255
2.52353 0.13431 4.00137 0 0 0 255 255 0 255
2.50044 0.0337902 4.00419 0 0 0 255 255 0 255
2.48966 -0.0118692 4.00718 0 0 0 255 255 0 255
2.44266 -0.214849 4.01193 0 0 0 255 255 0 255
2.48363 -0.044508 3.99505 0 0 0 255 255 0 255
2.52423 0.125071 3.98023 0 0 0 255 255 0 255
2.48275 -0.0498533 3.9905 0 0 0 255 255 0 255
2.47367 -0.0891856 3.98792 0 0 0 255 255 0 255
2.49182 -0.0138758 3.97833 0 0 0 255 255 0 255
2.52848 0.139229 3.96495 0 0 0 255 255 0 255
2.49229 -0.0124613 3.97218 0 0 0 255 255 0 255
2.47786 -0.0727903 3.97444 0 0 0 255 255 0 255
2.45385 -0.17292 3.97918 0 0 0 255 255 0 255
2.49228 -0.0122172 3.96313 0 0 0 255 255 0 255
2.4953 0.000380084 3.96203 0 0 0 255 255 0 255
2.44735 -0.199463 3.97648 0 0 0 255 255 0 255
2.47908 -0.066781 3.96389 0 0 0 255 255 0 255
2.52896 0.141558 3.94568 0 0 0 255 255 0 255
2.47889 -0.0669954 3.9609 0 0 0 255 255 0 255
2.45236 -0.176768 3.96649 0 0 0 255 255 0 255
2.44188 -0.215346 3.9569 0 0 0 255 255 0 255
2.44728 -0.189492 3.94868 0 0 0 255 255 0 255
2.50319 0.0440421 3.92828 0 0 0 255 255 0 255
2.43943 -0.219719 3.94737 0 0 0 255 255 0 255
2.49876 0.0301568 3.92257 0 0 0 255 255 0 255
2.44262 -0.199738 3.93676 0 0 0 255 255 0 255
2.46847 -0.0865653 3.92099 0 0 0 255 255 0 255
2.47752 -0.0459551 3.91452 0 0 0 255 255 0 255
2.43319 -0.229154 3.92858 0 0 0 255 255 0 255
2.44105 -0.19432 3.9236 0 0 0 255 255 0 255
2.4595 -0.0793094 3.88497 0 0 0 255 255 0 255
2.42523 -0.217862 3.89429 0 0 0 255 255 0 255
2.42318 -0.221713 3.89184 0 0 0 255 255 0 255
2.42154 -0.211876 3.88182 0 0 0 255 255 0 255
2.45291 -0.0791004 3.86931 0 0 0 255 255 0 255
2.45705 -0.0528231 3.8625 0 0 0 255 255 0 255
2.41488 -0.225257 3.87577 0 0 0 255 255 0 255
2.411 -0.233862 3.87296 0 0 0 255 255 0 255
2.44582 -0.0806261 3.85603 0 0 0 255 255 0 255
2.433 -0.124047 3.85544 0 0 0 255 255 0 255
2.4133 -0.191581 3.85529 0 0 0 255 255 0 255
2.4457 -0.0430285 3.83721 0 0 0 255 255 0 255
2.4117 -0.154687 3.83616 0 0 0 255 255 0 255
2.39616 -0.173745 3.8235 0 0 0 255 255 0 255
2.42571 -0.0476921 3.81171 0 0 0 255 255 0 255
2.39738 -0.157914 3.81904 0 0 0 255 255 0 255
2.38213 -0.161778 3.80389 0 0 0 255 255 0 255
