ply
format ascii 1.0
comment VCGLIB generated
element vertex 88
property float x
property float y
property float z
property float nx
property float ny
property float nz
property uchar red
property uchar green
property uchar blue
property uchar alpha
element face 0
property list uchar int vertex_indices
end_header
2.38873 0.290494 3.77051 0 0 0 0 255 255 255
2.37866 0.282226 3.777 0 0 0 0 255 255 255
2.35565 -0.0557349 3.85306 0 0 0 0 255 255 255
2.34163 -0.0515834 3.85909 0 0 0 0 255 255 255
2.37545 -0.144666 3.86048 0 0 0 0 255 255 255
2.36867 -0.141963 3.86326 0 0 0 0 255 255 255
2.38627 -0.205967 3.86697 0 0 0 0 255 255 255
2.35448 -0.142182 3.87022 0 0 0 0 255 255 255
2.37363 -0.207722 3.87347 0 0 0 0 255 255 255
2.36245 -0.184182 3.87439 0 0 0 0 255 255 255
2.37519 -0.218931 3.87486 0 0 0 0 255 255 255
2.34074 -0.141147 3.87671 0 0 0 0 255 255 255
2.35321 -0.201798 3.88228 0 0 0 0 255 255 255
2.35632 -0.214542 3.88321 0 0 0 0 255 255 255
2.34276 -0.189791 3.88506 0 0 0 0 255 255 255
2.32984 -0.169085 3.88738 0 0 0 0 255 255 255
2.34991 -0.222442 3.88784 0 0 0 0 255 255 255
2.338 -0.197041 3.88877 0 0 0 0 255 255 255
2.34579 -0.224066 3.89016 0 0 0 0 255 255 255
2.33947 -0.210435 3.89063 0 0 0 0 255 255 255
2.19688 0.132141 3.89434 0 0 0 0 255 255 255
2.19358 0.140514 3.89434 0 0 0 0 255 255 255
2.33086 -0.212752 3.89526 0 0 0 0 255 255 255
2.3217 -0.189492 3.89526 0 0 0 0 255 255 255
2.19449 0.133352 3.89526 0 0 0 0 255 255 255
2.1966 0.125584 3.89573 0 0 0 0 255 255 255
2.3272 -0.213121 3.89712 0 0 0 0 255 255 255
2.31034 -0.199341 3.90268 0 0 0 0 255 255 255
2.22456 0.01837 3.90268 0 0 0 0 255 255 255
2.21851 0.0288851 3.90361 0 0 0 0 255 255 255
2.31254 -0.214596 3.90454 0 0 0 0 255 255 255
2.2955 -0.176169 3.90547 0 0 0 0 255 255 255
2.24445 -0.0587031 3.90779 0 0 0 0 255 255 255
2.21247 0.0200551 3.90825 0 0 0 0 255 255 255
2.2166 0.0023338 3.90964 0 0 0 0 255 255 255
2.2111 0.0162896 3.90964 0 0 0 0 255 255 255
2.20982 0.0147097 3.91057 0 0 0 0 255 255 255
2.23621 -0.0619508 3.91242 0 0 0 0 255 255 255
2.20093 0.0251809 3.91289 0 0 0 0 255 255 255
2.24785 -0.103581 3.91474 0 0 0 0 255 255 255
2.19534 0.0272786 3.91521 0 0 0 0 255 255 255
2.23659 -0.101571 3.91984 0 0 0 0 255 255 255
2.24522 -0.205652 3.93561 0 0 0 0 255 255 255
2.24219 -0.200395 3.93608 0 0 0 0 255 255 255
2.14331 0.0336502 3.93932 0 0 0 0 255 255 255
2.22671 -0.182849 3.94025 0 0 0 0 255 255 255
2.16458 -0.04933 3.94489 0 0 0 0 255 255 255
2.12124 0.038925 3.94906 0 0 0 0 255 255 255
2.13068 0.0125494 3.94953 0 0 0 0 255 255 255
2.14855 -0.0545703 3.9537 0 0 0 0 255 255 255
2.13866 -0.0391224 3.95555 0 0 0 0 255 255 255
2.14278 -0.0568437 3.95695 0 0 0 0 255 255 255
2.20006 -0.209471 3.95834 0 0 0 0 255 255 255
2.11062 0.0175434 3.95834 0 0 0 0 255 255 255
2.17468 -0.14746 3.9588 0 0 0 0 255 255 255
2.13161 -0.0623209 3.96344 0 0 0 0 255 255 255
2.13592 -0.075671 3.9639 0 0 0 0 255 255 255
2.1219 -0.0521744 3.96622 0 0 0 0 255 255 255
2.14765 -0.124789 3.96761 0 0 0 0 255 255 255
2.13079 -0.0819908 3.96761 0 0 0 0 255 255 255
2.14096 -0.110227 3.96808 0 0 0 0 255 255 255
2.12584 -0.0742668 3.96854 0 0 0 0 255 255 255
2.11457 -0.0529118 3.96993 0 0 0 0 255 255 255
2.09954 -0.0147659 3.96993 0 0 0 0 255 255 255
2.11045 -0.0545357 3.97225 0 0 0 0 255 255 255
2.15628 -0.199852 3.97782 0 0 0 0 255 255 255
2.10789 -0.0770407 3.97782 0 0 0 0 255 255 255
2.09946 -0.0556418 3.97782 0 0 0 0 255 255 255
2.13236 -0.141562 3.97828 0 0 0 0 255 255 255
2.10074 -0.0637344 3.97874 0 0 0 0 255 255 255
2.11495 -0.102205 3.97921 0 0 0 0 255 255 255
2.12971 -0.146908 3.9806 0 0 0 0 255 255 255
2.08242 -0.0268876 3.9806 0 0 0 0 255 255 255
2.12045 -0.125833 3.98106 0 0 0 0 255 255 255
2.11239 -0.105365 3.98106 0 0 0 0 255 255 255
2.14126 -0.190724 3.98338 0 0 0 0 255 255 255
2.12696 -0.154439 3.98338 0 0 0 0 255 255 255
2.13237 -0.17058 3.98384 0 0 0 0 255 255 255
2.14694 -0.209981 3.98431 0 0 0 0 255 255 255
2.11386 -0.128432 3.98477 0 0 0 0 255 255 255
2.13283 -0.198342 3.98895 0 0 0 0 255 255 255
2.08197 -0.0765056 3.99034 0 0 0 0 255 255 255
2.11735 -0.171124 3.99127 0 0 0 0 255 255 255
2.13494 -0.225455 3.99312 0 0 0 0 255 255 255
2.10415 -0.147303 3.99312 0 0 0 0 255 255 255
2.12275 -0.196938 3.99358 0 0 0 0 255 255 255
2.1157 -0.181446 3.99405 0 0 0 0 255 255 255
2.09225 -0.160592 4.00147 0 0 0 0 255 255 255
