ply
format ascii 1.0
comment VCGLIB generated
element vertex 89
property float x
property float y
property float z
property float nx
property float ny
property float nz
property uchar red
property uchar green
property uchar blue
property uchar alpha
element face 0
property list uchar int vertex_indices
end_header
3.676 0.821373 3.98691 0 0 0 0 255 255 255
3.67376 1.01036 3.98691 0 0 0 0 255 255 255
3.67303 1.01435 3.98764 0 0 0 0 255 255 255
3.67615 0.693365 3.98837 0 0 0 0 255 255 255
3.67465 0.820357 3.98837 0 0 0 0 255 255 255
3.65303 1.02711 4.00878 0 0 0 0 255 255 255
3.65058 0.830071 4.01389 0 0 0 0 255 255 255
3.64698 0.902034 4.0168 0 0 0 0 255 255 255
3.63769 0.99293 4.02555 0 0 0 0 255 255 255
3.62233 1.13376 4.04014 0 0 0 0 255 255 255
3.61914 1.11472 4.04378 0 0 0 0 255 255 255
3.61868 0.807691 4.04816 0 0 0 0 255 255 255
3.6174 0.799675 4.04962 0 0 0 0 255 255 255
3.6149 0.779644 4.05253 0 0 0 0 255 255 255
3.60744 1.11958 4.05618 0 0 0 0 255 255 255
3.60426 1.09954 4.05982 0 0 0 0 255 255 255
3.60594 0.900546 4.06055 0 0 0 0 255 255 255
3.60026 0.975484 4.06566 0 0 0 0 255 255 255
3.59582 1.11844 4.06857 0 0 0 0 255 255 255
3.59313 1.11441 4.07149 0 0 0 0 255 255 255
3.59197 1.09739 4.07295 0 0 0 0 255 255 255
3.59636 0.669416 4.07368 0 0 0 0 255 255 255
3.59351 0.852395 4.07441 0 0 0 0 255 255 255
3.59476 0.689399 4.07514 0 0 0 0 255 255 255
3.59285 0.677375 4.07732 0 0 0 0 255 255 255
3.58786 0.809325 4.08097 0 0 0 0 255 255 255
3.58353 1.00129 4.08316 0 0 0 0 255 255 255
3.57875 1.00023 4.08826 0 0 0 0 255 255 255
3.5783 0.807212 4.09118 0 0 0 0 255 255 255
3.57412 0.871167 4.09482 0 0 0 0 255 255 255
3.57068 1.10314 4.09555 0 0 0 0 255 255 255
3.57266 0.87915 4.09628 0 0 0 0 255 255 255
3.56899 0.7841 4.10139 0 0 0 0 255 255 255
3.56636 0.775068 4.1043 0 0 0 0 255 255 255
3.56249 1.10104 4.1043 0 0 0 0 255 255 255
3.56201 0.96903 4.10649 0 0 0 0 255 255 255
3.56228 0.658011 4.11014 0 0 0 0 255 255 255
3.55631 0.987963 4.11232 0 0 0 0 255 255 255
3.55889 0.654971 4.11378 0 0 0 0 255 255 255
3.5533 0.779913 4.11816 0 0 0 0 255 255 255
3.54609 1.09885 4.1218 0 0 0 0 255 255 255
3.54772 0.788847 4.12399 0 0 0 0 255 255 255
3.54634 0.789831 4.12545 0 0 0 0 255 255 255
3.53793 0.979745 4.13201 0 0 0 0 255 255 255
3.53193 1.08168 4.13712 0 0 0 0 255 255 255
3.52778 0.854615 4.14441 0 0 0 0 255 255 255
3.52608 0.939601 4.14514 0 0 0 0 255 255 255
3.52534 0.886589 4.14659 0 0 0 0 255 255 255
3.52441 0.965583 4.14659 0 0 0 0 255 255 255
3.52394 0.947576 4.14732 0 0 0 0 255 255 255
3.52276 0.873557 4.14951 0 0 0 0 255 255 255
3.51886 1.08653 4.15097 0 0 0 0 255 255 255
3.51676 1.0905 4.15316 0 0 0 0 255 255 255
3.5132 1.04446 4.15753 0 0 0 0 255 255 255
3.50736 1.07539 4.16336 0 0 0 0 255 255 255
3.49889 1.03929 4.17284 0 0 0 0 255 255 255
3.49661 0.943251 4.17649 0 0 0 0 255 255 255
3.49318 0.886207 4.18086 0 0 0 0 255 255 255
3.48761 1.06715 4.18451 0 0 0 0 255 255 255
3.48544 1.01912 4.18743 0 0 0 0 255 255 255
3.48433 0.825097 4.19107 0 0 0 0 255 255 255
3.47655 0.961015 4.19763 0 0 0 0 255 255 255
3.476 0.892003 4.19909 0 0 0 0 255 255 255
3.47461 0.951991 4.19982 0 0 0 0 255 255 255
3.47466 0.831983 4.20128 0 0 0 0 255 255 255
3.47122 1.06396 4.20201 0 0 0 0 255 255 255
3.47257 0.834958 4.20347 0 0 0 0 255 255 255
3.4725 0.840958 4.20347 0 0 0 0 255 255 255
3.46994 1.05694 4.20347 0 0 0 0 255 255 255
3.46478 1.02988 4.2093 0 0 0 0 255 255 255
3.46412 1.02787 4.21003 0 0 0 0 255 255 255
3.45175 0.859713 4.22534 0 0 0 0 255 255 255
3.45141 0.830707 4.22607 0 0 0 0 255 255 255
3.44912 0.850681 4.22826 0 0 0 0 255 255 255
3.44782 0.902669 4.22899 0 0 0 0 255 255 255
3.44627 0.917652 4.23045 0 0 0 0 255 255 255
3.43721 0.931545 4.23993 0 0 0 0 255 255 255
3.43718 0.933545 4.23993 0 0 0 0 255 255 255
3.43717 0.934545 4.23993 0 0 0 0 255 255 255
3.43184 0.807473 4.24722 0 0 0 0 255 255 255
3.41449 0.885272 4.26472 0 0 0 0 255 255 255
3.40999 0.860217 4.26982 0 0 0 0 255 255 255
3.39522 0.83604 4.28586 0 0 0 0 255 255 255
3.3941 0.815025 4.28732 0 0 0 0 255 255 255
3.39284 0.80601 4.28878 0 0 0 0 255 255 255
3.39062 0.877988 4.29024 0 0 0 0 255 255 255
3.37738 0.782825 4.30555 0 0 0 0 255 255 255
3.37528 0.901808 4.30628 0 0 0 0 255 255 255
3.37246 0.908775 4.30919 0 0 0 0 255 255 255
