ply
format ascii 1.0
comment VCGLIB generated
element vertex 132
property float x
property float y
property float z
property float nx
property float ny
property float nz
property uchar red
property uchar green
property uchar blue
property uchar alpha
element face 0
property list uchar int vertex_indices
end_header
-2.89221 -1.01585 6.39628 0 0 0 255 255 255 255
0.714541 -0.719284 4.56127 0 0 0 255 255 255 255
-2.89351 -1.03496 6.42171 0 0 0 255 255 255 255
-3.30359 -2.61784 8.79413 0 0 0 255 255 255 255
-2.62355 0.481364 6.01848 0 0 0 255 255 255 255
-2.61484 0.507675 5.98501 0 0 0 255 255 255 255
-2.6233 0.482712 6.01799 0 0 0 255 255 255 255
-2.61669 0.505303 5.99813 0 0 0 255 255 255 255
-2.1375 0.594445 5.70027 0 0 0 255 255 255 255
-2.12184 0.495677 6.00774 0 0 0 255 255 255 255
-2.33461 0.0749594 6.03482 0 0 0 255 255 255 255
-2.64057 0.430297 6.08497 0 0 0 255 255 255 255
-2.31485 -0.023946 5.96144 0 0 0 255 255 255 255
-2.65116 1.59279 6.01644 0 0 0 255 255 255 255
-2.65683 1.55087 6.04162 0 0 0 255 255 255 255
-2.70489 1.40875 6.14121 0 0 0 255 255 255 255
-2.65331 1.58884 6.03883 0 0 0 255 255 255 255
-2.59005 1.2337 6.08158 0 0 0 255 255 255 255
-2.60959 1.13631 6.11594 0 0 0 255 255 255 255
-2.71522 1.44477 6.15651 0 0 0 255 255 255 255
-2.54361 1.59081 6.08487 0 0 0 255 255 255 255
-2.7252 1.44857 6.08214 0 0 0 255 255 255 255
-2.64967 1.59108 6.02464 0 0 0 255 255 255 255
-2.71785 1.45365 6.10588 0 0 0 255 255 255 255
-2.70189 1.41246 6.1427 0 0 0 255 255 255 255
-2.30846 1.30528 6.21163 0 0 0 255 255 255 255
-2.20117 1.3408 6.18914 0 0 0 255 255 255 255
-2.67256 1.52338 6.0702 0 0 0 255 255 255 255
-2.71913 1.42322 6.09854 0 0 0 255 255 255 255
-2.56658 1.68969 6.04889 0 0 0 255 255 255 255
-2.61342 1.13083 6.12397 0 0 0 255 255 255 255
-2.4188 1.17612 6.19548 0 0 0 255 255 255 255
-2.54543 1.57981 6.07671 0 0 0 255 255 255 255
-3.03742 1.08778 6.7252 0 0 0 255 255 255 255
-3.02788 1.09804 6.71503 0 0 0 255 255 255 255
-2.08551 0.605347 5.70319 0 0 0 255 255 255 255
-0.870308 -0.0734653 6.05131 0 0 0 255 255 255 255
-0.874182 -0.07747 6.05175 0 0 0 255 255 255 255
-0.856302 -0.0686672 6.0276 0 0 0 255 255 255 255
-1.03317 -0.162972 5.84154 0 0 0 255 255 255 255
-0.963257 0.542848 5.7359 0 0 0 255 255 255 255
-1.18876 0.236557 5.54966 0 0 0 255 255 255 255
-1.1361 0.504714 5.56696 0 0 0 255 255 255 255
-1.72764 1.39841 5.71458 0 0 0 255 255 255 255
-0.895921 0.902606 5.05785 0 0 0 255 255 255 255
-0.943088 0.929728 5.7751 0 0 0 255 255 255 255
-0.74855 1.55339 6.15369 0 0 0 255 255 255 255
-0.750133 1.54287 6.15171 0 0 0 255 255 255 255
-0.762511 1.56471 6.15715 0 0 0 255 255 255 255
-0.753162 1.5563 6.15339 0 0 0 255 255 255 255
-1.18526 1.54217 6.11669 0 0 0 255 255 255 255
-1.02402 1.2447 5.55949 0 0 0 255 255 255 255
-0.820509 1.31912 5.10623 0 0 0 255 255 255 255
-1.4231 1.50138 5.74523 0 0 0 255 255 255 255
0.645217 0.606637 4.53673 0 0 0 255 255 255 255
0.791855 -0.0604758 4.29208 0 0 0 255 255 255 255
0.356668 0.185398 4.60846 0 0 0 255 255 255 255
0.598465 1.19342 3.81573 0 0 0 255 255 255 255
-1.67838 1.67887 6.62453 0 0 0 255 255 255 255
-1.19121 1.30455 6.4484 0 0 0 255 255 255 255
-1.27156 1.66818 6.66808 0 0 0 255 255 255 255
-1.29475 1.66942 6.80868 0 0 0 255 255 255 255
-1.30113 1.67206 6.80435 0 0 0 255 255 255 255
1.49461 -0.856874 5.18648 0 0 0 255 255 255 255
1.21636 -0.638539 4.31472 0 0 0 255 255 255 255
1.21682 -0.623476 4.29352 0 0 0 255 255 255 255
1.20143 -0.618186 4.38203 0 0 0 255 255 255 255
2.79451 -0.932468 8.15852 0 0 0 255 255 255 255
3.09642 -0.696223 9.17229 0 0 0 255 255 255 255
2.81157 -1.05058 8.7261 0 0 0 255 255 255 255
2.30989 -2.74123 8.99438 0 0 0 255 255 255 255
2.08613 -2.69853 8.96221 0 0 0 255 255 255 255
2.65469 -2.83648 9.11545 0 0 0 255 255 255 255
2.61994 -2.75228 8.94171 0 0 0 255 255 255 255
2.64731 -2.47963 9.0021 0 0 0 255 255 255 255
2.85376 -0.923416 8.33104 0 0 0 255 255 255 255
3.20762 -1.09598 8.98069 0 0 0 255 255 255 255
2.80745 -0.936461 8.19692 0 0 0 255 255 255 255
2.64634 -2.65843 9.03141 0 0 0 255 255 255 255
2.65194 -2.34298 9.01315 0 0 0 255 255 255 255
2.64962 -2.82749 9.11093 0 0 0 255 255 255 255
2.61924 -0.870262 7.91522 0 0 0 255 255 255 255
2.63798 -2.45017 8.96861 0 0 0 255 255 255 255
2.68642 -2.40332 9.13161 0 0 0 255 255 255 255
2.87424 -0.639006 7.94109 0 0 0 255 255 255 255
3.31777 -0.985544 9.11889 0 0 0 255 255 255 255
5.01026 -1.86063 15.088 0 0 0 255 255 255 255
4.19814 -1.11004 12.8782 0 0 0 255 255 255 255
4.49605 -1.33705 13.6462 0 0 0 255 255 255 255
3.14214 -0.820912 9.30809 0 0 0 255 255 255 255
3.42951 -1.03498 9.35952 0 0 0 255 255 255 255
3.33352 -1.0812 9.36104 0 0 0 255 255 255 255
1.69685 -0.120262 4.03946 0 0 0 255 255 255 255
1.35031 -0.156408 4.66972 0 0 0 255 255 255 255
1.38811 -0.177928 4.70559 0 0 0 255 255 255 255
1.35054 -0.138618 4.63843 0 0 0 255 255 255 255
1.36552 -0.302818 4.64321 0 0 0 255 255 255 255
1.36987 -0.299914 4.65457 0 0 0 255 255 255 255
1.45934 -0.0527381 3.42544 0 0 0 255 255 255 255
1.43491 -0.10007 3.29573 0 0 0 255 255 255 255
1.36805 -0.302805 4.64866 0 0 0 255 255 255 255
1.35842 -0.162507 4.69286 0 0 0 255 255 255 255
1.40935 -0.189217 4.75052 0 0 0 255 255 255 255
1.36891 -0.174958 4.73019 0 0 0 255 255 255 255
1.77376 -0.0809043 4.31904 0 0 0 255 255 255 255
1.77326 -0.313781 4.75246 0 0 0 255 255 255 255
1.44965 -0.37402 5.03393 0 0 0 255 255 255 255
1.52919 -0.216079 5.10393 0 0 0 255 255 255 255
1.4476 -0.370115 5.02535 0 0 0 255 255 255 255
1.52193 -0.537362 5.87626 0 0 0 255 255 255 255
1.55386 0.84752 5.25368 0 0 0 255 255 255 255
1.26731 0.337978 4.91696 0 0 0 255 255 255 255
1.26975 0.320933 4.87366 0 0 0 255 255 255 255
1.52993 0.871885 5.31146 0 0 0 255 255 255 255
1.39719 0.304396 5.27609 0 0 0 255 255 255 255
1.98839 -0.355201 5.0696 0 0 0 255 255 255 255
2.017 -0.259381 5.15323 0 0 0 255 255 255 255
1.9247 -0.36044 4.79944 0 0 0 255 255 255 255
1.96478 -0.357941 5.05425 0 0 0 255 255 255 255
1.69047 -0.497845 5.54127 0 0 0 255 255 255 255
1.7409 -0.462799 5.57035 0 0 0 255 255 255 255
1.70675 -0.298784 5.61999 0 0 0 255 255 255 255
1.62924 -0.424646 5.7444 0 0 0 255 255 255 255
1.70614 -0.415799 5.5767 0 0 0 255 255 255 255
1.70543 -0.458328 5.57499 0 0 0 255 255 255 255
1.69233 -0.27114 5.58112 0 0 0 255 255 255 255
1.96396 1.37763 5.14502 0 0 0 255 255 255 255
2.16095 1.50724 5.76338 0 0 0 255 255 255 255
2.36141 -0.43774 7.3368 0 0 0 255 255 255 255
2.36797 -0.450525 7.34967 0 0 0 255 255 255 255
2.35471 -0.442357 7.3251 0 0 0 255 255 255 255
2.34272 -0.538493 7.29089 0 0 0 255 255 255 255
