ply
format ascii 1.0
comment VCGLIB generated
element vertex 258
property float x
property float y
property float z
property float nx
property float ny
property float nz
property uchar red
property uchar green
property uchar blue
property uchar alpha
element face 0
property list uchar int vertex_indices
end_header
-0.483841 -0.576469 3.62128 0 0 0 128 0 0 255
-0.492739 -0.589452 3.60919 0 0 0 128 0 0 255
-0.494088 -0.52845 3.60778 0 0 0 128 0 0 255
-0.494748 -0.507449 3.60706 0 0 0 128 0 0 255
-0.495427 -0.477448 3.60636 0 0 0 128 0 0 255
-0.495445 -0.468448 3.60639 0 0 0 128 0 0 255
-0.495983 -0.512447 3.60548 0 0 0 128 0 0 255
-0.49608 -0.462447 3.60562 0 0 0 128 0 0 255
-0.496511 -0.563446 3.60455 0 0 0 128 0 0 255
-0.497743 -0.577444 3.60296 0 0 0 128 0 0 255
-0.499186 -0.487442 3.60167 0 0 0 128 0 0 255
-0.500379 -0.53144 3.60001 0 0 0 128 0 0 255
-0.508734 -0.278431 3.59166 0 0 0 128 0 0 255
-0.508822 -0.578429 3.59007 0 0 0 128 0 0 255
-0.509065 -0.453429 3.59042 0 0 0 128 0 0 255
-0.513476 -0.276426 3.58652 0 0 0 128 0 0 255
-0.513491 -0.268426 3.58654 0 0 0 128 0 0 255
-0.514161 -0.276425 3.58579 0 0 0 128 0 0 255
-0.513965 -0.732421 3.58377 0 0 0 128 0 0 255
-0.515105 -0.144425 3.58544 0 0 0 128 0 0 255
-0.517159 -0.156423 3.58324 0 0 0 128 0 0 255
-0.517851 -0.519419 3.58078 0 0 0 128 0 0 255
-0.518634 -0.477419 3.58018 0 0 0 128 0 0 255
-0.520713 -0.13142 3.57975 0 0 0 128 0 0 255
-0.522022 -0.554415 3.57643 0 0 0 128 0 0 255
-0.52272 -0.194417 3.57745 0 0 0 128 0 0 255
-0.523529 -0.145417 3.57689 0 0 0 128 0 0 255
-0.524928 -0.163416 3.57545 0 0 0 128 0 0 255
-0.529458 -0.45041 3.56982 0 0 0 128 0 0 255
-0.530944 -0.443409 3.56849 0 0 0 128 0 0 255
-0.532164 -0.577407 3.56676 0 0 0 128 0 0 255
-0.538738 -0.673403 3.56055 0 0 0 128 0 0 255
-0.539457 -0.695403 3.55984 0 0 0 128 0 0 255
-0.540426 -0.589403 3.55949 0 0 0 128 0 0 255
-0.540927 -0.725402 3.55846 0 0 0 128 0 0 255
-0.542872 -0.514402 3.55778 0 0 0 128 0 0 255
-0.543182 -0.752401 3.55647 0 0 0 128 0 0 255
-0.543995 -0.7314 3.55589 0 0 0 128 0 0 255
-0.546419 -0.281402 3.55591 0 0 0 128 0 0 255
-0.54809 -0.6274 3.55305 0 0 0 128 0 0 255
-0.54828 -0.5294 3.55333 0 0 0 128 0 0 255
-0.549452 -0.329401 3.55328 0 0 0 128 0 0 255
-0.551821 -0.3264 3.55144 0 0 0 128 0 0 255
-0.551839 -0.3174 3.55147 0 0 0 128 0 0 255
-0.554168 -0.755397 3.54779 0 0 0 128 0 0 255
-0.555297 -0.585398 3.54767 0 0 0 128 0 0 255
-0.556918 -0.576398 3.5465 0 0 0 128 0 0 255
-0.558372 -0.2414 3.54686 0 0 0 128 0 0 255
-0.560066 -0.2004 3.5458 0 0 0 128 0 0 255
-0.560622 -0.331399 3.54484 0 0 0 128 0 0 255
-0.560643 -0.739396 3.54309 0 0 0 128 0 0 255
-0.561836 -0.543397 3.54307 0 0 0 128 0 0 255
-0.563794 -0.375398 3.54239 0 0 0 128 0 0 255
-0.564782 -0.711396 3.54029 0 0 0 128 0 0 255
-0.565643 -0.691396 3.53978 0 0 0 128 0 0 255
-0.566546 -0.225399 3.5411 0 0 0 128 0 0 255
-0.566558 -0.219399 3.54112 0 0 0 128 0 0 255
-0.568 -0.753396 3.53791 0 0 0 128 0 0 255
-0.570541 -0.728396 3.53631 0 0 0 128 0 0 255
-0.57394 -0.701396 3.5342 0 0 0 128 0 0 255
-0.574745 -0.719396 3.5336 0 0 0 128 0 0 255
-0.57478 -0.701397 3.53366 0 0 0 128 0 0 255
-0.579875 -0.693397 3.53048 0 0 0 128 0 0 255
-0.582826 -0.492399 3.52949 0 0 0 128 0 0 255
-0.583208 -0.2954 3.53005 0 0 0 128 0 0 255
-0.585969 -0.199401 3.52879 0 0 0 128 0 0 255
-0.587775 -0.157402 3.5279 0 0 0 128 0 0 255
-0.587781 -0.154402 3.5279 0 0 0 128 0 0 255
-0.588467 -0.246402 3.52714 0 0 0 128 0 0 255
-0.589407 -0.208402 3.52675 0 0 0 128 0 0 255
-0.590089 -0.7524 3.52421 0 0 0 128 0 0 255
-0.592732 -0.738401 3.52278 0 0 0 128 0 0 255
-0.593646 -0.718401 3.52235 0 0 0 128 0 0 255
-0.599033 -0.208406 3.52143 0 0 0 128 0 0 255
-0.599046 -0.201406 3.52145 0 0 0 128 0 0 255
-0.599806 -0.265406 3.5208 0 0 0 128 0 0 255
-0.599871 -0.688404 3.51913 0 0 0 128 0 0 255
-0.600746 -0.694404 3.51865 0 0 0 128 0 0 255
-0.60244 -0.737405 3.51761 0 0 0 128 0 0 255
-0.61067 -0.187412 3.51561 0 0 0 128 0 0 255
-0.613515 -0.584412 3.51277 0 0 0 128 0 0 255
-0.614198 -0.699411 3.51202 0 0 0 128 0 0 255
-0.616262 -0.572413 3.51155 0 0 0 128 0 0 255
-0.616553 -0.422414 3.51197 0 0 0 128 0 0 255
-0.618517 -0.820414 3.50961 0 0 0 128 0 0 255
-0.618718 -0.716414 3.5099 0 0 0 128 0 0 255
-0.620496 -0.743415 3.50902 0 0 0 128 0 0 255
-0.621246 -0.356418 3.51012 0 0 0 128 0 0 255
-0.6215 -0.225418 3.51049 0 0 0 128 0 0 255
-0.621541 -0.204419 3.51055 0 0 0 128 0 0 255
-0.621771 -0.558417 3.50915 0 0 0 128 0 0 255
-0.62206 -0.409418 3.50957 0 0 0 128 0 0 255
-0.623593 -0.566418 3.50833 0 0 0 128 0 0 255
-0.625372 -0.598419 3.50746 0 0 0 128 0 0 255
-0.62576 -0.398421 3.50803 0 0 0 128 0 0 255
-0.626107 -0.219422 3.50854 0 0 0 128 0 0 255
-0.625935 -0.784419 3.50655 0 0 0 128 0 0 255
-0.626338 -0.57642 3.50714 0 0 0 128 0 0 255
-0.627039 -0.69142 3.50643 0 0 0 128 0 0 255
-0.6319 -0.575425 3.50489 0 0 0 128 0 0 255
-0.632585 -0.702425 3.50416 0 0 0 128 0 0 255
-0.633116 -0.428426 3.50494 0 0 0 128 0 0 255
-0.633651 -0.152428 3.50573 0 0 0 128 0 0 255
-0.634463 -0.214428 3.50519 0 0 0 128 0 0 255
-0.634339 -0.759426 3.50328 0 0 0 128 0 0 255
-0.634977 -0.430428 3.50421 0 0 0 128 0 0 255
-0.635335 -0.727427 3.50301 0 0 0 128 0 0 255
-0.635916 -0.427429 3.50386 0 0 0 128 0 0 255
-0.638376 -0.60743 3.5023 0 0 0 128 0 0 255
-0.6401 -0.686431 3.50138 0 0 0 128 0 0 255
-0.64024 -0.614432 3.50159 0 0 0 128 0 0 255
-0.640946 -0.735432 3.5009 0 0 0 128 0 0 255
-0.643118 -0.586434 3.50066 0 0 0 128 0 0 255
-0.643682 -0.295436 3.50148 0 0 0 128 0 0 255
-0.643633 -0.807434 3.49969 0 0 0 128 0 0 255
-0.644696 -0.259437 3.50125 0 0 0 128 0 0 255
-0.645633 -0.750436 3.4992 0 0 0 128 0 0 255
-0.648671 -0.160441 3.50024 0 0 0 128 0 0 255
-0.650447 -0.713441 3.49772 0 0 0 128 0 0 255
-0.651346 -0.740442 3.49734 0 0 0 128 0 0 255
-0.655102 -0.277448 3.49775 0 0 0 128 0 0 255
-0.65803 -0.740449 3.49526 0 0 0 128 0 0 255
-0.658833 -0.820449 3.49474 0 0 0 128 0 0 255
-0.659975 -0.231453 3.49642 0 0 0 128 0 0 255
-0.659841 -0.795451 3.49453 0 0 0 128 0 0 255
-0.659976 -0.725451 3.49473 0 0 0 128 0 0 255
-0.660737 -0.828452 3.49416 0 0 0 128 0 0 255
-0.662047 -0.152456 3.49608 0 0 0 128 0 0 255
-0.661715 -0.819453 3.49391 0 0 0 128 0 0 255
-0.664875 -0.182459 3.49518 0 0 0 128 0 0 255
-0.66572 -0.243459 3.49473 0 0 0 128 0 0 255
-0.666814 -0.176461 3.49466 0 0 0 128 0 0 255
-0.667498 -0.819459 3.49231 0 0 0 128 0 0 255
-0.668698 -0.699461 3.49239 0 0 0 128 0 0 255
-0.669849 -0.604463 3.49241 0 0 0 128 0 0 255
-0.6743 -0.809468 3.49061 0 0 0 128 0 0 255
-0.676092 -0.386471 3.49157 0 0 0 128 0 0 255
-0.680365 -0.191477 3.49122 0 0 0 128 0 0 255
-0.681298 -0.716477 3.48928 0 0 0 128 0 0 255
-0.682267 -0.720478 3.48906 0 0 0 128 0 0 255
-0.683316 -0.68348 3.48895 0 0 0 128 0 0 255
-0.686989 -0.808484 3.48778 0 0 0 128 0 0 255
-0.687396 -0.598485 3.48838 0 0 0 128 0 0 255
-0.688185 -0.697486 3.4879 0 0 0 128 0 0 255
-0.690037 -0.754489 3.48735 0 0 0 128 0 0 255
-0.694837 -0.814495 3.48627 0 0 0 128 0 0 255
-0.696939 -0.746498 3.48612 0 0 0 128 0 0 255
-0.698641 -0.377502 3.487 0 0 0 128 0 0 255
-0.699307 -0.542502 3.48637 0 0 0 128 0 0 255
-0.699493 -0.446503 3.48664 0 0 0 128 0 0 255
-0.700959 -0.708504 3.48558 0 0 0 128 0 0 255
-0.70214 -0.099508 3.48731 0 0 0 128 0 0 255
-0.702144 -0.097508 3.48732 0 0 0 128 0 0 255
-0.702008 -0.677506 3.48551 0 0 0 128 0 0 255
-0.702951 -0.700507 3.48529 0 0 0 128 0 0 255
-0.703956 -0.692509 3.48517 0 0 0 128 0 0 255
-0.704246 -0.54251 3.48559 0 0 0 128 0 0 255
-0.705143 -0.590511 3.48531 0 0 0 128 0 0 255
-0.705959 -0.169514 3.48651 0 0 0 128 0 0 255
-0.710382 -0.44252 3.48505 0 0 0 128 0 0 255
-0.714608 -0.822525 3.48335 0 0 0 128 0 0 255
-0.71677 -0.732529 3.48339 0 0 0 128 0 0 255
-0.718606 -0.811532 3.48295 0 0 0 128 0 0 255
-0.720058 -0.575535 3.48352 0 0 0 128 0 0 255
-0.726705 -0.743545 3.48242 0 0 0 128 0 0 255
-0.729804 -0.688551 3.48236 0 0 0 128 0 0 255
-0.730354 -0.404553 3.48317 0 0 0 128 0 0 255
-0.731694 -0.742554 3.48207 0 0 0 128 0 0 255
-0.732755 -0.710556 3.4821 0 0 0 128 0 0 255
-0.736368 -0.391563 3.48285 0 0 0 128 0 0 255
-0.741553 -0.809572 3.48141 0 0 0 128 0 0 255
-0.742967 -0.595575 3.48198 0 0 0 128 0 0 255
-0.744153 -0.499577 3.48223 0 0 0 128 0 0 255
-0.745932 -0.0975816 3.48335 0 0 0 128 0 0 255
-0.747041 -0.556583 3.482 0 0 0 128 0 0 255
-0.747825 -0.152585 3.48315 0 0 0 128 0 0 255
-0.748562 -0.803585 3.48127 0 0 0 128 0 0 255
-0.749508 -0.831587 3.48118 0 0 0 128 0 0 255
-0.750529 -0.820589 3.4812 0 0 0 128 0 0 255
-0.75132 -0.412591 3.48236 0 0 0 128 0 0 255
-0.751373 -0.385591 3.48244 0 0 0 128 0 0 255
-0.755512 -0.313599 3.48265 0 0 0 128 0 0 255
-0.756394 -0.374601 3.48248 0 0 0 128 0 0 255
-0.757062 -0.545602 3.48201 0 0 0 128 0 0 255
-0.757301 -0.422603 3.48236 0 0 0 128 0 0 255
-0.757958 -0.599604 3.48187 0 0 0 128 0 0 255
-0.759066 -0.543606 3.48205 0 0 0 128 0 0 255
-0.759709 -0.727607 3.48154 0 0 0 128 0 0 255
-0.760409 -0.366609 3.48257 0 0 0 128 0 0 255
-0.76096 -0.0826107 3.48338 0 0 0 128 0 0 255
-0.761555 -0.80661 3.48137 0 0 0 128 0 0 255
-0.762791 -0.684613 3.48175 0 0 0 128 0 0 255
-0.762983 -0.585614 3.48203 0 0 0 128 0 0 255
-0.763968 -0.0776168 3.48347 0 0 0 128 0 0 255
-0.763527 -0.820614 3.48139 0 0 0 128 0 0 255
-0.764324 -0.409617 3.48256 0 0 0 128 0 0 255
-0.764732 -0.714617 3.48173 0 0 0 128 0 0 255
-0.764784 -0.687617 3.48181 0 0 0 128 0 0 255
-0.765785 -0.17162 3.48327 0 0 0 128 0 0 255
-0.765727 -0.716619 3.48176 0 0 0 128 0 0 255
-0.766558 -0.803621 3.48156 0 0 0 128 0 0 255
-0.769758 -0.183628 3.48341 0 0 0 128 0 0 255
-0.769725 -0.715627 3.48195 0 0 0 128 0 0 255
-0.771666 -0.744631 3.48198 0 0 0 128 0 0 255
-0.774677 -0.735638 3.48219 0 0 0 128 0 0 255
-0.781788 -0.153654 3.48431 0 0 0 128 0 0 255
-0.789446 -0.82267 3.4833 0 0 0 128 0 0 255
-0.791651 -0.709675 3.48385 0 0 0 128 0 0 255
-0.793472 -0.794679 3.48385 0 0 0 128 0 0 255
-0.794857 -0.591683 3.48456 0 0 0 128 0 0 255
-0.796419 -0.808686 3.4842 0 0 0 128 0 0 255
-0.796431 -0.802686 3.48422 0 0 0 128 0 0 255
-0.798406 -0.805691 3.48449 0 0 0 128 0 0 255
-0.804775 -0.580706 3.48602 0 0 0 128 0 0 255
-0.806724 -0.593711 3.48631 0 0 0 128 0 0 255
-0.806728 -0.591711 3.48631 0 0 0 128 0 0 255
-0.809499 -0.687717 3.48655 0 0 0 128 0 0 255
-0.81067 -0.083721 3.48826 0 0 0 128 0 0 255
-0.810441 -0.70972 3.48666 0 0 0 128 0 0 255
-0.815582 -0.0867331 3.48916 0 0 0 128 0 0 255
-0.815323 -0.726732 3.48753 0 0 0 128 0 0 255
-0.820297 -0.688744 3.48863 0 0 0 128 0 0 255
-0.822173 -0.729749 3.48893 0 0 0 128 0 0 255
-0.823156 -0.726752 3.48915 0 0 0 128 0 0 255
-0.825901 -0.820759 3.48954 0 0 0 128 0 0 255
-0.828887 -0.786766 3.49032 0 0 0 128 0 0 255
-0.83396 -0.67378 3.49184 0 0 0 128 0 0 255
-0.839661 -0.724795 3.49324 0 0 0 128 0 0 255
-0.843515 -0.722806 3.49432 0 0 0 128 0 0 255
-0.844495 -0.712808 3.49463 0 0 0 128 0 0 255
-0.855951 -0.713841 3.49819 0 0 0 128 0 0 255
-0.857724 -0.777846 3.49864 0 0 0 128 0 0 255
-0.864749 -0.0768667 3.50261 0 0 0 128 0 0 255
-0.869886 -0.812882 3.50295 0 0 0 128 0 0 255
-0.869896 -0.807882 3.50296 0 0 0 128 0 0 255
-0.877641 -0.170906 3.50735 0 0 0 128 0 0 255
-0.877596 -0.671906 3.5063 0 0 0 128 0 0 255
-0.879495 -0.168911 3.50811 0 0 0 128 0 0 255
-0.884865 -0.719928 3.50929 0 0 0 128 0 0 255
-0.885321 -0.48493 3.50996 0 0 0 128 0 0 255
-0.889266 -0.802943 3.5111 0 0 0 128 0 0 255
-0.889423 -0.721943 3.51133 0 0 0 128 0 0 255
-0.904569 -0.784994 3.51863 0 0 0 128 0 0 255
-0.905001 -0.561995 3.51926 0 0 0 128 0 0 255
-0.905909 -0.550998 3.51976 0 0 0 128 0 0 255
-0.905945 -0.531998 3.51981 0 0 0 128 0 0 255
-0.910915 -0.695016 3.52219 0 0 0 128 0 0 255
-0.911287 -0.503017 3.52273 0 0 0 128 0 0 255
-0.921651 -0.527054 3.52863 0 0 0 128 0 0 255
-0.926765 -0.531073 3.53174 0 0 0 128 0 0 255
-0.929819 -0.701084 3.53339 0 0 0 128 0 0 255
-0.933776 -0.822099 3.53578 0 0 0 128 0 0 255
-0.93482 -0.713103 3.53664 0 0 0 128 0 0 255
-0.952107 -0.616172 3.5491 0 0 0 128 0 0 255
-0.955334 -0.585185 3.55163 0 0 0 128 0 0 255
-0.955677 -0.814187 3.5516 0 0 0 128 0 0 255
-0.959163 -0.630201 3.55461 0 0 0 128 0 0 255
-0.974566 -0.896269 3.56755 0 0 0 128 0 0 255
