ply
format ascii 1.0
comment VCGLIB generated
element vertex 1006
property float x
property float y
property float z
property float nx
property float ny
property float nz
property uchar red
property uchar green
property uchar blue
property uchar alpha
element face 0
property list uchar int vertex_indices
end_header
-1.75572 -0.239303 5.71093 0 0 0 153 102 79 255
-1.65784 -0.24635 5.78671 0 0 0 146 102 80 255
0.44673 -0.154514 4.31405 0 0 0 86 94 78 255
-0.118723 -0.132949 4.27308 0 0 0 130 142 110 255
-0.171428 -0.111931 4.28538 0 0 0 87 99 86 255
-0.112137 -0.115222 4.28694 0 0 0 144 159 123 255
-0.0352853 -0.107851 4.31429 0 0 0 95 105 83 255
0.27192 -0.104709 4.31807 0 0 0 96 106 96 255
0.481344 -0.0928877 4.29222 0 0 0 153 163 116 255
0.586191 -0.0937197 4.33155 0 0 0 46 55 52 255
-1.57861 -0.117178 5.82073 0 0 0 89 85 78 255
-1.47962 -0.13056 5.87727 0 0 0 139 127 111 255
-1.30389 -0.136767 5.83408 0 0 0 140 132 123 255
0.034592 -0.0834245 4.32015 0 0 0 81 88 56 255
0.2827 -0.0777494 4.31318 0 0 0 96 106 85 255
0.634468 -0.0808656 4.33908 0 0 0 88 97 89 255
-1.6255 -0.110302 5.85939 0 0 0 101 95 90 255
-2.01278 -0.0924096 5.84519 0 0 0 123 118 111 255
-1.68813 -0.0906247 5.80111 0 0 0 93 86 85 255
-1.54603 -0.105647 5.83435 0 0 0 142 131 126 255
-0.101402 -0.0464171 4.29103 0 0 0 134 144 109 255
-0.870308 -0.0734653 6.05131 0 0 0 180 162 146 255
0.0331673 -0.0390816 4.28763 0 0 0 118 128 107 255
0.514977 -0.0451364 4.34313 0 0 0 119 127 102 255
0.817284 -0.0299613 4.37844 0 0 0 150 163 121 255
-0.434642 -0.03954 4.34679 0 0 0 163 178 143 255
-0.183742 -0.0273579 4.29431 0 0 0 134 144 109 255
0.277991 -0.0405705 4.28664 0 0 0 142 152 116 255
-0.354588 -0.000309591 4.27935 0 0 0 105 108 92 255
0.567607 -0.00476482 4.32271 0 0 0 116 127 113 255
0.283843 0.00882277 4.36706 0 0 0 154 164 117 255
0.753363 0.0256621 4.36066 0 0 0 105 114 101 255
-1.44013 0.0452498 5.83617 0 0 0 129 88 67 255
0.799832 0.0510129 4.34745 0 0 0 151 162 117 255
-0.41689 0.0580058 4.27284 0 0 0 157 177 139 255
-0.34575 0.062656 4.29298 0 0 0 156 174 131 255
0.250224 0.0794183 4.30675 0 0 0 148 159 118 255
0.359074 0.08449 4.27536 0 0 0 155 168 113 255
0.143688 0.1121 4.31245 0 0 0 122 134 117 255
0.000830402 0.119761 4.306 0 0 0 167 177 144 255
0.215105 0.113159 4.33465 0 0 0 137 141 101 255
-2.07005 0.158005 5.79564 0 0 0 108 88 78 255
0.645576 0.1272 4.35211 0 0 0 77 87 84 255
-0.29509 0.159724 4.3182 0 0 0 165 184 137 255
0.47623 0.163045 4.32873 0 0 0 54 62 59 255
-2.02172 0.221213 5.95011 0 0 0 65 56 52 255
0.548655 0.180606 4.3124 0 0 0 142 152 123 255
-0.401925 0.18757 4.24542 0 0 0 150 163 138 255
-0.297049 0.194696 4.30525 0 0 0 82 90 79 255
0.283518 0.198689 4.34789 0 0 0 90 99 86 255
-2.00534 0.283111 5.98998 0 0 0 46 35 32 255
0.302693 0.231466 4.39638 0 0 0 159 173 129 255
-0.128743 0.229211 4.353 0 0 0 161 177 130 255
0.648291 0.236023 4.36631 0 0 0 131 140 112 255
0.0263139 0.258481 4.29438 0 0 0 124 136 104 255
-0.333307 0.279573 4.33764 0 0 0 59 64 63 255
0.604442 0.261725 4.36934 0 0 0 52 56 49 255
-2.03318 0.35129 5.89803 0 0 0 66 42 40 255
-0.158952 0.283267 4.3579 0 0 0 143 154 116 255
0.461976 0.281504 4.32742 0 0 0 149 161 133 255
0.764306 0.289241 4.42191 0 0 0 123 132 91 255
0.366823 0.296896 4.34752 0 0 0 144 156 111 255
-0.404929 0.305634 4.34943 0 0 0 135 148 124 255
0.259682 0.311403 4.363 0 0 0 137 148 119 255
0.640753 0.308188 4.42798 0 0 0 144 157 109 255
0.713245 0.311477 4.39451 0 0 0 155 168 118 255
-0.194065 0.31942 4.32592 0 0 0 53 62 59 255
0.30756 0.317996 4.35816 0 0 0 120 121 92 255
0.367219 0.33027 4.38508 0 0 0 144 157 118 255
-0.371605 0.329433 4.30261 0 0 0 49 52 47 255
-1.57344 0.459536 6.06073 0 0 0 42 33 27 255
-0.0978855 0.350053 4.35616 0 0 0 141 160 115 255
-0.357102 0.375105 4.37248 0 0 0 127 142 121 255
-0.187456 0.376605 4.37265 0 0 0 145 156 117 255
0.786162 0.367083 4.38543 0 0 0 99 99 97 255
-2.18958 0.499854 6.1868 0 0 0 64 50 37 255
0.653216 0.37929 4.38141 0 0 0 100 110 116 255
-1.53185 0.519953 6.03407 0 0 0 118 92 77 255
0.325041 0.392162 4.37046 0 0 0 108 117 116 255
0.400018 0.396974 4.36275 0 0 0 138 142 142 255
0.0355868 0.403523 4.37289 0 0 0 116 123 123 255
0.350865 0.404715 4.35971 0 0 0 81 84 86 255
0.499703 0.39941 4.38283 0 0 0 158 158 158 255
-1.6042 0.573339 5.99329 0 0 0 35 32 33 255
0.104127 0.419188 4.34809 0 0 0 133 137 140 255
0.123833 0.42367 4.32287 0 0 0 72 78 79 255
-0.300204 0.438813 4.31691 0 0 0 135 136 136 255
-1.19948 0.608491 5.99644 0 0 0 59 43 37 255
-0.265552 0.442376 4.33386 0 0 0 135 137 143 255
-0.220782 0.449032 4.31606 0 0 0 126 130 130 255
0.578339 0.472362 4.42014 0 0 0 85 102 110 255
0.349969 0.477971 4.38621 0 0 0 101 112 120 255
-1.79841 0.689989 5.95149 0 0 0 149 117 91 255
0.60356 0.535102 4.40857 0 0 0 190 199 198 255
0.3759 0.539994 4.36818 0 0 0 168 177 176 255
0.218941 0.553033 4.32396 0 0 0 190 197 197 255
0.244268 0.551575 4.34395 0 0 0 168 172 175 255
-1.14781 0.759814 6.04497 0 0 0 66 50 46 255
-0.178158 0.5795 4.3477 0 0 0 189 194 195 255
0.742847 0.613126 4.46114 0 0 0 170 179 181 255
-1.52376 0.885672 5.9798 0 0 0 130 103 85 255
0.181496 0.684134 4.44994 0 0 0 156 160 161 255
0.707471 0.67149 4.44967 0 0 0 144 151 155 255
0.224904 0.690215 4.4462 0 0 0 192 201 201 255
-1.25929 0.973998 6.1494 0 0 0 87 72 65 255
-1.90461 0.970737 6.07913 0 0 0 69 58 54 255
0.663844 0.726627 4.44246 0 0 0 118 121 121 255
0.592601 0.737154 4.43489 0 0 0 101 110 111 255
0.704828 0.756626 4.45836 0 0 0 189 195 194 255
-0.403511 0.759085 4.37569 0 0 0 68 75 75 255
-0.201308 0.751717 4.38679 0 0 0 115 123 125 255
-0.163754 0.769183 4.41477 0 0 0 189 198 197 255
0.626241 0.763992 4.42512 0 0 0 150 160 163 255
0.725462 0.755502 4.47099 0 0 0 149 153 151 255
-0.494534 0.776908 4.38022 0 0 0 156 173 149 255
-1.3006 1.10012 6.16711 0 0 0 63 55 51 255
-0.428459 0.809598 4.41089 0 0 0 163 186 158 255
-0.281091 0.809257 4.39004 0 0 0 182 188 188 255
0.0758158 0.810943 4.39495 0 0 0 195 202 202 255
-0.127108 0.822895 4.39371 0 0 0 120 129 130 255
-0.396515 0.841779 4.42076 0 0 0 77 88 79 255
-0.253701 0.839488 4.37087 0 0 0 115 122 122 255
-0.10526 0.829786 4.39195 0 0 0 124 132 136 255
0.0424631 0.832373 4.4142 0 0 0 172 178 179 255
0.174979 0.866436 4.45205 0 0 0 188 197 196 255
-0.0314944 0.875008 4.4243 0 0 0 195 203 205 255
-0.39119 0.875839 4.36419 0 0 0 165 188 160 255
-0.0944224 0.895588 4.47807 0 0 0 194 205 203 255
-0.29745 0.875376 4.34757 0 0 0 196 204 204 255
-0.207642 0.89791 4.43623 0 0 0 116 122 122 255
0.2624 0.906552 4.46353 0 0 0 114 121 123 255
0.579306 0.911049 4.45364 0 0 0 187 200 200 255
0.628269 0.916397 4.45954 0 0 0 135 144 143 255
-0.627652 0.971151 4.77724 0 0 0 122 98 87 255
-0.368576 0.89793 4.3852 0 0 0 126 133 128 255
-0.261212 0.918212 4.47228 0 0 0 196 205 202 255
-0.537351 0.97677 4.5426 0 0 0 158 184 173 255
-0.314218 0.957802 4.44263 0 0 0 125 129 129 255
0.263963 0.949147 4.42666 0 0 0 186 193 193 255
-1.35074 1.36007 6.18564 0 0 0 128 107 94 255
-0.364238 0.995694 4.42611 0 0 0 183 190 188 255
0.242569 1.06402 4.52032 0 0 0 163 174 175 255
-0.396093 1.09638 4.47713 0 0 0 66 71 69 255
-1.29475 1.66942 6.80868 0 0 0 73 60 53 255
-0.753162 1.5563 6.15339 0 0 0 177 183 182 255
-1.62165 1.6291 6.32874 0 0 0 95 85 79 255
-2.05493 -0.648761 5.7799 0 0 0 136 112 94 255
-2.07971 -0.615934 5.78948 0 0 0 150 123 107 255
-2.03425 -0.60739 5.73079 0 0 0 128 91 73 255
0.767571 -0.393479 4.25909 0 0 0 157 174 121 255
-1.51467 -0.479431 5.78341 0 0 0 138 102 84 255
-0.0170133 -0.267243 4.28058 0 0 0 138 151 111 255
-1.5595 -0.267083 5.83925 0 0 0 138 124 111 255
0.0623409 -0.127468 4.29063 0 0 0 127 137 104 255
-0.111847 -0.114908 4.2902 0 0 0 144 159 123 255
-1.43531 -0.121955 5.88233 0 0 0 169 161 150 255
0.572703 -0.0762668 4.31038 0 0 0 47 57 54 255
-1.88555 -0.0923811 5.84039 0 0 0 110 104 97 255
-0.43115 -0.0462907 4.34929 0 0 0 162 177 142 255
0.791855 -0.0604758 4.29208 0 0 0 142 156 117 255
-2.013 -0.0815539 5.85475 0 0 0 152 152 152 255
0.00900688 -0.0411198 4.30644 0 0 0 83 88 61 255
-0.354446 0.00772307 4.27262 0 0 0 91 99 85 255
0.292493 -0.00391043 4.3602 0 0 0 162 179 121 255
0.468284 -0.0168755 4.33812 0 0 0 70 77 68 255
-1.37682 0.0123746 5.89584 0 0 0 39 39 39 255
-0.418837 0.049205 4.28488 0 0 0 157 177 139 255
0.803049 0.0547709 4.34775 0 0 0 151 161 115 255
-2.11909 0.0574326 5.92631 0 0 0 38 38 38 255
-2.06035 0.0598761 5.87181 0 0 0 40 37 37 255
-0.370759 0.103098 4.28839 0 0 0 62 68 65 255
0.239967 0.1046 4.33337 0 0 0 156 173 126 255
0.35717 0.0932019 4.26098 0 0 0 152 168 112 255
-0.360739 0.142931 4.27385 0 0 0 57 69 62 255
-0.298147 0.144835 4.31241 0 0 0 163 185 137 255
0.246799 0.162894 4.33621 0 0 0 76 86 77 255
-0.276063 0.185837 4.31356 0 0 0 53 66 56 255
-2.01883 0.268565 5.98118 0 0 0 99 84 73 255
-0.401092 0.19842 4.24561 0 0 0 147 166 132 255
0.350957 0.200601 4.38026 0 0 0 160 179 118 255
-0.195835 0.215021 4.30647 0 0 0 57 60 54 255
-1.98785 0.297328 5.96482 0 0 0 40 38 37 255
0.60876 0.246175 4.37751 0 0 0 56 61 59 255
-2.06607 0.337406 5.89568 0 0 0 67 39 37 255
-2.12288 0.342339 5.82043 0 0 0 114 82 67 255
-0.407168 0.287374 4.37808 0 0 0 145 159 133 255
0.658493 0.29764 4.44803 0 0 0 154 169 121 255
-0.107827 0.289075 4.33931 0 0 0 73 88 74 255
0.280262 0.30151 4.3712 0 0 0 136 146 113 255
0.371949 0.325464 4.38255 0 0 0 146 160 116 255
-0.294986 0.331691 4.31289 0 0 0 130 145 107 255
-0.180129 0.352586 4.36323 0 0 0 168 178 140 255
-0.144606 0.343724 4.36268 0 0 0 163 178 130 255
-1.80919 0.491117 6.01184 0 0 0 129 101 77 255
-2.13524 0.511245 6.0765 0 0 0 53 50 42 255
-0.347577 0.434746 4.30657 0 0 0 170 172 171 255
-0.148545 0.428904 4.34252 0 0 0 136 138 140 255
-0.0879922 0.405999 4.32582 0 0 0 45 55 52 255
-0.447351 0.438883 4.35334 0 0 0 90 99 93 255
-2.13746 0.580158 5.77572 0 0 0 78 44 37 255
-1.83917 0.679257 5.98579 0 0 0 142 106 86 255
0.60208 0.541308 4.40023 0 0 0 192 199 199 255
-1.30553 0.725138 6.03603 0 0 0 109 88 79 255
0.746312 0.603981 4.44103 0 0 0 183 192 193 255
0.797466 0.597883 4.41705 0 0 0 138 141 141 255
-1.69248 0.841499 6.1161 0 0 0 147 121 98 255
-1.76105 0.874988 6.04569 0 0 0 146 114 92 255
0.238252 0.673433 4.43556 0 0 0 194 200 200 255
-1.89107 0.952742 6.07853 0 0 0 57 52 51 255
-1.50809 0.914013 5.94945 0 0 0 136 102 82 255
0.175013 0.692764 4.43784 0 0 0 156 161 159 255
-0.0486108 0.712091 4.38503 0 0 0 131 138 141 255
0.62393 0.715938 4.43504 0 0 0 192 200 199 255
-0.410489 0.754668 4.38006 0 0 0 72 83 80 255
0.310005 0.736157 4.35975 0 0 0 193 200 201 255
-0.491201 0.786074 4.36302 0 0 0 159 179 154 255
-0.185145 0.817299 4.40316 0 0 0 179 184 182 255
-0.45648 0.842596 4.4334 0 0 0 100 113 104 255
-0.0586232 0.843726 4.38665 0 0 0 193 200 200 255
0.047668 0.855118 4.44663 0 0 0 188 193 196 255
0.288735 0.90148 4.47313 0 0 0 115 120 123 255
0.00726791 0.89846 4.4375 0 0 0 102 111 112 255
0.575142 0.916562 4.45952 0 0 0 187 200 200 255
-0.52632 0.980173 4.53477 0 0 0 159 188 174 255
0.546589 0.957969 4.53933 0 0 0 194 203 203 255
-0.405053 0.981763 4.42017 0 0 0 79 85 82 255
-0.337434 0.99517 4.44393 0 0 0 195 202 200 255
-0.762511 1.56471 6.15715 0 0 0 178 183 181 255
0.714541 -0.719284 4.56127 0 0 0 92 105 108 255
-0.598146 -0.504587 4.25013 0 0 0 48 55 55 255
-2.09422 -0.615365 5.80238 0 0 0 173 161 147 255
-1.75229 -0.592903 5.80505 0 0 0 156 124 110 255
-1.66544 -0.601042 5.79412 0 0 0 145 100 81 255
-1.52836 -0.615198 5.83081 0 0 0 148 103 80 255
-1.88898 -0.582244 5.81818 0 0 0 135 92 75 255
0.766862 -0.390347 4.25643 0 0 0 161 179 124 255
-2.03782 -0.520104 5.80378 0 0 0 154 108 85 255
-1.48091 -0.466987 5.7655 0 0 0 168 142 128 255
-0.423371 -0.319375 4.19675 0 0 0 161 186 146 255
-0.244144 -0.255241 4.25351 0 0 0 102 110 89 255
-0.0391382 -0.266807 4.29304 0 0 0 85 89 70 255
0.013631 -0.264114 4.27635 0 0 0 85 94 84 255
-1.84913 -0.374282 5.80373 0 0 0 146 99 78 255
0.569621 -0.225972 4.30703 0 0 0 85 93 78 255
-1.76222 -0.253549 5.74197 0 0 0 146 99 75 255
-1.43866 -0.306187 5.83554 0 0 0 138 106 91 255
-0.129344 -0.200294 4.29967 0 0 0 100 110 90 255
0.261871 -0.185148 4.29766 0 0 0 122 131 100 255
0.720234 -0.20074 4.32905 0 0 0 55 64 56 255
-0.0576249 -0.117212 4.28653 0 0 0 159 174 121 255
0.624228 -0.137371 4.32975 0 0 0 117 126 103 255
0.268663 -0.0788564 4.31167 0 0 0 63 73 67 255
0.0124633 -0.0114949 4.31351 0 0 0 72 74 46 255
0.302391 -0.0301262 4.3024 0 0 0 163 181 125 255
-1.34132 0.0138129 5.90333 0 0 0 39 38 38 255
-0.228823 0.00117569 4.3196 0 0 0 168 186 132 255
-1.50892 0.055211 5.84141 0 0 0 37 37 37 255
0.2489 0.0471346 4.32586 0 0 0 61 68 66 255
0.386649 0.0485475 4.3275 0 0 0 59 67 55 255
-0.417423 0.0519889 4.28113 0 0 0 157 177 139 255
0.246105 0.119362 4.34022 0 0 0 157 170 120 255
0.351474 0.134319 4.29793 0 0 0 153 168 115 255
-2.02602 0.194434 5.78699 0 0 0 154 124 97 255
-0.284571 0.145418 4.31392 0 0 0 160 180 130 255
-0.115742 0.147477 4.26239 0 0 0 166 182 126 255
-0.385479 0.201299 4.25991 0 0 0 154 168 126 255
0.356668 0.185398 4.60846 0 0 0 162 181 122 255
0.545326 0.191348 4.30752 0 0 0 142 156 111 255
-0.202421 0.230817 4.29476 0 0 0 58 70 66 255
0.488848 0.206202 4.37281 0 0 0 154 166 122 255
0.609885 0.191411 4.37483 0 0 0 50 55 53 255
-0.413814 0.253544 4.46853 0 0 0 155 174 140 255
-0.156421 0.234629 4.35468 0 0 0 153 170 121 255
-0.199464 0.251115 4.28358 0 0 0 61 69 64 255
0.0163672 0.282777 4.31463 0 0 0 167 182 133 255
0.681399 0.288954 4.47047 0 0 0 159 174 119 255
-1.70833 0.408841 5.90536 0 0 0 40 34 32 255
-0.32455 0.36159 4.36265 0 0 0 111 123 100 255
-1.82771 0.488806 6.02306 0 0 0 130 102 80 255
0.496358 0.389824 4.37383 0 0 0 178 180 182 255
-2.07836 0.541474 5.98792 0 0 0 47 37 32 255
-0.0147737 0.41969 4.33582 0 0 0 183 188 186 255
-2.00273 0.621076 6.01624 0 0 0 48 43 41 255
0.613616 0.541246 4.40719 0 0 0 192 201 201 255
0.195073 0.558773 4.31351 0 0 0 191 199 198 255
-0.16154 0.593445 4.32551 0 0 0 190 199 199 255
0.383803 0.554453 4.36298 0 0 0 171 178 178 255
-1.68539 0.819087 6.07886 0 0 0 138 112 92 255
-0.370742 0.607997 4.30649 0 0 0 133 139 138 255
0.792715 0.630103 4.43177 0 0 0 115 122 124 255
-1.65267 0.894194 6.09314 0 0 0 92 70 57 255
0.607431 0.72642 4.43021 0 0 0 149 155 158 255
-1.86649 0.943962 6.0644 0 0 0 54 51 52 255
-0.43203 0.700466 4.38246 0 0 0 61 64 63 255
-0.205571 0.742061 4.40538 0 0 0 125 134 136 255
0.702696 0.755608 4.45514 0 0 0 189 197 197 255
0.280792 0.749315 4.36055 0 0 0 194 201 204 255
-0.487211 0.828015 4.35477 0 0 0 166 193 162 255
-0.379448 0.835067 4.41976 0 0 0 101 106 101 255
0.08553 0.827392 4.39638 0 0 0 194 204 203 255
-0.255338 0.875627 4.36294 0 0 0 191 201 199 255
-0.157434 0.860704 4.42225 0 0 0 113 115 116 255
-0.0688315 0.883172 4.45656 0 0 0 196 203 203 255
0.28632 0.925299 4.45779 0 0 0 114 123 126 255
0.558024 0.941527 4.49505 0 0 0 192 202 200 255
-0.53486 0.96419 4.5828 0 0 0 161 191 174 255
-0.325722 1.00661 4.46208 0 0 0 195 202 200 255
-0.154941 1.01268 4.4686 0 0 0 193 203 202 255
-1.30113 1.67206 6.80435 0 0 0 99 84 77 255
-1.67838 1.67887 6.62453 0 0 0 67 69 68 255
0.217667 -0.184336 4.28348 0 0 0 56 62 53 255
0.531773 -0.218979 4.30698 0 0 0 121 134 93 255
0.649029 -0.18853 4.30093 0 0 0 73 80 73 255
0.464752 -0.185429 4.33794 0 0 0 113 125 86 255
-0.0180892 -0.133668 4.28793 0 0 0 155 170 120 255
0.228209 -0.155499 4.31025 0 0 0 58 66 56 255
-0.174525 -0.112874 4.28535 0 0 0 91 102 89 255
0.782161 -0.10889 4.38083 0 0 0 64 76 67 255
-0.024242 -0.0759111 4.32797 0 0 0 137 148 108 255
0.298218 -0.0723692 4.30637 0 0 0 141 152 128 255
-0.408655 -0.0291058 4.31634 0 0 0 161 182 136 255
-0.268184 -0.0310486 4.27762 0 0 0 168 186 132 255
0.773765 0.00321021 4.38152 0 0 0 70 77 73 255
-0.109013 0.0428608 4.30125 0 0 0 62 71 68 255
0.234363 0.113758 4.33349 0 0 0 150 167 120 255
0.456323 0.0893307 4.34173 0 0 0 53 60 57 255
-1.91696 0.210363 5.81507 0 0 0 142 111 87 255
-0.40395 0.243694 4.45981 0 0 0 161 181 144 255
0.305537 0.210244 4.41389 0 0 0 159 170 130 255
-0.256027 0.252536 4.29731 0 0 0 47 54 52 255
0.315023 0.291251 4.35623 0 0 0 150 162 117 255
0.669577 0.339324 4.39863 0 0 0 53 63 55 255
0.392677 0.598956 4.37665 0 0 0 165 165 167 255
0.645217 0.606637 4.53673 0 0 0 193 202 202 255
-0.368595 0.613329 4.29529 0 0 0 134 140 143 255
-0.45502 0.708265 4.40699 0 0 0 57 61 62 255
-1.55771 1.06188 6.08525 0 0 0 160 134 113 255
0.264385 0.763856 4.39761 0 0 0 193 202 202 255
-0.179462 0.873666 4.43884 0 0 0 118 126 127 255
-0.560067 0.985041 4.82228 0 0 0 161 194 174 255
-2.6198 -0.802574 5.67807 0 0 0 141 135 135 255
-2.34578 -0.802391 5.6581 0 0 0 90 76 77 255
-2.32546 -0.814877 5.68078 0 0 0 188 184 183 255
-2.6388 -0.782894 5.62338 0 0 0 90 79 85 255
0.95244 -0.440685 4.34815 0 0 0 130 139 124 255
-2.66601 -0.662118 5.69831 0 0 0 125 102 89 255
-0.447154 -0.345287 4.2402 0 0 0 165 184 164 255
-1.24749 -0.666252 5.76947 0 0 0 169 153 145 255
0.921993 -0.377358 4.35221 0 0 0 155 173 140 255
-2.65641 -0.607221 5.6923 0 0 0 95 78 75 255
-1.63947 -0.627217 5.74786 0 0 0 202 189 175 255
-1.32104 -0.63709 5.7736 0 0 0 154 134 126 255
-1.30385 -0.632901 5.75434 0 0 0 155 127 112 255
-1.2586 -0.644619 5.76147 0 0 0 157 138 129 255
-1.21158 -0.642315 5.76461 0 0 0 150 133 123 255
-1.01262 -0.649334 5.77251 0 0 0 153 119 105 255
-1.14099 -0.633814 5.77599 0 0 0 203 188 178 255
-1.22246 -0.618972 5.75397 0 0 0 188 167 158 255
-1.10133 -0.60965 5.74927 0 0 0 144 116 102 255
-1.02873 -0.608787 5.75512 0 0 0 201 186 178 255
-1.15527 -0.588804 5.77235 0 0 0 204 187 174 255
0.0288268 -0.275544 4.26495 0 0 0 92 103 93 255
-1.06874 -0.560501 5.75395 0 0 0 198 189 179 255
-1.35271 -0.552048 5.78349 0 0 0 197 189 183 255
-1.21736 -0.555248 5.77043 0 0 0 202 187 176 255
-1.14646 -0.560674 5.79375 0 0 0 195 185 177 255
-1.10081 -0.552278 5.76099 0 0 0 166 154 142 255
-1.20685 -0.53305 5.76297 0 0 0 135 124 114 255
-1.05748 -0.536615 5.76595 0 0 0 142 114 103 255
-1.03185 -0.547311 5.79066 0 0 0 177 163 151 255
-1.27832 -0.524333 5.7374 0 0 0 158 121 106 255
-1.22521 -0.520863 5.77224 0 0 0 187 158 148 255
-1.12344 -0.534526 5.77235 0 0 0 140 116 105 255
-2.6486 -0.482076 5.75813 0 0 0 87 69 55 255
-2.64217 -0.402084 5.73098 0 0 0 52 37 40 255
-2.64588 -0.384093 5.71552 0 0 0 104 89 88 255
0.555119 -0.200581 4.35553 0 0 0 121 133 113 255
-1.86409 -0.396662 5.74798 0 0 0 147 130 116 255
-1.82961 -0.389229 5.79448 0 0 0 202 173 157 255
0.503771 -0.169367 4.32051 0 0 0 113 126 112 255
0.965146 -0.191018 4.37768 0 0 0 122 139 119 255
-1.48749 -0.35895 5.78455 0 0 0 146 130 116 255
-1.28367 -0.363071 5.80831 0 0 0 149 131 121 255
-1.21727 -0.346699 5.77792 0 0 0 199 188 178 255
0.493476 -0.13471 4.32079 0 0 0 93 107 92 255
0.600219 -0.118413 4.33896 0 0 0 108 124 111 255
-1.79871 -0.301134 5.84126 0 0 0 198 182 168 255
0.0269603 -0.0943093 4.2871 0 0 0 123 139 101 255
0.508731 -0.0989294 4.32529 0 0 0 129 143 110 255
-1.68011 -0.257739 5.7971 0 0 0 199 185 174 255
-1.38808 -0.27769 5.84235 0 0 0 203 189 173 255
0.494955 -0.0873674 4.32449 0 0 0 158 174 133 255
-1.27419 -0.260297 5.81 0 0 0 151 121 107 255
-1.25633 -0.262527 5.81019 0 0 0 146 107 86 255
-1.19595 -0.263381 5.81195 0 0 0 152 114 99 255
-1.18344 -0.267718 5.80741 0 0 0 155 112 94 255
0.0167729 -0.0599094 4.28854 0 0 0 151 170 128 255
-1.59721 -0.233141 5.81554 0 0 0 168 142 128 255
-1.57716 -0.231899 5.78193 0 0 0 154 124 111 255
0.974497 -0.0764209 4.39467 0 0 0 124 136 120 255
-2.66801 -0.162684 5.81139 0 0 0 116 70 67 255
-2.64405 -0.17663 5.85707 0 0 0 144 92 64 255
0.975422 -0.0347581 4.39357 0 0 0 126 141 124 255
-1.05718 -0.17123 5.83689 0 0 0 177 169 160 255
-1.29726 -0.154653 5.84191 0 0 0 136 131 121 255
-1.22103 -0.154463 5.84295 0 0 0 119 114 104 255
-1.10871 -0.169624 5.84497 0 0 0 191 180 168 255
-1.03317 -0.162972 5.84154 0 0 0 195 183 172 255
-1.41602 -0.146137 5.83793 0 0 0 148 139 128 255
-1.16362 -0.157179 5.84657 0 0 0 149 140 124 255
0.824914 -0.0186189 4.37797 0 0 0 148 162 124 255
-1.56587 -0.135703 5.85513 0 0 0 182 174 163 255
-1.05445 -0.147051 5.84103 0 0 0 102 96 94 255
-0.354123 0.0364235 4.25615 0 0 0 133 147 131 255
0.263437 0.00992362 4.32892 0 0 0 124 142 128 255
-1.81306 -0.127086 5.85022 0 0 0 143 139 133 255
-1.20568 -0.137595 5.83176 0 0 0 141 137 134 255
-1.11508 -0.137533 5.825 0 0 0 120 116 111 255
-1.09823 -0.13947 5.8564 0 0 0 194 184 172 255
-1.05147 -0.131069 5.82812 0 0 0 95 93 91 255
-1.16659 -0.11672 5.81106 0 0 0 99 96 94 255
-1.10452 -0.115441 5.82242 0 0 0 81 78 71 255
-1.02732 -0.127931 5.84058 0 0 0 171 167 166 255
-1.0185 -0.127182 5.85159 0 0 0 160 155 154 255
-1.44116 -0.096689 5.81634 0 0 0 111 108 104 255
-1.05038 -0.113792 5.81944 0 0 0 104 102 98 255
-1.78829 -0.0862826 5.83209 0 0 0 173 169 163 255
-1.30829 -0.102239 5.83393 0 0 0 148 145 137 255
-1.27525 -0.0996044 5.83146 0 0 0 155 148 139 255
-1.22992 -0.0989413 5.82328 0 0 0 112 107 97 255
-1.22383 -0.0995187 5.829 0 0 0 114 108 101 255
-1.15283 -0.102808 5.82217 0 0 0 195 184 172 255
-1.09087 -0.110155 5.8412 0 0 0 132 123 112 255
0.825703 0.017336 4.37899 0 0 0 135 142 119 255
0.974381 0.0090971 4.38839 0 0 0 127 138 128 255
-1.55965 -0.0831721 5.82922 0 0 0 194 186 177 255
-1.59875 -0.0772301 5.81785 0 0 0 143 136 129 255
-1.79945 -0.0709893 5.84348 0 0 0 157 148 134 255
-0.202985 0.106293 4.31022 0 0 0 153 165 147 255
-0.122233 0.0980915 4.30742 0 0 0 93 103 99 255
0.808944 0.0692236 4.37558 0 0 0 98 110 91 255
-0.295795 0.108393 4.29113 0 0 0 157 171 155 255
-0.27205 0.107643 4.28475 0 0 0 133 144 133 255
0.821775 0.0720663 4.38459 0 0 0 133 148 124 255
-2.36996 0.0390155 5.89924 0 0 0 88 47 43 255
-2.36489 0.0278241 5.94793 0 0 0 200 169 161 255
-1.02334 0.00341282 5.86485 0 0 0 117 117 117 255
-1.20489 0.0180025 5.838 0 0 0 151 148 146 255
-1.28237 0.0269017 5.84078 0 0 0 151 142 132 255
-1.22184 0.0172509 5.83048 0 0 0 136 131 131 255
-1.15419 0.0258876 5.82747 0 0 0 162 157 150 255
-1.08699 0.0166563 5.84869 0 0 0 143 139 138 255
-1.02279 0.0214993 5.86538 0 0 0 122 120 121 255
-2.34626 0.0593356 5.91917 0 0 0 43 36 35 255
-1.20496 0.0371972 5.85386 0 0 0 146 139 125 255
-1.28721 0.0399194 5.82674 0 0 0 162 158 155 255
-1.13084 0.034297 5.84161 0 0 0 168 160 154 255
-1.08077 0.0274375 5.84494 0 0 0 150 145 136 255
-1.02154 0.0281545 5.86853 0 0 0 164 159 147 255
-0.416574 0.161077 4.30102 0 0 0 102 113 105 255
-0.0866968 0.150838 4.27868 0 0 0 172 192 141 255
-1.87144 0.0750945 5.87189 0 0 0 182 168 146 255
-1.88376 0.0785112 5.85578 0 0 0 180 169 159 255
-0.633626 0.144076 4.63917 0 0 0 43 46 45 255
-0.365528 0.173647 4.26015 0 0 0 94 112 99 255
-0.222599 0.175543 4.30352 0 0 0 96 109 97 255
-0.0977236 0.166569 4.28908 0 0 0 127 145 103 255
-0.211112 0.183238 4.3037 0 0 0 119 141 118 255
-0.311958 0.190393 4.31592 0 0 0 128 142 126 255
-0.268113 0.199933 4.31555 0 0 0 88 102 97 255
-2.36218 0.16154 5.93221 0 0 0 121 90 71 255
-1.3085 0.138905 5.86618 0 0 0 99 73 57 255
-0.275403 0.222806 4.3113 0 0 0 47 60 51 255
-0.276102 0.234558 4.30885 0 0 0 47 61 57 255
0.903553 0.19468 4.4026 0 0 0 88 95 89 255
-0.240769 0.243418 4.31724 0 0 0 52 62 57 255
0.916997 0.207527 4.40509 0 0 0 79 80 77 255
-0.355258 0.26515 4.2883 0 0 0 169 194 154 255
-0.287786 0.256686 4.308 0 0 0 102 120 110 255
0.638978 0.236567 4.38216 0 0 0 86 101 94 255
0.930558 0.221649 4.41341 0 0 0 122 131 112 255
-0.366226 0.273794 4.30355 0 0 0 137 161 125 255
-0.35255 0.303099 4.31306 0 0 0 129 148 128 255
-0.351275 0.308491 4.3114 0 0 0 128 145 126 255
0.623052 0.280419 4.39774 0 0 0 109 122 114 255
0.90887 0.27446 4.41151 0 0 0 161 177 133 255
-0.363405 0.344141 4.3171 0 0 0 100 110 107 255
0.555291 0.321048 4.38379 0 0 0 88 106 102 255
-0.334798 0.365242 4.34162 0 0 0 153 171 158 255
-0.281293 0.371447 4.35099 0 0 0 100 112 106 255
-0.0555276 0.362843 4.34674 0 0 0 67 82 74 255
0.989949 0.327762 4.4365 0 0 0 130 145 151 255
0.942885 0.335844 4.42027 0 0 0 170 176 178 255
1.39719 0.304396 5.27609 0 0 0 46 55 59 255
0.496935 0.362705 4.3814 0 0 0 148 159 166 255
0.845843 0.349325 4.41798 0 0 0 100 106 109 255
1.05378 0.340717 4.4313 0 0 0 126 127 127 255
1.07975 0.338915 4.43446 0 0 0 130 138 143 255
0.559359 0.360994 4.37449 0 0 0 48 61 68 255
0.875642 0.350392 4.42244 0 0 0 125 130 134 255
0.964759 0.34504 4.42607 0 0 0 80 78 79 255
1.01967 0.341915 4.44016 0 0 0 153 155 158 255
0.49303 0.369052 4.38342 0 0 0 135 156 169 255
0.635671 0.365004 4.3942 0 0 0 57 59 59 255
0.826623 0.353656 4.42598 0 0 0 140 159 161 255
0.901765 0.356091 4.43838 0 0 0 134 141 150 255
1.03916 0.349947 4.43794 0 0 0 159 159 159 255
1.26731 0.337978 4.91696 0 0 0 92 106 117 255
0.240606 0.386506 4.36834 0 0 0 136 145 148 255
1.11407 0.359935 4.42382 0 0 0 60 57 61 255
-1.53215 0.420901 5.91755 0 0 0 91 68 51 255
0.707912 0.374485 4.40666 0 0 0 142 152 152 255
0.862335 0.368617 4.42545 0 0 0 57 61 63 255
1.05345 0.363269 4.42936 0 0 0 172 173 176 255
1.10209 0.360545 4.43594 0 0 0 111 128 135 255
-0.233616 0.414254 4.33197 0 0 0 111 116 123 255
-0.175176 0.413447 4.33356 0 0 0 124 134 140 255
-0.0192443 0.406144 4.34233 0 0 0 194 203 204 255
0.164778 0.395178 4.35481 0 0 0 47 61 66 255
1.0441 0.367943 4.43265 0 0 0 50 52 54 255
-0.333675 0.423112 4.33558 0 0 0 53 58 61 255
-0.155244 0.410998 4.33009 0 0 0 125 129 134 255
0.96532 0.374852 4.42536 0 0 0 186 197 198 255
1.01302 0.373841 4.43612 0 0 0 84 104 109 255
-0.0337474 0.416873 4.34407 0 0 0 52 62 68 255
0.518853 0.39675 4.39791 0 0 0 56 59 61 255
0.63449 0.392949 4.39244 0 0 0 129 134 135 255
0.828309 0.386252 4.4218 0 0 0 138 154 159 255
0.876022 0.387112 4.42168 0 0 0 136 156 160 255
0.904826 0.384514 4.44102 0 0 0 106 113 115 255
1.0356 0.37867 4.4352 0 0 0 126 128 130 255
1.07993 0.376182 4.43131 0 0 0 114 128 132 255
1.10664 0.371798 4.43027 0 0 0 144 141 144 255
-0.181114 0.425389 4.33868 0 0 0 70 76 80 255
-0.130687 0.429293 4.35594 0 0 0 134 145 152 255
0.21765 0.413309 4.36337 0 0 0 131 137 138 255
0.336488 0.409277 4.37377 0 0 0 53 54 54 255
0.38845 0.409875 4.36751 0 0 0 75 81 88 255
0.662366 0.398069 4.40472 0 0 0 128 144 148 255
0.898949 0.38474 4.4415 0 0 0 64 64 67 255
-2.61484 0.507675 5.98501 0 0 0 123 96 80 255
-0.0500797 0.428731 4.34094 0 0 0 57 56 59 255
0.048281 0.427059 4.34818 0 0 0 160 160 160 255
0.53039 0.409718 4.39479 0 0 0 143 151 156 255
0.549892 0.406119 4.37687 0 0 0 67 70 77 255
0.59046 0.402637 4.38824 0 0 0 104 116 123 255
0.614523 0.404802 4.38887 0 0 0 118 133 140 255
0.376916 0.41732 4.36999 0 0 0 106 124 129 255
-0.407789 0.449438 4.30905 0 0 0 92 106 104 255
-0.0246787 0.437641 4.34148 0 0 0 158 167 173 255
0.210153 0.429589 4.35202 0 0 0 68 72 80 255
0.282741 0.426911 4.37128 0 0 0 102 106 109 255
-0.288506 0.452584 4.32557 0 0 0 46 51 49 255
-0.241385 0.45704 4.34778 0 0 0 156 158 162 255
-0.0293591 0.441409 4.34385 0 0 0 143 156 167 255
0.0289365 0.439119 4.34602 0 0 0 117 130 135 255
-0.578883 0.463266 4.52583 0 0 0 65 66 66 255
-0.174607 0.452763 4.33802 0 0 0 90 95 100 255
0.843675 0.439579 4.42173 0 0 0 126 130 133 255
0.867475 0.435517 4.42927 0 0 0 85 102 107 255
0.433628 0.458277 4.38867 0 0 0 84 95 100 255
0.897746 0.445795 4.43276 0 0 0 76 84 93 255
0.930296 0.441632 4.44141 0 0 0 83 92 101 255
0.973602 0.441946 4.43532 0 0 0 112 121 126 255
1.03367 0.43756 4.43686 0 0 0 95 101 106 255
0.707778 0.456768 4.41529 0 0 0 101 111 117 255
1.05912 0.440702 4.42736 0 0 0 115 131 145 255
1.08103 0.441126 4.42836 0 0 0 121 130 132 255
1.10738 0.445048 4.43369 0 0 0 100 103 109 255
-1.04876 0.540227 5.90166 0 0 0 128 114 104 255
0.4262 0.470654 4.38438 0 0 0 55 56 59 255
0.772654 0.457373 4.42947 0 0 0 110 117 123 255
0.852896 0.455326 4.42264 0 0 0 123 133 139 255
1.02215 0.447718 4.43099 0 0 0 90 100 108 255
-1.08311 0.545522 5.90398 0 0 0 61 49 53 255
0.410532 0.474569 4.37693 0 0 0 83 95 108 255
0.667684 0.470938 4.42237 0 0 0 116 122 129 255
0.74134 0.463594 4.41728 0 0 0 114 124 126 255
0.931909 0.455045 4.44609 0 0 0 98 100 105 255
0.558143 0.479681 4.39385 0 0 0 93 111 119 255
0.628149 0.472998 4.41474 0 0 0 81 89 91 255
-1.02673 0.557674 5.91936 0 0 0 67 52 46 255
0.355104 0.487684 4.38895 0 0 0 115 137 147 255
-1.94104 0.614039 6.07593 0 0 0 111 97 83 255
-0.975145 0.576195 5.92531 0 0 0 64 56 52 255
-0.958053 0.580335 5.93003 0 0 0 61 53 51 255
-1.654 0.616623 5.95663 0 0 0 62 49 44 255
-1.51848 0.602778 5.97109 0 0 0 59 47 45 255
-1.11394 0.608236 5.96399 0 0 0 74 55 45 255
1.00813 0.502171 4.43898 0 0 0 192 192 193 255
0.545747 0.526465 4.40496 0 0 0 127 137 146 255
-1.45691 0.664444 5.98964 0 0 0 120 90 78 255
-1.17709 0.660817 5.96417 0 0 0 86 66 59 255
-1.33139 0.67252 5.97925 0 0 0 60 44 45 255
0.778928 0.548933 4.43481 0 0 0 141 141 143 255
0.935329 0.558338 4.4338 0 0 0 175 181 186 255
-1.06197 0.709078 5.96537 0 0 0 92 73 64 255
0.985696 0.566487 4.43927 0 0 0 140 144 146 255
-1.00463 0.711488 5.97017 0 0 0 82 64 56 255
-1.34686 0.740688 5.96707 0 0 0 50 38 37 255
-0.971181 0.733233 5.9821 0 0 0 92 76 69 255
0.693672 0.59976 4.43552 0 0 0 161 163 167 255
-0.923054 0.740524 5.98834 0 0 0 78 62 54 255
0.90383 0.5911 4.4589 0 0 0 154 155 157 255
-1.56225 0.788076 6.01257 0 0 0 63 53 45 255
0.944131 0.60477 4.44789 0 0 0 134 133 136 255
0.955221 0.603276 4.43792 0 0 0 168 179 182 255
-1.10562 0.769068 5.97005 0 0 0 115 103 99 255
-0.961441 0.762367 5.98135 0 0 0 90 75 65 255
-1.36013 0.784445 5.98569 0 0 0 70 53 45 255
0.238892 0.63524 4.38653 0 0 0 169 175 178 255
-0.185036 0.659322 4.38236 0 0 0 188 194 199 255
-1.37731 0.803654 5.97375 0 0 0 85 59 50 255
0.62508 0.636132 4.43456 0 0 0 178 188 191 255
-0.178831 0.675274 4.3906 0 0 0 168 172 175 255
0.839004 0.636511 4.44422 0 0 0 187 198 201 255
0.912769 0.633705 4.44789 0 0 0 92 97 99 255
0.937475 0.635326 4.45372 0 0 0 177 179 183 255
1.02629 0.637911 4.47103 0 0 0 192 194 196 255
1.00329 0.647477 4.45782 0 0 0 170 186 188 255
-2.13169 0.894573 6.10717 0 0 0 118 85 64 255
-0.038816 0.693473 4.38468 0 0 0 203 213 214 255
0.156168 0.686985 4.39912 0 0 0 141 141 142 255
0.827712 0.666348 4.4525 0 0 0 181 194 199 255
1.01984 0.654547 4.46841 0 0 0 202 209 210 255
0.869901 0.668204 4.45728 0 0 0 203 210 212 255
-1.036 0.854973 5.99788 0 0 0 95 67 58 255
0.824799 0.672342 4.45306 0 0 0 157 170 175 255
0.902005 0.671929 4.45281 0 0 0 117 120 122 255
-0.983969 0.872905 5.99 0 0 0 118 90 79 255
0.965225 0.681889 4.46531 0 0 0 141 161 168 255
0.829355 0.690399 4.45525 0 0 0 117 121 123 255
1.07214 0.685018 4.4556 0 0 0 167 179 177 255
-1.11829 0.913416 6.00917 0 0 0 70 62 61 255
-0.176985 0.741437 4.39408 0 0 0 198 211 213 255
-0.00483387 0.733332 4.37889 0 0 0 158 160 162 255
0.684415 0.711433 4.44238 0 0 0 130 146 147 255
0.89924 0.70511 4.45691 0 0 0 197 210 212 255
0.931114 0.697568 4.45403 0 0 0 199 202 202 255
-0.104169 0.745268 4.40125 0 0 0 202 210 212 255
0.189933 0.735012 4.40604 0 0 0 126 126 126 255
0.294134 0.72594 4.4076 0 0 0 128 128 130 255
0.63746 0.716263 4.43883 0 0 0 205 213 214 255
0.848501 0.708106 4.4508 0 0 0 199 216 222 255
0.858352 0.707281 4.45161 0 0 0 205 219 221 255
-0.175491 0.75764 4.40152 0 0 0 199 213 214 255
0.916797 0.717982 4.44896 0 0 0 144 147 149 255
0.972141 0.716915 4.47353 0 0 0 162 172 174 255
1.04366 0.714449 4.4503 0 0 0 204 208 209 255
-1.89147 0.982734 6.10971 0 0 0 136 114 108 255
-1.8061 0.975351 6.06384 0 0 0 116 101 95 255
-0.396917 0.770175 4.39241 0 0 0 73 87 85 255
-0.188468 0.764139 4.39529 0 0 0 117 129 137 255
-3.03742 1.08778 6.7252 0 0 0 78 95 93 255
0.113604 0.754798 4.39395 0 0 0 180 194 199 255
0.89851 0.731514 4.45349 0 0 0 188 197 199 255
0.617697 0.745171 4.43653 0 0 0 126 130 133 255
0.834327 0.736497 4.44015 0 0 0 188 201 206 255
-0.182809 0.77907 4.39129 0 0 0 181 191 192 255
1.1097 0.736415 4.47068 0 0 0 196 210 210 255
0.862796 0.7505 4.4456 0 0 0 198 213 215 255
1.01431 0.755577 4.44681 0 0 0 201 212 215 255
1.03555 0.747324 4.45326 0 0 0 137 139 141 255
0.72813 0.767853 4.44494 0 0 0 190 193 194 255
-0.153288 0.806056 4.38624 0 0 0 198 211 215 255
-0.0579762 0.799684 4.39699 0 0 0 152 159 161 255
0.65428 0.776232 4.44584 0 0 0 147 150 151 255
0.865794 0.768218 4.44854 0 0 0 101 101 101 255
-1.0603 1.00874 6.04163 0 0 0 94 75 66 255
-0.112767 0.808958 4.40024 0 0 0 170 177 180 255
0.158902 0.800238 4.41541 0 0 0 185 194 195 255
-0.106374 0.817694 4.40181 0 0 0 176 182 184 255
0.996214 0.780903 4.45185 0 0 0 161 167 169 255
0.142962 0.824962 4.40688 0 0 0 186 196 200 255
0.190149 0.81784 4.41543 0 0 0 168 170 172 255
0.855741 0.794908 4.45393 0 0 0 119 140 149 255
0.868712 0.799256 4.442 0 0 0 97 100 105 255
-1.06242 1.06013 6.0186 0 0 0 101 82 73 255
-1.2603 1.08122 6.05986 0 0 0 68 58 57 255
-0.370918 0.856504 4.39079 0 0 0 133 145 152 255
0.487326 0.823339 4.43162 0 0 0 170 179 181 255
0.940095 0.803589 4.45916 0 0 0 86 100 105 255
0.194994 0.840363 4.43131 0 0 0 135 142 151 255
0.981487 0.816217 4.47782 0 0 0 205 207 209 255
-1.30086 1.09474 6.05464 0 0 0 77 60 54 255
-2.06588 1.14523 6.16223 0 0 0 135 98 88 255
0.816124 0.831283 4.4683 0 0 0 148 157 163 255
0.787734 0.835174 4.45786 0 0 0 155 159 160 255
0.054432 0.862925 4.41207 0 0 0 202 215 218 255
0.475009 0.852043 4.42968 0 0 0 175 186 190 255
-2.26256 1.18446 6.1564 0 0 0 110 79 71 255
-1.08377 1.10962 6.00937 0 0 0 99 84 77 255
0.731321 0.844769 4.44775 0 0 0 144 159 163 255
0.987879 0.834267 4.47819 0 0 0 196 209 212 255
0.766461 0.85203 4.45652 0 0 0 180 184 188 255
0.834479 0.847849 4.46317 0 0 0 104 108 111 255
0.935456 0.85657 4.46846 0 0 0 142 144 145 255
0.347046 0.877786 4.42351 0 0 0 145 161 166 255
0.968626 0.855689 4.47095 0 0 0 187 191 194 255
0.830496 0.86809 4.46957 0 0 0 201 207 207 255
-2.59005 1.2337 6.08158 0 0 0 134 111 99 255
-1.42865 1.17694 6.06224 0 0 0 146 122 103 255
-0.215193 0.909597 4.42106 0 0 0 145 154 158 255
0.929045 0.86944 4.47961 0 0 0 204 218 220 255
0.904544 0.875887 4.48661 0 0 0 167 178 182 255
0.579051 0.893521 4.45067 0 0 0 196 203 205 255
0.884309 0.882306 4.49082 0 0 0 113 118 116 255
0.832365 0.888689 4.4703 0 0 0 144 144 147 255
0.204054 0.913991 4.40567 0 0 0 204 213 217 255
0.602701 0.900007 4.45324 0 0 0 196 208 213 255
0.657981 0.910312 4.47424 0 0 0 141 142 144 255
0.996301 0.891102 4.4724 0 0 0 149 164 168 255
1.09836 0.881266 4.44142 0 0 0 172 185 187 255
0.592036 0.91406 4.44745 0 0 0 162 169 172 255
0.829889 0.904847 4.46545 0 0 0 181 189 189 255
0.254964 0.927704 4.43301 0 0 0 167 174 174 255
0.851035 0.909898 4.47084 0 0 0 115 117 121 255
0.889545 0.911527 4.47895 0 0 0 106 111 111 255
0.909194 0.908371 4.48876 0 0 0 173 180 182 255
1.02866 0.902916 4.47106 0 0 0 150 165 171 255
-1.14489 1.23001 6.05623 0 0 0 112 102 92 255
-1.12057 1.23357 6.06905 0 0 0 71 65 62 255
0.0430401 0.951411 4.42674 0 0 0 195 205 207 255
0.381367 0.941999 4.44373 0 0 0 168 182 188 255
0.459609 0.949193 4.46882 0 0 0 115 120 125 255
-0.997428 1.2506 6.0589 0 0 0 125 105 91 255
1.11515 0.9194 4.45084 0 0 0 164 172 176 255
-2.3049 1.33532 6.19491 0 0 0 118 106 97 255
1.09481 0.925042 4.44725 0 0 0 153 165 169 255
-2.20117 1.3408 6.18914 0 0 0 133 118 111 255
0.98045 0.946901 4.47315 0 0 0 144 155 159 255
1.04325 0.944099 4.47223 0 0 0 146 157 158 255
0.274089 1.01566 4.45179 0 0 0 146 151 153 255
-2.71522 1.44477 6.15651 0 0 0 137 132 136 255
-0.366736 1.05472 4.4347 0 0 0 124 140 141 255
-1.0835 1.38913 6.10607 0 0 0 97 92 89 255
-2.67256 1.52338 6.0702 0 0 0 58 58 58 255
-2.65683 1.55087 6.04162 0 0 0 49 55 62 255
-0.22741 1.13244 4.45599 0 0 0 126 141 136 255
0.178317 1.23791 4.49041 0 0 0 102 119 114 255
0.703137 1.35699 4.50294 0 0 0 142 153 161 255
0.737624 1.35474 4.5114 0 0 0 124 132 142 255
0.721099 1.36161 4.50495 0 0 0 93 94 91 255
0.720856 1.36328 4.5053 0 0 0 93 94 91 255
0.598464 1.1934 3.81574 0 0 0 170 183 185 255
-0.616667 -0.515577 4.26377 0 0 0 91 100 99 255
-2.8922 -1.01583 6.3963 0 0 0 132 137 138 255
-2.34864 -0.80508 5.65484 0 0 0 90 76 77 255
0.948338 -0.440769 4.34568 0 0 0 114 122 112 255
-2.64811 -0.70994 5.74948 0 0 0 129 106 91 255
0.914197 -0.378558 4.35719 0 0 0 147 165 138 255
-2.65458 -0.595587 5.69214 0 0 0 98 67 62 255
-1.24743 -0.650583 5.76358 0 0 0 157 137 127 255
-1.14737 -0.640438 5.77797 0 0 0 178 157 150 255
-1.05953 -0.641724 5.75304 0 0 0 148 127 112 255
-1.82812 -0.614877 5.72342 0 0 0 177 168 155 255
-1.31324 -0.632849 5.76291 0 0 0 151 128 119 255
-1.11716 -0.611474 5.75712 0 0 0 150 136 125 255
-1.8168 -0.573958 5.71986 0 0 0 204 190 177 255
-1.35588 -0.554384 5.7825 0 0 0 199 191 184 255
-1.14408 -0.570962 5.78732 0 0 0 201 191 181 255
-1.29768 -0.532079 5.75307 0 0 0 157 117 100 255
-1.10752 -0.546968 5.76881 0 0 0 144 119 107 255
-1.71362 -0.499713 5.73955 0 0 0 151 108 93 255
-1.36298 -0.526691 5.77191 0 0 0 160 119 101 255
0.919653 -0.23856 4.37084 0 0 0 132 147 128 255
0.963845 -0.193472 4.37707 0 0 0 122 139 119 255
0.503761 -0.17067 4.32253 0 0 0 113 126 112 255
-1.56883 -0.356653 5.80547 0 0 0 129 115 102 255
-1.27953 -0.36401 5.80471 0 0 0 146 122 109 255
-1.38027 -0.332626 5.79225 0 0 0 203 190 179 255
-1.32325 -0.326596 5.76766 0 0 0 159 116 97 255
-1.22361 -0.325616 5.77128 0 0 0 202 188 173 255
0.598855 -0.0999073 4.3418 0 0 0 53 64 60 255
-1.38705 -0.28442 5.84133 0 0 0 202 189 172 255
-1.27216 -0.274141 5.81657 0 0 0 167 141 128 255
-1.58086 -0.234578 5.78584 0 0 0 150 121 106 255
0.970439 -0.0787699 4.39194 0 0 0 123 136 117 255
0.905885 -0.0519685 4.3866 0 0 0 118 134 115 255
0.97255 -0.0298222 4.38935 0 0 0 128 143 124 255
-1.22504 -0.154436 5.83945 0 0 0 120 115 104 255
-1.15381 -0.120463 5.82293 0 0 0 158 147 141 255
0.82348 0.0225806 4.37994 0 0 0 134 143 118 255
0.969101 0.0141407 4.38489 0 0 0 122 136 117 255
-0.330384 0.0747482 4.2784 0 0 0 156 178 139 255
-0.346618 0.0794142 4.27337 0 0 0 162 181 150 255
-2.38286 0.027414 5.89825 0 0 0 84 44 39 255
-2.36111 0.0195565 5.94916 0 0 0 200 187 171 255
-2.59742 0.072286 5.87641 0 0 0 143 87 75 255
-2.34459 0.0439214 5.96404 0 0 0 112 107 99 255
0.979052 0.17684 4.41479 0 0 0 88 99 94 255
0.897888 0.196343 4.39888 0 0 0 118 119 110 255
-0.286368 0.257376 4.30702 0 0 0 102 120 110 255
-2.18226 0.356957 5.95101 0 0 0 142 111 97 255
-2.16972 0.342483 5.99593 0 0 0 107 81 76 255
0.531556 0.313884 4.37194 0 0 0 55 62 62 255
-0.36618 0.371947 4.33796 0 0 0 124 131 129 255
0.940945 0.335447 4.41865 0 0 0 170 176 178 255
1.26975 0.320933 4.87366 0 0 0 45 54 58 255
0.581544 0.364989 4.38033 0 0 0 105 105 105 255
0.721292 0.361146 4.40238 0 0 0 119 125 131 255
0.193684 0.390005 4.36588 0 0 0 82 90 97 255
1.03991 0.355637 4.43927 0 0 0 144 146 147 255
0.967566 0.37362 4.42874 0 0 0 186 197 198 255
-2.61669 0.505303 5.99813 0 0 0 121 95 78 255
-0.419456 0.427179 4.31325 0 0 0 88 102 99 255
-0.334934 0.430967 4.33425 0 0 0 54 59 62 255
0.00612171 0.418645 4.34603 0 0 0 158 160 162 255
-0.413307 0.446907 4.30367 0 0 0 92 107 102 255
0.277599 0.424744 4.36658 0 0 0 129 130 134 255
-1.20698 0.520829 5.93248 0 0 0 52 43 44 255
0.9318 0.447628 4.44202 0 0 0 98 102 109 255
0.975933 0.445715 4.43591 0 0 0 112 121 126 255
1.02406 0.452982 4.43846 0 0 0 90 101 108 255
1.10866 0.445353 4.43469 0 0 0 100 103 109 255
-1.62304 0.568659 5.96534 0 0 0 46 36 37 255
-1.05692 0.542081 5.89542 0 0 0 121 104 97 255
-1.73471 0.590843 5.98165 0 0 0 119 95 80 255
0.429548 0.483823 4.3936 0 0 0 66 70 72 255
-1.61174 0.587227 5.96792 0 0 0 44 41 42 255
-1.48961 0.601174 5.97411 0 0 0 108 87 74 255
-0.965191 0.57967 5.92529 0 0 0 63 54 51 255
-1.65615 0.617191 5.95627 0 0 0 62 49 44 255
-1.11554 0.609598 5.96638 0 0 0 74 55 45 255
-1.06193 0.712963 5.96891 0 0 0 76 62 55 255
0.982016 0.568632 4.43893 0 0 0 138 143 143 255
-1.56508 0.774652 6.02176 0 0 0 70 56 48 255
-0.183012 0.644993 4.38599 0 0 0 185 192 200 255
0.831943 0.609454 4.44054 0 0 0 143 150 154 255
0.741423 0.627928 4.4408 0 0 0 170 179 179 255
0.666421 0.637243 4.42349 0 0 0 206 219 224 255
0.89801 0.63873 4.45037 0 0 0 163 165 166 255
-1.50947 0.840935 5.9967 0 0 0 55 44 43 255
-1.61705 0.845599 6.00875 0 0 0 140 119 105 255
1.00531 0.649167 4.4598 0 0 0 170 186 188 255
-1.07284 0.860726 5.99249 0 0 0 88 71 66 255
0.827355 0.673792 4.45467 0 0 0 195 211 215 255
0.900513 0.671395 4.45442 0 0 0 144 148 151 255
0.901017 0.704443 4.45909 0 0 0 197 210 212 255
0.922419 0.700759 4.45314 0 0 0 188 191 192 255
-0.175243 0.751042 4.39825 0 0 0 199 213 215 255
0.9491 0.708331 4.45689 0 0 0 125 127 127 255
-3.02788 1.09804 6.71503 0 0 0 77 87 86 255
-0.534899 0.802058 4.44345 0 0 0 112 122 121 255
-0.515445 0.800357 4.4095 0 0 0 135 150 143 255
0.16941 0.772306 4.4114 0 0 0 132 142 143 255
1.1061 0.732245 4.47185 0 0 0 191 202 203 255
1.03668 0.749416 4.45418 0 0 0 137 139 141 255
-1.06137 1.00562 6.04307 0 0 0 94 75 66 255
0.0684812 0.80283 4.40876 0 0 0 199 217 223 255
1.01287 0.764274 4.44579 0 0 0 204 217 220 255
-1.09775 1.02707 5.94979 0 0 0 141 116 102 255
-2.60959 1.13631 6.11594 0 0 0 150 117 97 255
0.110168 0.833038 4.40334 0 0 0 202 219 224 255
0.186658 0.827073 4.42242 0 0 0 150 155 161 255
-2.18281 1.14329 6.12491 0 0 0 115 80 60 255
-1.07495 1.08456 5.98277 0 0 0 89 76 73 255
0.862529 0.817771 4.46197 0 0 0 88 91 95 255
-1.25719 1.12167 6.07679 0 0 0 116 97 87 255
-1.07901 1.10219 5.99745 0 0 0 68 60 62 255
0.816391 0.830266 4.46935 0 0 0 148 157 163 255
0.835866 0.840063 4.46575 0 0 0 101 104 106 255
0.906044 0.831182 4.46687 0 0 0 94 98 102 255
0.98572 0.823182 4.47891 0 0 0 202 214 217 255
-1.02027 1.11393 6.04287 0 0 0 95 77 74 255
0.863882 0.851863 4.47417 0 0 0 183 200 205 255
-0.0323928 0.886905 4.39779 0 0 0 204 219 221 255
0.953168 0.854694 4.47018 0 0 0 194 210 213 255
0.816744 0.869933 4.47443 0 0 0 198 205 207 255
0.93601 0.861112 4.46805 0 0 0 144 145 147 255
-0.354249 0.93007 4.42465 0 0 0 163 172 173 255
0.572598 0.894968 4.44726 0 0 0 185 191 195 255
-1.06278 1.22035 6.06125 0 0 0 87 74 68 255
-1.0306 1.2533 6.05746 0 0 0 122 107 99 255
1.10359 0.92323 4.44957 0 0 0 164 172 176 255
0.970596 0.945558 4.47385 0 0 0 145 156 160 255
-2.71913 1.42322 6.09854 0 0 0 42 44 49 255
-1.08248 1.39494 6.1037 0 0 0 114 104 98 255
-0.227411 1.13244 4.456 0 0 0 126 141 136 255
-2.65331 1.58884 6.03883 0 0 0 153 163 163 255
-2.56658 1.68969 6.04889 0 0 0 107 92 97 255
-2.62562 -0.779493 5.62026 0 0 0 148 119 118 255
-2.31835 -0.809886 5.68542 0 0 0 206 198 192 255
0.947157 -0.431798 4.34378 0 0 0 126 134 122 255
-2.6638 -0.689039 5.71753 0 0 0 125 101 89 255
0.875836 -0.399826 4.35852 0 0 0 134 147 124 255
-1.24342 -0.651666 5.76439 0 0 0 154 120 107 255
-1.01533 -0.646703 5.76565 0 0 0 153 119 105 255
-1.50659 -0.625354 5.76478 0 0 0 153 115 94 255
-1.87758 -0.558446 5.72936 0 0 0 185 175 164 255
-1.60648 -0.567081 5.75219 0 0 0 206 192 179 255
-1.34506 -0.580721 5.78489 0 0 0 202 194 182 255
-1.13623 -0.586352 5.78259 0 0 0 204 190 176 255
-1.35763 -0.52946 5.77323 0 0 0 157 123 105 255
-1.22041 -0.531688 5.76621 0 0 0 155 119 100 255
-1.13889 -0.540297 5.79227 0 0 0 149 119 105 255
-2.65094 -0.453884 5.72255 0 0 0 105 84 79 255
-1.95394 -0.478423 5.74182 0 0 0 122 100 90 255
-0.0194119 -0.199896 4.27175 0 0 0 176 196 146 255
-2.64507 -0.409066 5.71853 0 0 0 49 41 42 255
0.942288 -0.235713 4.36108 0 0 0 155 168 136 255
0.583044 -0.191826 4.34524 0 0 0 147 159 128 255
0.594588 -0.205728 4.32762 0 0 0 91 95 88 255
0.960364 -0.204331 4.37229 0 0 0 128 141 118 255
0.5772 -0.165026 4.34713 0 0 0 90 100 89 255
0.771783 -0.163359 4.36824 0 0 0 103 118 99 255
-1.41537 -0.376109 5.80429 0 0 0 202 191 177 255
-1.26615 -0.362892 5.79389 0 0 0 146 117 100 255
-1.2014 -0.367675 5.79828 0 0 0 152 120 109 255
-1.35269 -0.359412 5.79418 0 0 0 147 129 118 255
-1.32995 -0.311261 5.77668 0 0 0 174 149 135 255
-1.22461 -0.317344 5.77028 0 0 0 200 187 171 255
0.959767 -0.134667 4.37364 0 0 0 124 137 115 255
0.773952 -0.120504 4.36118 0 0 0 60 77 70 255
0.600119 -0.0963669 4.34346 0 0 0 52 63 60 255
-1.18681 -0.274021 5.80132 0 0 0 151 113 96 255
-2.66915 -0.182613 5.84208 0 0 0 156 93 57 255
-0.365146 -0.00774431 4.25592 0 0 0 164 185 143 255
0.9075 -0.0531685 4.38419 0 0 0 132 144 124 255
-1.38118 -0.137836 5.83755 0 0 0 151 132 125 255
-1.11472 -0.151112 5.83664 0 0 0 156 149 143 255
-0.292487 0.0237433 4.30373 0 0 0 158 182 139 255
-1.63605 -0.101559 5.832 0 0 0 126 119 110 255
-1.4518 -0.107677 5.82441 0 0 0 169 165 160 255
-1.14423 -0.120352 5.82671 0 0 0 120 115 112 255
-1.11071 -0.117233 5.83484 0 0 0 141 138 131 255
-0.186728 0.0458042 4.2731 0 0 0 149 169 134 255
-1.08627 -0.104831 5.8495 0 0 0 126 121 118 255
-0.418689 0.0704887 4.30402 0 0 0 158 181 148 255
0.824715 0.0353914 4.38024 0 0 0 137 147 119 255
0.970392 0.0187152 4.3841 0 0 0 134 149 127 255
-0.301351 0.115591 4.2883 0 0 0 177 196 149 255
0.818708 0.0686187 4.38259 0 0 0 135 149 123 255
-2.38926 0.00610049 5.91054 0 0 0 82 46 42 255
-2.36508 0.00818531 5.96995 0 0 0 199 188 171 255
-1.29188 0.0308959 5.82699 0 0 0 98 94 92 255
-1.22096 0.0431284 5.83945 0 0 0 140 129 126 255
-1.21192 0.0351741 5.83741 0 0 0 67 60 49 255
-1.01716 0.0194664 5.85862 0 0 0 169 164 154 255
-2.58846 0.0874429 5.87163 0 0 0 157 96 60 255
-2.3327 0.0588832 5.95351 0 0 0 40 38 38 255
-0.359704 0.164991 4.27177 0 0 0 95 107 103 255
-0.228963 0.177535 4.29665 0 0 0 96 106 100 255
-2.36687 0.16074 5.92346 0 0 0 125 93 72 255
0.983973 0.175179 4.41721 0 0 0 93 104 96 255
-2.00653 0.207153 5.90605 0 0 0 77 65 57 255
0.372639 0.227947 4.35144 0 0 0 159 176 130 255
-2.09776 0.214405 5.9427 0 0 0 151 125 100 255
-0.372316 0.301905 4.31062 0 0 0 147 170 142 255
-0.166175 0.339777 4.36246 0 0 0 171 195 144 255
-0.164449 0.33423 4.36127 0 0 0 173 191 151 255
-2.18253 0.362387 5.95084 0 0 0 144 117 97 255
0.354581 0.325409 4.3456 0 0 0 152 171 134 255
0.874352 0.35312 4.41973 0 0 0 147 156 160 255
1.03965 0.347346 4.43971 0 0 0 159 159 159 255
0.68104 0.368919 4.40352 0 0 0 105 122 128 255
0.706863 0.367856 4.40878 0 0 0 146 156 156 255
0.88914 0.370514 4.43204 0 0 0 131 126 130 255
-0.026318 0.40517 4.34 0 0 0 173 181 182 255
0.33805 0.392095 4.37203 0 0 0 122 125 127 255
0.962784 0.372206 4.42573 0 0 0 145 162 166 255
-2.6233 0.482712 6.01799 0 0 0 119 96 79 255
0.635503 0.387784 4.39422 0 0 0 148 155 156 255
0.661067 0.391427 4.40426 0 0 0 132 147 153 255
0.897339 0.376871 4.43917 0 0 0 141 144 146 255
0.218225 0.419077 4.36114 0 0 0 87 94 95 255
0.612701 0.400076 4.38723 0 0 0 86 91 95 255
-1.74838 0.481246 5.90992 0 0 0 128 104 88 255
-0.416572 0.444755 4.30966 0 0 0 93 108 103 255
0.0264175 0.433828 4.35332 0 0 0 57 64 69 255
0.0521833 0.427568 4.34565 0 0 0 160 160 160 255
-0.170235 0.448948 4.34034 0 0 0 120 124 130 255
-0.152032 0.447435 4.33206 0 0 0 95 104 106 255
-0.570339 0.470464 4.51923 0 0 0 43 48 46 255
0.981876 0.450588 4.43804 0 0 0 109 111 115 255
1.02846 0.438054 4.43292 0 0 0 100 110 115 255
-2.00304 0.57295 6.05434 0 0 0 132 106 85 255
-1.11236 0.541786 5.93576 0 0 0 58 47 45 255
-1.05197 0.540982 5.89518 0 0 0 128 114 104 255
0.425956 0.462748 4.38305 0 0 0 96 106 110 255
0.774919 0.456001 4.42998 0 0 0 110 117 123 255
0.432081 0.479523 4.38871 0 0 0 64 70 74 255
-1.72806 0.590296 5.98429 0 0 0 122 98 81 255
-1.48311 0.617931 5.9784 0 0 0 125 100 86 255
-1.0704 0.624052 5.96245 0 0 0 73 58 53 255
0.998264 0.509885 4.4348 0 0 0 203 211 215 255
-1.18603 0.660492 5.96577 0 0 0 95 74 68 255
-1.62009 0.701625 6.00162 0 0 0 98 80 74 255
0.726197 0.547591 4.40701 0 0 0 175 184 185 255
0.798787 0.551945 4.43605 0 0 0 143 149 152 255
-1.75581 0.740191 6.04214 0 0 0 148 120 100 255
0.963711 0.565413 4.43482 0 0 0 144 142 142 255
0.953953 0.590731 4.44819 0 0 0 182 189 193 255
1.00476 0.605586 4.45138 0 0 0 129 144 144 255
0.842372 0.609658 4.44581 0 0 0 147 164 167 255
-1.5077 0.843025 5.99818 0 0 0 55 44 43 255
0.190756 0.656758 4.41596 0 0 0 201 215 217 255
0.820053 0.641523 4.44435 0 0 0 100 105 117 255
0.931103 0.642198 4.45478 0 0 0 172 177 182 255
-0.175785 0.691932 4.39078 0 0 0 187 196 200 255
1.01537 0.647736 4.46388 0 0 0 187 193 193 255
-0.0909754 0.696141 4.37432 0 0 0 205 217 221 255
-1.05968 0.859748 6.0009 0 0 0 88 71 67 255
0.905359 0.67076 4.45625 0 0 0 117 120 122 255
0.850333 0.692431 4.45204 0 0 0 204 219 223 255
1.07472 0.682255 4.45585 0 0 0 178 179 183 255
