ply
format ascii 1.0
comment VCGLIB generated
element vertex 1021
property float x
property float y
property float z
property float nx
property float ny
property float nz
property uchar red
property uchar green
property uchar blue
property uchar alpha
element face 0
property list uchar int vertex_indices
end_header
-0.998005 0.73933 5.41537 0 0 0 53 46 45 255
-0.958539 0.741237 5.42175 0 0 0 94 84 78 255
1.62909 0.529749 5.68292 0 0 0 137 137 142 255
-0.931489 0.762192 5.42445 0 0 0 93 70 55 255
-1.43108 0.804659 5.27562 0 0 0 61 46 37 255
-1.04647 0.787713 5.40243 0 0 0 87 65 53 255
1.25453 0.602144 5.67938 0 0 0 72 82 90 255
-0.876784 0.78414 5.44537 0 0 0 70 54 53 255
-1.07242 0.798789 5.39723 0 0 0 76 52 38 255
-1.30393 0.820161 5.33875 0 0 0 53 39 33 255
-0.814828 0.79583 5.4621 0 0 0 80 48 36 255
-0.778036 0.794192 5.4546 0 0 0 106 93 90 255
1.4025 0.613741 5.6805 0 0 0 67 77 85 255
-1.35366 0.838704 5.33158 0 0 0 76 53 43 255
-1.12604 0.820194 5.38267 0 0 0 72 52 52 255
1.63128 0.602487 5.68692 0 0 0 77 83 87 255
1.66916 0.59376 5.69163 0 0 0 57 63 64 255
-1.47455 0.832076 5.15668 0 0 0 109 93 80 255
1.62074 0.618179 5.68759 0 0 0 69 87 90 255
-1.03127 0.833941 5.40073 0 0 0 59 45 47 255
-0.983749 0.837411 5.41658 0 0 0 84 65 55 255
-0.977431 0.825256 5.41944 0 0 0 88 64 54 255
-1.51641 0.845437 5.14386 0 0 0 124 106 88 255
-0.898904 0.846838 5.43049 0 0 0 84 61 51 255
-1.28308 0.873931 5.32694 0 0 0 54 42 44 255
-1.41877 0.891755 5.31849 0 0 0 58 48 40 255
-1.50273 0.927507 5.31356 0 0 0 68 55 48 255
-1.11917 0.900516 5.38277 0 0 0 76 55 53 255
-1.35865 0.930985 5.33423 0 0 0 68 52 42 255
-1.24152 0.910534 5.34331 0 0 0 84 59 44 255
-0.972059 0.904154 5.41781 0 0 0 78 62 57 255
-0.996309 0.922262 5.41798 0 0 0 86 67 55 255
-1.44316 0.956342 5.32209 0 0 0 73 60 52 255
-1.0468 0.936314 5.40564 0 0 0 83 54 45 255
1.4567 0.739051 5.67418 0 0 0 154 151 152 255
-1.48588 0.942197 5.17121 0 0 0 102 78 62 255
-1.1099 0.949138 5.39328 0 0 0 63 49 43 255
-1.01064 0.976164 5.40764 0 0 0 111 89 75 255
-1.18005 0.985069 5.36012 0 0 0 66 50 42 255
-1.11714 0.990918 5.37475 0 0 0 62 54 53 255
-1.06693 0.984225 5.39422 0 0 0 63 48 41 255
-0.784376 0.976498 5.46003 0 0 0 90 70 57 255
-1.14913 1.0219 5.36647 0 0 0 78 56 45 255
-1.56339 1.06751 5.30328 0 0 0 112 89 74 255
-1.21529 1.03287 5.34872 0 0 0 64 56 53 255
-1.17278 1.04167 5.38076 0 0 0 100 76 69 255
-1.11582 1.05067 5.38646 0 0 0 70 55 48 255
0.442949 0.941185 5.62571 0 0 0 181 188 188 255
1.09951 0.904831 5.67401 0 0 0 147 147 147 255
1.35456 0.876541 5.68397 0 0 0 197 204 203 255
-0.958885 1.07538 5.42474 0 0 0 104 85 74 255
-1.31327 1.09694 5.34417 0 0 0 107 94 87 255
-1.15096 1.09529 5.39227 0 0 0 61 53 53 255
-1.07969 1.09207 5.38097 0 0 0 80 58 52 255
0.55595 0.982722 5.63551 0 0 0 155 163 167 255
-1.55924 1.12396 5.15409 0 0 0 140 122 104 255
1.53823 0.898838 5.5682 0 0 0 180 194 194 255
-0.973068 1.12504 5.41697 0 0 0 91 74 64 255
-0.819039 1.1368 5.46268 0 0 0 98 79 75 255
-1.65367 1.18857 5.26891 0 0 0 133 119 113 255
-1.13388 1.15802 5.36768 0 0 0 79 58 47 255
0.257413 1.06223 5.613 0 0 0 193 204 205 255
-1.56776 1.18239 5.25813 0 0 0 124 105 97 255
-1.1297 1.16699 5.38501 0 0 0 89 63 56 255
0.534004 1.04453 5.63264 0 0 0 142 142 142 255
-0.765524 1.15728 5.47492 0 0 0 139 107 91 255
1.73923 0.933353 5.6697 0 0 0 164 169 170 255
-1.59487 1.20983 5.25323 0 0 0 115 98 93 255
-1.54844 1.2076 5.17422 0 0 0 96 71 68 255
1.44714 0.982846 5.55505 0 0 0 185 190 190 255
1.53552 0.974787 5.55837 0 0 0 193 199 199 255
-1.00136 1.2184 5.41175 0 0 0 95 79 71 255
-1.11218 1.23709 5.37814 0 0 0 83 69 64 255
-1.03592 1.23375 5.38872 0 0 0 112 98 91 255
-1.12571 1.23868 5.373 0 0 0 100 81 68 255
-0.755145 1.23945 5.47538 0 0 0 111 87 75 255
-1.09079 1.26811 5.37661 0 0 0 84 77 76 255
0.331997 1.18798 5.58683 0 0 0 183 193 193 255
1.22782 1.13896 5.62627 0 0 0 127 133 133 255
1.26677 1.12799 5.59303 0 0 0 100 100 98 255
-0.887428 1.33124 5.44372 0 0 0 101 78 73 255
-1.04 1.34819 5.40215 0 0 0 98 69 59 255
1.39123 1.13804 5.58613 0 0 0 150 158 159 255
-1.09537 1.3736 5.41689 0 0 0 88 62 52 255
-0.847088 1.35919 5.44113 0 0 0 92 78 69 255
-1.03883 1.38119 5.38585 0 0 0 119 104 91 255
-0.996177 1.39681 5.38987 0 0 0 85 69 59 255
-0.872041 1.41071 5.44071 0 0 0 92 78 69 255
-1.22617 1.44633 5.39306 0 0 0 159 131 107 255
-0.787638 1.41007 5.44493 0 0 0 108 84 76 255
-0.840731 1.51822 5.43279 0 0 0 120 95 86 255
-0.934721 1.53815 5.44239 0 0 0 127 108 96 255
-0.904647 1.54337 5.43303 0 0 0 107 89 79 255
-0.822715 1.53283 5.43768 0 0 0 104 85 80 255
-0.776152 1.57175 5.44199 0 0 0 148 122 101 255
-0.728225 1.57178 5.4571 0 0 0 143 109 98 255
0.251096 1.50279 5.56958 0 0 0 98 107 103 255
-0.763426 1.67412 5.46332 0 0 0 128 118 113 255
-0.857322 1.7033 5.4298 0 0 0 128 113 106 255
-1.81184 -0.775116 4.75289 0 0 0 64 64 64 255
-1.37416 -0.540353 4.9053 0 0 0 135 122 108 255
-1.27097 -0.549602 4.96282 0 0 0 140 105 91 255
-1.19596 -0.579074 5.19032 0 0 0 151 122 109 255
-0.947051 -0.598245 5.14507 0 0 0 133 103 90 255
-0.375462 -0.672076 5.55068 0 0 0 163 158 160 255
-1.44985 -0.509059 4.84345 0 0 0 196 180 165 255
-1.25037 -0.565257 5.1614 0 0 0 137 110 94 255
-1.13761 -0.580889 5.25147 0 0 0 145 107 95 255
-0.942813 -0.586628 5.15323 0 0 0 148 101 80 255
-1.41611 -0.524962 5.13484 0 0 0 195 180 166 255
-1.24655 -0.534353 4.98457 0 0 0 148 105 81 255
-1.28954 -0.511893 4.97222 0 0 0 194 180 166 255
-1.19159 -0.531209 5.11372 0 0 0 194 181 164 255
-0.875911 -0.56433 5.37436 0 0 0 118 91 79 255
-1.45925 -0.454477 4.86689 0 0 0 198 181 163 255
-1.11445 -0.506558 5.30056 0 0 0 199 182 166 255
-1.52052 -0.425037 4.82364 0 0 0 140 105 92 255
-0.984652 -0.497505 5.32797 0 0 0 191 175 159 255
-1.52281 -0.430119 5.08223 0 0 0 146 131 116 255
-1.38645 -0.435195 4.93404 0 0 0 144 121 116 255
-1.32106 -0.437978 4.9765 0 0 0 132 100 84 255
-1.25504 -0.44613 5.01243 0 0 0 144 112 96 255
-1.1399 -0.465683 5.06599 0 0 0 176 158 145 255
-0.892049 -0.510059 5.29882 0 0 0 199 180 165 255
-1.19989 -0.44985 5.21146 0 0 0 163 143 131 255
-0.987482 -0.466332 5.32268 0 0 0 152 107 88 255
-1.23171 -0.415685 5.20696 0 0 0 192 180 169 255
-1.20985 -0.387829 5.05045 0 0 0 154 122 110 255
-1.25421 -0.263576 5.04402 0 0 0 149 126 114 255
-1.14156 -0.281132 5.26936 0 0 0 138 101 91 255
-1.28524 -0.261596 5.02868 0 0 0 152 134 117 255
-1.19446 -0.261897 5.07705 0 0 0 149 115 94 255
-1.44959 -0.21833 4.95025 0 0 0 199 178 159 255
-1.04635 -0.274804 5.33371 0 0 0 151 109 91 255
-1.35591 -0.230264 5.18451 0 0 0 150 118 102 255
-1.14078 -0.245652 5.26701 0 0 0 197 182 165 255
-1.12333 -0.239386 5.27647 0 0 0 197 182 164 255
-1.09813 -0.235573 5.31944 0 0 0 153 106 86 255
-0.998292 -0.24083 5.34429 0 0 0 199 182 163 255
-1.08218 -0.21151 5.29152 0 0 0 151 106 82 255
-1.34235 -0.173056 5.20947 0 0 0 196 181 163 255
-1.45506 -0.136801 4.97731 0 0 0 146 108 89 255
-1.3142 -0.172509 5.22094 0 0 0 168 145 130 255
-1.15073 -0.182385 5.30213 0 0 0 199 181 162 255
-1.34989 -0.146246 5.20034 0 0 0 170 133 114 255
-1.32068 -0.138066 5.21704 0 0 0 160 133 116 255
-1.03216 -0.163028 5.33939 0 0 0 148 108 85 255
-0.95704 -0.16017 5.36691 0 0 0 150 107 82 255
0.210566 -0.267978 5.57255 0 0 0 111 124 88 255
-1.55588 -0.0155414 4.93889 0 0 0 192 180 165 255
-1.44006 -0.0133295 5.19375 0 0 0 91 81 73 255
-1.00785 -0.0330883 5.36673 0 0 0 151 137 124 255
-1.55427 0.0449857 5.14757 0 0 0 104 99 96 255
-1.24616 0.0164589 5.25505 0 0 0 130 124 115 255
-1.19467 0.0254532 5.3115 0 0 0 150 139 124 255
-0.818696 -0.00675329 5.41664 0 0 0 106 99 90 255
1.02725 -0.169135 5.65049 0 0 0 87 94 83 255
-0.872213 0.0240139 5.39992 0 0 0 121 111 103 255
-1.63135 0.194446 5.16154 0 0 0 167 154 150 255
-1.38403 0.186503 5.23993 0 0 0 139 133 131 255
-0.92988 0.175625 5.39862 0 0 0 171 161 156 255
-0.786315 0.176298 5.42115 0 0 0 143 132 127 255
-1.74956 0.241928 4.8755 0 0 0 121 98 84 255
-1.70646 0.261552 4.90492 0 0 0 138 108 89 255
-0.075964 0.150487 5.54097 0 0 0 160 173 134 255
-1.73479 0.277663 4.89582 0 0 0 75 42 38 255
0.0123734 0.219731 5.55963 0 0 0 68 71 49 255
0.884258 0.23634 5.64928 0 0 0 73 78 74 255
-1.75956 0.441144 4.89401 0 0 0 129 100 85 255
-1.78658 0.446904 4.87725 0 0 0 128 93 84 255
-1.69605 0.468833 4.98882 0 0 0 66 43 41 255
1.0531 0.366393 5.66025 0 0 0 52 58 50 255
-1.32069 0.624756 5.32509 0 0 0 47 41 39 255
1.17613 0.429582 5.67061 0 0 0 158 173 124 255
-1.47137 0.627015 5.12814 0 0 0 127 103 80 255
1.9203 0.366296 5.67764 0 0 0 67 94 107 255
0.418048 0.533152 5.60113 0 0 0 42 46 52 255
1.31991 0.500472 5.68073 0 0 0 113 110 114 255
-1.30751 0.725853 5.32799 0 0 0 123 94 82 255
1.39691 0.51276 5.67839 0 0 0 127 128 135 255
-1.49353 0.771963 5.24564 0 0 0 117 93 79 255
1.57144 0.518396 5.6879 0 0 0 99 98 100 255
-0.958907 0.750078 5.42303 0 0 0 124 103 93 255
-0.924171 0.764476 5.42336 0 0 0 67 49 41 255
-0.162615 0.702513 5.5636 0 0 0 69 77 79 255
-1.43781 0.809215 5.29397 0 0 0 61 46 37 255
-1.04605 0.796646 5.40219 0 0 0 67 50 42 255
-0.849538 0.778156 5.45181 0 0 0 120 103 92 255
-1.06242 0.800483 5.39841 0 0 0 77 50 36 255
-1.13616 0.819781 5.38062 0 0 0 60 47 43 255
-1.05455 0.805711 5.39971 0 0 0 58 46 42 255
-0.975256 0.836971 5.41723 0 0 0 71 55 50 255
-1.40143 0.87526 5.29714 0 0 0 60 44 36 255
-1.29595 0.87967 5.32147 0 0 0 59 41 40 255
-1.13487 0.886521 5.37472 0 0 0 60 46 46 255
-1.4771 0.897147 5.16574 0 0 0 142 110 94 255
-1.247 0.918968 5.36553 0 0 0 74 52 44 255
-1.35232 0.932771 5.31338 0 0 0 57 47 41 255
-0.843062 0.969825 5.44505 0 0 0 79 65 58 255
1.10851 0.813244 5.66306 0 0 0 198 207 208 255
1.50196 0.770832 5.65143 0 0 0 126 134 138 255
-1.22053 1.03115 5.34615 0 0 0 71 56 45 255
1.29563 0.833757 5.67563 0 0 0 103 109 111 255
-1.55158 1.06422 5.1549 0 0 0 125 106 93 255
-1.14149 1.07801 5.36236 0 0 0 67 55 55 255
-1.3215 1.11005 5.34954 0 0 0 121 97 92 255
-1.08448 1.09788 5.39785 0 0 0 80 58 52 255
1.33565 0.893512 5.6802 0 0 0 196 205 204 255
0.38914 1.00235 5.62768 0 0 0 194 205 206 255
-1.57159 1.13579 5.14983 0 0 0 139 127 117 255
-0.983091 1.13275 5.41498 0 0 0 109 86 74 255
-0.858572 1.13326 5.44567 0 0 0 114 92 78 255
-1.13673 1.15516 5.36802 0 0 0 79 58 47 255
-0.914005 1.18803 5.44293 0 0 0 89 76 74 255
1.41238 0.989837 5.61705 0 0 0 95 100 98 255
-1.01404 1.21969 5.40241 0 0 0 101 82 74 255
-0.767591 1.23683 5.47325 0 0 0 122 95 80 255
0.149955 1.20367 5.57016 0 0 0 187 200 201 255
0.321928 1.19022 5.58635 0 0 0 187 196 196 255
-0.839236 1.29658 5.44936 0 0 0 109 86 71 255
-0.89956 1.33677 5.44178 0 0 0 128 108 93 255
-1.07716 1.36018 5.37675 0 0 0 88 62 52 255
-0.854251 1.37224 5.44551 0 0 0 92 75 63 255
-1.04275 1.3798 5.38392 0 0 0 119 104 91 255
-0.988216 1.39395 5.39013 0 0 0 75 64 61 255
-0.87188 1.39493 5.43362 0 0 0 104 87 79 255
-0.799296 1.41856 5.45448 0 0 0 108 87 78 255
-0.348005 1.4429 5.52104 0 0 0 131 110 95 255
-0.905708 1.55385 5.40721 0 0 0 73 66 64 255
-0.726738 1.55782 5.44923 0 0 0 144 110 99 255
-0.810359 1.5714 5.44503 0 0 0 143 120 107 255
-0.765281 1.67885 5.44908 0 0 0 138 117 101 255
-1.29799 1.68191 5.27699 0 0 0 180 140 122 255
-0.851581 1.69921 5.40711 0 0 0 128 113 106 255
-1.56531 -0.582765 4.69451 0 0 0 140 118 100 255
-1.50351 -0.576868 4.77302 0 0 0 153 107 84 255
-1.55899 -0.543748 5.03631 0 0 0 167 153 137 255
-1.44008 -0.539253 4.83506 0 0 0 115 98 89 255
-1.43222 -0.551559 5.07185 0 0 0 153 103 77 255
-1.32409 -0.56479 5.13879 0 0 0 145 107 90 255
-1.14074 -0.563764 5.02958 0 0 0 151 122 109 255
-1.00322 -0.605305 5.322 0 0 0 150 108 89 255
-0.854467 -0.589204 5.19546 0 0 0 133 118 108 255
-0.367399 -0.676042 5.62619 0 0 0 162 165 162 255
-1.61988 -0.459682 4.72914 0 0 0 141 108 88 255
-1.53222 -0.4976 5.0481 0 0 0 195 180 162 255
-1.41372 -0.498586 4.88059 0 0 0 149 106 89 255
-1.33621 -0.499807 4.94783 0 0 0 196 181 163 255
-1.35148 -0.511525 5.15345 0 0 0 193 180 167 255
-1.5902 -0.467422 5.07246 0 0 0 151 104 80 255
-1.45555 -0.460532 4.86731 0 0 0 198 180 162 255
-1.37823 -0.455469 4.93036 0 0 0 131 111 98 255
-1.16126 -0.4942 5.04713 0 0 0 196 181 163 255
-1.1261 -0.483394 5.06393 0 0 0 151 116 106 255
-0.966934 -0.531251 5.31391 0 0 0 196 182 170 255
-1.53428 -0.415606 4.81938 0 0 0 123 98 79 255
-1.25963 -0.448044 5.00671 0 0 0 174 149 134 255
-0.876705 -0.519929 5.30442 0 0 0 200 182 168 255
-1.45641 -0.418332 4.8921 0 0 0 127 103 93 255
-1.31783 -0.420676 4.98402 0 0 0 168 161 157 255
-0.987061 -0.477385 5.32707 0 0 0 157 104 84 255
-1.10547 -0.456431 5.23714 0 0 0 154 106 88 255
-1.19612 -0.391851 5.0521 0 0 0 148 99 81 255
-1.57623 -0.316844 5.09191 0 0 0 152 106 86 255
-1.40089 -0.328917 4.93785 0 0 0 144 129 117 255
-1.24251 -0.339366 5.2146 0 0 0 151 114 92 255
-1.2832 -0.263633 5.02707 0 0 0 152 134 117 255
-1.15089 -0.257352 5.2625 0 0 0 170 151 141 255
-1.03303 -0.29115 5.29072 0 0 0 194 176 159 255
-1.1835 -0.227151 5.24768 0 0 0 146 115 98 255
-0.969775 -0.264128 5.36828 0 0 0 157 114 97 255
-1.45965 -0.1598 4.96579 0 0 0 151 104 83 255
-1.3148 -0.179247 5.21844 0 0 0 157 104 77 255
-1.13122 -0.209453 5.26631 0 0 0 199 181 162 255
-1.35415 -0.147761 5.02027 0 0 0 149 109 85 255
-1.2388 -0.144409 5.24137 0 0 0 147 107 87 255
-1.15566 -0.133639 5.2991 0 0 0 180 149 133 255
-1.12187 -0.153502 5.31557 0 0 0 139 111 95 255
-1.03513 -0.161823 5.33838 0 0 0 148 108 85 255
-0.95916 -0.169137 5.36798 0 0 0 148 107 86 255
-1.57522 -0.00348829 4.92737 0 0 0 86 79 75 255
-1.43067 -0.023273 4.99516 0 0 0 115 105 93 255
-1.37328 -0.0056192 5.22461 0 0 0 121 119 115 255
-1.53988 0.0147577 4.96692 0 0 0 150 146 138 255
-1.40071 0.00820542 5.21696 0 0 0 109 112 101 255
-0.860801 -0.0376311 5.41125 0 0 0 132 123 114 255
0.382195 -0.133688 5.57884 0 0 0 143 157 111 255
-1.61751 0.0326029 5.08619 0 0 0 159 143 133 255
-1.38173 0.00581854 5.23209 0 0 0 141 127 116 255
-1.49857 0.0478847 5.1761 0 0 0 67 61 55 255
-1.42871 0.0425967 5.19506 0 0 0 102 93 79 255
-1.08755 0.0151901 5.34892 0 0 0 107 99 87 255
-0.943776 0.00171024 5.38772 0 0 0 125 117 107 255
-1.0007 0.0355961 5.35662 0 0 0 134 126 114 255
0.897266 -0.132241 5.63595 0 0 0 60 73 62 255
-1.66231 0.184824 4.92505 0 0 0 123 117 110 255
-1.66356 0.189387 5.07998 0 0 0 107 68 54 255
-0.421618 0.100487 5.51561 0 0 0 185 170 151 255
-1.21952 0.182792 5.28553 0 0 0 145 95 68 255
-0.996355 0.190115 5.3794 0 0 0 70 62 56 255
-0.920834 0.178797 5.40045 0 0 0 154 144 132 255
-0.0458904 0.157435 5.54214 0 0 0 168 187 140 255
0.797382 0.0931795 5.63359 0 0 0 53 63 58 255
-1.71765 0.329442 4.91575 0 0 0 134 88 69 255
-0.00505309 0.22745 5.55651 0 0 0 69 73 53 255
-1.70489 0.462021 4.97718 0 0 0 74 42 37 255
-1.75591 0.527244 4.9272 0 0 0 69 46 31 255
1.06275 0.362354 5.66253 0 0 0 59 63 59 255
-1.52822 0.658427 5.24554 0 0 0 128 104 80 255
-1.31652 0.617903 5.30345 0 0 0 47 41 39 255
0.60711 0.53122 5.64275 0 0 0 87 88 88 255
-1.37835 0.685497 5.17548 0 0 0 114 90 73 255
-1.2918 0.711913 5.31004 0 0 0 127 97 83 255
1.38997 0.517474 5.67819 0 0 0 114 114 118 255
1.58644 0.515671 5.69181 0 0 0 34 36 38 255
-1.44766 0.771655 5.16321 0 0 0 111 85 69 255
-0.889742 0.777408 5.4315 0 0 0 69 55 51 255
-0.144202 0.728648 5.56636 0 0 0 143 149 152 255
-1.61476 0.843301 5.24896 0 0 0 127 108 89 255
-1.05195 0.803993 5.40241 0 0 0 58 46 42 255
1.63283 0.604581 5.68867 0 0 0 77 83 87 255
1.77089 0.596107 5.69075 0 0 0 80 83 89 255
-1.53533 0.845595 5.13999 0 0 0 143 116 94 255
-1.29589 0.868761 5.32105 0 0 0 66 46 40 255
-0.893499 0.854602 5.4288 0 0 0 68 50 49 255
-0.975732 0.905544 5.4174 0 0 0 78 62 57 255
-1.3901 0.928082 5.21365 0 0 0 64 52 49 255
1.31151 0.758229 5.6844 0 0 0 125 134 137 255
-1.52962 0.973289 5.2704 0 0 0 102 78 62 255
-1.00994 0.975842 5.40288 0 0 0 111 89 75 255
0.691755 0.868194 5.64377 0 0 0 111 115 121 255
1.53563 0.787648 5.65126 0 0 0 192 201 201 255
-1.2194 1.02426 5.34874 0 0 0 72 52 45 255
-0.932106 1.00633 5.43101 0 0 0 78 62 57 255
-1.65239 1.16851 5.21164 0 0 0 75 63 64 255
-1.63157 1.17887 5.27114 0 0 0 146 129 115 255
-0.84606 1.13202 5.44631 0 0 0 107 82 78 255
1.43235 0.987284 5.61416 0 0 0 110 118 124 255
1.47059 0.973059 5.61532 0 0 0 194 204 203 255
-1.54749 1.19666 5.17404 0 0 0 112 91 78 255
-1.01704 1.22224 5.40179 0 0 0 96 80 74 255
-1.11003 1.25062 5.37657 0 0 0 69 62 62 255
-0.76554 1.25065 5.47019 0 0 0 99 72 58 255
-0.811451 1.28579 5.45083 0 0 0 102 77 66 255
-1.05173 1.35052 5.38797 0 0 0 72 64 60 255
-0.905628 1.34299 5.44043 0 0 0 94 76 62 255
-0.176234 1.30946 5.57582 0 0 0 60 66 68 255
-0.97071 1.37836 5.39519 0 0 0 89 77 72 255
-0.352768 1.43447 5.54309 0 0 0 132 110 96 255
-0.835431 1.53342 5.43527 0 0 0 87 73 69 255
-0.804939 1.55694 5.43583 0 0 0 142 120 110 255
0.248733 1.49689 5.56996 0 0 0 87 99 97 255
-0.814506 1.68995 5.44404 0 0 0 66 66 68 255
-0.440581 -0.873762 5.3301 0 0 0 203 196 190 255
-1.524 -0.586683 4.74624 0 0 0 195 176 166 255
1.85522 -0.955199 6.14902 0 0 0 96 120 133 255
-1.28991 -0.548003 4.95715 0 0 0 150 129 116 255
-1.16947 -0.562135 5.01929 0 0 0 182 166 153 255
-0.967345 -0.593828 5.27094 0 0 0 163 135 119 255
-0.355676 -0.672491 5.65056 0 0 0 160 162 160 255
-1.49527 -0.475324 4.82606 0 0 0 153 139 126 255
-1.59017 -0.416701 4.7719 0 0 0 159 117 90 255
1.78719 -0.797377 6.14842 0 0 0 167 167 165 255
-1.25413 -0.382493 5.20515 0 0 0 145 110 91 255
-0.97554 -0.264611 5.3629 0 0 0 167 151 139 255
-1.18812 -0.212759 5.24213 0 0 0 153 138 126 255
-1.35693 -0.142042 5.02107 0 0 0 149 109 85 255
0.316532 -0.305982 5.60134 0 0 0 100 102 89 255
-1.28977 -0.0130257 5.08777 0 0 0 90 85 84 255
1.04332 -0.0626147 5.64136 0 0 0 49 57 52 255
-0.435302 0.0849222 5.51372 0 0 0 198 180 163 255
0.928203 -0.0360429 5.63309 0 0 0 119 128 104 255
1.31393 -0.036453 5.67035 0 0 0 141 153 116 255
-0.0389805 0.16743 5.54063 0 0 0 166 188 139 255
-1.66037 0.344251 4.97339 0 0 0 67 59 55 255
0.756629 0.161867 5.63151 0 0 0 160 176 120 255
0.620339 0.232411 5.62546 0 0 0 55 65 62 255
-0.166439 0.329534 5.53201 0 0 0 155 175 139 255
0.141581 0.29478 5.57082 0 0 0 162 179 125 255
1.50363 0.234501 5.67704 0 0 0 86 96 91 255
-1.44317 0.536248 5.12798 0 0 0 54 40 35 255
0.143401 0.451489 5.58023 0 0 0 158 176 130 255
-0.285956 0.525441 5.5608 0 0 0 87 95 92 255
2.01885 0.301553 5.72277 0 0 0 170 118 75 255
-1.49457 0.62772 5.11738 0 0 0 133 109 87 255
-1.31418 0.643083 5.30432 0 0 0 40 39 38 255
-1.65422 0.690648 5.04826 0 0 0 129 101 80 255
-1.27221 0.702797 5.31753 0 0 0 131 103 82 255
0.0902524 0.705804 5.5932 0 0 0 111 122 123 255
-1.55862 0.838958 5.13093 0 0 0 143 111 86 255
-0.882146 0.856143 5.43586 0 0 0 65 48 43 255
1.05458 0.674123 5.66792 0 0 0 73 80 86 255
1.49082 0.697686 5.67472 0 0 0 194 203 205 255
-0.788074 0.975353 5.4597 0 0 0 113 92 80 255
1.16837 0.840714 5.66961 0 0 0 133 142 143 255
1.33178 0.899328 5.6798 0 0 0 180 187 187 255
0.121497 1.01148 5.6003 0 0 0 150 157 157 255
0.287675 0.998843 5.61718 0 0 0 123 130 134 255
-1.3765 1.14456 5.23901 0 0 0 75 68 68 255
-1.33489 1.13603 5.33299 0 0 0 140 112 92 255
0.064475 1.06564 5.59536 0 0 0 121 130 133 255
-0.774755 1.25576 5.46729 0 0 0 91 74 71 255
-1.09367 1.31878 5.37193 0 0 0 155 124 102 255
-0.394652 1.45573 5.49653 0 0 0 136 111 97 255
-0.803016 1.5635 5.43549 0 0 0 147 123 108 255
-0.729862 1.54466 5.45158 0 0 0 146 112 106 255
2.02155 1.19897 5.31074 0 0 0 124 95 91 255
-1.55159 -0.493745 4.76974 0 0 0 196 181 163 255
-1.47166 -0.517254 4.8259 0 0 0 129 94 71 255
-1.30709 -0.538587 4.94676 0 0 0 149 106 83 255
-1.21961 -0.574401 5.26002 0 0 0 155 111 95 255
-0.948168 -0.580265 5.15282 0 0 0 151 106 86 255
-0.321632 -0.665247 5.56761 0 0 0 162 163 162 255
-1.31513 -0.437236 4.9783 0 0 0 138 94 75 255
-0.906656 -0.495853 5.29671 0 0 0 153 104 86 255
-1.10232 -0.455736 5.23743 0 0 0 154 106 88 255
-1.20078 -0.399443 5.04779 0 0 0 139 110 99 255
-1.49479 -0.297084 4.89861 0 0 0 144 116 103 255
-1.4635 -0.204838 4.9393 0 0 0 156 105 75 255
-1.17418 -0.258356 5.25256 0 0 0 149 119 101 255
-1.25505 -0.198419 5.23998 0 0 0 163 153 143 255
-1.03822 -0.216587 5.33737 0 0 0 147 109 89 255
-0.966077 -0.25174 5.3677 0 0 0 146 110 98 255
-1.30461 -0.168676 5.22696 0 0 0 154 103 79 255
-1.09963 -0.186118 5.31872 0 0 0 148 108 82 255
0.468718 -0.305304 5.59878 0 0 0 90 99 89 255
0.161366 -0.210952 5.5506 0 0 0 98 102 78 255
-1.63222 0.0172667 4.88546 0 0 0 160 155 149 255
-1.53123 0.00749459 4.97545 0 0 0 109 99 89 255
-1.18698 0.00144402 5.31294 0 0 0 84 68 57 255
-1.10712 -0.00810795 5.33447 0 0 0 71 69 63 255
0.272561 -0.169336 5.5679 0 0 0 165 184 127 255
0.310164 -0.0742022 5.5751 0 0 0 157 168 128 255
1.11335 -0.100494 5.6514 0 0 0 93 102 90 255
0.045743 0.00530832 5.5438 0 0 0 168 188 136 255
0.248294 -0.0290395 5.5659 0 0 0 126 143 122 255
-1.57926 0.152844 4.96255 0 0 0 39 42 41 255
-1.52176 0.161998 5.00594 0 0 0 44 42 42 255
-1.4814 0.158157 5.0323 0 0 0 54 52 50 255
0.738652 -0.0166047 5.62075 0 0 0 169 186 128 255
-0.898809 0.200699 5.403 0 0 0 67 64 60 255
1.00397 0.0464838 5.64323 0 0 0 91 102 92 255
0.796204 0.100856 5.63373 0 0 0 57 67 61 255
-0.452003 0.280581 5.50521 0 0 0 117 96 82 255
-0.147486 0.249348 5.53256 0 0 0 164 182 144 255
1.49411 0.107669 5.67283 0 0 0 115 125 103 255
0.630741 0.269825 5.62368 0 0 0 51 63 59 255
1.14003 0.408652 5.66975 0 0 0 160 176 123 255
-1.52441 0.619915 5.09826 0 0 0 136 105 88 255
-1.212 0.667113 5.33592 0 0 0 139 110 90 255
-1.05988 0.675499 5.41661 0 0 0 42 39 40 255
1.74956 0.462491 5.70387 0 0 0 45 47 53 255
1.92908 0.456148 5.70667 0 0 0 92 124 149 255
-0.404919 0.732679 5.54784 0 0 0 131 103 90 255
-1.56625 0.827592 5.12262 0 0 0 140 107 85 255
1.0816 0.732546 5.67682 0 0 0 194 205 206 255
-1.51207 0.903304 5.15053 0 0 0 57 49 45 255
-0.22625 0.86737 5.56618 0 0 0 76 84 81 255
-1.08552 0.958751 5.38771 0 0 0 77 59 58 255
0.221943 0.892567 5.60529 0 0 0 140 147 147 255
-1.47449 1.04181 5.18656 0 0 0 160 124 99 255
0.661822 0.98219 5.64386 0 0 0 197 205 206 255
-1.59482 1.11721 5.13896 0 0 0 65 60 59 255
-0.262401 1.10375 5.54935 0 0 0 164 197 164 255
1.48549 0.9516 5.61579 0 0 0 195 202 202 255
0.708952 1.12435 5.60867 0 0 0 95 103 103 255
1.51297 1.01648 5.56899 0 0 0 192 197 196 255
-0.771466 1.30506 5.44976 0 0 0 155 132 115 255
-0.817613 1.49157 5.44378 0 0 0 164 133 112 255
-0.260755 -0.666077 5.44827 0 0 0 159 164 163 255
1.86804 -0.939112 6.1566 0 0 0 85 125 146 255
-0.36873 -0.578893 5.4488 0 0 0 43 46 45 255
1.8309 -0.693007 5.85285 0 0 0 53 53 53 255
-1.04517 -0.250305 5.33326 0 0 0 157 115 97 255
1.24415 -0.453958 5.91474 0 0 0 165 185 132 255
0.57071 -0.225412 5.59789 0 0 0 78 88 82 255
0.527788 -0.145768 5.5924 0 0 0 69 77 72 255
1.09841 -0.192809 5.64636 0 0 0 100 109 95 255
1.24329 -0.271417 5.67457 0 0 0 166 184 123 255
0.91632 -0.186303 5.64029 0 0 0 89 97 81 255
0.00428807 -0.0620191 5.53816 0 0 0 172 192 138 255
1.16491 -0.0947458 5.65514 0 0 0 55 66 63 255
0.179198 0.0506155 5.55336 0 0 0 64 76 72 255
0.583662 -0.00129024 5.6152 0 0 0 47 55 50 255
0.865127 0.137925 5.63905 0 0 0 88 96 89 255
1.43664 0.0942154 5.68389 0 0 0 91 100 93 255
5.40209e-05 0.322494 5.55137 0 0 0 52 59 59 255
0.717055 0.40824 5.63384 0 0 0 151 162 120 255
-1.05952 0.672848 5.41675 0 0 0 51 41 37 255
-1.04366 0.874308 5.40529 0 0 0 152 119 96 255
-0.331899 0.880016 5.56539 0 0 0 58 61 60 255
0.513235 0.772314 5.63541 0 0 0 198 207 208 255
1.0816 0.767714 5.67144 0 0 0 196 205 208 255
1.37181 0.741332 5.68443 0 0 0 196 205 204 255
1.67749 0.723539 5.68382 0 0 0 160 168 172 255
0.0751635 1.0584 5.59595 0 0 0 132 139 140 255
-0.751625 -0.600952 5.37679 0 0 0 159 108 82 255
-1.46995 -0.455339 5.11419 0 0 0 187 175 164 255
-1.39603 -0.458627 5.14242 0 0 0 181 170 158 255
-1.36845 -0.459354 5.15498 0 0 0 177 163 149 255
-0.999017 -0.473236 5.30887 0 0 0 147 123 113 255
-1.5973 -0.324266 5.08519 0 0 0 143 115 98 255
-1.26313 -0.166122 5.24163 0 0 0 193 181 165 255
-1.32255 -0.0157002 5.251 0 0 0 193 181 160 255
-1.53376 0.010786 5.16598 0 0 0 78 72 60 255
0.103883 -0.116612 5.54825 0 0 0 130 140 109 255
-1.58398 0.019171 5.14521 0 0 0 89 81 77 255
-1.47036 0.0127359 5.19197 0 0 0 120 112 102 255
-1.15729 -0.00849316 5.30952 0 0 0 150 141 134 255
-0.971407 -0.0146877 5.36992 0 0 0 95 89 81 255
-1.02364 -0.00973627 5.35136 0 0 0 80 78 73 255
-0.775503 -0.0268408 5.41774 0 0 0 130 121 107 255
-0.972378 -0.00700839 5.3703 0 0 0 96 92 87 255
-1.34247 0.0417603 5.2346 0 0 0 128 121 111 255
-1.32451 0.0392664 5.24374 0 0 0 187 179 167 255
-1.02238 0.016003 5.34966 0 0 0 91 83 76 255
-1.22643 0.0358915 5.27149 0 0 0 154 147 139 255
-0.773829 0.0131152 5.40787 0 0 0 115 105 97 255
-0.9268 0.0322292 5.3756 0 0 0 195 179 164 255
-0.816352 0.0229019 5.40453 0 0 0 83 72 61 255
-0.851254 0.162937 5.41007 0 0 0 146 139 135 255
-0.934436 0.194484 5.38824 0 0 0 152 140 131 255
0.76217 0.073455 5.62869 0 0 0 128 138 110 255
-0.851534 0.192901 5.4085 0 0 0 163 157 151 255
1.27654 0.104583 5.67499 0 0 0 88 101 90 255
1.3258 0.16453 5.66544 0 0 0 72 89 77 255
-0.0458179 0.339556 5.55491 0 0 0 57 67 61 255
1.49472 0.279062 5.6793 0 0 0 78 90 86 255
1.44003 0.312645 5.68317 0 0 0 60 69 55 255
-0.0336464 0.456074 5.55804 0 0 0 96 108 95 255
1.27772 0.413493 5.68449 0 0 0 111 122 96 255
-0.123939 0.528676 5.55071 0 0 0 53 60 61 255
0.909113 0.476305 5.65636 0 0 0 52 59 59 255
0.987829 0.479627 5.65986 0 0 0 43 46 45 255
-0.039871 0.562265 5.55952 0 0 0 48 54 57 255
-1.5041 0.659782 5.25627 0 0 0 120 95 79 255
0.398719 0.549445 5.61251 0 0 0 117 121 122 255
0.425975 0.550759 5.6077 0 0 0 90 89 90 255
0.851515 0.520338 5.6462 0 0 0 66 71 72 255
0.960185 0.51586 5.6595 0 0 0 50 59 61 255
1.3912 0.487577 5.67835 0 0 0 107 109 111 255
0.76412 0.54355 5.64088 0 0 0 77 79 81 255
1.69438 0.476675 5.65515 0 0 0 101 103 106 255
1.6608 0.508577 5.68572 0 0 0 120 138 149 255
1.71251 0.506955 5.68958 0 0 0 127 136 140 255
0.832808 0.589799 5.64312 0 0 0 72 85 87 255
0.71896 0.62724 5.638 0 0 0 84 91 93 255
0.738805 0.627976 5.64446 0 0 0 110 119 121 255
1.36819 0.585596 5.67185 0 0 0 57 68 71 255
-0.122323 0.730853 5.56619 0 0 0 143 153 153 255
1.41128 0.59499 5.67783 0 0 0 78 76 88 255
0.905755 0.701959 5.65795 0 0 0 132 140 143 255
0.971859 0.696999 5.65604 0 0 0 121 137 138 255
-1.13801 0.868719 5.36621 0 0 0 63 46 39 255
-1.11584 0.873912 5.3731 0 0 0 96 70 57 255
-1.2351 0.882378 5.3469 0 0 0 124 96 76 255
1.73707 0.6746 5.68289 0 0 0 180 187 189 255
0.596941 0.80185 5.62858 0 0 0 159 161 160 255
-1.33936 0.994539 5.31758 0 0 0 74 59 56 255
-0.888762 1.03052 5.43452 0 0 0 117 100 88 255
0.662295 0.913901 5.63821 0 0 0 136 140 139 255
1.43843 0.909503 5.67462 0 0 0 189 198 200 255
1.61712 0.899962 5.67719 0 0 0 161 170 171 255
1.46024 0.929708 5.67563 0 0 0 119 121 122 255
1.48373 0.930343 5.67674 0 0 0 136 142 144 255
1.35439 0.967498 5.66707 0 0 0 169 173 174 255
1.57784 0.943811 5.67748 0 0 0 194 202 200 255
-0.14993 1.12393 5.57382 0 0 0 133 141 134 255
-0.0811818 1.1231 5.57753 0 0 0 194 197 197 255
0.262541 1.09597 5.60792 0 0 0 195 202 201 255
0.107806 1.12624 5.57319 0 0 0 189 197 196 255
1.19592 1.07539 5.66449 0 0 0 145 153 154 255
1.2933 1.0632 5.66794 0 0 0 148 153 154 255
1.25293 1.10596 5.62811 0 0 0 149 161 161 255
1.29644 1.10236 5.6293 0 0 0 174 188 190 255
1.45685 1.08232 5.62965 0 0 0 187 199 197 255
1.42068 1.107 5.66608 0 0 0 196 202 202 255
0.757799 1.17068 5.61267 0 0 0 144 155 158 255
1.36441 1.11785 5.62813 0 0 0 97 95 96 255
1.30371 1.14745 5.62791 0 0 0 169 177 183 255
1.50304 1.13447 5.62392 0 0 0 165 170 171 255
1.69151 1.12071 5.61944 0 0 0 154 166 171 255
1.65017 1.13927 5.66448 0 0 0 143 155 160 255
1.64812 1.17456 5.60793 0 0 0 163 169 171 255
1.47974 1.19469 5.61276 0 0 0 136 147 148 255
-1.3881 1.43622 5.32005 0 0 0 158 127 104 255
-0.913755 1.4257 5.41597 0 0 0 129 106 91 255
-0.618214 1.66947 5.45482 0 0 0 134 110 104 255
-0.754483 -0.601447 5.3748 0 0 0 159 108 82 255
-1.20058 -0.524989 5.21425 0 0 0 196 180 165 255
-1.22323 -0.484748 5.20814 0 0 0 196 180 165 255
-1.12822 -0.476601 5.25466 0 0 0 139 111 98 255
-0.900037 -0.460266 5.3381 0 0 0 173 149 137 255
-1.16764 -0.270993 5.27734 0 0 0 158 131 113 255
-1.44296 0.0124783 5.19572 0 0 0 80 74 68 255
1.50224 -0.20002 5.68554 0 0 0 124 135 107 255
-0.874123 0.00514812 5.39253 0 0 0 76 72 70 255
-0.781005 -0.000396359 5.41412 0 0 0 135 126 121 255
1.26652 -0.139156 5.67295 0 0 0 95 108 91 255
1.50515 -0.105379 5.68217 0 0 0 116 125 103 255
1.31382 0.0748221 5.67167 0 0 0 115 122 104 255
1.35758 0.272019 5.68766 0 0 0 91 102 91 255
0.456081 0.55259 5.62239 0 0 0 80 82 90 255
0.791734 0.524556 5.64068 0 0 0 101 112 116 255
1.11693 0.5354 5.64966 0 0 0 85 87 91 255
-1.24085 0.882999 5.34561 0 0 0 124 96 76 255
-0.846997 0.866384 5.4336 0 0 0 92 69 63 255
0.139387 1.00627 5.60014 0 0 0 132 137 138 255
1.61375 0.899063 5.67762 0 0 0 161 170 171 255
1.45992 0.932852 5.67578 0 0 0 120 123 124 255
1.35485 0.966187 5.66739 0 0 0 188 195 195 255
0.0396482 1.09328 5.5855 0 0 0 123 130 132 255
1.40779 1.06123 5.6714 0 0 0 87 95 96 255
1.45415 1.08376 5.63018 0 0 0 187 197 195 255
1.49403 1.13427 5.62337 0 0 0 133 138 139 255
1.46203 1.19655 5.61413 0 0 0 133 142 143 255
1.63462 1.17876 5.60809 0 0 0 146 154 156 255
-0.697954 1.67087 5.45267 0 0 0 131 110 101 255
-1.12297 -0.546356 5.25177 0 0 0 141 93 77 255
-1.55118 -0.42502 5.07513 0 0 0 177 151 132 255
-0.886398 -0.466092 5.3373 0 0 0 148 104 85 255
-1.24436 -0.354265 5.21746 0 0 0 174 161 147 255
-1.3436 -0.287053 5.19862 0 0 0 199 182 164 255
-1.17564 -0.277317 5.27402 0 0 0 193 178 160 255
-1.11588 -0.258639 5.30532 0 0 0 161 136 123 255
-1.17582 -0.194522 5.26221 0 0 0 142 96 75 255
0.29782 -0.208922 5.57298 0 0 0 167 182 129 255
-1.16455 -0.0223648 5.31819 0 0 0 112 104 94 255
-1.08665 -0.0231614 5.33849 0 0 0 139 130 110 255
-0.912103 0.00450694 5.3798 0 0 0 101 94 85 255
-0.877872 0.00448234 5.39218 0 0 0 76 72 70 255
0.192829 -0.0706643 5.56468 0 0 0 141 152 126 255
-0.851491 0.186237 5.40731 0 0 0 161 157 154 255
-1.72939 0.341668 5.122 0 0 0 58 52 45 255
0.902053 0.23591 5.64879 0 0 0 59 70 66 255
0.97617 0.248138 5.64854 0 0 0 100 108 89 255
-0.184467 0.344076 5.52978 0 0 0 136 144 122 255
0.864563 0.293218 5.64728 0 0 0 123 133 112 255
1.36247 0.272783 5.69013 0 0 0 91 102 91 255
1.42831 0.345643 5.67495 0 0 0 151 163 116 255
-0.302542 0.534159 5.5566 0 0 0 90 94 94 255
0.36186 0.528445 5.57373 0 0 0 128 135 135 255
0.54896 0.544169 5.59829 0 0 0 103 108 115 255
1.17996 0.507134 5.66976 0 0 0 126 129 129 255
1.70535 0.481881 5.69634 0 0 0 101 103 106 255
-1.41232 0.730424 5.29214 0 0 0 92 76 63 255
-0.838801 0.79783 5.44302 0 0 0 143 117 96 255
-1.26767 0.825559 5.33923 0 0 0 124 96 81 255
0.76972 0.730548 5.64678 0 0 0 171 177 180 255
-1.01686 0.882875 5.40042 0 0 0 156 123 101 255
-0.849908 0.864767 5.43434 0 0 0 82 58 54 255
1.71923 0.657936 5.68096 0 0 0 65 67 69 255
1.49473 0.752368 5.67502 0 0 0 134 137 137 255
0.590656 0.962413 5.63642 0 0 0 130 139 143 255
0.548651 1.02735 5.63018 0 0 0 143 148 147 255
1.55901 0.942893 5.67675 0 0 0 195 202 200 255
-0.154305 1.09661 5.57215 0 0 0 131 141 135 255
0.35406 1.05175 5.6196 0 0 0 178 187 189 255
1.72625 0.957405 5.66323 0 0 0 160 158 159 255
-0.295039 1.14449 5.56785 0 0 0 165 192 169 255
-0.075435 1.13569 5.54606 0 0 0 166 169 169 255
1.50957 1.0368 5.66948 0 0 0 192 201 203 255
1.63898 1.13397 5.6158 0 0 0 145 151 152 255
-0.550892 1.57839 5.47771 0 0 0 159 130 113 255
-1.13743 1.64777 5.41474 0 0 0 160 142 127 255
-1.10646 1.6537 5.43204 0 0 0 146 127 115 255
-0.896273 1.6454 5.40277 0 0 0 129 111 97 255
-1.58083 -0.50882 5.04734 0 0 0 153 129 115 255
-0.784068 -0.595835 5.3705 0 0 0 156 134 128 255
1.5031 -0.0929517 5.6909 0 0 0 114 122 101 255
-1.31159 0.164827 5.26706 0 0 0 41 38 39 255
-0.705505 0.147284 5.41626 0 0 0 50 48 48 255
0.0622292 0.285231 5.56642 0 0 0 64 79 74 255
0.730355 0.275128 5.62974 0 0 0 167 183 127 255
1.13259 0.390136 5.67342 0 0 0 159 177 123 255
0.157204 0.486771 5.58315 0 0 0 53 54 51 255
-1.43781 0.751904 5.28561 0 0 0 115 92 76 255
1.72514 0.688057 5.67978 0 0 0 179 184 185 255
1.29916 0.790246 5.67065 0 0 0 116 127 130 255
-1.4154 1.04401 5.2968 0 0 0 138 114 95 255
1.50984 0.877058 5.67485 0 0 0 99 106 110 255
-0.29007 1.07898 5.54007 0 0 0 163 191 171 255
-0.134308 1.22378 5.56598 0 0 0 134 135 135 255
0.429638 1.16945 5.59091 0 0 0 182 186 187 255
-1.07742 1.30482 5.38296 0 0 0 161 135 113 255
1.30208 1.1702 5.62329 0 0 0 178 180 182 255
1.63624 1.13417 5.61476 0 0 0 145 151 152 255
-0.361802 1.41686 5.51351 0 0 0 134 113 102 255
-0.54777 1.56579 5.48016 0 0 0 156 129 111 255
0.487122 1.48404 5.55321 0 0 0 87 99 97 255
-1.11655 1.64145 5.38863 0 0 0 158 140 125 255
-1.45626 -0.487305 5.11374 0 0 0 156 142 128 255
-1.5093 -0.457482 5.09844 0 0 0 160 130 114 255
-1.5435 -0.183029 5.13521 0 0 0 146 128 111 255
-0.951857 -0.190532 5.36102 0 0 0 148 108 87 255
-1.24984 -0.167351 5.24477 0 0 0 162 131 113 255
-1.02585 -0.189361 5.33432 0 0 0 150 110 85 255
0.497581 -0.290989 5.58702 0 0 0 74 84 80 255
0.781357 -0.00897653 5.62735 0 0 0 167 185 125 255
0.155064 0.10237 5.56323 0 0 0 81 87 80 255
0.607868 0.0828472 5.6227 0 0 0 55 63 60 255
0.00151297 0.26016 5.55573 0 0 0 89 99 89 255
0.720428 0.229507 5.63977 0 0 0 164 181 125 255
-1.6981 0.42639 5.13257 0 0 0 50 36 34 255
0.207468 0.309032 5.57838 0 0 0 62 69 64 255
0.641205 0.312834 5.62383 0 0 0 57 66 63 255
0.919049 0.28095 5.65162 0 0 0 157 168 121 255
-1.51166 0.564803 5.25279 0 0 0 49 40 38 255
1.13881 0.358156 5.6745 0 0 0 157 175 124 255
1.26903 0.812254 5.66566 0 0 0 109 113 114 255
-1.49378 1.05131 5.28 0 0 0 172 140 114 255
-1.45051 1.04269 5.28605 0 0 0 162 136 113 255
-0.284688 1.08671 5.54601 0 0 0 167 197 169 255
0.650799 0.962429 5.63917 0 0 0 195 207 206 255
-1.32515 1.18751 5.33314 0 0 0 145 118 95 255
1.4173 1.03618 5.67178 0 0 0 98 100 102 255
1.62389 1.01083 5.67975 0 0 0 91 95 97 255
-0.316 1.23172 5.51231 0 0 0 51 52 52 255
-0.0697919 1.20766 5.57176 0 0 0 197 204 203 255
0.589884 1.2749 5.59446 0 0 0 162 171 172 255
1.22867 -0.414943 5.66804 0 0 0 168 187 126 255
0.547538 -0.248051 5.5907 0 0 0 79 89 84 255
0.588876 -0.0208931 5.61518 0 0 0 52 59 57 255
-1.14955 0.196452 5.30251 0 0 0 38 38 36 255
0.129764 0.204529 5.56749 0 0 0 153 173 125 255
-0.161738 0.31147 5.53404 0 0 0 156 176 148 255
1.34133 0.352699 5.69081 0 0 0 165 181 124 255
1.14529 0.455259 5.68408 0 0 0 57 56 51 255
-1.62907 0.645666 5.18982 0 0 0 139 111 90 255
0.783586 0.754936 5.64822 0 0 0 165 174 175 255
-1.14961 0.967566 5.36548 0 0 0 104 84 71 255
1.46753 0.87504 5.67153 0 0 0 102 105 104 255
1.42601 0.981033 5.67148 0 0 0 130 134 135 255
1.85494 -0.953375 5.88257 0 0 0 119 127 133 255
-0.472023 -0.932939 5.85223 0 0 0 73 64 64 255
1.89211 -0.914069 5.83234 0 0 0 107 113 114 255
-0.501049 -0.899426 5.8031 0 0 0 215 207 207 255
-0.505769 -0.891918 5.8148 0 0 0 210 211 208 255
1.8066 -0.817758 5.99 0 0 0 162 166 167 255
1.85448 -0.790276 5.84845 0 0 0 147 125 105 255
-0.434056 -0.741074 5.83264 0 0 0 152 154 156 255
-0.464606 -0.719286 5.73445 0 0 0 165 170 169 255
-0.463076 -0.68739 5.66365 0 0 0 143 138 133 255
-1.01537 -0.631704 5.38906 0 0 0 186 153 148 255
-1.10311 -0.505322 5.34123 0 0 0 195 182 169 255
-0.811034 -0.508889 5.45204 0 0 0 198 179 166 255
-0.808181 -0.493487 5.45125 0 0 0 179 154 141 255
-2.59169 -0.75379 7.70386 0 0 0 156 117 103 255
2.80537 -0.403397 5.77457 0 0 0 189 146 114 255
2.53728 -0.385902 5.75246 0 0 0 192 168 157 255
2.64714 -0.387555 5.76245 0 0 0 194 163 145 255
2.86623 -0.377989 5.7762 0 0 0 208 168 144 255
2.59582 -0.359266 5.76102 0 0 0 180 130 93 255
2.69734 -0.352386 5.76869 0 0 0 190 161 147 255
2.75435 -0.351695 5.76865 0 0 0 206 159 129 255
2.62978 -0.332141 5.76533 0 0 0 165 151 147 255
2.59603 -0.321601 5.76166 0 0 0 196 189 189 255
0.611098 -0.264358 5.57873 0 0 0 117 134 99 255
2.7274 -0.299863 5.77735 0 0 0 175 129 96 255
2.54006 -0.278125 5.75765 0 0 0 189 160 145 255
2.64922 -0.281752 5.77101 0 0 0 202 166 147 255
2.75952 -0.281646 5.78011 0 0 0 198 194 193 255
2.8083 -0.284868 5.78015 0 0 0 195 190 192 255
2.70435 -0.27774 5.77888 0 0 0 194 188 188 255
-1.08046 -0.181585 5.38554 0 0 0 192 176 161 255
-0.968284 -0.18577 5.43114 0 0 0 170 132 122 255
0.677811 -0.217933 5.58881 0 0 0 130 144 98 255
1.01527 -0.221833 5.59372 0 0 0 53 71 60 255
0.897701 -0.203136 5.59157 0 0 0 150 162 112 255
0.172493 -0.168861 5.54151 0 0 0 84 92 89 255
0.885485 -0.183053 5.59186 0 0 0 141 149 124 255
2.66921 -0.193748 5.768 0 0 0 202 194 194 255
0.655867 -0.133756 5.5903 0 0 0 83 94 70 255
0.872045 -0.105289 5.59524 0 0 0 78 85 57 255
2.78062 -0.135675 5.78249 0 0 0 176 129 103 255
2.81386 -0.136596 5.78053 0 0 0 198 195 196 255
2.76667 -0.131741 5.78515 0 0 0 170 138 115 255
-1.10362 -0.0340705 5.40282 0 0 0 94 81 67 255
2.63746 -0.117382 5.77331 0 0 0 209 186 179 255
2.67337 -0.119491 5.7746 0 0 0 206 191 184 255
2.81317 -0.118464 5.78408 0 0 0 198 197 196 255
2.64819 -0.0951274 5.77612 0 0 0 157 149 145 255
2.75585 -0.0849861 5.79184 0 0 0 175 129 104 255
-0.830678 0.00513647 5.47964 0 0 0 158 153 153 255
2.65135 -0.0634989 5.77588 0 0 0 183 130 91 255
-0.0924542 0.00595905 5.54082 0 0 0 152 167 130 255
0.83068 -0.014479 5.60014 0 0 0 157 168 126 255
2.67639 -0.0416075 5.77773 0 0 0 200 200 200 255
2.8031 -0.0442017 5.78761 0 0 0 202 190 186 255
0.814993 0.00156081 5.59834 0 0 0 129 147 105 255
0.658665 0.0582381 5.61091 0 0 0 130 141 114 255
0.787679 0.0557759 5.60811 0 0 0 132 144 99 255
1.04114 0.0520391 5.61548 0 0 0 94 108 92 255
1.16107 0.0573954 5.6385 0 0 0 77 86 85 255
0.998335 0.0929493 5.62229 0 0 0 95 106 96 255
-0.19187 0.200375 5.5474 0 0 0 115 126 112 255
2.83939 0.138637 5.80117 0 0 0 209 166 122 255
2.8814 0.136495 5.79854 0 0 0 198 166 128 255
0.93476 0.199504 5.63094 0 0 0 86 93 90 255
1.02348 0.2524 5.63483 0 0 0 83 93 85 255
-0.127812 0.371024 5.56572 0 0 0 127 140 119 255
0.911682 0.402945 5.64258 0 0 0 84 90 76 255
0.527182 0.49827 5.61581 0 0 0 93 104 108 255
0.365704 0.505271 5.63616 0 0 0 66 74 83 255
0.479082 0.498773 5.62184 0 0 0 104 106 106 255
2.3203 0.493688 5.78732 0 0 0 147 96 71 255
0.0645575 0.559127 5.58276 0 0 0 139 137 141 255
1.22996 0.538355 5.68606 0 0 0 79 92 101 255
2.47869 0.554596 5.80558 0 0 0 155 102 62 255
2.93211 0.565082 5.83413 0 0 0 118 142 152 255
1.6173 0.595611 5.69915 0 0 0 72 80 87 255
2.98383 0.594444 5.83548 0 0 0 160 143 119 255
0.528736 0.836847 5.6548 0 0 0 165 170 174 255
2.94089 0.78019 5.83586 0 0 0 158 167 171 255
-0.00277329 0.969497 5.62073 0 0 0 134 140 143 255
-0.758156 1.00586 5.49677 0 0 0 112 90 80 255
0.460583 1.03023 5.66234 0 0 0 165 170 172 255
1.43795 1.11342 5.7397 0 0 0 138 142 145 255
1.6151 1.17051 5.75244 0 0 0 79 81 81 255
1.57888 1.18497 5.7491 0 0 0 100 99 102 255
0.00598938 1.37621 5.64966 0 0 0 119 128 120 255
-0.929947 1.39654 5.3517 0 0 0 139 129 121 255
2.94862 1.27151 5.61776 0 0 0 165 170 172 255
2.23617 1.38565 5.77335 0 0 0 183 131 123 255
2.4634 1.4062 5.85005 0 0 0 195 171 170 255
2.49394 1.38592 5.763 0 0 0 182 142 135 255
2.54894 1.40221 5.86092 0 0 0 197 154 146 255
2.68497 1.39017 5.84717 0 0 0 192 159 149 255
2.35806 1.40357 5.76321 0 0 0 195 174 171 255
2.52499 1.40038 5.75664 0 0 0 179 158 156 255
2.56169 1.39415 5.73369 0 0 0 187 175 176 255
2.6224 1.38356 5.71128 0 0 0 195 178 174 255
2.85443 1.33133 5.55017 0 0 0 203 148 130 255
2.77799 1.37397 5.66318 0 0 0 204 157 144 255
2.80952 1.35973 5.60841 0 0 0 209 167 163 255
2.98352 1.38836 5.82155 0 0 0 181 149 145 255
2.25805 1.42809 5.7281 0 0 0 201 189 189 255
2.51264 1.4381 5.84789 0 0 0 201 189 191 255
2.74722 1.39848 5.76138 0 0 0 203 166 158 255
2.46122 1.45258 5.8482 0 0 0 199 183 182 255
2.59139 1.41768 5.72884 0 0 0 173 149 147 255
2.63285 1.41996 5.73051 0 0 0 208 191 191 255
2.67996 1.40997 5.69848 0 0 0 189 180 178 255
2.77002 1.40132 5.66476 0 0 0 188 167 170 255
2.85772 1.36756 5.56022 0 0 0 200 153 144 255
2.97155 1.41636 5.80503 0 0 0 205 167 163 255
2.71334 1.42219 5.68363 0 0 0 171 141 137 255
0.744485 1.70001 5.74702 0 0 0 67 76 84 255
1.31127 1.7147 5.7852 0 0 0 114 118 122 255
0.84874 1.74279 5.75366 0 0 0 72 77 80 255
1.15117 1.7317 5.77354 0 0 0 137 139 140 255
1.23555 1.72129 5.78002 0 0 0 121 128 136 255
1.52873 1.70698 5.79862 0 0 0 87 96 99 255
1.19817 1.73534 5.78153 0 0 0 121 127 132 255
1.31193 1.7295 5.78633 0 0 0 114 113 114 255
1.35902 1.7216 5.79486 0 0 0 138 146 155 255
1.42825 1.71827 5.79129 0 0 0 137 137 137 255
1.44978 1.7288 5.79472 0 0 0 94 99 104 255
1.47597 1.72009 5.7935 0 0 0 99 120 125 255
1.5206 1.72117 5.79822 0 0 0 119 135 142 255
0.796873 1.75525 5.74529 0 0 0 124 130 135 255
1.29183 1.73311 5.7894 0 0 0 155 160 165 255
1.41863 1.74252 5.78762 0 0 0 144 144 144 255
0.87561 1.76391 5.7543 0 0 0 147 147 149 255
0.959621 1.7606 5.75871 0 0 0 117 118 121 255
1.06806 1.75672 5.77042 0 0 0 160 162 164 255
1.12839 1.75185 5.77281 0 0 0 144 148 150 255
1.19969 1.74394 5.78078 0 0 0 143 150 150 255
1.42624 1.73694 5.79031 0 0 0 140 141 141 255
1.18324 1.76316 5.77936 0 0 0 113 119 122 255
1.25838 1.76722 5.78752 0 0 0 119 125 128 255
1.48814 1.749 5.79553 0 0 0 156 158 162 255
1.53569 1.74603 5.8025 0 0 0 157 160 166 255
1.31518 1.75626 5.78738 0 0 0 106 113 117 255
-0.338947 1.89638 5.62185 0 0 0 150 156 159 255
-0.558824 1.90054 5.51559 0 0 0 119 86 86 255
-0.390688 1.90675 5.54705 0 0 0 119 97 101 255
-0.520839 -0.940492 5.82009 0 0 0 83 73 73 255
2.72128 -0.314868 5.77596 0 0 0 168 135 119 255
2.54082 -0.278091 5.75592 0 0 0 196 187 186 255
2.64959 -0.288115 5.76536 0 0 0 195 195 195 255
2.80879 -0.289106 5.78016 0 0 0 195 190 192 255
2.74317 -0.279939 5.77892 0 0 0 196 165 151 255
2.87116 -0.280586 5.78428 0 0 0 204 182 171 255
0.652501 -0.109362 5.59327 0 0 0 58 70 66 255
2.63651 -0.116422 5.7738 0 0 0 209 186 179 255
2.79615 -0.117506 5.78528 0 0 0 191 160 146 255
2.62771 -0.0805991 5.77732 0 0 0 184 127 85 255
2.65909 -0.0453022 5.77589 0 0 0 206 176 169 255
2.87206 -0.0412888 5.79722 0 0 0 202 184 177 255
2.58838 -0.0371661 5.78071 0 0 0 197 190 188 255
2.74941 -0.0372564 5.79398 0 0 0 202 192 191 255
2.78827 -0.041258 5.79075 0 0 0 200 187 185 255
-0.0986694 0.153672 5.55573 0 0 0 137 151 116 255
0.150106 0.415414 5.58719 0 0 0 161 176 139 255
-0.0910827 0.547404 5.57387 0 0 0 44 48 53 255
2.93518 0.564496 5.83044 0 0 0 118 142 152 255
2.93245 0.641222 5.83128 0 0 0 123 141 144 255
2.96427 0.674549 5.82943 0 0 0 159 161 147 255
0.520814 0.83709 5.65513 0 0 0 174 179 183 255
0.0120667 0.996057 5.61813 0 0 0 171 182 185 255
0.991739 1.1417 5.71852 0 0 0 183 192 195 255
2.45771 1.42284 5.88389 0 0 0 191 135 118 255
2.51565 1.42125 5.86867 0 0 0 184 152 145 255
2.84413 1.33514 5.5489 0 0 0 173 143 140 255
2.7104 1.4213 5.68485 0 0 0 171 141 137 255
2.77077 1.39587 5.65107 0 0 0 180 159 162 255
-0.357856 1.76414 5.57533 0 0 0 137 109 102 255
1.41361 1.72784 5.79344 0 0 0 163 173 179 255
1.12669 1.74121 5.77136 0 0 0 143 146 147 255
1.23344 1.75013 5.78187 0 0 0 145 145 145 255
-0.588225 1.80592 5.46409 0 0 0 170 131 119 255
-0.456464 -0.913329 5.49264 0 0 0 196 186 178 255
1.84663 -0.940703 5.89699 0 0 0 90 119 140 255
-0.509532 -0.939032 5.82353 0 0 0 80 69 69 255
1.83114 -0.928189 5.92578 0 0 0 110 112 116 255
-0.498934 -0.885965 5.81851 0 0 0 210 211 208 255
1.795 -0.827883 6.02351 0 0 0 163 167 167 255
-0.488712 -0.754248 5.79505 0 0 0 183 184 182 255
-0.441045 -0.748954 5.87956 0 0 0 159 163 163 255
-0.926344 -0.62135 5.41832 0 0 0 146 120 104 255
-0.4333 -0.650787 5.57572 0 0 0 120 119 117 255
-0.8319 -0.502894 5.45424 0 0 0 149 104 85 255
2.80636 -0.398163 5.77251 0 0 0 199 186 181 255
2.54414 -0.372703 5.75463 0 0 0 199 189 190 255
2.59338 -0.384673 5.75998 0 0 0 183 126 82 255
2.64248 -0.373938 5.76259 0 0 0 210 181 167 255
-1.14186 -0.284702 5.33438 0 0 0 156 131 118 255
-7.17197 -1.05229 15.84 0 0 0 151 103 81 255
2.86341 -0.358674 5.77333 0 0 0 197 194 193 255
2.53921 -0.286505 5.75391 0 0 0 189 162 146 255
0.624374 -0.205136 5.5843 0 0 0 75 85 77 255
-1.16283 -0.147311 5.35879 0 0 0 127 113 101 255
0.19307 -0.14294 5.55258 0 0 0 148 157 127 255
2.66016 -0.198195 5.76774 0 0 0 199 193 194 255
2.78529 -0.161993 5.78038 0 0 0 202 180 162 255
2.65573 -0.105446 5.77431 0 0 0 197 188 187 255
-0.10611 0.0109525 5.54026 0 0 0 90 99 90 255
1.0302 -0.0188522 5.61453 0 0 0 47 59 55 255
0.367981 0.0116299 5.56048 0 0 0 82 91 77 255
-0.438937 0.0766791 5.56227 0 0 0 197 181 168 255
1.10762 0.395446 5.66627 0 0 0 159 173 128 255
1.39883 0.389176 5.66294 0 0 0 158 175 128 255
0.493194 0.547955 5.61462 0 0 0 83 84 86 255
0.705642 0.527683 5.63608 0 0 0 113 118 118 255
2.93487 0.568363 5.83157 0 0 0 124 136 138 255
2.17368 0.618422 5.78108 0 0 0 198 153 104 255
0.26706 0.927303 5.64337 0 0 0 189 199 201 255
1.67631 0.955191 5.73994 0 0 0 162 168 171 255
1.57789 1.01076 5.72743 0 0 0 108 113 116 255
-0.086518 1.16452 5.61782 0 0 0 125 131 134 255
0.984808 1.14666 5.7165 0 0 0 183 192 196 255
2.63117 1.38493 5.72553 0 0 0 207 188 184 255
2.52184 1.40577 5.75667 0 0 0 205 189 189 255
2.4309 1.43245 5.76784 0 0 0 186 163 162 255
2.8379 1.37613 5.57859 0 0 0 192 180 180 255
2.75166 1.45502 5.8467 0 0 0 171 141 137 255
1.1994 1.74557 5.7812 0 0 0 143 150 150 255
1.35547 1.73011 5.79087 0 0 0 140 148 154 255
-0.356544 1.7696 5.57356 0 0 0 136 115 105 255
0.969161 1.7473 5.76594 0 0 0 117 116 116 255
1.05547 1.74642 5.76468 0 0 0 142 146 149 255
1.52598 1.73496 5.80235 0 0 0 161 168 169 255
-0.479574 -0.922719 5.77435 0 0 0 86 65 66 255
1.78085 -0.842846 6.04714 0 0 0 165 168 167 255
-0.408277 -0.746028 5.83886 0 0 0 158 164 162 255
2.79571 -0.389265 5.7714 0 0 0 180 132 89 255
2.74862 -0.291423 5.78231 0 0 0 180 142 124 255
2.55871 -0.18834 5.76205 0 0 0 194 158 141 255
0.38909 -0.0640279 5.55672 0 0 0 68 80 76 255
2.60226 -0.118274 5.77907 0 0 0 183 126 82 255
0.879785 0.00919841 5.60074 0 0 0 78 86 81 255
2.57019 -0.0632849 5.77838 0 0 0 194 198 202 255
2.76715 -0.0469255 5.79653 0 0 0 202 171 156 255
-0.0270569 0.0703932 5.55115 0 0 0 95 107 94 255
0.909822 0.0399564 5.60248 0 0 0 44 51 48 255
0.754713 0.181759 5.60977 0 0 0 156 173 124 255
2.01611 0.335037 5.75486 0 0 0 70 58 63 255
1.09398 0.410676 5.66225 0 0 0 130 149 97 255
2.3911 0.47453 5.79215 0 0 0 191 143 103 255
2.26439 0.549551 5.79176 0 0 0 208 154 90 255
0.612905 0.836207 5.66049 0 0 0 196 205 207 255
-0.251846 1.02139 5.59915 0 0 0 81 96 91 255
-0.0421316 1.07048 5.6179 0 0 0 195 206 207 255
-0.214668 1.08013 5.60824 0 0 0 167 195 169 255
-0.34605 1.18996 5.59431 0 0 0 51 45 41 255
1.01822 1.19344 5.71487 0 0 0 199 208 211 255
1.3617 1.29829 5.74797 0 0 0 147 156 158 255
-0.939546 1.37276 5.37249 0 0 0 91 68 60 255
2.13398 1.32664 5.86174 0 0 0 121 96 93 255
-0.685638 1.44797 5.49404 0 0 0 106 66 67 255
2.39026 1.41913 5.77508 0 0 0 181 141 136 255
-0.484158 -0.889201 5.49444 0 0 0 197 187 182 255
1.85167 -0.921805 5.9075 0 0 0 85 119 143 255
1.77806 -0.866026 6.00541 0 0 0 166 168 167 255
-0.345237 -0.757717 5.80307 0 0 0 158 165 162 255
1.84522 -0.695406 5.66981 0 0 0 53 53 55 255
-0.822906 -0.590327 5.44054 0 0 0 146 99 85 255
-1.09358 -0.478408 5.35126 0 0 0 140 104 87 255
0.139362 -0.119577 5.5468 0 0 0 85 94 82 255
0.390139 -0.159005 5.56 0 0 0 116 132 117 255
2.54156 -0.117599 5.76857 0 0 0 207 185 175 255
-1.13236 -0.00846057 5.44821 0 0 0 154 146 141 255
1.33203 -0.0581125 5.63496 0 0 0 149 162 124 255
0.699871 -0.018894 5.59759 0 0 0 168 186 132 255
0.894358 0.050755 5.60134 0 0 0 55 64 61 255
-1.17193 0.180618 5.37139 0 0 0 39 37 36 255
-1.15527 0.177957 5.41533 0 0 0 40 40 40 255
-0.901118 0.171639 5.4623 0 0 0 45 42 43 255
0.758289 0.188468 5.61358 0 0 0 154 171 122 255
0.628051 0.290588 5.61968 0 0 0 53 62 59 255
1.08546 0.338361 5.65489 0 0 0 47 59 57 255
2.3477 0.324717 5.79036 0 0 0 160 162 159 255
1.47525 0.488804 5.68111 0 0 0 149 152 153 255
2.26507 0.541011 5.79026 0 0 0 197 144 80 255
2.45322 0.558119 5.80557 0 0 0 190 144 98 255
0.121607 0.707055 5.603 0 0 0 173 180 183 255
1.06629 0.721199 5.67975 0 0 0 195 205 208 255
1.07373 0.682918 5.67996 0 0 0 168 171 174 255
1.70522 0.687445 5.70351 0 0 0 178 185 188 255
-0.219782 0.855849 5.6003 0 0 0 55 63 66 255
