ply
format ascii 1.0
comment VCGLIB generated
element vertex 1012
property float x
property float y
property float z
property float nx
property float ny
property float nz
property uchar red
property uchar green
property uchar blue
property uchar alpha
element face 0
property list uchar int vertex_indices
end_header
0.903899 1.71059 5.69677 0 0 0 127 144 148 255
0.954031 1.7236 5.74746 0 0 0 105 119 122 255
1.06476 1.71877 5.72904 0 0 0 123 132 136 255
0.828699 1.71483 5.69527 0 0 0 102 120 126 255
0.875634 1.71369 5.69293 0 0 0 122 134 143 255
0.991329 1.7317 5.74661 0 0 0 119 130 139 255
0.768118 1.23809 4.06504 0 0 0 158 153 155 255
-0.356986 1.69434 5.57226 0 0 0 116 110 108 255
0.765216 1.71905 5.66767 0 0 0 74 73 72 255
0.798118 1.72553 5.68778 0 0 0 163 170 174 255
1.8968 -0.90812 5.89422 0 0 0 79 82 82 255
1.80814 -0.809277 6.14376 0 0 0 167 174 175 255
-0.844488 -0.611329 5.45641 0 0 0 147 116 105 255
-0.814272 -0.578789 5.4607 0 0 0 193 177 168 255
1.51205 -0.474811 5.68381 0 0 0 129 139 117 255
0.343785 -0.324029 5.56865 0 0 0 90 104 94 255
0.251722 -0.289699 5.5599 0 0 0 142 158 113 255
0.527717 -0.30245 5.59133 0 0 0 86 96 77 255
1.49098 -0.236232 5.70806 0 0 0 145 157 140 255
0.645347 -0.20174 5.61716 0 0 0 102 120 106 255
1.05929 -0.197225 5.61914 0 0 0 129 138 118 255
0.871444 -0.164201 5.64205 0 0 0 108 112 82 255
0.164138 -0.149168 5.56205 0 0 0 133 147 130 255
0.412242 -0.143524 5.59314 0 0 0 125 136 110 255
0.104677 -0.133356 5.55543 0 0 0 118 126 110 255
0.362267 -0.140486 5.58557 0 0 0 158 177 128 255
0.275333 -0.121214 5.57162 0 0 0 104 115 79 255
0.982133 -0.121867 5.65168 0 0 0 114 124 93 255
0.961718 -0.116559 5.65086 0 0 0 150 164 132 255
0.0947327 -0.0862586 5.55694 0 0 0 167 189 138 255
0.903754 -0.0788336 5.64955 0 0 0 148 162 134 255
0.195458 -0.0353921 5.56859 0 0 0 146 156 135 255
0.279124 -0.0298607 5.58047 0 0 0 79 93 63 255
0.311266 -0.00809029 5.58782 0 0 0 149 164 129 255
0.651802 -0.0214272 5.62622 0 0 0 60 75 68 255
-0.125077 -0.00311873 5.52789 0 0 0 132 144 122 255
1.30359 0.0174465 5.69187 0 0 0 135 147 128 255
-0.0377003 0.0379785 5.54907 0 0 0 155 178 136 255
0.954341 0.0335686 5.66223 0 0 0 45 57 56 255
0.84423 0.0628026 5.64276 0 0 0 122 135 120 255
0.684841 0.0772729 5.63449 0 0 0 148 158 126 255
-0.106218 0.0756769 5.54025 0 0 0 157 181 143 255
1.24659 0.0841209 5.68766 0 0 0 82 101 93 255
1.51704 0.0813051 5.71284 0 0 0 114 126 111 255
0.630965 0.119493 5.62924 0 0 0 118 128 106 255
0.112094 0.131946 5.56977 0 0 0 130 146 129 255
0.760151 0.131147 5.64227 0 0 0 157 173 126 255
0.00644441 0.143466 5.55648 0 0 0 57 78 76 255
1.32698 0.136477 5.69164 0 0 0 112 126 103 255
0.30993 0.1615 5.59627 0 0 0 161 171 152 255
0.481099 0.160346 5.6183 0 0 0 105 126 118 255
0.564457 0.166806 5.62465 0 0 0 129 141 123 255
-0.0499096 0.19677 5.55887 0 0 0 163 185 146 255
0.226575 0.191843 5.58584 0 0 0 131 147 117 255
0.618368 0.213822 5.62943 0 0 0 92 103 91 255
-0.185452 0.230347 5.53621 0 0 0 146 164 151 255
-0.0467652 0.219515 5.5562 0 0 0 119 128 101 255
-0.424166 0.240114 5.53774 0 0 0 118 108 105 255
-0.131796 0.229999 5.55031 0 0 0 164 175 151 255
0.656846 0.269544 5.6381 0 0 0 94 105 85 255
1.51845 0.281617 5.70656 0 0 0 86 98 92 255
-0.0882202 0.287136 5.55694 0 0 0 156 174 139 255
0.679495 0.321776 5.63718 0 0 0 153 172 138 255
0.767851 0.314022 5.64932 0 0 0 154 169 125 255
2.03423 0.331537 5.76969 0 0 0 71 63 68 255
0.116551 0.351724 5.58946 0 0 0 120 139 121 255
2.30913 0.36602 5.82324 0 0 0 131 145 142 255
0.765149 0.388309 5.64576 0 0 0 143 156 120 255
-0.133557 0.3986 5.56573 0 0 0 53 58 57 255
-0.0788474 0.391932 5.56301 0 0 0 144 159 150 255
0.62183 0.410077 5.65042 0 0 0 111 130 125 255
0.697382 0.42365 5.6465 0 0 0 113 118 86 255
1.01654 0.432305 5.67229 0 0 0 97 117 103 255
1.08151 0.430459 5.67262 0 0 0 150 170 135 255
-0.0441981 0.422521 5.56636 0 0 0 130 144 117 255
-0.127473 0.451422 5.56319 0 0 0 119 134 125 255
0.0711462 0.456581 5.59068 0 0 0 139 155 131 255
1.15156 0.486232 5.68152 0 0 0 101 109 111 255
1.7585 0.510822 5.69279 0 0 0 144 147 150 255
0.922711 0.531637 5.66846 0 0 0 167 174 177 255
1.07457 0.507093 5.65903 0 0 0 115 130 135 255
0.221526 0.528638 5.60619 0 0 0 133 140 140 255
0.830974 0.537509 5.66386 0 0 0 68 81 88 255
1.14617 0.539992 5.69101 0 0 0 51 59 63 255
-0.206663 0.545063 5.56763 0 0 0 87 104 100 255
0.372975 0.551329 5.71538 0 0 0 139 140 141 255
0.661308 0.540455 5.61404 0 0 0 54 76 86 255
0.0544009 0.571192 5.66691 0 0 0 51 59 66 255
0.115354 0.543927 5.60664 0 0 0 40 46 51 255
1.94097 0.61666 5.7826 0 0 0 124 140 146 255
0.999359 0.610753 5.66596 0 0 0 80 97 104 255
1.51479 0.680255 5.70155 0 0 0 192 197 197 255
1.59247 0.680951 5.7003 0 0 0 162 171 173 255
1.04199 0.704542 5.67565 0 0 0 193 204 205 255
0.602776 0.71012 5.64559 0 0 0 169 176 180 255
-0.169702 0.719434 5.57035 0 0 0 116 126 130 255
0.0820225 0.728807 5.59897 0 0 0 199 200 201 255
0.791833 0.732071 5.65364 0 0 0 131 138 143 255
1.47595 0.753964 5.70621 0 0 0 135 139 140 255
1.5138 0.756732 5.70747 0 0 0 104 108 112 255
1.18005 0.788082 5.6823 0 0 0 191 206 212 255
1.93674 0.793228 5.75947 0 0 0 133 144 144 255
-0.40011 0.794486 5.57305 0 0 0 134 107 96 255
1.20062 0.808934 5.68513 0 0 0 183 198 200 255
1.33593 0.828104 5.69812 0 0 0 190 205 209 255
-0.776612 0.83693 5.5381 0 0 0 77 62 58 255
1.149 0.88786 5.6807 0 0 0 192 206 208 255
0.45066 0.905104 5.63678 0 0 0 151 157 159 255
0.494033 0.900258 5.63931 0 0 0 186 200 200 255
1.41969 0.902754 5.69394 0 0 0 137 144 147 255
0.0809107 0.936045 5.60755 0 0 0 193 198 198 255
1.73079 0.934107 5.76719 0 0 0 186 195 196 255
-0.322829 0.94897 5.65001 0 0 0 149 168 152 255
-0.199569 0.926209 5.58598 0 0 0 74 82 82 255
1.0188 0.954207 5.68274 0 0 0 100 114 119 255
0.501652 0.957711 5.64159 0 0 0 118 123 127 255
1.06163 0.977225 5.68673 0 0 0 168 187 194 255
1.13038 0.967258 5.68277 0 0 0 180 202 206 255
1.53636 1.01684 5.75636 0 0 0 187 200 202 255
-0.103621 1.01319 5.60637 0 0 0 90 98 100 255
0.0869239 1.00293 5.6147 0 0 0 194 203 203 255
-0.182992 1.01913 5.59126 0 0 0 81 90 89 255
-0.024046 1.03267 5.59776 0 0 0 128 144 149 255
1.433 1.03845 5.71864 0 0 0 88 95 100 255
2.18311 1.0704 5.79194 0 0 0 150 170 177 255
0.247853 1.0405 5.62467 0 0 0 151 153 154 255
1.49215 1.06051 5.70493 0 0 0 189 201 204 255
0.16664 1.05339 5.61985 0 0 0 117 131 135 255
0.497947 1.07492 5.64546 0 0 0 175 192 198 255
-0.191701 1.07598 5.59686 0 0 0 165 193 168 255
0.24581 1.08213 5.62888 0 0 0 192 209 212 255
1.34135 1.10333 5.7392 0 0 0 171 190 195 255
0.0263094 1.09899 5.64988 0 0 0 118 131 136 255
0.163418 1.0981 5.64367 0 0 0 186 203 210 255
1.40978 1.12497 5.7745 0 0 0 188 203 208 255
-0.0916542 1.12023 5.63635 0 0 0 195 208 210 255
-0.169666 1.13228 5.66222 0 0 0 123 143 127 255
0.289949 1.11913 5.63328 0 0 0 103 116 121 255
1.05086 1.1598 5.74654 0 0 0 142 151 152 255
-0.333221 1.16094 5.63271 0 0 0 146 174 163 255
-0.0991111 1.17665 5.68369 0 0 0 131 142 151 255
1.50231 1.19289 5.75556 0 0 0 92 96 100 255
-0.194797 1.18452 5.60325 0 0 0 74 82 74 255
0.56027 1.3156 5.70291 0 0 0 177 190 191 255
2.18146 1.42377 5.79085 0 0 0 192 160 155 255
0.746582 1.74063 5.77854 0 0 0 139 163 170 255
-0.669375 1.70896 5.60546 0 0 0 143 114 107 255
-0.64817 1.85971 5.67883 0 0 0 168 126 117 255
1.85179 -0.943563 5.91719 0 0 0 77 109 123 255
1.82245 -0.962312 6.09226 0 0 0 156 159 159 255
1.80565 -0.821802 6.15057 0 0 0 168 175 175 255
1.85236 -0.785762 5.87707 0 0 0 164 129 97 255
-0.419419 -0.677507 5.60713 0 0 0 143 146 144 255
-0.840065 -0.492172 5.49391 0 0 0 130 99 90 255
1.31647 -0.464453 5.62428 0 0 0 161 175 132 255
1.4099 -0.435983 5.65712 0 0 0 126 138 127 255
1.47871 -0.416663 5.6377 0 0 0 115 125 108 255
0.0213153 -0.321995 5.52655 0 0 0 119 130 106 255
0.44326 -0.324317 5.57868 0 0 0 83 97 86 255
0.0460449 -0.29123 5.53659 0 0 0 137 152 129 255
1.04533 -0.2564 5.64848 0 0 0 69 80 54 255
0.656204 -0.217728 5.61714 0 0 0 128 141 107 255
1.05683 -0.19507 5.6586 0 0 0 141 149 115 255
1.51139 -0.210896 5.71058 0 0 0 123 136 113 255
0.879042 -0.16026 5.64269 0 0 0 90 97 80 255
0.110196 -0.138838 5.56044 0 0 0 94 101 85 255
0.205327 -0.127677 5.56668 0 0 0 157 174 127 255
0.279586 -0.11389 5.56984 0 0 0 100 109 80 255
0.116794 -0.0851474 5.55705 0 0 0 156 168 141 255
0.365315 -0.0890712 5.58661 0 0 0 81 87 78 255
1.51286 -0.0909383 5.67885 0 0 0 111 122 106 255
0.672261 -0.069275 5.62905 0 0 0 87 105 93 255
0.923551 -0.0777312 5.64897 0 0 0 152 167 126 255
1.05068 -0.0813235 5.66103 0 0 0 48 62 58 255
1.10468 -0.0648716 5.66778 0 0 0 84 103 96 255
1.51401 -0.0673286 5.70966 0 0 0 114 127 110 255
-0.187664 -0.0463661 5.51323 0 0 0 161 187 151 255
0.0861937 -0.0405403 5.55618 0 0 0 107 125 101 255
0.954535 -0.0151876 5.65333 0 0 0 122 134 108 255
1.45134 -0.00245431 5.70576 0 0 0 131 143 127 255
1.32931 0.00186496 5.69332 0 0 0 152 167 134 255
0.345653 0.0155652 5.59318 0 0 0 97 107 101 255
1.02027 0.0271704 5.66259 0 0 0 115 127 111 255
0.0865304 0.0403121 5.56446 0 0 0 157 175 132 255
0.66904 0.0387528 5.6288 0 0 0 149 164 130 255
-0.183919 0.0639438 5.52198 0 0 0 163 182 149 255
-0.112424 0.0655038 5.53595 0 0 0 166 189 147 255
-0.425514 0.0900354 5.57318 0 0 0 192 180 168 255
1.261 0.0869881 5.68912 0 0 0 117 128 106 255
1.51655 0.0865069 5.71219 0 0 0 113 127 110 255
-0.136965 0.117788 5.54499 0 0 0 66 77 76 255
1.31659 0.109567 5.69291 0 0 0 150 163 122 255
0.00665064 0.138867 5.55676 0 0 0 57 78 76 255
1.50511 0.130642 5.70964 0 0 0 113 127 111 255
0.213875 0.166656 5.58102 0 0 0 136 147 118 255
0.4925 0.158634 5.61702 0 0 0 122 136 121 255
0.760638 0.13844 5.64309 0 0 0 156 172 123 255
-0.775069 0.170096 5.17918 0 0 0 174 168 164 255
0.314262 0.163296 5.59744 0 0 0 161 171 152 255
-0.130197 0.178898 5.54245 0 0 0 63 78 73 255
0.198807 0.179096 5.5812 0 0 0 134 151 115 255
1.11244 0.202099 5.67356 0 0 0 81 95 90 255
-0.0333715 0.220938 5.55712 0 0 0 114 115 94 255
0.0297489 0.221418 5.56005 0 0 0 96 108 94 255
0.619726 0.212534 5.63176 0 0 0 92 103 91 255
-0.17928 0.239554 5.53544 0 0 0 151 171 148 255
0.485324 0.243853 5.62549 0 0 0 82 95 88 255
0.988071 0.268618 5.6639 0 0 0 147 159 125 255
1.51719 0.261856 5.7071 0 0 0 88 104 98 255
0.663724 0.269926 5.63859 0 0 0 99 107 86 255
1.92548 0.286825 5.73062 0 0 0 117 89 75 255
0.762481 0.285347 5.64486 0 0 0 160 177 126 255
0.0867259 0.29483 5.58772 0 0 0 64 79 74 255
0.172684 0.307539 5.58768 0 0 0 81 85 74 255
0.695087 0.309938 5.6395 0 0 0 158 177 140 255
0.336257 0.340779 5.60631 0 0 0 128 146 117 255
1.11762 0.335994 5.67511 0 0 0 123 136 120 255
2.27345 0.335352 5.80969 0 0 0 85 102 111 255
0.120991 0.342299 5.58917 0 0 0 144 160 132 255
2.31776 0.359897 5.81677 0 0 0 144 157 152 255
-0.185769 0.368382 5.54635 0 0 0 134 141 128 255
0.0883004 0.361566 5.58688 0 0 0 102 116 105 255
0.881548 0.381703 5.66337 0 0 0 136 152 126 255
1.25195 0.402224 5.68801 0 0 0 116 127 99 255
1.941 0.400422 5.7766 0 0 0 56 94 112 255
0.639998 0.408395 5.65099 0 0 0 133 151 135 255
1.10638 0.428161 5.67353 0 0 0 147 162 123 255
-0.042995 0.417265 5.57023 0 0 0 130 144 117 255
0.755486 0.42351 5.64973 0 0 0 150 166 124 255
0.0934416 0.453907 5.59238 0 0 0 164 184 151 255
0.173039 0.441751 5.59699 0 0 0 161 179 138 255
0.943949 0.475893 5.66683 0 0 0 89 99 100 255
0.175439 0.49443 5.60204 0 0 0 49 61 59 255
0.707194 0.508311 5.63381 0 0 0 125 142 144 255
0.914881 0.518851 5.6699 0 0 0 172 178 183 255
1.0837 0.511187 5.69604 0 0 0 115 130 135 255
1.12576 0.517008 5.71088 0 0 0 83 94 95 255
1.3755 0.506589 5.67959 0 0 0 104 110 114 255
1.49205 0.511589 5.71035 0 0 0 174 178 179 255
1.76599 0.50281 5.72773 0 0 0 111 110 113 255
0.342566 0.511635 5.59585 0 0 0 128 128 130 255
0.381753 0.51599 5.63419 0 0 0 45 52 56 255
0.550524 0.514716 5.5743 0 0 0 136 143 141 255
-0.219476 0.5328 5.55519 0 0 0 91 105 100 255
-0.0698453 0.536427 5.5752 0 0 0 97 101 105 255
0.279611 0.534723 5.61473 0 0 0 150 150 152 255
-0.124083 0.565482 5.5723 0 0 0 70 84 82 255
-0.0362498 0.548837 5.57773 0 0 0 57 66 71 255
0.231027 0.554508 5.61426 0 0 0 186 186 186 255
2.17394 0.625227 5.79872 0 0 0 195 149 108 255
0.817729 0.615476 5.66064 0 0 0 103 115 120 255
0.727341 0.612569 5.64884 0 0 0 102 114 120 255
1.7329 0.677656 5.72952 0 0 0 165 173 176 255
0.562835 0.71725 5.64125 0 0 0 190 206 211 255
1.04913 0.69854 5.67491 0 0 0 192 202 203 255
0.0869437 0.723953 5.59791 0 0 0 189 200 201 255
1.44363 0.754633 5.69884 0 0 0 141 145 146 255
1.2923 0.746332 5.69144 0 0 0 144 153 159 255
1.43659 0.746866 5.69845 0 0 0 186 192 193 255
1.93976 0.792019 5.77771 0 0 0 135 146 146 255
-0.397946 0.788474 5.57385 0 0 0 136 110 101 255
1.34503 0.793071 5.69801 0 0 0 188 206 211 255
0.514934 0.852854 5.63626 0 0 0 149 162 165 255
1.31878 0.872639 5.69479 0 0 0 193 204 207 255
1.40392 0.868304 5.69617 0 0 0 122 127 131 255
1.15121 0.867287 5.68054 0 0 0 144 158 166 255
-0.199289 0.908046 5.58651 0 0 0 71 84 85 255
1.73296 0.916161 5.7069 0 0 0 192 203 206 255
1.04544 0.919106 5.67808 0 0 0 174 183 184 255
1.11025 0.934665 5.68091 0 0 0 115 121 127 255
1.55755 0.953087 5.75032 0 0 0 190 203 208 255
-0.300776 0.94224 5.59397 0 0 0 152 173 157 255
0.00952378 0.939926 5.59455 0 0 0 181 192 194 255
0.049197 0.92867 5.6038 0 0 0 113 132 136 255
0.696013 0.943218 5.65301 0 0 0 194 205 208 255
1.35324 0.979601 5.74302 0 0 0 169 181 184 255
1.6735 0.961764 5.74347 0 0 0 184 188 189 255
0.400939 0.962283 5.6307 0 0 0 119 131 135 255
-0.221105 0.978448 5.58581 0 0 0 162 192 164 255
1.17104 0.974105 5.68308 0 0 0 184 193 195 255
-0.0492195 0.995656 5.60075 0 0 0 173 183 185 255
-0.27054 1.02784 5.64286 0 0 0 97 120 110 255
-0.181307 1.02543 5.59053 0 0 0 76 89 88 255
0.0451271 1.00658 5.60363 0 0 0 170 182 182 255
0.386258 1.02105 5.63198 0 0 0 193 209 210 255
1.42586 1.04609 5.72673 0 0 0 87 100 104 255
-0.0154323 1.04199 5.60019 0 0 0 116 130 137 255
1.50049 1.07097 5.75335 0 0 0 186 202 206 255
0.408585 1.0415 5.63818 0 0 0 191 209 212 255
2.19567 1.07985 5.77905 0 0 0 177 194 200 255
0.514847 1.07323 5.64716 0 0 0 191 207 210 255
0.201813 1.08324 5.62602 0 0 0 193 208 213 255
0.0293123 1.11532 5.68339 0 0 0 110 126 129 255
1.21335 1.11642 5.68892 0 0 0 103 106 112 255
1.27583 1.1136 5.69161 0 0 0 167 180 182 255
-0.0702719 1.11677 5.64859 0 0 0 192 209 214 255
-0.0306752 1.10699 5.60802 0 0 0 193 209 211 255
0.610119 1.12288 5.64547 0 0 0 115 123 129 255
1.05165 1.1435 5.70194 0 0 0 118 125 127 255
0.0765809 1.13357 5.61595 0 0 0 188 208 210 255
0.987558 1.1617 5.68444 0 0 0 191 207 211 255
0.115811 1.15772 5.65283 0 0 0 133 142 143 255
1.60941 1.18188 5.76612 0 0 0 87 87 89 255
0.604939 1.19151 5.65714 0 0 0 186 197 198 255
0.939728 1.19691 5.73716 0 0 0 183 198 205 255
-0.147267 1.20703 5.59572 0 0 0 163 175 175 255
0.105197 1.23793 5.69848 0 0 0 189 203 208 255
1.75761 1.2915 5.72451 0 0 0 127 134 139 255
0.568159 1.30864 5.70496 0 0 0 158 176 179 255
2.00638 1.3061 5.70166 0 0 0 170 191 198 255
2.20995 1.42999 5.83597 0 0 0 189 186 189 255
-0.610312 1.61342 5.65547 0 0 0 154 117 111 255
0.747824 1.73677 5.78078 0 0 0 139 163 170 255
0.800264 1.72797 5.76577 0 0 0 164 178 183 255
0.912862 1.74884 5.77519 0 0 0 146 158 158 255
0.733965 1.73709 5.72863 0 0 0 137 154 161 255
-0.379406 1.80039 5.67531 0 0 0 143 116 107 255
1.82571 -0.942759 6.10375 0 0 0 102 103 103 255
1.8648 -0.88153 5.82169 0 0 0 80 80 80 255
1.76322 -0.837802 6.13567 0 0 0 166 173 170 255
1.86027 -0.684612 5.62542 0 0 0 59 57 58 255
-0.839096 -0.612585 5.4885 0 0 0 136 108 99 255
1.2811 -0.442213 5.6368 0 0 0 160 181 133 255
1.50495 -0.471604 5.69692 0 0 0 129 142 120 255
-0.208175 -0.422151 5.48504 0 0 0 151 161 144 255
1.49747 -0.237629 5.70981 0 0 0 145 157 140 255
1.21852 -0.202022 5.62862 0 0 0 52 66 60 255
0.122182 -0.164523 5.55165 0 0 0 151 163 129 255
0.342578 -0.148471 5.58247 0 0 0 164 187 134 255
-0.195206 -0.0742134 5.50356 0 0 0 174 178 167 255
0.66149 -0.0687257 5.62702 0 0 0 69 89 80 255
0.0904405 -0.0353416 5.5574 0 0 0 134 152 128 255
1.02581 -0.0672046 5.65519 0 0 0 70 82 78 255
-0.827439 -0.00567128 5.53923 0 0 0 84 80 81 255
1.32256 -0.0159059 5.6931 0 0 0 143 158 121 255
0.687546 0.010995 5.62934 0 0 0 166 184 134 255
0.0348246 0.024397 5.55079 0 0 0 167 189 138 255
0.891817 0.0295467 5.64758 0 0 0 59 72 69 255
0.611883 0.165208 5.63117 0 0 0 137 155 117 255
-0.0238108 0.211397 5.56174 0 0 0 165 183 141 255
0.168517 0.188438 5.57805 0 0 0 163 186 140 255
-0.440164 0.249102 5.53231 0 0 0 110 101 102 255
-0.0253612 0.23901 5.55979 0 0 0 55 72 65 255
0.0384918 0.24611 5.56038 0 0 0 57 74 68 255
0.743795 0.245811 5.64989 0 0 0 163 181 130 255
0.983145 0.271147 5.66173 0 0 0 141 152 121 255
0.881075 0.288155 5.65673 0 0 0 143 157 125 255
1.36347 0.320451 5.69854 0 0 0 153 172 122 255
2.00578 0.343813 5.76837 0 0 0 60 61 67 255
2.26544 0.352557 5.84011 0 0 0 79 107 120 255
1.06001 0.344091 5.66833 0 0 0 51 68 67 255
0.325552 0.372959 5.61144 0 0 0 164 181 146 255
1.40469 0.371771 5.70799 0 0 0 151 166 120 255
-0.0584128 0.404787 5.56861 0 0 0 159 178 144 255
0.662895 0.398777 5.65075 0 0 0 142 152 120 255
1.01287 0.413711 5.66917 0 0 0 100 113 101 255
0.0982961 0.429654 5.59361 0 0 0 165 184 157 255
0.151127 0.437766 5.59606 0 0 0 166 187 139 255
1.76316 0.5133 5.72387 0 0 0 75 80 83 255
2.24634 0.528875 5.78241 0 0 0 188 137 90 255
0.206334 0.523139 5.6018 0 0 0 44 50 50 255
-0.0693011 0.551244 5.57864 0 0 0 87 97 110 255
1.9391 0.624533 5.77095 0 0 0 157 175 177 255
1.04442 0.691153 5.67614 0 0 0 190 201 202 255
1.4726 0.709011 5.6959 0 0 0 190 203 208 255
-0.412966 0.797649 5.60878 0 0 0 131 105 94 255
1.20369 0.785153 5.68625 0 0 0 163 178 182 255
1.27634 0.78907 5.6966 0 0 0 146 154 154 255
0.597376 0.85242 5.64632 0 0 0 191 209 209 255
0.511485 0.864712 5.63859 0 0 0 144 146 148 255
1.48864 0.858451 5.68321 0 0 0 95 105 113 255
-0.429996 0.891566 5.56358 0 0 0 139 116 106 255
-0.351371 0.906893 5.58458 0 0 0 52 56 58 255
-0.206413 0.897174 5.58551 0 0 0 73 86 86 255
1.31003 0.889596 5.69715 0 0 0 165 175 176 255
1.19905 0.947435 5.68216 0 0 0 144 163 168 255
-0.36531 0.954517 5.64208 0 0 0 65 69 70 255
1.34234 0.96173 5.70817 0 0 0 190 200 202 255
1.49657 0.953309 5.72614 0 0 0 196 205 211 255
0.0658425 1.00951 5.61605 0 0 0 169 178 179 255
1.41158 1.03829 5.71014 0 0 0 96 105 111 255
1.51462 1.02763 5.73309 0 0 0 161 167 169 255
-0.245056 1.0085 5.52257 0 0 0 96 111 104 255
-0.0859062 1.01533 5.60219 0 0 0 95 108 112 255
0.109433 1.04914 5.62069 0 0 0 119 128 132 255
0.201147 1.04518 5.62025 0 0 0 191 206 210 255
0.368387 1.04218 5.63151 0 0 0 140 153 155 255
2.17975 1.06437 5.77253 0 0 0 162 181 188 255
-0.153487 1.09189 5.61619 0 0 0 122 136 138 255
-0.0608841 1.0856 5.60328 0 0 0 191 209 212 255
1.39219 1.11352 5.738 0 0 0 180 186 190 255
0.30022 1.11226 5.63354 0 0 0 91 113 117 255
0.610465 1.13733 5.64785 0 0 0 120 129 135 255
-0.316879 1.15561 5.66265 0 0 0 159 192 170 255
0.95758 1.20122 5.77513 0 0 0 189 206 210 255
-0.366628 1.2135 5.66544 0 0 0 56 47 40 255
-0.217716 1.20793 5.65805 0 0 0 79 86 88 255
-0.118315 1.24115 5.72105 0 0 0 192 206 210 255
0.0912422 1.24059 5.7055 0 0 0 191 206 210 255
1.36212 1.30101 5.75123 0 0 0 140 157 159 255
-0.721912 1.48834 5.62008 0 0 0 101 64 70 255
-0.402256 1.47718 5.62639 0 0 0 136 117 109 255
-0.58616 1.58966 5.58879 0 0 0 155 128 115 255
-0.397885 1.67383 5.65665 0 0 0 116 104 104 255
1.86212 -0.894581 5.9708 0 0 0 68 106 129 255
1.86172 -0.706111 5.67902 0 0 0 60 60 60 255
-0.39118 -0.604559 5.51035 0 0 0 50 56 56 255
-0.818828 -0.614656 5.48959 0 0 0 148 108 101 255
-0.849281 -0.50629 5.51527 0 0 0 153 102 86 255
-0.185873 -0.402131 5.4946 0 0 0 162 188 154 255
0.290343 -0.302597 5.56255 0 0 0 92 105 96 255
0.350116 -0.308387 5.57046 0 0 0 82 97 92 255
0.163655 -0.245135 5.5509 0 0 0 137 153 111 255
1.0658 -0.233415 5.60545 0 0 0 74 89 84 255
1.14674 -0.213087 5.61246 0 0 0 57 69 64 255
0.310361 -0.187099 5.57411 0 0 0 163 185 135 255
1.15368 -0.191955 5.60997 0 0 0 74 84 81 255
1.21878 -0.201216 5.64172 0 0 0 54 66 62 255
0.133896 -0.159849 5.55349 0 0 0 85 101 89 255
1.02783 -0.143229 5.64962 0 0 0 147 155 118 255
1.09406 -0.133043 5.66464 0 0 0 115 127 110 255
-0.187143 -0.0965604 5.50856 0 0 0 165 190 149 255
0.256607 -0.11484 5.56827 0 0 0 167 187 137 255
1.03596 -0.0394948 5.65692 0 0 0 48 62 60 255
0.283553 -0.0669758 5.57699 0 0 0 136 149 109 255
-0.839302 -0.0130361 5.52964 0 0 0 169 160 147 255
0.0221932 -0.00857187 5.5556 0 0 0 168 189 141 255
-0.14054 0.0666153 5.54541 0 0 0 164 187 145 255
-0.442556 0.0631879 5.53005 0 0 0 196 182 168 255
0.623787 0.0643954 5.6256 0 0 0 65 77 73 255
0.813692 0.0833955 5.64223 0 0 0 69 81 77 255
0.176939 0.0780875 5.57149 0 0 0 70 85 80 255
1.30621 0.096628 5.69128 0 0 0 143 156 122 255
1.48832 0.0942634 5.70901 0 0 0 109 121 105 255
-0.797108 0.208487 5.57522 0 0 0 42 40 38 255
-0.15851 0.178655 5.53815 0 0 0 77 90 79 255
-0.0195346 0.170996 5.55433 0 0 0 162 177 142 255
0.628023 0.164096 5.6306 0 0 0 160 179 132 255
0.153962 0.193744 5.57579 0 0 0 164 188 141 255
1.94884 0.236631 5.73846 0 0 0 132 76 48 255
0.72022 0.243201 5.65017 0 0 0 165 183 131 255
-0.167885 0.283259 5.54421 0 0 0 149 175 144 255
-0.00127332 0.294882 5.56169 0 0 0 63 78 73 255
0.032736 0.289716 5.57675 0 0 0 92 107 100 255
0.134214 0.260881 5.58347 0 0 0 166 186 136 255
0.936337 0.282388 5.6673 0 0 0 148 163 130 255
1.07654 0.299543 5.66894 0 0 0 50 59 59 255
1.99583 0.342615 5.7615 0 0 0 62 58 63 255
0.333542 0.370032 5.61153 0 0 0 164 183 133 255
1.38872 0.355708 5.70575 0 0 0 153 169 127 255
0.746652 0.425703 5.64936 0 0 0 149 163 125 255
1.12412 0.407253 5.6756 0 0 0 156 173 124 255
1.94014 0.450659 5.74885 0 0 0 48 132 162 255
-0.257679 0.527169 5.55845 0 0 0 92 107 102 255
0.283748 0.541821 5.6167 0 0 0 170 169 172 255
1.71834 0.702071 5.7478 0 0 0 184 196 198 255
0.529968 0.71664 5.63319 0 0 0 190 206 209 255
-0.148445 0.765253 5.57696 0 0 0 132 146 150 255
1.94236 0.757549 5.76248 0 0 0 158 172 172 255
1.25943 0.8316 5.69528 0 0 0 106 121 125 255
1.488 0.864067 5.73646 0 0 0 99 111 116 255
-0.230528 0.849394 5.58313 0 0 0 55 70 75 255
0.0512903 0.903951 5.60241 0 0 0 125 143 144 255
1.08282 0.920071 5.67977 0 0 0 171 180 181 255
1.72562 0.931297 5.74669 0 0 0 182 191 193 255
1.14586 0.945574 5.68194 0 0 0 179 192 194 255
2.03721 0.984669 5.78038 0 0 0 94 136 163 255
0.677223 0.972082 5.6592 0 0 0 175 190 193 255
1.52222 1.00794 5.73717 0 0 0 173 181 184 255
-0.317812 1.02732 5.66912 0 0 0 163 196 172 255
-0.17441 1.01786 5.60018 0 0 0 81 90 89 255
0.3948 1.03778 5.6334 0 0 0 194 208 209 255
0.815297 1.02442 5.6595 0 0 0 164 175 178 255
1.61847 1.02587 5.75087 0 0 0 93 102 106 255
-0.0253109 1.09066 5.60714 0 0 0 190 208 211 255
0.11473 1.06317 5.61849 0 0 0 116 131 135 255
1.50208 1.07016 5.75278 0 0 0 186 202 206 255
0.312031 1.10597 5.63628 0 0 0 98 116 120 255
0.653271 1.12109 5.64871 0 0 0 111 128 134 255
0.971949 1.18381 5.72604 0 0 0 190 207 212 255
-0.107922 1.23446 5.68474 0 0 0 190 200 201 255
0.0910101 1.24912 5.69834 0 0 0 188 201 203 255
1.74584 1.28304 5.74914 0 0 0 133 133 136 255
2.02043 1.32028 5.7978 0 0 0 153 180 191 255
-0.587855 1.59765 5.65077 0 0 0 143 113 103 255
1.84127 -0.88753 6.55893 0 0 0 165 171 170 255
1.45221 -0.43196 5.63967 0 0 0 111 122 109 255
-0.175108 -0.353942 5.49909 0 0 0 164 191 152 255
0.524185 -0.242782 5.59322 0 0 0 77 93 87 255
0.905693 -0.165177 5.64381 0 0 0 75 88 81 255
1.11174 -0.213478 5.59259 0 0 0 56 62 57 255
-0.189745 -0.155982 5.54846 0 0 0 163 190 149 255
0.292834 -0.14378 5.5756 0 0 0 145 162 113 255
0.586907 -0.178529 5.61468 0 0 0 60 74 69 255
0.907523 -0.11305 5.6464 0 0 0 97 107 97 255
1.27988 -0.120252 5.69008 0 0 0 79 92 85 255
-0.174725 -0.0557575 5.51425 0 0 0 161 187 151 255
0.00117115 -0.0412986 5.53867 0 0 0 168 189 141 255
0.301028 -0.0340457 5.58277 0 0 0 125 133 118 255
0.700414 -0.0698625 5.6309 0 0 0 156 175 138 255
1.28418 0.0126199 5.69103 0 0 0 80 94 87 255
-0.185565 0.0427872 5.52055 0 0 0 164 188 152 255
0.136995 0.0251614 5.57108 0 0 0 86 96 91 255
1.46391 0.0956372 5.71243 0 0 0 93 105 99 255
0.603443 0.166955 5.63062 0 0 0 133 148 117 255
0.856805 0.0973308 5.6495 0 0 0 70 85 80 255
0.659349 0.203966 5.63077 0 0 0 160 177 126 255
0.694791 0.28319 5.63493 0 0 0 158 177 138 255
0.889601 0.283413 5.65821 0 0 0 150 163 131 255
0.000857908 0.394416 5.57583 0 0 0 60 74 72 255
1.32465 0.332059 5.68864 0 0 0 161 178 129 255
1.13498 0.475179 5.6987 0 0 0 49 64 63 255
-0.448472 0.675429 5.55558 0 0 0 119 97 85 255
0.11475 0.745933 5.60401 0 0 0 190 207 210 255
0.514226 0.749572 5.63597 0 0 0 190 208 213 255
0.787916 0.76977 5.65414 0 0 0 163 176 180 255
1.06499 0.74812 5.67962 0 0 0 192 205 210 255
1.65658 0.731019 5.70075 0 0 0 151 166 171 255
-0.268936 0.863637 5.65495 0 0 0 53 66 70 255
1.46685 0.871504 5.73338 0 0 0 118 130 135 255
-0.330548 0.901708 5.58337 0 0 0 81 92 93 255
1.06896 0.887849 5.67868 0 0 0 140 151 157 255
1.67569 0.894659 5.72623 0 0 0 157 165 167 255
1.47142 0.959442 5.73626 0 0 0 168 180 189 255
0.68727 1.10302 5.65548 0 0 0 125 136 139 255
-0.306773 1.33101 5.70169 0 0 0 64 78 76 255
1.67364 1.26791 5.76534 0 0 0 136 152 154 255
-1.71501 -0.705696 4.371 0 0 0 167 146 144 255
-1.50235 -0.585398 4.76879 0 0 0 153 121 101 255
-1.58171 -0.580823 4.96055 0 0 0 146 114 98 255
-1.59505 -0.532088 4.70905 0 0 0 137 89 63 255
-1.32274 -0.554285 4.92873 0 0 0 180 163 152 255
-1.45253 -0.55177 5.07139 0 0 0 147 133 119 255
-0.974526 -0.608703 5.23171 0 0 0 165 143 130 255
-1.25504 -0.561862 5.14651 0 0 0 147 122 106 255
-1.40575 -0.537605 5.11384 0 0 0 195 181 168 255
-1.1098 -0.572329 5.16776 0 0 0 154 125 111 255
-1.05649 -0.578192 5.22092 0 0 0 138 117 106 255
-1.0386 -0.579263 5.21957 0 0 0 144 115 102 255
-0.994682 -0.585934 5.2329 0 0 0 145 118 105 255
-0.377849 -0.671685 5.54599 0 0 0 163 158 160 255
-1.27125 -0.531849 4.96856 0 0 0 189 176 165 255
-1.24749 -0.539117 4.9851 0 0 0 148 105 81 255
-1.20189 -0.551774 5.17134 0 0 0 185 166 155 255
-0.940999 -0.588982 5.24868 0 0 0 135 121 105 255
-1.36269 -0.514408 4.92725 0 0 0 187 158 150 255
-1.17931 -0.522538 5.03129 0 0 0 184 163 150 255
-1.05622 -0.559849 5.21852 0 0 0 185 166 156 255
-0.957548 -0.564242 5.243 0 0 0 178 156 143 255
-0.870695 -0.576979 5.27757 0 0 0 197 181 166 255
-0.414198 -0.633404 5.48492 0 0 0 118 116 111 255
-1.40377 -0.487245 4.8897 0 0 0 149 99 75 255
-0.994544 -0.556508 5.23292 0 0 0 195 181 166 255
-0.836934 -0.558354 5.28884 0 0 0 148 100 87 255
-1.6088 -0.445257 5.02088 0 0 0 156 137 119 255
-0.890836 -0.52771 5.26887 0 0 0 199 180 173 255
-1.60675 -0.428049 5.01324 0 0 0 137 98 84 255
-1.26839 -0.460409 4.99894 0 0 0 198 180 163 255
-1.426 -0.429858 4.90516 0 0 0 136 98 81 255
-1.23434 -0.470419 5.19371 0 0 0 191 175 164 255
-1.39493 -0.428826 4.93295 0 0 0 130 114 106 255
-1.37519 -0.43139 4.95029 0 0 0 143 97 83 255
-1.08392 -0.480661 5.21016 0 0 0 194 177 160 255
-1.021 -0.48534 5.23515 0 0 0 178 157 144 255
-0.956334 -0.488783 5.24792 0 0 0 191 175 159 255
-1.38518 -0.440269 5.11491 0 0 0 139 117 103 255
-1.36209 -0.440588 5.12265 0 0 0 150 96 76 255
-1.26432 -0.438583 5.00745 0 0 0 160 132 116 255
-1.24574 -0.440769 5.01583 0 0 0 151 106 88 255
-0.876666 -0.494042 5.27398 0 0 0 199 182 168 255
-0.806061 -0.497125 5.30261 0 0 0 193 179 167 255
-0.841106 -0.485732 5.29253 0 0 0 144 125 110 255
-1.09253 -0.452317 5.20893 0 0 0 107 91 82 255
-1.02425 -0.460761 5.23776 0 0 0 157 108 90 255
-0.94515 -0.466825 5.2535 0 0 0 145 100 83 255
-0.962517 -0.454596 5.25093 0 0 0 146 105 86 255
-0.800871 -0.472335 5.3059 0 0 0 131 116 108 255
-1.22179 -0.422368 5.17279 0 0 0 191 179 169 255
-1.26821 -0.402115 5.17999 0 0 0 198 180 163 255
-1.22357 -0.406206 5.17541 0 0 0 192 180 168 255
-1.26602 -0.377002 5.17135 0 0 0 162 140 129 255
-1.19014 -0.382657 5.05914 0 0 0 169 129 105 255
-1.47927 -0.323469 4.89155 0 0 0 151 104 84 255
-1.44201 -0.330588 5.10115 0 0 0 153 121 107 255
-1.39792 -0.329362 5.12036 0 0 0 141 109 87 255
-1.47292 -0.304157 4.90215 0 0 0 153 128 116 255
-1.23318 -0.339159 5.18363 0 0 0 151 114 92 255
-1.34867 -0.26305 4.99673 0 0 0 167 142 122 255
-1.28754 -0.270583 5.0276 0 0 0 188 171 153 255
-1.22769 -0.267234 5.1806 0 0 0 150 107 83 255
-1.3248 -0.242013 5.16599 0 0 0 196 179 162 255
-1.28624 -0.251693 5.16727 0 0 0 165 119 105 255
-1.02495 -0.273227 5.26535 0 0 0 151 109 91 255
-0.955824 -0.280057 5.29985 0 0 0 159 111 86 255
-1.34537 -0.236236 5.1548 0 0 0 137 106 90 255
-1.4509 -0.202684 4.95514 0 0 0 202 173 153 255
-1.00007 -0.253182 5.2765 0 0 0 179 134 112 255
-0.970987 -0.257692 5.2907 0 0 0 191 184 173 255
-1.33894 -0.165134 5.02141 0 0 0 140 101 82 255
0.35855 -0.329895 5.5985 0 0 0 120 137 86 255
0.403627 -0.324529 5.6064 0 0 0 69 74 58 255
0.471284 -0.331022 5.61538 0 0 0 116 119 98 255
-1.35304 -0.161878 5.16461 0 0 0 158 144 131 255
-1.31775 -0.166263 5.18738 0 0 0 196 179 160 255
-1.28999 -0.169165 5.19872 0 0 0 154 103 79 255
0.382551 -0.324271 5.60372 0 0 0 134 147 122 255
-1.45805 -0.141964 4.96958 0 0 0 150 111 92 255
-1.36516 -0.142993 5.02004 0 0 0 140 125 114 255
-1.39646 -0.139192 5.16354 0 0 0 146 112 88 255
-1.34898 -0.142405 5.16801 0 0 0 151 126 109 255
-1.29224 -0.145218 5.19764 0 0 0 143 109 96 255
-1.00463 -0.17466 5.2837 0 0 0 143 108 86 255
-1.24962 -0.144823 5.20791 0 0 0 166 148 133 255
-1.22523 -0.14934 5.2149 0 0 0 148 103 82 255
-1.0099 -0.158003 5.28141 0 0 0 142 100 79 255
0.431932 -0.294238 5.61053 0 0 0 102 111 98 255
-0.951946 -0.156052 5.29672 0 0 0 133 114 100 255
-0.928275 -0.155427 5.30948 0 0 0 135 108 95 255
0.549478 -0.293432 5.6347 0 0 0 122 131 105 255
0.588851 -0.280452 5.64172 0 0 0 119 132 94 255
0.436483 -0.246127 5.61605 0 0 0 96 104 83 255
0.620645 -0.255681 5.64888 0 0 0 111 118 75 255
0.196273 -0.203529 5.57239 0 0 0 76 89 78 255
0.637285 -0.239788 5.6538 0 0 0 170 189 137 255
0.242178 -0.187472 5.57758 0 0 0 165 176 136 255
-1.63236 -0.0112962 4.86684 0 0 0 131 124 110 255
-1.64612 -0.00223461 5.07553 0 0 0 124 117 103 255
-1.60055 -0.00740842 5.1012 0 0 0 124 117 103 255
-1.55924 -0.0163987 5.11912 0 0 0 170 160 148 255
-1.48698 -0.0253712 4.97691 0 0 0 168 159 147 255
-1.45785 -0.0259112 4.99128 0 0 0 194 179 161 255
-1.4324 -0.0247995 4.99371 0 0 0 115 105 93 255
-1.37657 -0.0254618 5.03684 0 0 0 168 153 135 255
-1.33389 -0.0289165 5.05951 0 0 0 188 171 152 255
0.223219 -0.168114 5.57973 0 0 0 131 141 110 255
-1.41266 -0.0165855 5.01276 0 0 0 103 97 92 255
-1.33221 -0.0158089 5.20832 0 0 0 96 89 80 255
-1.55422 0.0147105 5.12896 0 0 0 195 178 163 255
-1.29631 -0.0130349 5.21944 0 0 0 132 120 109 255
-1.22199 -0.0203175 5.24065 0 0 0 134 124 114 255
-1.17456 -0.0332532 5.25192 0 0 0 161 148 130 255
-1.11297 -0.0290815 5.2728 0 0 0 107 105 101 255
-1.65567 0.0272247 4.87444 0 0 0 149 144 135 255
-1.47985 0.0159057 5.13656 0 0 0 190 180 170 255
-1.05331 -0.0290072 5.31098 0 0 0 137 130 119 255
-0.990325 -0.0358168 5.30873 0 0 0 151 137 124 255
1.01841 -0.202468 5.70693 0 0 0 127 136 113 255
-1.62649 0.0288356 4.89814 0 0 0 137 130 120 255
-1.38347 0.0129444 5.18748 0 0 0 56 63 52 255
-1.08917 -0.0169791 5.27728 0 0 0 110 104 95 255
-0.915025 -0.031524 5.32457 0 0 0 148 135 121 255
-0.847451 -0.0422683 5.34516 0 0 0 154 143 131 255
-0.807558 -0.0406078 5.36241 0 0 0 158 152 143 255
-1.65733 0.0400643 5.08996 0 0 0 87 81 71 255
-1.62739 0.0433443 5.10094 0 0 0 88 86 79 255
-1.33369 0.0140537 5.20698 0 0 0 106 98 92 255
-1.55499 0.0488731 5.12519 0 0 0 99 94 91 255
-1.53847 0.0432585 5.119 0 0 0 104 99 96 255
-1.16921 0.00981979 5.25037 0 0 0 76 71 64 255
-0.985472 -0.0050292 5.30395 0 0 0 193 180 165 255
-0.867162 -0.0182062 5.34531 0 0 0 110 102 94 255
-0.805665 -0.024423 5.36241 0 0 0 140 135 124 255
-1.51813 0.045363 5.13266 0 0 0 152 144 133 255
-1.4922 0.0451591 5.14219 0 0 0 133 126 121 255
-1.42203 0.0447977 5.17036 0 0 0 93 78 79 255
-1.3903 0.0342271 5.18485 0 0 0 95 95 95 255
-1.29904 0.0282133 5.2175 0 0 0 110 96 96 255
-1.23616 0.0188596 5.22983 0 0 0 130 124 115 255
-1.2035 0.0171516 5.24217 0 0 0 116 108 97 255
0.367059 -0.119044 5.60447 0 0 0 157 175 121 255
-1.35561 0.0394043 5.19486 0 0 0 135 125 121 255
-1.12127 0.0209061 5.27342 0 0 0 130 121 117 255
-0.844016 -0.00751224 5.34319 0 0 0 194 178 165 255
-1.19319 0.0340655 5.2429 0 0 0 166 159 151 255
-1.17436 0.0306319 5.25586 0 0 0 147 135 125 255
-1.06937 0.0197734 5.29221 0 0 0 106 97 83 255
-0.928848 0.0124129 5.32053 0 0 0 135 130 118 255
-0.803568 -0.00157639 5.35666 0 0 0 128 123 111 255
0.419617 -0.104768 5.61067 0 0 0 60 68 60 255
1.26928 -0.176679 5.73855 0 0 0 142 150 122 255
-1.03318 0.0277316 5.29621 0 0 0 125 118 106 255
0.988937 -0.141742 5.69816 0 0 0 96 107 77 255
-0.980902 0.0248097 5.30956 0 0 0 129 121 110 255
-0.893425 0.0227648 5.33346 0 0 0 137 131 126 255
-0.840624 0.0239398 5.34179 0 0 0 121 113 104 255
0.14147 -0.0599497 5.55971 0 0 0 64 73 60 255
0.665697 -0.104477 5.65382 0 0 0 149 158 118 255
0.304437 -0.0614842 5.5908 0 0 0 173 184 144 255
-1.84923 0.125692 4.70995 0 0 0 53 27 15 255
1.07495 -0.111216 5.71063 0 0 0 128 139 115 255
0.250141 -0.00406486 5.57318 0 0 0 119 129 110 255
-1.66582 0.16996 4.91318 0 0 0 162 158 155 255
-1.61632 0.166147 4.93948 0 0 0 101 90 89 255
-1.56083 0.151249 4.97748 0 0 0 70 58 58 255
-0.0496708 0.0402805 5.52434 0 0 0 149 159 129 255
-1.59424 0.177971 4.96461 0 0 0 170 137 124 255
-1.55048 0.176079 5.12533 0 0 0 162 152 142 255
-1.6673 0.180125 4.91437 0 0 0 171 166 159 255
-1.61769 0.187802 4.94808 0 0 0 150 146 141 255
-1.49876 0.18123 5.17016 0 0 0 150 139 135 255
-1.43722 0.168114 5.05356 0 0 0 136 129 125 255
-1.4335 0.174209 5.19719 0 0 0 163 157 157 255
-1.38042 0.185332 5.21628 0 0 0 168 147 142 255
0.637851 0.00848821 5.63671 0 0 0 79 92 83 255
-1.68563 0.204459 5.08734 0 0 0 150 146 141 255
-1.62173 0.200653 5.12076 0 0 0 170 149 140 255
-1.4924 0.197272 5.17147 0 0 0 168 160 152 255
-1.43082 0.183103 5.19928 0 0 0 156 146 138 255
-1.35791 0.185642 5.21666 0 0 0 161 153 149 255
-1.22026 0.179776 5.26316 0 0 0 132 97 85 255
0.843477 0.00141386 5.67724 0 0 0 79 85 69 255
-1.49723 0.19166 5.02923 0 0 0 141 132 125 255
-1.05474 0.169176 5.30866 0 0 0 156 150 145 255
-1.22025 0.180949 5.26228 0 0 0 142 93 73 255
-0.994452 0.165303 5.3264 0 0 0 123 116 115 255
-0.970051 0.168553 5.32773 0 0 0 141 137 131 255
-0.919567 0.166246 5.34518 0 0 0 171 161 156 255
-0.773608 0.156507 5.37373 0 0 0 153 146 140 255
-1.06016 0.186715 5.30457 0 0 0 168 149 145 255
-1.8627 0.234218 4.71373 0 0 0 119 80 57 255
-0.897625 0.178447 5.34949 0 0 0 145 140 135 255
-1.74956 0.241928 4.8755 0 0 0 121 98 84 255
-0.991615 0.188187 5.32382 0 0 0 150 142 134 255
-0.77522 0.18405 5.37622 0 0 0 145 134 129 255
0.222936 0.138679 5.58815 0 0 0 99 107 98 255
0.510362 0.12993 5.62972 0 0 0 79 86 84 255
-1.65759 0.293409 4.9503 0 0 0 109 84 66 255
0.634701 0.235991 5.64861 0 0 0 62 69 59 255
-1.68303 0.463973 4.99261 0 0 0 66 43 39 255
1.00102 0.283679 5.67924 0 0 0 145 158 117 255
1.42822 0.297213 5.71908 0 0 0 99 105 101 255
-1.75759 0.520789 4.91974 0 0 0 80 66 51 255
0.205594 0.419088 5.57043 0 0 0 67 79 75 255
0.59974 0.40699 5.62002 0 0 0 88 98 93 255
0.0475533 0.457908 5.55318 0 0 0 72 80 77 255
0.21509 0.449548 5.58498 0 0 0 120 133 106 255
0.718749 0.423607 5.63587 0 0 0 137 145 117 255
1.07343 0.39433 5.67054 0 0 0 84 94 88 255
0.996246 0.436695 5.66326 0 0 0 88 100 95 255
-1.44837 0.633156 5.246 0 0 0 104 87 79 255
1.25217 0.42519 5.69876 0 0 0 122 130 103 255
0.555728 0.500013 5.61255 0 0 0 97 109 116 255
0.598873 0.509505 5.63725 0 0 0 86 86 86 255
0.679432 0.512894 5.6345 0 0 0 127 130 138 255
0.90689 0.498124 5.65707 0 0 0 64 75 78 255
-1.39453 0.665468 5.16794 0 0 0 113 90 81 255
0.56799 0.550918 5.63619 0 0 0 66 70 73 255
0.602734 0.554825 5.63816 0 0 0 95 102 104 255
0.989506 0.517571 5.65934 0 0 0 130 138 143 255
-1.40653 0.691921 5.16966 0 0 0 40 41 38 255
1.03978 0.521652 5.66376 0 0 0 82 84 85 255
1.22127 0.507952 5.67655 0 0 0 57 57 58 255
1.2576 0.510601 5.67178 0 0 0 66 66 68 255
1.32565 0.505873 5.67967 0 0 0 115 112 114 255
1.62933 0.480778 5.69004 0 0 0 116 121 131 255
1.67011 0.482252 5.69994 0 0 0 96 102 111 255
1.17814 0.525487 5.6652 0 0 0 57 57 57 255
1.30184 0.513408 5.6812 0 0 0 51 54 56 255
-1.29463 0.723307 5.28982 0 0 0 123 94 82 255
1.59411 0.495772 5.68665 0 0 0 46 51 49 255
-1.34977 0.73471 5.27521 0 0 0 66 52 48 255
1.60139 0.504161 5.67469 0 0 0 146 148 149 255
-1.65222 0.777851 5.17751 0 0 0 90 78 71 255
-0.983857 0.73007 5.37189 0 0 0 53 46 45 255
-0.944957 0.732825 5.37785 0 0 0 94 84 78 255
1.62877 0.526873 5.6762 0 0 0 137 137 142 255
-0.919774 0.754429 5.38604 0 0 0 93 70 55 255
-1.42449 0.801239 5.25763 0 0 0 61 46 37 255
-1.0343 0.779354 5.36592 0 0 0 87 65 53 255
1.2539 0.601314 5.67177 0 0 0 72 82 90 255
-0.862265 0.774459 5.39598 0 0 0 70 54 53 255
-1.0589 0.789789 5.35721 0 0 0 76 52 38 255
-1.29268 0.813852 5.30721 0 0 0 53 39 33 255
-0.801002 0.786144 5.41133 0 0 0 80 48 36 255
-0.766914 0.786394 5.41354 0 0 0 106 93 90 255
1.40153 0.612705 5.67038 0 0 0 67 77 85 255
-1.33845 0.830019 5.29116 0 0 0 76 53 43 255
-1.11431 0.811709 5.34958 0 0 0 72 52 52 255
1.63046 0.601822 5.68026 0 0 0 77 83 87 255
1.66785 0.592209 5.68271 0 0 0 57 63 64 255
-1.47455 0.832076 5.15668 0 0 0 109 93 80 255
1.61934 0.61664 5.67721 0 0 0 69 87 90 255
-1.01982 0.825812 5.3662 0 0 0 59 45 47 255
-0.970927 0.827957 5.37683 0 0 0 84 65 55 255
-0.964048 0.815593 5.37652 0 0 0 88 64 54 255
-1.51641 0.845437 5.14386 0 0 0 124 106 88 255
-0.885878 0.837351 5.38593 0 0 0 84 61 51 255
-1.2773 0.870398 5.31 0 0 0 54 42 44 255
-1.40326 0.883135 5.27859 0 0 0 58 48 40 255
-1.48353 0.916217 5.27057 0 0 0 68 55 48 255
-1.10784 0.891494 5.34989 0 0 0 76 55 53 255
-1.34313 0.920709 5.29576 0 0 0 68 52 42 255
-1.23598 0.906945 5.32671 0 0 0 84 59 44 255
-0.960559 0.894944 5.38205 0 0 0 78 62 57 255
-0.983829 0.912546 5.37768 0 0 0 86 67 55 255
-1.4248 0.945658 5.27656 0 0 0 73 60 52 255
-1.03452 0.92627 5.36858 0 0 0 83 54 45 255
1.45623 0.738829 5.66872 0 0 0 154 151 152 255
-1.48588 0.942197 5.17121 0 0 0 102 78 62 255
-1.0969 0.937988 5.35498 0 0 0 63 49 43 255
-0.999361 0.966616 5.37204 0 0 0 111 89 75 255
-1.17503 0.981449 5.34449 0 0 0 66 50 42 255
-1.10975 0.983624 5.35463 0 0 0 62 54 53 255
-1.05585 0.974631 5.36116 0 0 0 63 48 41 255
-0.773696 0.967389 5.42117 0 0 0 90 70 57 255
-1.14314 1.0154 5.35068 0 0 0 78 56 45 255
-1.53793 1.0531 5.24453 0 0 0 112 89 74 255
-1.21011 1.02909 5.333 0 0 0 64 56 53 255
-1.16145 1.03351 5.34666 0 0 0 100 76 69 255
-1.1062 1.04107 5.35786 0 0 0 70 55 48 255
0.444999 0.934536 5.58754 0 0 0 181 188 188 255
1.09677 0.898189 5.63418 0 0 0 147 147 147 255
1.35005 0.869974 5.64427 0 0 0 197 204 203 255
-0.947544 1.0649 5.38779 0 0 0 104 85 74 255
-1.3076 1.09279 5.32788 0 0 0 107 94 87 255
-1.13629 1.08408 5.34827 0 0 0 61 53 53 255
-1.07534 1.08842 5.3666 0 0 0 80 58 52 255
0.557236 0.975066 5.59298 0 0 0 155 163 167 255
-1.55924 1.12396 5.15409 0 0 0 140 122 104 255
1.53823 0.898838 5.5682 0 0 0 180 194 194 255
-0.962567 1.11496 5.38479 0 0 0 91 74 64 255
-0.807281 1.1254 5.41917 0 0 0 98 79 75 255
-1.62625 1.17319 5.20758 0 0 0 133 119 113 255
-1.12925 1.15411 5.35298 0 0 0 79 58 47 255
0.261629 1.05273 5.56272 0 0 0 193 204 205 255
-1.56098 1.17797 5.24117 0 0 0 124 105 97 255
-1.11999 1.15882 5.35564 0 0 0 89 63 56 255
0.535499 1.03582 5.58445 0 0 0 142 142 142 255
-0.75579 1.1472 5.43968 0 0 0 139 107 91 255
1.73128 0.927473 5.62878 0 0 0 164 169 170 255
-1.58929 1.20612 5.23929 0 0 0 115 98 93 255
-1.54862 1.20785 5.17419 0 0 0 96 71 68 255
1.44714 0.982846 5.55505 0 0 0 185 190 190 255
1.53552 0.974787 5.55837 0 0 0 193 199 199 255
-0.992282 1.20856 5.38362 0 0 0 95 79 71 255
-1.10774 1.23304 5.36385 0 0 0 83 69 64 255
-1.03147 1.22758 5.37682 0 0 0 112 98 91 255
-1.1212 1.23461 5.35865 0 0 0 100 81 68 255
-0.744724 1.22855 5.43664 0 0 0 111 87 75 255
-1.08652 1.26408 5.36272 0 0 0 84 77 76 255
0.333587 1.18121 5.55707 0 0 0 183 193 193 255
1.22379 1.13187 5.59078 0 0 0 127 133 133 255
1.26665 1.12889 5.59487 0 0 0 100 100 98 255
-0.877155 1.31996 5.41014 0 0 0 101 78 73 255
-1.03244 1.34089 5.37719 0 0 0 98 69 59 255
1.39123 1.13927 5.58897 0 0 0 150 158 159 255
-1.0775 1.35723 5.36063 0 0 0 88 62 52 255
-0.838554 1.34904 5.41296 0 0 0 92 78 69 255
-1.03475 1.37693 5.37228 0 0 0 119 104 91 255
-0.99229 1.3926 5.37659 0 0 0 85 69 59 255
-0.861767 1.39819 5.40371 0 0 0 92 78 69 255
-1.20804 1.4297 5.3411 0 0 0 159 131 107 255
-0.779298 1.39941 5.41663 0 0 0 108 84 76 255
-0.833743 1.50831 5.41091 0 0 0 120 95 86 255
-0.922293 1.52437 5.39808 0 0 0 127 108 96 255
-0.894553 1.52993 5.39771 0 0 0 107 89 79 255
-0.814072 1.52102 5.4097 0 0 0 104 85 80 255
-0.766923 1.55881 5.41098 0 0 0 148 122 101 255
-0.717825 1.55697 5.41594 0 0 0 143 109 98 255
0.254033 1.49064 5.52646 0 0 0 98 107 103 255
-0.752762 1.65798 5.42318 0 0 0 128 118 113 255
-0.848587 1.68979 5.39887 0 0 0 128 113 106 255
-1.81184 -0.775116 4.75289 0 0 0 64 64 64 255
-1.37416 -0.540353 4.9053 0 0 0 135 122 108 255
-1.27097 -0.549602 4.96282 0 0 0 140 105 91 255
-1.18582 -0.574332 5.15998 0 0 0 151 122 109 255
-0.947051 -0.598245 5.14507 0 0 0 133 103 90 255
-0.375462 -0.672076 5.55068 0 0 0 163 158 160 255
-1.44985 -0.509059 4.84345 0 0 0 196 180 165 255
-1.2435 -0.561818 5.14139 0 0 0 137 110 94 255
-1.10605 -0.568891 5.16697 0 0 0 145 107 95 255
-0.942813 -0.586628 5.15323 0 0 0 148 101 80 255
-1.40202 -0.523604 5.09707 0 0 0 195 180 166 255
-1.24655 -0.534353 4.98457 0 0 0 148 105 81 255
-1.28954 -0.511893 4.97222 0 0 0 194 180 166 255
-1.20104 -0.532045 5.13971 0 0 0 194 181 164 255
-0.848516 -0.552989 5.28722 0 0 0 118 91 79 255
-1.45925 -0.454477 4.86689 0 0 0 198 181 163 255
-1.0827 -0.497318 5.20968 0 0 0 199 182 166 255
-1.52052 -0.425037 4.82364 0 0 0 140 105 92 255
-0.958804 -0.491568 5.24664 0 0 0 191 175 159 255
-1.51222 -0.427612 5.05407 0 0 0 146 131 116 255
-1.38645 -0.435195 4.93404 0 0 0 144 121 116 255
-1.32106 -0.437978 4.9765 0 0 0 132 100 84 255
-1.25504 -0.44613 5.01243 0 0 0 144 112 96 255
-1.1399 -0.465683 5.06599 0 0 0 176 158 145 255
-0.883994 -0.508987 5.2714 0 0 0 199 180 165 255
-1.18929 -0.449419 5.17934 0 0 0 163 143 131 255
-0.964052 -0.461484 5.24815 0 0 0 152 107 88 255
-1.2209 -0.415384 5.17465 0 0 0 192 180 169 255
-1.20985 -0.387829 5.05045 0 0 0 154 122 110 255
-1.25421 -0.263576 5.04402 0 0 0 149 126 114 255
-1.13238 -0.281419 5.23993 0 0 0 138 101 91 255
-1.28524 -0.261596 5.02868 0 0 0 152 134 117 255
-1.19446 -0.261897 5.07705 0 0 0 149 115 94 255
-1.44959 -0.21833 4.95025 0 0 0 199 178 159 255
-1.02441 -0.273649 5.26533 0 0 0 151 109 91 255
-1.34499 -0.230753 5.15329 0 0 0 150 118 102 255
-1.13172 -0.245895 5.23895 0 0 0 197 182 165 255
-1.11443 -0.239612 5.24908 0 0 0 197 182 164 255
-1.078 -0.238151 5.25947 0 0 0 153 106 86 255
-0.979806 -0.238047 5.28615 0 0 0 199 182 163 255
-1.0742 -0.21211 5.26559 0 0 0 151 106 82 255
-1.33197 -0.173925 5.17935 0 0 0 196 181 163 255
-1.45506 -0.136801 4.97731 0 0 0 146 108 89 255
-1.30417 -0.173433 5.19139 0 0 0 168 145 130 255
-1.12844 -0.183824 5.2372 0 0 0 199 181 162 255
-1.33964 -0.147119 5.17105 0 0 0 170 133 114 255
-1.31079 -0.139049 5.18825 0 0 0 160 133 116 255
-1.01204 -0.163177 5.27708 0 0 0 148 108 85 255
-0.938115 -0.160139 5.30511 0 0 0 150 107 82 255
0.211522 -0.268404 5.5646 0 0 0 111 124 88 255
-1.55588 -0.0155414 4.93889 0 0 0 192 180 165 255
-1.4297 -0.01485 5.16481 0 0 0 91 81 73 255
-0.98859 -0.0338671 5.3064 0 0 0 151 137 124 255
-1.54597 0.0431803 5.1257 0 0 0 104 99 96 255
-1.23749 0.0152468 5.23001 0 0 0 130 124 115 255
-1.17424 0.0224855 5.25403 0 0 0 150 139 124 255
-0.803982 -0.00853251 5.3639 0 0 0 106 99 90 255
1.03051 -0.171404 5.71132 0 0 0 87 94 83 255
-0.856381 0.0218706 5.34531 0 0 0 121 111 103 255
-1.62282 0.192387 5.137 0 0 0 167 154 150 255
-1.37515 0.184462 5.2151 0 0 0 139 133 131 255
-0.913766 0.171994 5.34494 0 0 0 171 161 156 255
-0.773466 0.173205 5.37376 0 0 0 143 132 127 255
-1.74956 0.241928 4.8755 0 0 0 121 98 84 255
-1.70646 0.261552 4.90492 0 0 0 138 108 89 255
-0.0736069 0.150429 5.52807 0 0 0 160 173 134 255
-1.73479 0.277663 4.89582 0 0 0 75 42 38 255
0.0142299 0.219343 5.5474 0 0 0 68 71 49 255
0.884852 0.237287 5.67065 0 0 0 73 78 74 255
-1.75956 0.441144 4.89401 0 0 0 129 100 85 255
-1.78658 0.446904 4.87725 0 0 0 128 93 84 255
-1.69605 0.468833 4.98882 0 0 0 66 43 41 255
1.05406 0.366934 5.67156 0 0 0 52 58 50 255
-1.3055 0.616635 5.2853 0 0 0 47 41 39 255
1.17727 0.429653 5.68146 0 0 0 158 173 124 255
-1.47137 0.627015 5.12814 0 0 0 127 103 80 255
1.9203 0.366296 5.67764 0 0 0 67 94 107 255
0.418401 0.532946 5.60375 0 0 0 42 46 52 255
1.32069 0.500182 5.68582 0 0 0 113 110 114 255
-1.29359 0.718351 5.28997 0 0 0 123 94 82 255
1.39797 0.51178 5.68357 0 0 0 127 128 135 255
-1.47752 0.763801 5.20758 0 0 0 117 93 79 255
1.57131 0.516199 5.68549 0 0 0 99 98 100 255
-0.945571 0.741948 5.37919 0 0 0 124 103 93 255
-0.912554 0.756736 5.3854 0 0 0 67 49 41 255
-0.156672 0.697253 5.52798 0 0 0 69 77 79 255
-1.43111 0.805597 5.27534 0 0 0 61 46 37 255
-1.03384 0.788217 5.36555 0 0 0 67 50 42 255
-0.835842 0.770307 5.40158 0 0 0 120 103 92 255
-1.04944 0.791637 5.35987 0 0 0 77 50 36 255
-1.12343 0.810786 5.34488 0 0 0 60 47 43 255
-1.04206 0.797103 5.3624 0 0 0 58 46 42 255
-0.962933 0.827918 5.37867 0 0 0 71 55 50 255
-1.39513 0.871651 5.27964 0 0 0 60 44 36 255
-1.29019 0.876152 5.3047 0 0 0 59 41 40 255
-1.12369 0.877634 5.34384 0 0 0 60 46 46 255
-1.4771 0.897147 5.16574 0 0 0 142 110 94 255
-1.23373 0.910763 5.32717 0 0 0 74 52 44 255
-1.34623 0.928999 5.29623 0 0 0 57 47 41 255
-0.832212 0.960775 5.40741 0 0 0 79 65 58 255
1.10652 0.809182 5.63266 0 0 0 198 207 208 255
1.50277 0.772484 5.65845 0 0 0 126 134 138 255
-1.21532 1.02737 5.33039 0 0 0 71 56 45 255
1.29261 0.828615 5.64409 0 0 0 103 109 111 255
-1.55158 1.06422 5.1549 0 0 0 125 106 93 255
-1.13669 1.07424 5.34718 0 0 0 67 55 55 255
-1.31348 1.10508 5.32546 0 0 0 121 97 92 255
-1.07448 1.08832 5.3672 0 0 0 80 58 52 255
1.33132 0.886279 5.63915 0 0 0 196 205 204 255
0.391593 0.994141 5.58364 0 0 0 194 205 206 255
-1.57159 1.1358 5.14983 0 0 0 139 127 117 255
-0.972678 1.12274 5.38326 0 0 0 109 86 74 255
-0.847876 1.12305 5.4094 0 0 0 114 92 78 255
-1.13205 1.15123 5.3532 0 0 0 79 58 47 255
-0.901106 1.175 5.39786 0 0 0 89 76 74 255
1.41265 0.991266 5.62146 0 0 0 95 100 98 255
-1.0067 1.21129 5.38141 0 0 0 101 82 74 255
-0.756731 1.22572 5.43308 0 0 0 122 95 80 255
0.15294 1.19734 5.5483 0 0 0 187 200 201 255
0.323559 1.18348 5.55657 0 0 0 187 196 196 255
-0.828533 1.28421 5.41107 0 0 0 109 86 71 255
-0.888885 1.32511 5.40718 0 0 0 128 108 93 255
-1.07291 1.35591 5.36292 0 0 0 88 62 52 255
-0.84384 1.35931 5.41183 0 0 0 92 75 63 255
-1.03868 1.37556 5.37036 0 0 0 119 104 91 255
-0.984367 1.38977 5.3769 0 0 0 75 64 61 255
-0.863195 1.3844 5.40567 0 0 0 104 87 79 255
-0.788741 1.40504 5.41494 0 0 0 108 87 78 255
-0.339432 1.42982 5.47378 0 0 0 131 110 95 255
-0.902229 1.54942 5.39467 0 0 0 73 66 64 255
-0.717332 1.54449 5.41635 0 0 0 144 110 99 255
-0.799989 1.55707 5.40642 0 0 0 143 120 107 255
-0.756717 1.6661 5.42015 0 0 0 138 117 101 255
-1.29799 1.68191 5.27699 0 0 0 180 140 122 255
-0.848467 1.69309 5.39892 0 0 0 128 113 106 255
-1.56531 -0.582765 4.69451 0 0 0 140 118 100 255
-1.50351 -0.576868 4.77302 0 0 0 153 107 84 255
-1.54316 -0.541981 4.99728 0 0 0 167 153 137 255
-1.44008 -0.539253 4.83506 0 0 0 115 98 89 255
-1.4315 -0.548747 5.06813 0 0 0 153 103 77 255
-1.31649 -0.561458 5.11631 0 0 0 145 107 90 255
-1.14074 -0.563764 5.02958 0 0 0 151 122 109 255
-0.976928 -0.593727 5.24506 0 0 0 150 108 89 255
-0.854467 -0.589204 5.19546 0 0 0 133 118 108 255
-0.367399 -0.676042 5.62619 0 0 0 162 165 162 255
-1.61988 -0.459682 4.72914 0 0 0 141 108 88 255
-1.53522 -0.496469 5.05395 0 0 0 195 180 162 255
-1.41372 -0.498586 4.88059 0 0 0 149 106 89 255
-1.33621 -0.499807 4.94783 0 0 0 196 181 163 255
-1.33829 -0.510294 5.11678 0 0 0 193 180 167 255
