ply
format ascii 1.0
comment VCGLIB generated
element vertex 1012
property float x
property float y
property float z
property float nx
property float ny
property float nz
property uchar red
property uchar green
property uchar blue
property uchar alpha
element face 0
property list uchar int vertex_indices
end_header
2.20154 1.44807 5.84778 0 0 0 191 159 153 255
-0.625955 1.62554 5.65892 0 0 0 149 115 107 255
1.15852 1.70444 5.77302 0 0 0 110 122 126 255
1.12631 1.70459 5.73461 0 0 0 123 138 143 255
0.737717 1.72896 5.76567 0 0 0 59 82 89 255
0.786449 1.71416 5.75363 0 0 0 131 147 152 255
0.906269 1.72038 5.72206 0 0 0 127 144 148 255
0.952412 1.71873 5.73314 0 0 0 105 119 122 255
1.06624 1.72465 5.74258 0 0 0 123 132 136 255
0.83127 1.72449 5.72354 0 0 0 102 120 126 255
0.876295 1.71762 5.70169 0 0 0 122 134 143 255
0.994693 1.73717 5.76955 0 0 0 119 130 139 255
0.768118 1.23809 4.06504 0 0 0 158 153 155 255
-0.366351 1.71786 5.64147 0 0 0 116 110 108 255
0.76762 1.74279 5.73482 0 0 0 74 73 72 255
0.801671 1.74129 5.73133 0 0 0 163 170 174 255
1.88232 -0.898101 5.84069 0 0 0 79 82 82 255
1.80814 -0.809277 6.14376 0 0 0 167 174 175 255
-0.844488 -0.611329 5.45641 0 0 0 147 116 105 255
-0.81856 -0.57691 5.47776 0 0 0 193 177 168 255
1.50556 -0.469214 5.65506 0 0 0 129 139 117 255
0.343092 -0.322344 5.5656 0 0 0 90 104 94 255
0.250973 -0.287983 5.56148 0 0 0 142 158 113 255
0.527023 -0.300878 5.59024 0 0 0 86 96 77 255
1.48541 -0.235174 5.683 0 0 0 145 157 140 255
0.644697 -0.200592 5.6143 0 0 0 102 120 106 255
1.05707 -0.194448 5.60934 0 0 0 129 138 118 255
0.869831 -0.163071 5.63088 0 0 0 108 112 82 255
0.16343 -0.147848 5.56871 0 0 0 133 147 130 255
0.411835 -0.142315 5.59768 0 0 0 125 136 110 255
0.10367 -0.131709 5.56504 0 0 0 118 126 110 255
0.361741 -0.139133 5.58863 0 0 0 158 177 128 255
0.274894 -0.12015 5.56808 0 0 0 104 115 79 255
0.98078 -0.12109 5.64345 0 0 0 114 124 93 255
0.960481 -0.115938 5.64283 0 0 0 150 164 132 255
0.0936377 -0.0846174 5.57003 0 0 0 167 189 138 255
0.903847 -0.0779139 5.65374 0 0 0 148 162 134 255
0.194574 -0.0336577 5.58603 0 0 0 146 156 135 255
0.278614 -0.0284998 5.58937 0 0 0 79 93 63 255
0.310796 -0.0064396 5.60366 0 0 0 149 164 129 255
0.651809 -0.0205302 5.6314 0 0 0 60 75 68 255
-0.12553 -0.00206653 5.52817 0 0 0 132 144 122 255
1.30372 0.0177311 5.69319 0 0 0 135 147 128 255
-0.0397125 0.0399412 5.57506 0 0 0 155 178 136 255
0.954391 0.034153 5.66447 0 0 0 45 57 56 255
0.844183 0.0632839 5.64411 0 0 0 122 135 120 255
0.685697 0.0784625 5.65004 0 0 0 148 158 126 255
-0.107783 0.0773153 5.55616 0 0 0 157 181 143 255
1.2457 0.0845612 5.68387 0 0 0 82 101 93 255
1.5165 0.0814311 5.71049 0 0 0 114 126 111 255
0.630908 0.120575 5.63412 0 0 0 118 128 106 255
0.111116 0.133818 5.58715 0 0 0 130 146 129 255
0.76043 0.132086 5.64869 0 0 0 157 173 126 255
0.00476865 0.145665 5.58197 0 0 0 57 78 76 255
1.32807 0.137034 5.6981 0 0 0 112 126 103 255
0.309632 0.163008 5.60871 0 0 0 161 171 152 255
0.481098 0.161881 5.6295 0 0 0 105 126 118 255
0.564654 0.168268 5.6358 0 0 0 129 141 123 255
-0.0517492 0.19921 5.58184 0 0 0 163 185 146 255
0.226233 0.192923 5.59363 0 0 0 131 147 117 255
0.618692 0.215099 5.63945 0 0 0 92 103 91 255
-0.188073 0.233081 5.56174 0 0 0 146 164 151 255
-0.0484792 0.221882 5.57791 0 0 0 119 128 101 255
-0.427441 0.24233 5.56108 0 0 0 118 108 105 255
-0.134111 0.232639 5.5755 0 0 0 164 175 151 255
0.657325 0.270762 5.64832 0 0 0 94 105 85 255
1.51912 0.281534 5.70914 0 0 0 86 98 92 255
-0.0898051 0.289437 5.57446 0 0 0 156 174 139 255
0.680128 0.32341 5.64975 0 0 0 153 172 138 255
0.768561 0.315068 5.65892 0 0 0 154 169 125 255
2.03423 0.331537 5.76969 0 0 0 71 63 68 255
0.11561 0.354312 5.61192 0 0 0 120 139 121 255
2.29832 0.363023 5.7919 0 0 0 131 145 142 255
0.765528 0.389326 5.6522 0 0 0 143 156 120 255
-0.136477 0.402817 5.59853 0 0 0 53 58 57 255
-0.0805295 0.394654 5.58402 0 0 0 144 159 150 255
0.622708 0.413056 5.67149 0 0 0 111 130 125 255
0.698245 0.425624 5.66113 0 0 0 113 118 86 255
1.01733 0.43267 5.67775 0 0 0 97 117 103 255
1.08248 0.430832 5.67877 0 0 0 150 170 135 255
-0.0457393 0.425253 5.5893 0 0 0 130 144 117 255
-0.129111 0.45395 5.58242 0 0 0 119 134 125 255
0.0702953 0.45885 5.60632 0 0 0 139 155 131 255
1.15194 0.486581 5.68415 0 0 0 101 109 111 255
1.75823 0.508776 5.68947 0 0 0 144 147 150 255
0.924361 0.533767 5.68404 0 0 0 167 174 177 255
1.07483 0.507026 5.66029 0 0 0 115 130 135 255
0.221056 0.531649 5.62658 0 0 0 133 140 140 255
0.832157 0.538717 5.67534 0 0 0 68 81 88 255
1.14947 0.542456 5.7124 0 0 0 51 59 63 255
-0.210767 0.551126 5.61025 0 0 0 87 104 100 255
0.372175 0.550122 5.69797 0 0 0 139 140 141 255
0.659875 0.537215 5.59049 0 0 0 54 76 86 255
0.0544009 0.571192 5.66691 0 0 0 51 59 66 255
0.113913 0.549081 5.64102 0 0 0 40 46 51 255
1.92642 0.609309 5.73239 0 0 0 124 140 146 255
1.00037 0.611765 5.67384 0 0 0 80 97 104 255
1.51609 0.680057 5.70526 0 0 0 192 197 197 255
1.5944 0.68117 5.70706 0 0 0 162 171 173 255
1.04305 0.706264 5.6847 0 0 0 193 204 205 255
0.603432 0.7125 5.65933 0 0 0 169 176 180 255
-0.171398 0.722741 5.58861 0 0 0 116 126 130 255
0.0809819 0.732663 5.61857 0 0 0 199 200 201 255
0.79268 0.733867 5.66393 0 0 0 131 138 143 255
1.47457 0.752006 5.69802 0 0 0 135 139 140 255
1.51489 0.756137 5.70971 0 0 0 104 108 112 255
1.18163 0.789345 5.69156 0 0 0 191 206 212 255
1.93604 0.794897 5.75946 0 0 0 133 144 144 255
-0.404979 0.801813 5.61249 0 0 0 134 107 96 255
1.20273 0.810613 5.69722 0 0 0 183 198 200 255
1.33734 0.828218 5.70301 0 0 0 190 205 209 255
-0.785868 0.845968 5.58618 0 0 0 77 62 58 255
1.1503 0.889167 5.68874 0 0 0 192 206 208 255
0.450934 0.90817 5.65118 0 0 0 151 157 159 255
0.494501 0.903605 5.6555 0 0 0 186 200 200 255
1.42124 0.903598 5.70045 0 0 0 137 144 147 255
0.0796996 0.941618 5.63262 0 0 0 193 198 198 255
1.72765 0.93082 5.75375 0 0 0 186 195 196 255
-0.322829 0.94897 5.65001 0 0 0 149 168 152 255
-0.201974 0.931937 5.61418 0 0 0 74 82 82 255
1.02164 0.958464 5.70416 0 0 0 100 114 119 255
0.502386 0.962305 5.66355 0 0 0 118 123 127 255
1.06482 0.981949 5.70957 0 0 0 168 187 194 255
1.1331 0.970623 5.70002 0 0 0 180 202 206 255
1.53196 1.01325 5.73663 0 0 0 187 200 202 255
-0.106509 1.02217 5.64545 0 0 0 90 98 100 255
0.0854873 1.01121 5.65086 0 0 0 194 203 203 255
-0.186456 1.02828 5.63138 0 0 0 81 90 89 255
-0.026145 1.04042 5.62972 0 0 0 128 144 149 255
1.43036 1.03632 5.70657 0 0 0 88 95 100 255
2.18311 1.0704 5.79194 0 0 0 150 170 177 255
0.247511 1.04643 5.64898 0 0 0 151 153 154 255
1.49524 1.0621 5.71742 0 0 0 189 201 204 255
0.165802 1.06092 5.65142 0 0 0 117 131 135 255
0.498854 1.0813 5.67282 0 0 0 175 192 198 255
-0.194605 1.0839 5.62875 0 0 0 165 193 168 255
0.24548 1.0886 5.65576 0 0 0 192 209 212 255
1.34135 1.10333 5.7392 0 0 0 171 190 195 255
0.025204 1.10492 5.68326 0 0 0 118 131 136 255
0.162456 1.1078 5.68601 0 0 0 186 203 210 255
1.40282 1.11861 5.74049 0 0 0 188 203 208 255
-0.0940393 1.12857 5.66537 0 0 0 195 208 210 255
-0.169666 1.13228 5.66222 0 0 0 123 143 127 255
0.289842 1.12679 5.66479 0 0 0 103 116 121 255
1.05016 1.15636 5.73812 0 0 0 142 151 152 255
-0.337711 1.16997 5.67751 0 0 0 146 174 163 255
-0.0991111 1.17665 5.68369 0 0 0 131 142 151 255
1.50231 1.19289 5.75556 0 0 0 92 96 100 255
-0.198015 1.19373 5.63904 0 0 0 74 82 74 255
0.562051 1.32342 5.73584 0 0 0 177 190 191 255
2.1984 1.43345 5.83953 0 0 0 192 160 155 255
0.746582 1.74063 5.77854 0 0 0 139 163 170 255
-0.67845 1.72756 5.65727 0 0 0 143 114 107 255
-0.64817 1.85971 5.67883 0 0 0 168 126 117 255
1.85179 -0.943563 5.91719 0 0 0 77 109 123 255
1.82245 -0.962312 6.09226 0 0 0 156 159 159 255
1.80565 -0.821802 6.15057 0 0 0 168 175 175 255
1.85236 -0.785762 5.87707 0 0 0 164 129 97 255
-0.419419 -0.677507 5.60713 0 0 0 143 146 144 255
-0.840065 -0.492172 5.49391 0 0 0 130 99 90 255
1.31195 -0.459248 5.60733 0 0 0 161 175 132 255
1.41018 -0.434571 5.66076 0 0 0 126 138 127 255
1.47871 -0.416663 5.6377 0 0 0 115 125 108 255
0.0200552 -0.320492 5.53652 0 0 0 119 130 106 255
0.442212 -0.322251 5.56518 0 0 0 83 97 86 255
0.0443429 -0.290168 5.55894 0 0 0 137 152 129 255
1.04225 -0.254301 5.62969 0 0 0 69 80 54 255
0.655479 -0.216676 5.61239 0 0 0 128 141 107 255
1.05491 -0.193669 5.64604 0 0 0 141 149 115 255
1.50626 -0.211441 5.68543 0 0 0 123 136 113 255
0.877524 -0.159105 5.6327 0 0 0 90 97 80 255
0.109166 -0.137185 5.57086 0 0 0 94 101 85 255
0.204759 -0.126352 5.56779 0 0 0 157 174 127 255
0.279113 -0.112756 5.56736 0 0 0 100 109 80 255
0.115789 -0.083601 5.57026 0 0 0 156 168 141 255
0.364799 -0.0878524 5.58618 0 0 0 81 87 78 255
1.50589 -0.0867955 5.6532 0 0 0 111 122 106 255
0.672111 -0.0685382 5.63119 0 0 0 87 105 93 255
0.923743 -0.0769577 5.65336 0 0 0 152 167 126 255
1.05059 -0.0803904 5.66319 0 0 0 48 62 58 255
1.10489 -0.0641279 5.67126 0 0 0 84 103 96 255
1.51193 -0.0675389 5.69988 0 0 0 114 127 110 255
-0.190661 -0.0442693 5.53973 0 0 0 161 187 151 255
0.0851474 -0.0388917 5.5684 0 0 0 107 125 101 255
0.954403 -0.0146421 5.65408 0 0 0 122 134 108 255
1.4494 -0.00251531 5.69662 0 0 0 131 143 127 255
1.32927 0.00188458 5.69317 0 0 0 152 167 134 255
0.345423 0.0173462 5.61676 0 0 0 97 107 101 255
1.01993 0.0271058 5.65999 0 0 0 115 127 111 255
0.0856246 0.0416469 5.57956 0 0 0 157 175 132 255
0.669494 0.0400991 5.64129 0 0 0 149 164 130 255
-0.18634 0.0659291 5.5445 0 0 0 163 182 149 255
-0.113932 0.067079 5.55078 0 0 0 166 189 147 255
-0.425514 0.0900354 5.57318 0 0 0 192 180 168 255
1.26036 0.0874889 5.68686 0 0 0 117 128 106 255
1.51603 0.0865803 5.7099 0 0 0 113 127 110 255
-0.138993 0.119926 5.56468 0 0 0 66 77 76 255
1.31621 0.109654 5.69122 0 0 0 150 163 122 255
0.00500921 0.141025 5.58142 0 0 0 57 78 76 255
1.50438 0.130245 5.70579 0 0 0 113 127 111 255
0.213552 0.167586 5.58766 0 0 0 136 147 118 255
0.492449 0.159985 5.6257 0 0 0 122 136 121 255
0.760944 0.13933 5.64953 0 0 0 156 172 123 255
-0.762147 0.163912 5.11744 0 0 0 174 168 164 255
0.313991 0.164814 5.61061 0 0 0 161 171 152 255
-0.132079 0.181013 5.56174 0 0 0 63 78 73 255
0.19837 0.1803 5.58935 0 0 0 134 151 115 255
1.11233 0.202147 5.67307 0 0 0 81 95 90 255
-0.0348836 0.223125 5.57653 0 0 0 114 115 94 255
0.0294606 0.222132 5.55978 0 0 0 96 108 94 255
0.619875 0.213536 5.63838 0 0 0 92 103 91 255
-0.181861 0.242194 5.56177 0 0 0 151 171 148 255
0.485394 0.24612 5.64132 0 0 0 82 95 88 255
0.988019 0.268314 5.66275 0 0 0 147 159 125 255
1.51733 0.261454 5.70699 0 0 0 88 104 98 255
0.664233 0.271152 5.64903 0 0 0 99 107 86 255
1.93079 0.28467 5.74386 0 0 0 117 89 75 255
0.763004 0.286233 5.65252 0 0 0 160 177 126 255
0.0857709 0.296957 5.607 0 0 0 64 79 74 255
0.171778 0.310425 5.61054 0 0 0 81 85 74 255
0.695943 0.311613 5.65412 0 0 0 158 177 140 255
0.336148 0.342013 5.61534 0 0 0 128 146 117 255
1.11623 0.335476 5.66635 0 0 0 123 136 120 255
2.26532 0.334616 5.78699 0 0 0 85 102 111 255
0.120053 0.344884 5.61152 0 0 0 144 160 132 255
2.30741 0.358152 5.78782 0 0 0 144 157 152 255
-0.190079 0.373648 5.59095 0 0 0 134 141 128 255
0.087259 0.364156 5.60729 0 0 0 102 116 105 255
0.882502 0.383035 5.67381 0 0 0 136 152 126 255
1.24978 0.400873 5.67507 0 0 0 116 127 99 255
1.93507 0.401363 5.76048 0 0 0 56 94 112 255
0.640858 0.411104 5.67017 0 0 0 133 151 135 255
1.10729 0.428467 5.67904 0 0 0 147 162 123 255
-0.0444574 0.419837 5.59222 0 0 0 130 144 117 255
0.756451 0.425218 5.6631 0 0 0 150 166 124 255
0.0926204 0.45626 5.60851 0 0 0 164 184 151 255
0.172754 0.442793 5.60337 0 0 0 161 179 138 255
0.943672 0.475481 5.66407 0 0 0 89 99 100 255
0.174958 0.496318 5.613 0 0 0 49 61 59 255
0.70884 0.511071 5.65646 0 0 0 125 142 144 255
0.915905 0.520321 5.68009 0 0 0 172 178 183 255
1.08661 0.514049 5.71773 0 0 0 115 130 135 255
1.12919 0.520009 5.7347 0 0 0 83 94 95 255
1.37511 0.505614 5.67626 0 0 0 104 110 114 255
1.49441 0.512466 5.72079 0 0 0 174 178 179 255
1.76418 0.501203 5.71958 0 0 0 111 110 113 255
0.342509 0.511841 5.59632 0 0 0 128 128 130 255
0.382087 0.520267 5.66633 0 0 0 45 52 56 255
0.552222 0.517794 5.6051 0 0 0 136 143 141 255
-0.222671 0.537275 5.58769 0 0 0 91 105 100 255
-0.0718708 0.540384 5.60325 0 0 0 97 101 105 255
0.279382 0.537861 5.63664 0 0 0 150 150 152 255
-0.127653 0.571999 5.61326 0 0 0 70 84 82 255
-0.0379142 0.552437 5.60332 0 0 0 57 66 71 255
0.230399 0.559213 5.64594 0 0 0 186 186 186 255
2.17394 0.625227 5.79872 0 0 0 195 149 108 255
0.818658 0.617073 5.67121 0 0 0 103 115 120 255
0.728631 0.615779 5.66833 0 0 0 102 114 120 255
1.73008 0.675953 5.71827 0 0 0 165 173 176 255
0.563218 0.719493 5.65284 0 0 0 190 206 211 255
1.05015 0.700143 5.6834 0 0 0 192 202 203 255
0.0860229 0.727391 5.6153 0 0 0 189 200 201 255
1.44234 0.752922 5.69148 0 0 0 141 145 146 255
1.29264 0.746248 5.69269 0 0 0 144 153 159 255
1.43531 0.745204 5.69111 0 0 0 186 192 193 255
1.94008 0.79412 5.78055 0 0 0 135 146 146 255
-0.402652 0.795551 5.61191 0 0 0 136 110 101 255
1.34611 0.792663 5.7006 0 0 0 188 206 211 255
0.51518 0.854476 5.64426 0 0 0 149 162 165 255
1.32054 0.873772 5.7029 0 0 0 193 204 207 255
1.405 0.868744 5.70043 0 0 0 122 127 131 255
1.15242 0.868227 5.68755 0 0 0 144 158 166 255
-0.201538 0.913255 5.6133 0 0 0 71 84 85 255
1.73296 0.916161 5.7069 0 0 0 192 203 206 255
1.04754 0.921942 5.69291 0 0 0 174 183 184 255
1.11176 0.936282 5.69011 0 0 0 115 121 127 255
1.55216 0.94866 5.72621 0 0 0 190 203 208 255
-0.303594 0.947905 5.61971 0 0 0 152 173 157 255
0.00859987 0.943314 5.60986 0 0 0 181 192 194 255
0.0478199 0.934291 5.62913 0 0 0 113 132 136 255
0.697199 0.946704 5.67016 0 0 0 194 205 208 255
1.35324 0.979601 5.74302 0 0 0 169 181 184 255
1.6735 0.961764 5.74347 0 0 0 184 188 189 255
0.401142 0.966222 5.64856 0 0 0 119 131 135 255
-0.225239 0.988007 5.63025 0 0 0 162 192 164 255
1.17428 0.977885 5.70257 0 0 0 184 193 195 255
-0.0511515 1.00247 5.6292 0 0 0 173 183 185 255
-0.27054 1.02784 5.64286 0 0 0 97 120 110 255
-0.184709 1.0345 5.63013 0 0 0 76 89 88 255
0.0432551 1.01562 5.64335 0 0 0 170 182 182 255
0.386459 1.02615 5.65409 0 0 0 193 209 210 255
1.42621 1.04771 5.72989 0 0 0 87 100 104 255
-0.0176712 1.05073 5.63615 0 0 0 116 130 137 255
1.50049 1.07097 5.75335 0 0 0 186 202 206 255
0.408953 1.04798 5.66595 0 0 0 191 209 212 255
2.19871 1.0809 5.78755 0 0 0 177 194 200 255
0.516017 1.08003 5.67728 0 0 0 191 207 210 255
0.201222 1.09038 5.65593 0 0 0 193 208 213 255
0.0293123 1.11532 5.68339 0 0 0 110 126 129 255
1.21754 1.12274 5.71506 0 0 0 103 106 112 255
1.27843 1.11767 5.70744 0 0 0 167 180 182 255
-0.0702719 1.11677 5.64859 0 0 0 192 209 214 255
-0.0326658 1.11501 5.64102 0 0 0 193 209 211 255
0.611015 1.12755 5.66368 0 0 0 115 123 129 255
1.05078 1.13972 5.6925 0 0 0 118 125 127 255
0.0751889 1.14175 5.64982 0 0 0 188 208 210 255
0.989425 1.16167 5.69574 0 0 0 191 207 211 255
0.115082 1.16389 5.68081 0 0 0 133 142 143 255
1.60941 1.18188 5.76612 0 0 0 87 87 89 255
0.606433 1.19996 5.68823 0 0 0 186 197 198 255
0.939728 1.19691 5.73716 0 0 0 183 198 205 255
-0.150824 1.21807 5.63918 0 0 0 163 175 175 255
0.105516 1.23535 5.6877 0 0 0 189 203 208 255
1.76544 1.29613 5.75194 0 0 0 127 134 139 255
0.570123 1.31562 5.73724 0 0 0 158 176 179 255
2.03118 1.32982 5.8043 0 0 0 170 191 198 255
2.20995 1.42999 5.83597 0 0 0 189 186 189 255
-0.610312 1.61342 5.65547 0 0 0 154 117 111 255
0.747824 1.73677 5.78078 0 0 0 139 163 170 255
0.800264 1.72797 5.76577 0 0 0 164 178 183 255
0.91486 1.74847 5.78495 0 0 0 146 158 158 255
0.737988 1.75247 5.77739 0 0 0 137 154 161 255
-0.379406 1.80039 5.67531 0 0 0 143 116 107 255
1.82571 -0.942759 6.10375 0 0 0 102 103 103 255
1.8648 -0.88153 5.82169 0 0 0 80 80 80 255
1.76322 -0.837802 6.13567 0 0 0 166 173 170 255
1.86027 -0.684612 5.62542 0 0 0 59 57 58 255
-0.839096 -0.612585 5.4885 0 0 0 136 108 99 255
1.28098 -0.44294 5.63398 0 0 0 160 181 133 255
1.49687 -0.466414 5.66039 0 0 0 129 142 120 255
-0.209908 -0.420409 5.49386 0 0 0 151 161 144 255
1.49191 -0.235563 5.68367 0 0 0 145 157 140 255
1.21573 -0.202207 5.6111 0 0 0 52 66 60 255
0.121439 -0.162968 5.55457 0 0 0 151 163 129 255
0.342036 -0.1471 5.58599 0 0 0 164 187 134 255
-0.198321 -0.0717198 5.52835 0 0 0 174 178 167 255
0.661319 -0.0678562 5.62969 0 0 0 69 89 80 255
0.0894578 -0.0337679 5.56899 0 0 0 134 152 128 255
1.02592 -0.0661393 5.65925 0 0 0 70 82 78 255
-0.827439 -0.00567128 5.53923 0 0 0 84 80 81 255
1.32199 -0.0156922 5.6906 0 0 0 143 158 121 255
0.687962 0.0118113 5.63851 0 0 0 166 184 134 255
0.034069 0.0255481 5.55898 0 0 0 167 189 138 255
0.891439 0.0301543 5.64655 0 0 0 59 72 69 255
0.612144 0.166441 5.64078 0 0 0 137 155 117 255
-0.0255931 0.213914 5.58619 0 0 0 165 183 141 255
0.167956 0.18985 5.58638 0 0 0 163 186 140 255
-0.443633 0.251429 5.55657 0 0 0 110 101 102 255
-0.0264649 0.24077 5.57301 0 0 0 55 72 65 255
0.0380377 0.24706 5.56419 0 0 0 57 74 68 255
0.744263 0.24608 5.65517 0 0 0 163 181 130 255
0.983156 0.271022 5.66147 0 0 0 141 152 121 255
0.882036 0.289237 5.667 0 0 0 143 157 125 255
1.36206 0.319786 5.69102 0 0 0 153 172 122 255
2.00578 0.343813 5.76837 0 0 0 60 61 67 255
2.25127 0.347168 5.79669 0 0 0 79 107 120 255
1.05944 0.343364 5.66329 0 0 0 51 68 67 255
0.325377 0.375415 5.63015 0 0 0 164 181 146 255
1.40461 0.371309 5.70685 0 0 0 151 166 120 255
-0.0600074 0.4075 5.59029 0 0 0 159 178 144 255
0.66346 0.400927 5.66437 0 0 0 142 152 120 255
1.01381 0.414303 5.67614 0 0 0 100 113 101 255
0.0971472 0.432907 5.61691 0 0 0 165 184 157 255
0.150542 0.439781 5.6094 0 0 0 166 187 139 255
1.76284 0.512279 5.72129 0 0 0 75 80 83 255
2.24159 0.527603 5.76869 0 0 0 188 137 90 255
0.205785 0.525885 5.61858 0 0 0 44 50 50 255
-0.0717204 0.556045 5.6129 0 0 0 87 97 110 255
1.92952 0.623964 5.74118 0 0 0 157 175 177 255
1.04525 0.692638 5.68351 0 0 0 190 201 202 255
1.46972 0.70639 5.68137 0 0 0 190 203 208 255
-0.412966 0.797649 5.60878 0 0 0 131 105 94 255
1.20545 0.786708 5.69669 0 0 0 163 178 182 255
1.27741 0.789432 5.70103 0 0 0 146 154 154 255
0.598386 0.856259 5.66645 0 0 0 191 209 209 255
0.511765 0.86691 5.64893 0 0 0 144 146 148 255
1.49795 0.868454 5.72962 0 0 0 95 105 113 255
-0.433117 0.896649 5.58691 0 0 0 139 116 106 255
-0.3545 0.912361 5.6122 0 0 0 52 56 58 255
-0.208703 0.902323 5.61201 0 0 0 73 86 86 255
1.31222 0.891512 5.70834 0 0 0 165 175 176 255
1.20214 0.950628 5.69961 0 0 0 144 163 168 255
-0.36531 0.954517 5.64208 0 0 0 65 69 70 255
1.34886 0.966294 5.74063 0 0 0 190 200 202 255
1.49657 0.953309 5.72614 0 0 0 196 205 211 255
0.0642527 1.01799 5.65345 0 0 0 169 178 179 255
1.41525 1.04063 5.72702 0 0 0 96 105 111 255
1.51675 1.02398 5.73701 0 0 0 161 167 169 255
-0.26416 1.03406 5.63811 0 0 0 96 111 104 255
-0.0883763 1.02337 5.63616 0 0 0 95 108 112 255
0.108226 1.05719 5.655 0 0 0 119 128 132 255
0.200555 1.0516 5.64651 0 0 0 191 206 210 255
0.368562 1.04891 5.66028 0 0 0 140 153 155 255
2.18574 1.06747 5.79023 0 0 0 162 181 188 255
-0.156382 1.09991 5.65831 0 0 0 122 136 138 255
-0.0630596 1.09357 5.63569 0 0 0 191 209 212 255
1.39219 1.11352 5.738 0 0 0 180 186 190 255
0.300181 1.11977 5.66479 0 0 0 91 113 117 255
0.611326 1.14181 5.66523 0 0 0 120 129 135 255
-0.316879 1.15561 5.66265 0 0 0 159 192 170 255
0.953306 1.19427 5.74099 0 0 0 189 206 210 255
-0.366628 1.2135 5.66544 0 0 0 56 47 40 255
-0.217058 1.20514 5.66095 0 0 0 79 86 88 255
-0.118315 1.24115 5.72105 0 0 0 192 206 210 255
0.0912422 1.24059 5.7055 0 0 0 191 206 210 255
1.36212 1.30101 5.75123 0 0 0 140 157 159 255
-0.721912 1.48834 5.62008 0 0 0 101 64 70 255
-0.402256 1.47718 5.62639 0 0 0 136 117 109 255
-0.596512 1.61082 5.65506 0 0 0 155 128 115 255
-0.397885 1.67383 5.65665 0 0 0 116 104 104 255
1.86212 -0.894581 5.9708 0 0 0 68 106 129 255
1.8466 -0.69824 5.62808 0 0 0 60 60 60 255
-0.39118 -0.604559 5.51035 0 0 0 50 56 56 255
-0.818828 -0.614656 5.48959 0 0 0 148 108 101 255
-0.849281 -0.50629 5.51527 0 0 0 153 102 86 255
-0.18816 -0.400741 5.51041 0 0 0 162 188 154 255
0.289614 -0.300969 5.5661 0 0 0 92 105 96 255
0.349464 -0.306832 5.57013 0 0 0 82 97 92 255
0.163018 -0.24306 5.54353 0 0 0 137 153 111 255
1.0658 -0.233415 5.60545 0 0 0 74 89 84 255
1.14674 -0.213087 5.61246 0 0 0 57 69 64 255
0.309793 -0.185742 5.57565 0 0 0 163 185 135 255
1.15368 -0.191955 5.60997 0 0 0 74 84 81 255
1.22016 -0.19944 5.65283 0 0 0 54 66 62 255
0.133119 -0.158303 5.55788 0 0 0 85 101 89 255
1.02592 -0.142171 5.63712 0 0 0 147 155 118 255
1.09256 -0.132245 5.65494 0 0 0 115 127 110 255
-0.190278 -0.0942443 5.5344 0 0 0 165 190 149 255
0.256139 -0.113671 5.56387 0 0 0 167 187 137 255
1.03584 -0.0387156 5.6584 0 0 0 48 62 60 255
0.283144 -0.0660104 5.57529 0 0 0 136 149 109 255
-0.839302 -0.0130361 5.52964 0 0 0 169 160 147 255
0.0212103 -0.0071857 5.56613 0 0 0 168 189 141 255
-0.14273 0.0686843 5.56671 0 0 0 164 187 145 255
-0.446756 0.0644866 5.56106 0 0 0 196 182 168 255
0.623724 0.065368 5.63015 0 0 0 65 77 73 255
0.813391 0.0837666 5.6409 0 0 0 69 81 77 255
0.176437 0.0792428 5.57727 0 0 0 70 85 80 255
1.30571 0.0967991 5.68911 0 0 0 143 156 122 255
1.48719 0.0941908 5.70393 0 0 0 109 121 105 255
-0.797108 0.208487 5.57522 0 0 0 42 40 38 255
-0.160813 0.181029 5.56118 0 0 0 77 90 79 255
-0.0211707 0.173163 5.57699 0 0 0 162 177 142 255
0.628291 0.165218 5.63941 0 0 0 160 179 132 255
0.15341 0.195089 5.58313 0 0 0 164 188 141 255
1.94609 0.23322 5.72543 0 0 0 132 76 48 255
0.718825 0.239338 5.62219 0 0 0 165 183 131 255
-0.17024 0.285675 5.57071 0 0 0 149 175 144 255
-0.00284289 0.297574 5.58469 0 0 0 63 78 73 255
0.031559 0.291947 5.59489 0 0 0 92 107 100 255
0.133642 0.262323 5.59508 0 0 0 166 186 136 255
0.937757 0.283535 5.68025 0 0 0 148 163 130 255
1.076 0.298886 5.66422 0 0 0 50 59 59 255
1.99897 0.342421 5.77102 0 0 0 62 58 63 255
0.333419 0.372303 5.62922 0 0 0 164 183 133 255
1.38825 0.355284 5.70296 0 0 0 153 169 127 255
0.747524 0.427345 5.6619 0 0 0 149 163 125 255
1.12529 0.407773 5.68294 0 0 0 156 173 124 255
1.94014 0.450659 5.74885 0 0 0 48 132 162 255
-0.261215 0.531788 5.59186 0 0 0 92 107 102 255
0.283583 0.54551 5.64391 0 0 0 170 169 172 255
1.71266 0.695445 5.72168 0 0 0 184 196 198 255
0.529808 0.717181 5.63377 0 0 0 190 206 209 255
-0.150984 0.770658 5.60563 0 0 0 132 146 150 255
1.94357 0.762287 5.77037 0 0 0 158 172 172 255
1.26065 0.832243 5.70094 0 0 0 106 121 125 255
1.488 0.864067 5.73646 0 0 0 99 111 116 255
-0.232793 0.854149 5.60817 0 0 0 55 70 75 255
0.0500924 0.908803 5.62493 0 0 0 125 143 144 255
1.0845 0.922167 5.69113 0 0 0 171 180 181 255
1.7312 0.936849 5.77042 0 0 0 182 191 193 255
1.14823 0.948255 5.69633 0 0 0 179 192 194 255
2.04219 0.987921 5.79684 0 0 0 94 136 163 255
0.678126 0.975636 5.67432 0 0 0 175 190 193 255
1.52222 1.00794 5.73717 0 0 0 173 181 184 255
-0.317812 1.02732 5.66912 0 0 0 163 196 172 255
-0.17802 1.02754 5.64279 0 0 0 81 90 89 255
0.395107 1.04413 5.66079 0 0 0 194 208 209 255
0.816841 1.02849 5.67738 0 0 0 164 175 178 255
1.61459 1.02585 5.7375 0 0 0 93 102 106 255
-0.0272991 1.09873 5.64046 0 0 0 190 208 211 255
0.113671 1.07035 5.64842 0 0 0 116 131 135 255
1.50214 1.07094 5.75383 0 0 0 186 202 206 255
0.312079 1.11406 5.67028 0 0 0 98 116 120 255
0.65463 1.12661 5.67141 0 0 0 111 128 134 255
0.975318 1.18504 5.7461 0 0 0 190 207 212 255
-0.107922 1.23446 5.68474 0 0 0 190 200 201 255
0.0906389 1.25286 5.71766 0 0 0 188 201 203 255
1.75375 1.29343 5.78258 0 0 0 133 133 136 255
2.0338 1.32855 5.84012 0 0 0 153 180 191 255
-0.587855 1.59765 5.65077 0 0 0 143 113 103 255
1.84127 -0.88753 6.55893 0 0 0 165 171 170 255
1.44751 -0.426821 5.62397 0 0 0 111 122 109 255
-0.176594 -0.352797 5.50896 0 0 0 164 191 152 255
0.523818 -0.241137 5.6027 0 0 0 77 93 87 255
0.903897 -0.164272 5.63069 0 0 0 75 88 81 255
1.11174 -0.213478 5.59259 0 0 0 56 62 57 255
-0.189958 -0.152701 5.54262 0 0 0 163 190 149 255
0.292362 -0.14265 5.57276 0 0 0 145 162 113 255
0.586367 -0.17725 5.61461 0 0 0 60 74 69 255
0.907038 -0.112207 5.64522 0 0 0 97 107 97 255
1.27714 -0.120259 5.67461 0 0 0 79 92 85 255
-0.177051 -0.0541017 5.53509 0 0 0 161 187 151 255
0.000354108 -0.0402234 5.54687 0 0 0 168 189 141 255
0.30058 -0.0327609 5.59157 0 0 0 125 133 118 255
0.700324 -0.0693327 5.63257 0 0 0 156 175 138 255
1.28338 0.0127563 5.68706 0 0 0 80 94 87 255
-0.187802 0.0447274 5.5402 0 0 0 164 188 152 255
0.13591 0.0270328 5.59123 0 0 0 86 96 91 255
1.46362 0.0959269 5.71166 0 0 0 93 105 99 255
0.603636 0.168227 5.63972 0 0 0 133 148 117 255
0.85733 0.0983234 5.65739 0 0 0 70 85 80 255
0.659408 0.204657 5.63453 0 0 0 160 177 126 255
0.695545 0.284772 5.64848 0 0 0 158 177 138 255
0.890736 0.28463 5.67006 0 0 0 150 163 131 255
-0.000122071 0.396303 5.59256 0 0 0 60 74 72 255
1.32482 0.332046 5.68941 0 0 0 161 178 129 255
1.13681 0.476787 5.71153 0 0 0 49 64 63 255
-0.451914 0.679691 5.58198 0 0 0 119 97 85 255
0.11364 0.750769 5.62918 0 0 0 190 207 210 255
0.513339 0.748228 5.62238 0 0 0 190 208 213 255
0.789131 0.77199 5.66777 0 0 0 163 176 180 255
1.06718 0.75109 5.69641 0 0 0 192 205 210 255
1.66071 0.733162 5.71657 0 0 0 151 166 171 255
-0.268936 0.863637 5.65495 0 0 0 53 66 70 255
1.46685 0.871504 5.73338 0 0 0 118 130 135 255
-0.333502 0.907006 5.61015 0 0 0 81 92 93 255
1.07073 0.890166 5.6914 0 0 0 140 151 157 255
1.67569 0.894659 5.72623 0 0 0 157 165 167 255
1.47142 0.959442 5.73626 0 0 0 168 180 189 255
0.688702 1.10847 5.67755 0 0 0 125 136 139 255
-0.306773 1.33101 5.70169 0 0 0 64 78 76 255
1.67364 1.26791 5.76534 0 0 0 136 152 154 255
-1.71501 -0.705696 4.371 0 0 0 167 146 144 255
-1.50235 -0.585398 4.76879 0 0 0 153 121 101 255
-1.5013 -0.56938 4.77687 0 0 0 146 114 98 255
-1.59505 -0.532088 4.70905 0 0 0 137 89 63 255
-1.32274 -0.554285 4.92873 0 0 0 180 163 152 255
-1.38292 -0.541368 4.89733 0 0 0 147 133 119 255
-0.949531 -0.599222 5.14401 0 0 0 165 143 130 255
-1.20563 -0.55197 5.00635 0 0 0 147 122 106 255
-1.33689 -0.526684 4.93436 0 0 0 195 181 168 255
-1.07939 -0.564809 5.07435 0 0 0 154 125 111 255
-1.02242 -0.569391 5.1109 0 0 0 138 117 106 255
-1.00756 -0.570857 5.11838 0 0 0 144 115 102 255
-0.968897 -0.577462 5.14395 0 0 0 145 118 105 255
-0.377849 -0.671685 5.54599 0 0 0 163 158 160 255
-1.27125 -0.531849 4.96856 0 0 0 189 176 165 255
-1.24749 -0.539117 4.9851 0 0 0 148 105 81 255
-1.15446 -0.54178 5.03115 0 0 0 185 166 155 255
-0.918498 -0.581214 5.16783 0 0 0 135 121 105 255
-1.36269 -0.514408 4.92725 0 0 0 187 158 150 255
-1.17931 -0.522538 5.03129 0 0 0 184 163 150 255
-1.02424 -0.550814 5.11392 0 0 0 185 166 156 255
-0.936341 -0.557387 5.16775 0 0 0 178 156 143 255
-0.852296 -0.569691 5.20624 0 0 0 197 181 166 255
-0.414198 -0.633404 5.48492 0 0 0 118 116 111 255
-1.40377 -0.487245 4.8897 0 0 0 149 99 75 255
-0.970184 -0.549055 5.149 0 0 0 195 181 166 255
-0.819978 -0.55213 5.22187 0 0 0 148 100 87 255
-1.5202 -0.439338 4.81944 0 0 0 156 137 119 255
-0.876111 -0.522316 5.21214 0 0 0 199 180 173 255
-1.52354 -0.42361 4.82548 0 0 0 137 98 84 255
-1.26839 -0.460409 4.99894 0 0 0 198 180 163 255
-1.426 -0.429858 4.90516 0 0 0 136 98 81 255
-1.18132 -0.463645 5.04141 0 0 0 191 175 164 255
-1.39493 -0.428826 4.93295 0 0 0 130 114 106 255
-1.37519 -0.43139 4.95029 0 0 0 143 97 83 255
-1.05535 -0.474982 5.12002 0 0 0 194 177 160 255
-0.996181 -0.480052 5.15307 0 0 0 178 157 144 255
-0.939142 -0.484279 5.18711 0 0 0 191 175 159 255
-1.33062 -0.434451 4.97354 0 0 0 139 117 103 255
-1.30805 -0.434347 4.97999 0 0 0 150 96 76 255
-1.26432 -0.438583 5.00745 0 0 0 160 132 116 255
-1.24574 -0.440769 5.01583 0 0 0 151 106 88 255
-0.863394 -0.489619 5.22257 0 0 0 199 182 168 255
-0.793286 -0.492654 5.25015 0 0 0 193 179 167 255
-0.827684 -0.481546 5.2396 0 0 0 144 125 110 255
-1.06709 -0.447738 5.12913 0 0 0 107 91 82 255
-0.999546 -0.455992 5.15638 0 0 0 157 108 90 255
-0.928722 -0.462689 5.19478 0 0 0 145 100 83 255
-0.947098 -0.451049 5.19683 0 0 0 146 105 86 255
-0.789935 -0.468486 5.26028 0 0 0 131 116 108 255
-1.18106 -0.417549 5.05681 0 0 0 191 179 169 255
-1.21674 -0.397447 5.03601 0 0 0 198 180 163 255
-1.18272 -0.401742 5.05929 0 0 0 192 180 168 255
-1.22021 -0.372919 5.04362 0 0 0 162 140 129 255
-1.19014 -0.382657 5.05914 0 0 0 169 129 105 255
-1.47927 -0.323469 4.89155 0 0 0 151 104 84 255
-1.38101 -0.328427 4.94881 0 0 0 153 121 107 255
-1.34196 -0.327041 4.97688 0 0 0 141 109 87 255
-1.47292 -0.304157 4.90215 0 0 0 153 128 116 255
-1.19302 -0.336545 5.07091 0 0 0 151 114 92 255
-1.34867 -0.26305 4.99673 0 0 0 167 142 122 255
-1.28754 -0.270583 5.0276 0 0 0 188 171 153 255
-1.19269 -0.26539 5.0804 0 0 0 150 107 83 255
-1.27867 -0.241868 5.04318 0 0 0 196 179 162 255
-1.24368 -0.250945 5.05144 0 0 0 165 119 105 255
-1.00103 -0.27154 5.18622 0 0 0 151 109 91 255
-0.931831 -0.278365 5.21662 0 0 0 159 111 86 255
-1.2983 -0.23631 5.0312 0 0 0 137 106 90 255
-1.4509 -0.202684 4.95514 0 0 0 202 173 153 255
-0.977635 -0.251666 5.20046 0 0 0 179 134 112 255
-0.948933 -0.256457 5.21506 0 0 0 191 184 173 255
-1.33894 -0.165134 5.02141 0 0 0 140 101 82 255
0.355477 -0.327994 5.63652 0 0 0 120 137 86 255
0.401074 -0.322708 5.64126 0 0 0 69 74 58 255
0.468833 -0.329357 5.66535 0 0 0 116 119 98 255
-1.30803 -0.164109 5.04818 0 0 0 158 144 131 255
-1.27313 -0.168498 5.06929 0 0 0 196 179 160 255
-1.24467 -0.171458 5.07634 0 0 0 154 103 79 255
0.379819 -0.322348 5.63806 0 0 0 134 147 122 255
-1.45805 -0.141964 4.96958 0 0 0 150 111 92 255
-1.36516 -0.142993 5.02004 0 0 0 140 125 114 255
-1.3435 -0.142634 5.02818 0 0 0 146 112 88 255
-1.3073 -0.145039 5.06022 0 0 0 151 126 109 255
-1.2509 -0.147762 5.08668 0 0 0 143 109 96 255
-0.983629 -0.175229 5.21467 0 0 0 143 108 86 255
-1.21146 -0.147137 5.1027 0 0 0 166 148 133 255
-1.18868 -0.151272 5.11218 0 0 0 148 103 82 255
-0.990851 -0.158728 5.21905 0 0 0 142 100 79 255
0.429503 -0.292447 5.6522 0 0 0 102 111 98 255
-0.938669 -0.156517 5.25126 0 0 0 133 114 100 255
-0.916006 -0.155976 5.26694 0 0 0 135 108 95 255
0.54785 -0.291625 5.6884 0 0 0 122 131 105 255
0.587693 -0.278646 5.68556 0 0 0 119 132 94 255
0.434102 -0.243769 5.65175 0 0 0 96 104 83 255
0.619828 -0.253826 5.69137 0 0 0 111 118 75 255
0.192651 -0.201448 5.60805 0 0 0 76 89 78 255
0.636778 -0.238109 5.6954 0 0 0 170 189 137 255
0.238468 -0.185116 5.6186 0 0 0 165 176 136 255
-1.63236 -0.0112962 4.86684 0 0 0 131 124 110 255
-1.57707 -0.0121148 4.92405 0 0 0 124 117 103 255
-1.53726 -0.0165419 4.95867 0 0 0 124 117 103 255
-1.52157 -0.0225672 5.03524 0 0 0 170 160 148 255
-1.48698 -0.0253712 4.97691 0 0 0 168 159 147 255
-1.45785 -0.0259112 4.99128 0 0 0 194 179 161 255
-1.4324 -0.0247995 4.99371 0 0 0 115 105 93 255
-1.37657 -0.0254618 5.03684 0 0 0 168 153 135 255
-1.33389 -0.0289165 5.05951 0 0 0 188 171 152 255
0.219619 -0.165474 5.6144 0 0 0 131 141 110 255
-1.41266 -0.0165855 5.01276 0 0 0 103 97 92 255
-1.28473 -0.022101 5.0827 0 0 0 96 89 80 255
-1.49411 0.00635604 4.98778 0 0 0 195 178 163 255
-1.25147 -0.019053 5.09851 0 0 0 132 120 109 255
-1.18599 -0.0244323 5.13802 0 0 0 134 124 114 255
-1.14109 -0.037208 5.15422 0 0 0 161 148 130 255
-1.0837 -0.0325001 5.18336 0 0 0 107 105 101 255
-1.65567 0.0272247 4.87444 0 0 0 149 144 135 255
-1.42859 0.0079299 5.01433 0 0 0 190 180 170 255
-1.02475 -0.0316424 5.21787 0 0 0 137 130 119 255
-0.966286 -0.0387509 5.22888 0 0 0 151 137 124 255
1.02123 -0.200404 5.75446 0 0 0 127 136 113 255
-1.62649 0.0288356 4.89814 0 0 0 137 130 120 255
-1.33868 0.00647314 5.07358 0 0 0 56 63 52 255
-1.06199 -0.0203919 5.1929 0 0 0 110 104 95 255
-0.89709 -0.0338306 5.26163 0 0 0 148 135 121 255
-0.832359 -0.0439533 5.28878 0 0 0 154 143 131 255
-0.793963 -0.042416 5.31058 0 0 0 158 152 143 255
-1.59089 0.0293968 4.94602 0 0 0 87 81 71 255
-1.56589 0.0332768 4.96428 0 0 0 88 86 79 255
-1.2915 0.00770138 5.09661 0 0 0 106 98 92 255
-1.50223 0.0401748 5.00402 0 0 0 99 94 91 255
-1.48734 0.0346843 5.00162 0 0 0 104 99 96 255
-1.14275 0.00569666 5.17364 0 0 0 76 71 64 255
-0.966566 -0.007767 5.24113 0 0 0 193 180 165 255
-0.854163 -0.019887 5.29751 0 0 0 110 102 94 255
-0.793146 -0.0262901 5.31476 0 0 0 140 135 124 255
-1.46638 0.0365433 5.01209 0 0 0 152 144 133 255
-1.44305 0.0368052 5.02633 0 0 0 133 126 121 255
-1.37821 0.0377086 5.06179 0 0 0 93 78 79 255
-1.34673 0.0271812 5.07507 0 0 0 95 95 95 255
-1.25919 0.0216915 5.11136 0 0 0 110 96 96 255
-1.20394 0.0140029 5.13994 0 0 0 130 124 115 255
-1.17462 0.0130723 5.15921 0 0 0 116 108 97 255
0.364517 -0.116431 5.64366 0 0 0 157 175 121 255
-1.31832 0.0333316 5.09873 0 0 0 135 125 121 255
-1.09705 0.0173477 5.1998 0 0 0 130 121 117 255
-0.832189 -0.00931307 5.29941 0 0 0 194 178 165 255
-1.16677 0.0299481 5.1668 0 0 0 166 159 151 255
-1.14857 0.0263608 5.18114 0 0 0 147 135 125 255
-1.03879 0.0155013 5.19514 0 0 0 106 97 83 255
-0.913384 0.00947443 5.26814 0 0 0 135 130 118 255
-0.793462 -0.00338229 5.31854 0 0 0 128 123 111 255
0.417619 -0.102384 5.65518 0 0 0 60 68 60 255
1.27224 -0.175356 5.76677 0 0 0 142 150 122 255
-1.01655 0.0251541 5.24245 0 0 0 125 118 106 255
0.990543 -0.139527 5.73215 0 0 0 96 107 77 255
-0.966841 0.0222069 5.26338 0 0 0 129 121 110 255
-0.881954 0.0208256 5.29258 0 0 0 137 131 126 255
-0.833391 0.0225621 5.31527 0 0 0 121 113 104 255
0.137741 -0.0574311 5.59656 0 0 0 64 73 60 255
0.665675 -0.10245 5.69058 0 0 0 149 158 118 255
0.302021 -0.0589753 5.62057 0 0 0 173 184 144 255
-1.84923 0.125692 4.70995 0 0 0 53 27 15 255
1.07732 -0.109531 5.74253 0 0 0 128 139 115 255
0.246952 -0.00107795 5.61525 0 0 0 119 129 110 255
-1.66582 0.16996 4.91318 0 0 0 162 158 155 255
-1.61632 0.166147 4.93948 0 0 0 101 90 89 255
-1.56083 0.151249 4.97748 0 0 0 70 58 58 255
-0.0541274 0.0428921 5.55846 0 0 0 149 159 129 255
-1.59424 0.177971 4.96461 0 0 0 170 137 124 255
-1.503 0.163819 5.02208 0 0 0 162 152 142 255
-1.6673 0.180125 4.91437 0 0 0 171 166 159 255
-1.61769 0.187802 4.94808 0 0 0 150 146 141 255
-1.44942 0.169516 5.05364 0 0 0 150 139 135 255
-1.43722 0.168114 5.05356 0 0 0 136 129 125 255
-1.38857 0.163755 5.08665 0 0 0 163 157 157 255
-1.3406 0.175559 5.1154 0 0 0 168 147 142 255
0.637551 0.0116622 5.67715 0 0 0 79 92 83 255
-1.61822 0.188409 4.95047 0 0 0 150 146 141 255
-1.56139 0.186262 4.99139 0 0 0 170 149 140 255
-1.44336 0.185189 5.05543 0 0 0 168 160 152 255
-1.38646 0.172595 5.08992 0 0 0 156 146 138 255
-1.31993 0.176216 5.11932 0 0 0 161 153 149 255
-1.19085 0.172336 5.18061 0 0 0 132 97 85 255
0.844204 0.00367 5.70463 0 0 0 79 85 69 255
-1.49723 0.19166 5.02923 0 0 0 141 132 125 255
-1.03501 0.163798 5.24722 0 0 0 156 150 145 255
-1.19141 0.173651 5.18132 0 0 0 142 93 73 255
-0.97573 0.160055 5.26565 0 0 0 123 116 115 255
-0.952741 0.163618 5.27059 0 0 0 141 137 131 255
-0.904613 0.161992 5.29362 0 0 0 171 161 156 255
-0.763917 0.153587 5.3363 0 0 0 153 146 140 255
-1.04165 0.181441 5.24726 0 0 0 168 149 145 255
-1.86274 0.234266 4.71374 0 0 0 119 80 57 255
-0.88405 0.174257 5.30242 0 0 0 145 140 135 255
-1.74956 0.241928 4.8755 0 0 0 121 98 84 255
-0.975108 0.183189 5.27053 0 0 0 150 142 134 255
-0.766344 0.180806 5.34323 0 0 0 145 134 129 255
0.22122 0.140766 5.60864 0 0 0 99 107 98 255
0.509453 0.13236 5.64909 0 0 0 79 86 84 255
-1.65759 0.293409 4.9503 0 0 0 109 84 66 255
0.634681 0.237202 5.65961 0 0 0 62 69 59 255
-1.68303 0.463973 4.99261 0 0 0 66 43 39 255
1.0015 0.283279 5.68083 0 0 0 145 158 117 255
1.42502 0.294318 5.69602 0 0 0 99 105 101 255
-1.75761 0.520809 4.91974 0 0 0 80 66 51 255
0.205552 0.41923 5.57439 0 0 0 67 79 75 255
0.599409 0.409684 5.63691 0 0 0 88 98 93 255
0.0462571 0.459682 5.56511 0 0 0 72 80 77 255
0.215554 0.448582 5.57597 0 0 0 120 133 106 255
0.719091 0.425379 5.64976 0 0 0 137 145 117 255
1.07426 0.394852 5.67752 0 0 0 84 94 88 255
0.995999 0.435315 5.6561 0 0 0 88 100 95 255
-1.40899 0.614535 5.15203 0 0 0 104 87 79 255
1.2504 0.423035 5.6832 0 0 0 122 130 103 255
0.556245 0.504351 5.65099 0 0 0 97 109 116 255
0.598885 0.512061 5.65474 0 0 0 86 86 86 255
0.679494 0.513363 5.63781 0 0 0 127 130 138 255
0.906757 0.498394 5.65734 0 0 0 64 75 78 255
-1.39453 0.665468 5.16794 0 0 0 113 90 81 255
0.567276 0.546093 5.59552 0 0 0 66 70 73 255
0.602829 0.558786 5.66442 0 0 0 95 102 104 255
0.990044 0.517008 5.66042 0 0 0 130 138 143 255
-1.40653 0.691921 5.16966 0 0 0 40 41 38 255
1.0404 0.521254 5.66585 0 0 0 82 84 85 255
1.22045 0.506165 5.66707 0 0 0 57 57 58 255
1.25624 0.508263 5.65843 0 0 0 66 66 68 255
1.32351 0.502685 5.66118 0 0 0 115 112 114 255
1.63082 0.479488 5.6925 0 0 0 116 121 131 255
1.6699 0.479974 5.69414 0 0 0 96 102 111 255
1.17805 0.523962 5.6599 0 0 0 57 57 57 255
1.30052 0.510741 5.6676 0 0 0 51 54 56 255
-1.27008 0.709257 5.22626 0 0 0 123 94 82 255
1.58986 0.490664 5.65916 0 0 0 46 51 49 255
-1.32131 0.718647 5.20391 0 0 0 66 52 48 255
1.59517 0.497553 5.63688 0 0 0 146 148 149 255
-1.60861 0.754228 5.09404 0 0 0 90 78 71 255
-0.967209 0.71918 5.31801 0 0 0 53 46 45 255
-0.929899 0.722823 5.32737 0 0 0 94 84 78 255
1.62784 0.523492 5.66539 0 0 0 137 137 142 255
-0.906742 0.745441 5.34158 0 0 0 93 70 55 255
-1.39407 0.783769 5.18524 0 0 0 61 46 37 255
-1.01818 0.76856 5.31574 0 0 0 87 65 53 255
1.25219 0.59813 5.65501 0 0 0 72 82 90 255
-0.849874 0.765362 5.35218 0 0 0 70 54 53 255
-1.04239 0.778811 5.3066 0 0 0 76 52 38 255
-1.26518 0.797228 5.23453 0 0 0 53 39 33 255
-0.790551 0.778066 5.37261 0 0 0 80 48 36 255
-0.758583 0.779737 5.38219 0 0 0 106 93 90 255
1.39762 0.607126 5.64078 0 0 0 67 77 85 255
-1.30964 0.812657 5.21736 0 0 0 76 53 43 255
-1.0964 0.799875 5.29675 0 0 0 72 52 52 255
1.62365 0.593931 5.63974 0 0 0 77 83 87 255
1.66132 0.585585 5.64662 0 0 0 57 63 64 255
-1.47455 0.832076 5.15668 0 0 0 109 93 80 255
1.61251 0.608789 5.63672 0 0 0 69 87 90 255
-1.00608 0.815873 5.32417 0 0 0 59 45 47 255
-0.956518 0.817198 5.33133 0 0 0 84 65 55 255
-0.95039 0.805565 5.33275 0 0 0 88 64 54 255
-1.51641 0.845437 5.14386 0 0 0 124 106 88 255
-0.87851 0.831564 5.36107 0 0 0 84 61 51 255
-1.25521 0.85595 5.25219 0 0 0 54 42 44 255
-1.37436 0.865322 5.20784 0 0 0 58 48 40 255
-1.44322 0.8915 5.18081 0 0 0 68 55 48 255
-1.09026 0.878981 5.29805 0 0 0 76 55 53 255
-1.31877 0.904762 5.23402 0 0 0 68 52 42 255
-1.21485 0.892506 5.26974 0 0 0 84 59 44 255
-0.948019 0.884937 5.34247 0 0 0 78 62 57 255
-0.970897 0.902295 5.3372 0 0 0 86 67 55 255
-1.39686 0.927454 5.21084 0 0 0 73 60 52 255
-1.01929 0.914503 5.32213 0 0 0 83 54 45 255
1.44786 0.728188 5.61394 0 0 0 154 151 152 255
-1.48588 0.942197 5.17121 0 0 0 102 78 62 255
-1.0798 0.925233 5.30445 0 0 0 63 49 43 255
-0.988087 0.957285 5.33763 0 0 0 111 89 75 255
-1.15247 0.964842 5.28062 0 0 0 66 50 42 255
-1.0921 0.970142 5.30264 0 0 0 62 54 53 255
-1.0418 0.963436 5.31925 0 0 0 63 48 41 255
-0.763749 0.958115 5.38438 0 0 0 90 70 57 255
-1.12458 1.00115 5.2971 0 0 0 78 56 45 255
-1.50192 1.02867 5.17058 0 0 0 112 89 74 255
-1.19198 1.01533 5.2835 0 0 0 64 56 53 255
-1.14284 1.01914 5.29369 0 0 0 100 76 69 255
-1.09062 1.02857 5.3121 0 0 0 70 55 48 255
0.445475 0.931177 5.57317 0 0 0 181 188 188 255
1.09448 0.891321 5.60531 0 0 0 147 147 147 255
1.34558 0.861775 5.60883 0 0 0 197 204 203 255
-0.937823 1.05622 5.35602 0 0 0 104 85 74 255
-1.28097 1.07299 5.25789 0 0 0 107 94 87 255
-1.1227 1.07287 5.3098 0 0 0 61 53 53 255
-1.06154 1.0765 5.32653 0 0 0 80 58 52 255
0.557708 0.9702 5.57438 0 0 0 155 163 167 255
-1.55939 1.12418 5.15407 0 0 0 140 122 104 255
1.53823 0.898838 5.5682 0 0 0 180 194 194 255
-0.951614 1.10495 5.34931 0 0 0 91 74 64 255
-0.798647 1.11666 5.38753 0 0 0 98 79 75 255
-1.59109 1.1471 5.14482 0 0 0 133 119 113 255
-1.11499 1.14179 5.31226 0 0 0 79 58 47 255
0.262869 1.0479 5.54363 0 0 0 193 204 205 255
-1.52451 1.15125 5.16932 0 0 0 124 105 97 255
-1.10605 1.14665 5.31571 0 0 0 89 63 56 255
0.536062 1.03119 5.56795 0 0 0 142 142 142 255
-0.746885 1.13764 5.40634 0 0 0 139 107 91 255
1.71288 0.909044 5.54329 0 0 0 164 169 170 255
-1.55125 1.17793 5.16682 0 0 0 115 98 93 255
-1.54894 1.2083 5.17414 0 0 0 96 71 68 255
1.44714 0.982846 5.55505 0 0 0 185 190 190 255
1.53552 0.974787 5.55837 0 0 0 193 199 199 255
-0.97933 1.19614 5.34275 0 0 0 95 79 71 255
-1.09248 1.21907 5.31949 0 0 0 83 69 64 255
-1.01872 1.21547 5.3377 0 0 0 112 98 91 255
-1.10622 1.22098 5.31546 0 0 0 100 81 68 255
-0.734739 1.21732 5.39736 0 0 0 111 87 75 255
-1.07371 1.25187 5.32559 0 0 0 84 77 76 255
0.334482 1.17718 5.54369 0 0 0 183 193 193 255
1.21993 1.12148 5.55384 0 0 0 127 133 133 255
1.26183 1.11763 5.55363 0 0 0 100 100 98 255
-0.865571 1.30748 5.36815 0 0 0 101 78 73 255
-1.01879 1.32702 5.33533 0 0 0 98 69 59 255
1.38566 1.12726 5.5471 0 0 0 150 158 159 255
-1.06667 1.34636 5.32866 0 0 0 88 62 52 255
-0.829428 1.33876 5.37889 0 0 0 92 78 69 255
-1.02418 1.36592 5.34031 0 0 0 119 104 91 255
-0.98425 1.38387 5.35213 0 0 0 85 69 59 255
-0.855053 1.39035 5.38065 0 0 0 92 78 69 255
-1.19212 1.41402 5.29852 0 0 0 159 131 107 255
-0.772746 1.39138 5.39204 0 0 0 108 84 76 255
-0.822437 1.49421 5.36903 0 0 0 120 95 86 255
-0.908154 1.50744 5.35087 0 0 0 127 108 96 255
-0.882294 1.51495 5.3559 0 0 0 107 89 79 255
-0.802825 1.50671 5.36727 0 0 0 104 85 80 255
-0.758394 1.54729 5.37853 0 0 0 148 122 101 255
-0.70973 1.54564 5.38416 0 0 0 143 109 98 255
0.256293 1.47794 5.48691 0 0 0 98 107 103 255
-0.744019 1.64546 5.38784 0 0 0 128 118 113 255
-0.840749 1.6791 5.37057 0 0 0 128 113 106 255
-1.81184 -0.775116 4.75289 0 0 0 64 64 64 255
-1.37416 -0.540353 4.9053 0 0 0 135 122 108 255
-1.27097 -0.549602 4.96282 0 0 0 140 105 91 255
-1.14111 -0.565291 5.0288 0 0 0 151 122 109 255
-0.947051 -0.598245 5.14507 0 0 0 133 103 90 255
-0.375462 -0.672076 5.55068 0 0 0 163 158 160 255
-1.44985 -0.509059 4.84345 0 0 0 196 180 165 255
-1.19785 -0.552355 5.0114 0 0 0 137 110 94 255
-1.07819 -0.559182 5.07741 0 0 0 145 107 95 255
-0.942813 -0.586628 5.15323 0 0 0 148 101 80 255
-1.33964 -0.514998 4.937 0 0 0 195 180 166 255
-1.24655 -0.534353 4.98457 0 0 0 148 105 81 255
-1.28954 -0.511893 4.97222 0 0 0 194 180 166 255
-1.16451 -0.526111 5.03655 0 0 0 194 181 164 255
-0.832169 -0.546806 5.2226 0 0 0 118 91 79 255
-1.45925 -0.454477 4.86689 0 0 0 198 181 163 255
-1.0532 -0.491111 5.11647 0 0 0 199 182 166 255
-1.52052 -0.425037 4.82364 0 0 0 140 105 92 255
-0.9408 -0.486831 5.18311 0 0 0 191 175 159 255
-1.44554 -0.42256 4.89477 0 0 0 146 131 116 255
-1.38645 -0.435195 4.93404 0 0 0 144 121 116 255
-1.32106 -0.437978 4.9765 0 0 0 132 100 84 255
-1.25504 -0.44613 5.01243 0 0 0 144 112 96 255
-1.1399 -0.465683 5.06599 0 0 0 176 158 145 255
-0.86904 -0.503994 5.21408 0 0 0 199 180 165 255
-1.15101 -0.444232 5.0684 0 0 0 163 143 131 255
-0.947744 -0.457655 5.19101 0 0 0 152 107 88 255
-1.18093 -0.410767 5.06092 0 0 0 192 180 169 255
-1.20985 -0.387829 5.05045 0 0 0 154 122 110 255
-1.25421 -0.263576 5.04402 0 0 0 149 126 114 255
-1.096 -0.279362 5.12902 0 0 0 138 101 91 255
-1.28524 -0.261596 5.02868 0 0 0 152 134 117 255
-1.19446 -0.261897 5.07705 0 0 0 149 115 94 255
-1.44959 -0.21833 4.95025 0 0 0 199 178 159 255
-1.00045 -0.271929 5.18599 0 0 0 151 109 91 255
-1.29871 -0.230903 5.03189 0 0 0 150 118 102 255
-1.09923 -0.244933 5.14029 0 0 0 197 182 165 255
-1.08378 -0.238996 5.15519 0 0 0 197 182 164 255
-1.047 -0.237716 5.16255 0 0 0 153 106 86 255
-0.959445 -0.237063 5.21653 0 0 0 199 182 163 255
-1.04186 -0.212836 5.16554 0 0 0 151 106 82 255
-1.28721 -0.175817 5.06173 0 0 0 196 181 163 255
-1.45506 -0.136801 4.97731 0 0 0 146 108 89 255
-1.25792 -0.175696 5.06755 0 0 0 168 145 130 255
-1.09896 -0.184584 5.14864 0 0 0 199 181 162 255
-1.29697 -0.149676 5.06001 0 0 0 170 133 114 255
-1.26864 -0.141871 5.07665 0 0 0 160 133 116 255
-0.992404 -0.163801 5.21281 0 0 0 148 108 85 255
-0.9249 -0.160694 5.25966 0 0 0 150 107 82 255
0.207263 -0.266559 5.60917 0 0 0 111 124 88 255
-1.55588 -0.0155414 4.93889 0 0 0 192 180 165 255
-1.37946 -0.0214568 5.03991 0 0 0 91 81 73 255
-0.965841 -0.0366471 5.23071 0 0 0 151 137 124 255
-1.49348 0.0346653 5.00463 0 0 0 104 99 96 255
-1.20534 0.0104085 5.14051 0 0 0 130 124 115 255
-1.1481 0.0183647 5.17813 0 0 0 150 139 124 255
-0.793289 -0.0103148 5.32331 0 0 0 106 99 90 255
1.03274 -0.16942 5.74899 0 0 0 87 94 83 255
-0.846952 0.0200635 5.31123 0 0 0 121 111 103 255
-1.55728 0.177225 4.9932 0 0 0 167 154 150 255
-1.33609 0.174824 5.11601 0 0 0 139 133 131 255
-0.898668 0.167496 5.29306 0 0 0 171 161 156 255
-0.764704 0.170341 5.34028 0 0 0 143 132 127 255
-1.74956 0.241928 4.8755 0 0 0 121 98 84 255
-1.70646 0.261552 4.90492 0 0 0 138 108 89 255
-0.0755523 0.152023 5.54067 0 0 0 160 173 134 255
-1.73479 0.277663 4.89582 0 0 0 75 42 38 255
0.014602 0.21938 5.5389 0 0 0 68 71 49 255
0.885981 0.239712 5.6941 0 0 0 73 78 74 255
-1.75956 0.44115 4.89401 0 0 0 129 100 85 255
-1.78684 0.447273 4.87727 0 0 0 128 93 84 255
-1.69605 0.468833 4.98882 0 0 0 66 43 41 255
1.05406 0.366913 5.67147 0 0 0 52 58 50 255
-1.27687 0.602788 5.20924 0 0 0 47 41 39 255
1.17606 0.427568 5.66805 0 0 0 158 173 124 255
-1.47137 0.627015 5.12814 0 0 0 127 103 80 255
1.9203 0.366296 5.67764 0 0 0 67 94 107 255
0.41768 0.537983 5.64269 0 0 0 42 46 52 255
1.31874 0.497734 5.67008 0 0 0 113 110 114 255
-1.26918 0.704412 5.22678 0 0 0 123 94 82 255
1.39492 0.507266 5.65882 0 0 0 127 128 135 255
-1.45624 0.752582 5.15716 0 0 0 117 93 79 255
1.56978 0.513147 5.67272 0 0 0 99 98 100 255
-0.93122 0.732312 5.33118 0 0 0 124 103 93 255
-0.901127 0.748705 5.34664 0 0 0 67 49 41 255
-0.155247 0.695416 5.51713 0 0 0 69 77 79 255
-1.39489 0.785517 5.18649 0 0 0 61 46 37 255
-1.0182 0.777639 5.31694 0 0 0 67 50 42 255
-0.823537 0.761098 5.35745 0 0 0 120 103 92 255
-1.03308 0.780657 5.30949 0 0 0 77 50 36 255
-1.10536 0.798896 5.29198 0 0 0 60 47 43 255
-1.02666 0.786628 5.31489 0 0 0 58 46 42 255
-0.949071 0.817547 5.33453 0 0 0 71 55 50 255
-1.36715 0.85448 5.21086 0 0 0 60 44 36 255
-1.26733 0.861144 5.24556 0 0 0 59 41 40 255
-1.10698 0.865993 5.295 0 0 0 60 46 46 255
-1.4771 0.897147 5.16574 0 0 0 142 110 94 255
-1.21327 0.896691 5.27203 0 0 0 74 52 44 255
-1.32267 0.913411 5.23687 0 0 0 57 47 41 255
-0.822339 0.952009 5.37228 0 0 0 79 65 58 255
1.10457 0.80351 5.6076 0 0 0 198 207 208 255
1.49499 0.760838 5.60596 0 0 0 126 134 138 255
-1.19698 1.01353 5.28039 0 0 0 71 56 45 255
1.28796 0.819599 5.60383 0 0 0 103 109 111 255
-1.55158 1.06422 5.1549 0 0 0 125 106 93 255
-1.12367 1.06358 5.31032 0 0 0 67 55 55 255
-1.28773 1.08573 5.25838 0 0 0 121 97 92 255
-1.06096 1.07663 5.32796 0 0 0 80 58 52 255
1.32679 0.877172 5.60122 0 0 0 196 205 204 255
0.392152 0.990596 5.56862 0 0 0 194 205 206 255
-1.57194 1.1363 5.14978 0 0 0 139 127 117 255
-0.961566 1.1126 5.34748 0 0 0 109 86 74 255
-0.838316 1.11372 5.375 0 0 0 114 92 78 255
-1.1185 1.13955 5.31466 0 0 0 79 58 47 255
-0.891295 1.1653 5.36464 0 0 0 89 76 74 255
1.405 0.977392 5.56658 0 0 0 95 100 98 255
-0.993193 1.19848 5.33888 0 0 0 101 82 74 255
-0.746778 1.21469 5.39387 0 0 0 122 95 80 255
0.154948 1.19041 5.52251 0 0 0 187 200 201 255
0.324347 1.17997 5.54479 0 0 0 187 196 196 255
-0.819839 1.2746 5.37971 0 0 0 109 86 71 255
-0.876602 1.31193 5.36311 0 0 0 128 108 93 255
-1.06135 1.34432 5.32855 0 0 0 88 62 52 255
-0.835071 1.34937 5.37955 0 0 0 92 75 63 255
-1.02777 1.36425 5.33737 0 0 0 119 104 91 255
-0.976689 1.38139 5.35352 0 0 0 75 64 61 255
-0.855908 1.37603 5.38019 0 0 0 104 87 79 255
-0.782616 1.39758 5.39177 0 0 0 108 87 78 255
-0.334212 1.42016 5.44206 0 0 0 131 110 95 255
-0.890555 1.53506 5.35527 0 0 0 73 66 64 255
-0.709315 1.53335 5.38438 0 0 0 144 110 99 255
-0.791972 1.54653 5.37642 0 0 0 143 120 107 255
-0.748401 1.65416 5.38699 0 0 0 138 117 101 255
-1.29799 1.68191 5.27699 0 0 0 180 140 122 255
-0.840639 1.68241 5.37057 0 0 0 128 113 106 255
-1.56531 -0.582765 4.69451 0 0 0 140 118 100 255
-1.50351 -0.576868 4.77302 0 0 0 153 107 84 255
-1.46693 -0.533132 4.81998 0 0 0 167 153 137 255
-1.44008 -0.539253 4.83506 0 0 0 115 98 89 255
-1.36848 -0.54032 4.91118 0 0 0 153 103 77 255
-1.26186 -0.551483 4.96796 0 0 0 145 107 90 255
-1.14074 -0.563764 5.02958 0 0 0 151 122 109 255
-0.949518 -0.584343 5.14954 0 0 0 150 108 89 255
-0.854467 -0.589204 5.19546 0 0 0 133 118 108 255
