ply
format ascii 1.0
comment VCGLIB generated
element vertex 1015
property float x
property float y
property float z
property float nx
property float ny
property float nz
property uchar red
property uchar green
property uchar blue
property uchar alpha
element face 0
property list uchar int vertex_indices
end_header
-0.813207 -0.47652 5.35099 0 0 0 131 116 108 255
-1.22731 -0.422382 5.18898 0 0 0 191 179 169 255
-1.27404 -0.402122 5.19681 0 0 0 198 180 163 255
-1.22906 -0.406186 5.19157 0 0 0 192 180 168 255
-1.27176 -0.376954 5.18794 0 0 0 162 140 129 255
-1.19014 -0.382657 5.05914 0 0 0 169 129 105 255
-1.47927 -0.323469 4.89155 0 0 0 151 104 84 255
-1.44885 -0.330483 5.11905 0 0 0 153 121 107 255
-1.40445 -0.329227 5.13788 0 0 0 141 109 87 255
-1.47292 -0.304157 4.90215 0 0 0 153 128 116 255
-1.2386 -0.338966 5.19962 0 0 0 151 114 92 255
-1.34867 -0.26305 4.99673 0 0 0 167 142 122 255
-1.28754 -0.270583 5.0276 0 0 0 188 171 153 255
-1.23316 -0.267162 5.19584 0 0 0 150 107 83 255
-1.33064 -0.241631 5.18252 0 0 0 196 179 162 255
-1.29181 -0.251339 5.18338 0 0 0 165 119 105 255
-1.03993 -0.274333 5.31097 0 0 0 151 109 91 255
-0.969024 -0.281572 5.34273 0 0 0 159 111 86 255
-1.35131 -0.235851 5.17145 0 0 0 137 106 90 255
-1.4509 -0.202684 4.95514 0 0 0 202 173 153 255
-1.01401 -0.254612 5.32048 0 0 0 179 134 112 255
-0.984952 -0.259197 5.33565 0 0 0 191 184 173 255
-1.33894 -0.165134 5.02141 0 0 0 140 101 82 255
0.358227 -0.329683 5.60158 0 0 0 120 137 86 255
0.405035 -0.324546 5.58643 0 0 0 69 74 58 255
0.473373 -0.332076 5.58745 0 0 0 116 119 98 255
-1.35888 -0.161285 5.18099 0 0 0 158 144 131 255
-1.32339 -0.165646 5.20354 0 0 0 196 179 160 255
-1.29546 -0.168547 5.21465 0 0 0 154 103 79 255
0.384038 -0.324323 5.58403 0 0 0 134 147 122 255
-1.45805 -0.141964 4.96958 0 0 0 150 111 92 255
-1.36516 -0.142993 5.02004 0 0 0 140 125 114 255
-1.40259 -0.138527 5.18035 0 0 0 146 112 88 255
-1.35489 -0.141895 5.18399 0 0 0 151 126 109 255
-1.29776 -0.144647 5.21331 0 0 0 143 109 96 255
-1.01881 -0.174803 5.32751 0 0 0 143 108 86 255
-1.25494 -0.144364 5.22297 0 0 0 166 148 133 255
-1.23046 -0.148948 5.22969 0 0 0 148 103 82 255
-1.02319 -0.158058 5.32246 0 0 0 142 100 79 255
0.433313 -0.294435 5.58975 0 0 0 102 111 98 255
-0.964705 -0.156083 5.33761 0 0 0 133 114 100 255
-0.940123 -0.155634 5.34842 0 0 0 135 108 95 255
0.549277 -0.293212 5.63658 0 0 0 122 131 105 255
0.589676 -0.280594 5.61691 0 0 0 119 132 94 255
0.437777 -0.24631 5.59494 0 0 0 96 104 83 255
0.621224 -0.255781 5.62523 0 0 0 111 118 75 255
0.197784 -0.203794 5.55892 0 0 0 76 89 78 255
0.637717 -0.239794 5.63022 0 0 0 170 189 137 255
0.243278 -0.187753 5.56718 0 0 0 165 176 136 255
-1.63236 -0.0112962 4.86684 0 0 0 131 124 110 255
-1.65324 -0.00121819 5.0931 0 0 0 124 117 103 255
-1.60779 -0.00633235 5.1191 0 0 0 124 117 103 255
-1.56652 -0.0156453 5.13626 0 0 0 170 160 148 255
-1.48698 -0.0253712 4.97691 0 0 0 168 159 147 255
-1.45785 -0.0259112 4.99128 0 0 0 194 179 161 255
-1.4324 -0.0247995 4.99371 0 0 0 115 105 93 255
-1.37657 -0.0254618 5.03684 0 0 0 168 153 135 255
-1.33389 -0.0289165 5.05951 0 0 0 188 171 152 255
0.224569 -0.168571 5.56775 0 0 0 131 141 110 255
-1.41266 -0.0165855 5.01276 0 0 0 103 97 92 255
-1.33769 -0.0148393 5.22415 0 0 0 96 89 80 255
-1.56115 0.01579 5.14661 0 0 0 195 178 163 255
-1.30155 -0.0120823 5.23493 0 0 0 132 120 109 255
-1.22699 -0.0195932 5.25527 0 0 0 134 124 114 255
-1.19461 -0.02966 5.30686 0 0 0 161 148 130 255
-1.128 -0.0274193 5.31606 0 0 0 107 105 101 255
-1.65567 0.0272247 4.87444 0 0 0 149 144 135 255
-1.48613 0.0169695 5.15318 0 0 0 190 180 170 255
-1.05755 -0.0283704 5.32432 0 0 0 137 130 119 255
-1.00513 -0.0344302 5.35455 0 0 0 151 137 124 255
1.01692 -0.20247 5.68033 0 0 0 127 136 113 255
-1.62649 0.0288356 4.89814 0 0 0 137 130 120 255
-1.38922 0.0139468 5.20353 0 0 0 56 63 52 255
-1.10303 -0.0156584 5.31784 0 0 0 110 104 95 255
-0.929552 -0.0303753 5.37214 0 0 0 148 135 121 255
-0.860222 -0.0413257 5.3891 0 0 0 154 143 131 255
-0.818913 -0.0396869 5.40267 0 0 0 158 152 143 255
-1.66437 0.0411905 5.10744 0 0 0 87 81 71 255
-1.63473 0.044545 5.11892 0 0 0 88 86 79 255
-1.33921 0.0149919 5.22244 0 0 0 106 98 92 255
-1.56178 0.0500383 5.14252 0 0 0 99 94 91 255
-1.5451 0.0444106 5.13603 0 0 0 104 99 96 255
-1.18343 0.0120274 5.28913 0 0 0 76 71 64 255
-1.00003 -0.00349158 5.34925 0 0 0 193 180 165 255
-0.879465 -0.0170796 5.38712 0 0 0 110 102 94 255
-0.816649 -0.023397 5.40142 0 0 0 140 135 124 255
-1.52463 0.0465176 5.14957 0 0 0 152 144 133 255
-1.49852 0.0463042 5.15888 0 0 0 133 126 121 255
-1.42803 0.0458118 5.18641 0 0 0 93 78 79 255
-1.39613 0.0352246 5.20065 0 0 0 95 95 95 255
-1.30437 0.0290981 5.23241 0 0 0 110 96 96 255
-1.24123 0.0196239 5.24411 0 0 0 130 124 115 255
-1.20841 0.0179052 5.25627 0 0 0 116 108 97 255
0.368334 -0.119606 5.58782 0 0 0 157 175 121 255
-1.36139 0.0402536 5.21006 0 0 0 135 125 121 255
-1.13497 0.022523 5.31276 0 0 0 130 121 117 255
-0.856388 -0.00632548 5.38588 0 0 0 194 178 165 255
-1.19801 0.0348506 5.25681 0 0 0 166 159 151 255
-1.18856 0.0328982 5.29463 0 0 0 147 135 125 255
-1.08347 0.0220949 5.33484 0 0 0 106 97 83 255
-0.942822 0.0139651 5.36582 0 0 0 135 130 118 255
-0.814686 -0.000478033 5.39632 0 0 0 128 123 111 255
0.42078 -0.105136 5.59054 0 0 0 60 68 60 255
1.26606 -0.176479 5.7084 0 0 0 142 150 122 255
-1.04636 0.029242 5.33635 0 0 0 125 118 106 255
0.98785 -0.142183 5.67515 0 0 0 96 107 77 255
-0.994278 0.0265711 5.35127 0 0 0 129 121 110 255
-0.906197 0.0240497 5.37634 0 0 0 137 131 126 255
-0.852282 0.0252056 5.38231 0 0 0 121 113 104 255
0.142636 -0.0602732 5.55004 0 0 0 64 73 60 255
0.665803 -0.104639 5.63623 0 0 0 149 158 118 255
0.305461 -0.0619756 5.57948 0 0 0 173 184 144 255
-1.84923 0.125692 4.70995 0 0 0 53 27 15 255
1.07314 -0.111425 5.68474 0 0 0 128 139 115 255
0.251148 -0.00463677 5.56362 0 0 0 119 129 110 255
-1.66582 0.16996 4.91318 0 0 0 162 158 155 255
-1.61632 0.166147 4.93948 0 0 0 101 90 89 255
-1.56083 0.151249 4.97748 0 0 0 70 58 58 255
-0.0491246 0.0402252 5.52125 0 0 0 149 159 129 255
-1.59424 0.177971 4.96461 0 0 0 170 137 124 255
-1.55747 0.177269 5.14177 0 0 0 162 152 142 255
-1.6673 0.180125 4.91437 0 0 0 171 166 159 255
-1.61769 0.187802 4.94808 0 0 0 150 146 141 255
-1.50481 0.182679 5.18641 0 0 0 150 139 135 255
-1.43722 0.168114 5.05356 0 0 0 136 129 125 255
-1.43932 0.175594 5.21307 0 0 0 163 157 157 255
-1.38608 0.186577 5.23132 0 0 0 168 147 142 255
0.638083 0.00791844 5.62519 0 0 0 79 92 83 255
-1.69264 0.206074 5.10426 0 0 0 150 146 141 255
-1.62796 0.202204 5.13692 0 0 0 170 149 140 255
-1.49845 0.198795 5.18769 0 0 0 168 160 152 255
-1.43662 0.184493 5.21511 0 0 0 156 146 138 255
-1.36344 0.186844 5.23138 0 0 0 161 153 149 255
-1.22504 0.180898 5.27691 0 0 0 132 97 85 255
0.843012 0.000661924 5.65701 0 0 0 79 85 69 255
-1.49723 0.19166 5.02923 0 0 0 141 132 125 255
-1.06858 0.172121 5.35 0 0 0 156 150 145 255
-1.22503 0.182073 5.27603 0 0 0 142 93 73 255
-1.00758 0.168111 5.36721 0 0 0 123 116 115 255
-0.983677 0.171481 5.37071 0 0 0 141 137 131 255
-0.931219 0.168712 5.3835 0 0 0 171 161 156 255
-0.783157 0.15851 5.40877 0 0 0 153 146 140 255
-1.07435 0.189962 5.34661 0 0 0 168 149 145 255
-1.8627 0.234218 4.71373 0 0 0 119 80 57 255
-0.909642 0.181109 5.38952 0 0 0 145 140 135 255
-1.74956 0.241928 4.8755 0 0 0 121 98 84 255
-1.0053 0.191483 5.36607 0 0 0 150 142 134 255
-0.784898 0.186491 5.41128 0 0 0 145 134 129 255
0.223201 0.138863 5.58413 0 0 0 99 107 98 255
0.510498 0.129887 5.62254 0 0 0 79 86 84 255
-1.65759 0.293409 4.9503 0 0 0 109 84 66 255
0.634808 0.235403 5.63903 0 0 0 62 69 59 255
-1.68303 0.463973 4.99261 0 0 0 66 43 39 255
1.00039 0.283677 5.67245 0 0 0 145 158 117 255
1.42665 0.297585 5.71113 0 0 0 99 105 101 255
-1.75759 0.520789 4.91974 0 0 0 80 66 51 255
0.205245 0.419767 5.57392 0 0 0 67 79 75 255
0.599934 0.406892 5.62437 0 0 0 88 98 93 255
0.0470941 0.458505 5.5579 0 0 0 72 80 77 255
0.214676 0.450302 5.58972 0 0 0 120 133 106 255
0.71868 0.423818 5.63598 0 0 0 137 145 117 255
1.07306 0.394658 5.66889 0 0 0 84 94 88 255
0.996071 0.437398 5.66475 0 0 0 88 100 95 255
-1.45394 0.635431 5.26045 0 0 0 104 87 79 255
1.25162 0.425295 5.69552 0 0 0 122 130 103 255
0.555353 0.501662 5.62462 0 0 0 97 109 116 255
0.598887 0.509514 5.63622 0 0 0 86 86 86 255
0.679615 0.514034 5.64772 0 0 0 127 130 138 255
0.906871 0.498361 5.65798 0 0 0 64 75 78 255
-1.39453 0.665468 5.16794 0 0 0 113 90 81 255
0.56833 0.549846 5.62955 0 0 0 66 70 73 255
0.602827 0.554391 5.63412 0 0 0 95 102 104 255
0.989507 0.518472 5.66316 0 0 0 130 138 143 255
-1.40653 0.691921 5.16966 0 0 0 40 41 38 255
1.03977 0.522399 5.66664 0 0 0 82 84 85 255
1.22083 0.508111 5.67419 0 0 0 57 57 58 255
1.2579 0.511556 5.67674 0 0 0 66 66 68 255
1.3258 0.50692 5.68364 0 0 0 115 112 114 255
1.62942 0.482373 5.69405 0 0 0 116 121 131 255
1.67017 0.483736 5.7035 0 0 0 96 102 111 255
1.17818 0.526403 5.66855 0 0 0 57 57 57 255
1.30174 0.514218 5.68303 0 0 0 51 54 56 255
-1.29914 0.725555 5.30267 0 0 0 123 94 82 255
1.5951 0.497846 5.69594 0 0 0 46 51 49 255
-1.35452 0.737038 5.28836 0 0 0 66 52 48 255
1.60545 0.508366 5.70367 0 0 0 146 148 149 255
-1.66033 0.781191 5.19551 0 0 0 90 78 71 255
-0.996323 0.737537 5.4103 0 0 0 53 46 45 255
-0.956928 0.739868 5.4162 0 0 0 94 84 78 255
1.62979 0.529441 5.68663 0 0 0 137 137 142 255
-0.930045 0.76088 5.41937 0 0 0 93 70 55 255
-1.42956 0.803748 5.27118 0 0 0 61 46 37 255
-1.04521 0.78645 5.39804 0 0 0 87 65 53 255
1.254 0.602262 5.67514 0 0 0 72 82 90 255
-0.875414 0.782781 5.44047 0 0 0 70 54 53 255
-1.07113 0.797512 5.39286 0 0 0 76 52 38 255
-1.29714 0.81629 5.32001 0 0 0 53 39 33 255
-0.812298 0.793481 5.45178 0 0 0 80 48 36 255
-0.776745 0.792904 5.4498 0 0 0 106 93 90 255
1.40241 0.614549 5.67963 0 0 0 67 77 85 255
-1.3431 0.832534 5.30415 0 0 0 76 53 43 255
-1.12502 0.819021 5.37905 0 0 0 72 52 52 255
1.63199 0.604137 5.69165 0 0 0 77 83 87 255
1.66996 0.594626 5.69652 0 0 0 57 63 64 255
-1.47455 0.832076 5.15668 0 0 0 109 93 80 255
1.62118 0.619125 5.69036 0 0 0 69 87 90 255
-1.03102 0.833577 5.39916 0 0 0 59 45 47 255
-0.982877 0.836256 5.41328 0 0 0 84 65 55 255
-0.975415 0.823282 5.41168 0 0 0 88 64 54 255
-1.51641 0.845437 5.14386 0 0 0 124 106 88 255
-0.896645 0.844605 5.42186 0 0 0 84 61 51 255
-1.28162 0.872912 5.32255 0 0 0 54 42 44 255
-1.40804 0.885754 5.29167 0 0 0 58 48 40 255
-1.48919 0.919213 5.28476 0 0 0 68 55 48 255
-1.11809 0.89938 5.37757 0 0 0 76 55 53 255
-1.34774 0.923409 5.30866 0 0 0 68 52 42 255
-1.2401 0.909479 5.33899 0 0 0 84 59 44 255
-0.971422 0.903073 5.41534 0 0 0 78 62 57 255
-0.994917 0.920946 5.41099 0 0 0 86 67 55 255
-1.42974 0.948449 5.2899 0 0 0 73 60 52 255
-1.04598 0.935202 5.40131 0 0 0 83 54 45 255
1.45608 0.738851 5.66807 0 0 0 154 151 152 255
-1.48588 0.942197 5.17121 0 0 0 102 78 62 255
-1.1071 0.946269 5.38246 0 0 0 63 49 43 255
-1.00945 0.974736 5.40178 0 0 0 111 89 75 255
-1.1788 0.984017 5.35621 0 0 0 66 50 42 255
-1.11746 0.990606 5.37467 0 0 0 62 54 53 255
-1.0662 0.983132 5.39005 0 0 0 63 48 41 255
-0.783592 0.975288 5.45727 0 0 0 90 70 57 255
-1.14956 1.02165 5.36673 0 0 0 78 56 45 255
-1.54371 1.0564 5.2584 0 0 0 112 89 74 255
-1.21402 1.0318 5.34489 0 0 0 64 56 53 255
-1.16515 1.03615 5.35827 0 0 0 100 76 69 255
-1.1123 1.04725 5.37329 0 0 0 70 55 48 255
0.4444 0.937802 5.60564 0 0 0 181 188 188 255
1.09808 0.901724 5.65236 0 0 0 147 147 147 255
1.35211 0.873698 5.66276 0 0 0 197 204 203 255
-0.957448 1.07336 5.41852 0 0 0 104 85 74 255
-1.31194 1.09578 5.3404 0 0 0 107 94 87 255
-1.13985 1.08676 5.35964 0 0 0 61 53 53 255
-1.07863 1.09102 5.37756 0 0 0 80 58 52 255
0.556829 0.979027 5.6123 0 0 0 155 163 167 255
-1.55924 1.12396 5.15409 0 0 0 140 122 104 255
1.53823 0.898838 5.5682 0 0 0 180 194 194 255
-0.973039 1.12418 5.41685 0 0 0 91 74 64 255
-0.81731 1.13443 5.45465 0 0 0 98 79 75 255
-1.63335 1.17735 5.22354 0 0 0 133 119 113 255
-1.13275 1.1569 5.36422 0 0 0 79 58 47 255
0.260067 1.05748 5.58689 0 0 0 193 204 205 255
-1.56728 1.18174 5.25653 0 0 0 124 105 97 255
-1.12345 1.16161 5.36682 0 0 0 89 63 56 255
0.535066 1.04022 5.60591 0 0 0 142 142 142 255
-0.76512 1.15613 5.47382 0 0 0 139 107 91 255
1.73548 0.931994 5.65001 0 0 0 164 169 170 255
-1.59601 1.21025 5.25485 0 0 0 115 98 93 255
-1.54848 1.20766 5.17421 0 0 0 96 71 68 255
1.44714 0.982846 5.55505 0 0 0 185 190 190 255
1.53552 0.974787 5.55837 0 0 0 193 199 199 255
-1.00125 1.21769 5.40912 0 0 0 95 79 71 255
-1.11111 1.23593 5.37489 0 0 0 83 69 64 255
-1.03694 1.23397 5.39106 0 0 0 112 98 91 255
-1.12463 1.23753 5.36976 0 0 0 100 81 68 255
-0.754615 1.23818 5.47419 0 0 0 111 87 75 255
-1.08978 1.26698 5.37355 0 0 0 84 77 76 255
0.332113 1.18747 5.58578 0 0 0 183 193 193 255
1.22773 1.13989 5.62805 0 0 0 127 133 133 255
1.26675 1.12854 5.59433 0 0 0 100 100 98 255
-0.88743 1.3303 5.4444 0 0 0 101 78 73 255
-1.03547 1.34383 5.38768 0 0 0 98 69 59 255
1.39127 1.13878 5.58797 0 0 0 150 158 159 255
-1.08071 1.36028 5.37136 0 0 0 88 62 52 255
-0.847234 1.35839 5.4423 0 0 0 92 78 69 255
-1.03779 1.37994 5.38276 0 0 0 119 104 91 255
-0.995167 1.39556 5.38681 0 0 0 85 69 59 255
-0.870855 1.40831 5.43337 0 0 0 92 78 69 255
-1.2117 1.43308 5.35241 0 0 0 159 131 107 255
-0.787946 1.40942 5.44673 0 0 0 108 84 76 255
-0.841671 1.51822 5.43652 0 0 0 120 95 86 255
-0.92488 1.52742 5.40784 0 0 0 127 108 96 255
-0.901298 1.5388 5.4175 0 0 0 107 89 79 255
-0.823372 1.53243 5.44085 0 0 0 104 85 80 255
-0.776859 1.57146 5.44545 0 0 0 148 122 101 255
-0.72757 1.56969 5.45107 0 0 0 143 109 98 255
0.251519 1.50137 5.56701 0 0 0 98 107 103 255
-0.761458 1.66965 5.45431 0 0 0 128 118 113 255
-0.853124 1.69687 5.41169 0 0 0 128 113 106 255
-1.81184 -0.775116 4.75289 0 0 0 64 64 64 255
-1.37416 -0.540353 4.9053 0 0 0 135 122 108 255
-1.27097 -0.549602 4.96282 0 0 0 140 105 91 255
-1.19139 -0.574753 5.17641 0 0 0 151 122 109 255
-0.947051 -0.598245 5.14507 0 0 0 133 103 90 255
-0.375462 -0.672076 5.55068 0 0 0 163 158 160 255
-1.44985 -0.509059 4.84345 0 0 0 196 180 165 255
-1.24947 -0.562282 5.15848 0 0 0 137 110 94 255
-1.12245 -0.575112 5.2134 0 0 0 145 107 95 255
-0.942813 -0.586628 5.15323 0 0 0 148 101 80 255
-1.40906 -0.524071 5.11559 0 0 0 195 180 166 255
-1.24655 -0.534353 4.98457 0 0 0 148 105 81 255
-1.28954 -0.511893 4.97222 0 0 0 194 180 166 255
-1.20657 -0.532305 5.15569 0 0 0 194 181 164 255
-0.865808 -0.560828 5.34636 0 0 0 118 91 79 255
-1.45925 -0.454477 4.86689 0 0 0 198 181 163 255
-1.09889 -0.500883 5.25868 0 0 0 199 182 166 255
-1.52052 -0.425037 4.82364 0 0 0 140 105 92 255
-0.974809 -0.4957 5.29772 0 0 0 191 175 159 255
-1.51984 -0.427835 5.07304 0 0 0 146 131 116 255
-1.38645 -0.435195 4.93404 0 0 0 144 121 116 255
-1.32106 -0.437978 4.9765 0 0 0 132 100 84 255
-1.25504 -0.44613 5.01243 0 0 0 144 112 96 255
-1.1399 -0.465683 5.06599 0 0 0 176 158 145 255
-0.887897 -0.50939 5.28448 0 0 0 199 180 165 255
-1.19464 -0.449475 5.19527 0 0 0 163 143 131 255
-0.978628 -0.465044 5.29498 0 0 0 152 107 88 255
-1.2264 -0.415379 5.19081 0 0 0 192 180 169 255
-1.20985 -0.387829 5.05045 0 0 0 154 122 110 255
-1.25421 -0.263576 5.04402 0 0 0 149 126 114 255
-1.13718 -0.281201 5.25492 0 0 0 138 101 91 255
-1.28524 -0.261596 5.02868 0 0 0 152 134 117 255
-1.19446 -0.261897 5.07705 0 0 0 149 115 94 255
-1.44959 -0.21833 4.95025 0 0 0 199 178 159 255
-1.03944 -0.274769 5.31112 0 0 0 151 109 91 255
-1.35091 -0.23036 5.16988 0 0 0 150 118 102 255
-1.13661 -0.245761 5.25335 0 0 0 197 182 165 255
-1.11922 -0.239457 5.26332 0 0 0 197 182 164 255
-1.09225 -0.235932 5.29973 0 0 0 153 106 86 255
-0.993141 -0.239441 5.32904 0 0 0 199 182 163 255
-1.07863 -0.211848 5.27928 0 0 0 151 106 82 255
-1.33771 -0.173344 5.19567 0 0 0 196 181 163 255
-1.45506 -0.136801 4.97731 0 0 0 146 108 89 255
-1.30974 -0.172824 5.20744 0 0 0 168 145 130 255
-1.14445 -0.182763 5.28201 0 0 0 199 181 162 255
-1.34544 -0.146569 5.18707 0 0 0 170 133 114 255
-1.31639 -0.138444 5.20403 0 0 0 160 133 116 255
-1.02549 -0.163189 5.31843 0 0 0 148 108 85 255
-0.95079 -0.160412 5.34644 0 0 0 150 107 82 255
0.211071 -0.268185 5.56859 0 0 0 111 124 88 255
-1.55588 -0.0155414 4.93889 0 0 0 192 180 165 255
-1.43577 -0.0138813 5.18137 0 0 0 91 81 73 255
-1.00347 -0.0324449 5.35246 0 0 0 151 137 124 255
-1.55271 0.0443428 5.14295 0 0 0 104 99 96 255
-1.24257 0.0160039 5.24432 0 0 0 130 124 115 255
-1.1888 0.0246987 5.29383 0 0 0 150 139 124 255
-0.814236 -0.00749805 5.4005 0 0 0 106 99 90 255
1.02891 -0.171472 5.6844 0 0 0 87 94 83 255
-0.867655 0.023238 5.38392 0 0 0 121 111 103 255
-1.62913 0.193891 5.15342 0 0 0 167 154 150 255
-1.3808 0.185675 5.23 0 0 0 139 133 131 255
-0.925802 0.174552 5.38468 0 0 0 171 161 156 255
-0.782914 0.175308 5.40842 0 0 0 143 132 127 255
-1.74956 0.241928 4.8755 0 0 0 121 98 84 255
-1.70646 0.261552 4.90492 0 0 0 138 108 89 255
-0.073675 0.15057 5.5294 0 0 0 160 173 134 255
-1.73479 0.277663 4.89582 0 0 0 75 42 38 255
0.0139574 0.219398 5.55142 0 0 0 68 71 49 255
0.884385 0.236895 5.66102 0 0 0 73 78 74 255
-1.75956 0.441144 4.89401 0 0 0 129 100 85 255
-1.78658 0.446904 4.87725 0 0 0 128 93 84 255
-1.69605 0.468833 4.98882 0 0 0 66 43 41 255
1.05383 0.367114 5.67046 0 0 0 52 58 50 255
-1.31024 0.618721 5.29865 0 0 0 47 41 39 255
1.17694 0.430089 5.68069 0 0 0 158 173 124 255
-1.47137 0.627015 5.12814 0 0 0 127 103 80 255
1.9203 0.366296 5.67764 0 0 0 67 94 107 255
0.418347 0.533235 5.60279 0 0 0 42 46 52 255
1.32044 0.500732 5.68599 0 0 0 113 110 114 255
-1.2981 0.720589 5.30283 0 0 0 123 94 82 255
1.3981 0.513161 5.68802 0 0 0 127 128 135 255
-1.48299 0.766335 5.22153 0 0 0 117 93 79 255
1.57172 0.517928 5.69153 0 0 0 99 98 100 255
-0.957346 0.749036 5.41675 0 0 0 124 103 93 255
-0.923011 0.763359 5.41941 0 0 0 67 49 41 255
-0.159192 0.699954 5.54485 0 0 0 69 77 79 255
-1.43626 0.808174 5.28906 0 0 0 61 46 37 255
-1.04482 0.795391 5.39792 0 0 0 67 50 42 255
-0.848883 0.778532 5.44675 0 0 0 120 103 92 255
-1.06121 0.799234 5.39421 0 0 0 77 50 36 255
-1.13514 0.818609 5.37702 0 0 0 60 47 43 255
-1.05335 0.804465 5.39554 0 0 0 58 46 42 255
-0.974322 0.835798 5.41377 0 0 0 71 55 50 255
-1.39988 0.874239 5.29271 0 0 0 60 44 36 255
-1.29456 0.878683 5.31727 0 0 0 59 41 40 255
-1.1344 0.885601 5.37263 0 0 0 60 46 46 255
-1.4771 0.897147 5.16574 0 0 0 142 110 94 255
-1.23784 0.913302 5.33943 0 0 0 74 52 44 255
-1.35086 0.931722 5.30915 0 0 0 57 47 41 255
-0.842299 0.96865 5.44239 0 0 0 79 65 58 255
1.10766 0.812338 5.64934 0 0 0 198 207 208 255
1.50253 0.771886 5.65613 0 0 0 126 134 138 255
-1.21926 1.03007 5.34231 0 0 0 71 56 45 255
1.29426 0.832137 5.66126 0 0 0 103 109 111 255
-1.55158 1.06422 5.1549 0 0 0 125 106 93 255
-1.14027 1.07691 5.35858 0 0 0 67 55 55 255
-1.31783 1.1081 5.33797 0 0 0 121 97 92 255
-1.08308 1.09623 5.39064 0 0 0 80 58 52 255
1.3335 0.890416 5.65936 0 0 0 196 205 204 255
0.3908 0.99776 5.60288 0 0 0 194 205 206 255
-1.57159 1.13579 5.14983 0 0 0 139 127 117 255
-0.983077 1.1319 5.41491 0 0 0 109 86 74 255
-0.858175 1.13217 5.44457 0 0 0 114 92 78 255
-1.13557 1.15403 5.36448 0 0 0 79 58 47 255
-0.911189 1.18428 5.43053 0 0 0 89 76 74 255
1.4126 0.990727 5.61999 0 0 0 95 100 98 255
-1.01516 1.21999 5.40511 0 0 0 101 82 74 255
-0.766994 1.23552 5.47187 0 0 0 122 95 80 255
0.150479 1.20384 5.57841 0 0 0 187 200 201 255
0.322065 1.18967 5.58518 0 0 0 187 196 196 255
-0.837811 1.29398 5.44218 0 0 0 109 86 71 255
-0.899602 1.33584 5.44258 0 0 0 128 108 93 255
-1.0761 1.35894 5.37362 0 0 0 88 62 52 255
-0.85261 1.36881 5.44128 0 0 0 92 75 63 255
-1.04172 1.37856 5.38085 0 0 0 119 104 91 255
-0.987214 1.3927 5.38708 0 0 0 75 64 61 255
-0.872234 1.39428 5.43547 0 0 0 104 87 79 255
-0.797162 1.4147 5.44432 0 0 0 108 87 78 255
-0.347192 1.44127 5.51886 0 0 0 131 110 95 255
-0.904746 1.55247 5.4043 0 0 0 73 66 64 255
-0.727249 1.55734 5.45213 0 0 0 144 110 99 255
-0.809183 1.56861 5.43762 0 0 0 143 120 107 255
-0.76573 1.67822 5.4522 0 0 0 138 117 101 255
-1.29799 1.68191 5.27699 0 0 0 180 140 122 255
-0.852987 1.70017 5.41168 0 0 0 128 113 106 255
-1.56531 -0.582765 4.69451 0 0 0 140 118 100 255
-1.50351 -0.576868 4.77302 0 0 0 153 107 84 255
-1.55127 -0.542614 5.01679 0 0 0 167 153 137 255
-1.44008 -0.539253 4.83506 0 0 0 115 98 89 255
-1.43878 -0.549292 5.08682 0 0 0 153 103 77 255
-1.32297 -0.561989 5.13413 0 0 0 145 107 90 255
-1.14074 -0.563764 5.02958 0 0 0 151 122 109 255
-0.989749 -0.599762 5.28544 0 0 0 150 108 89 255
-0.854467 -0.589204 5.19546 0 0 0 133 118 108 255
-0.367399 -0.676042 5.62619 0 0 0 162 165 162 255
-1.61988 -0.459682 4.72914 0 0 0 141 108 88 255
-1.54326 -0.496935 5.07367 0 0 0 195 180 162 255
-1.41372 -0.498586 4.88059 0 0 0 149 106 89 255
-1.33621 -0.499807 4.94783 0 0 0 196 181 163 255
-1.34482 -0.510704 5.13462 0 0 0 193 180 167 255
-1.58263 -0.466624 5.05337 0 0 0 151 104 80 255
-1.45555 -0.460532 4.86731 0 0 0 198 180 162 255
-1.37823 -0.455469 4.93036 0 0 0 131 111 98 255
-1.16126 -0.4942 5.04713 0 0 0 196 181 163 255
-1.1261 -0.483394 5.06393 0 0 0 151 116 106 255
-0.956251 -0.528962 5.28157 0 0 0 196 182 170 255
-1.53428 -0.415606 4.81938 0 0 0 123 98 79 255
-1.25963 -0.448044 5.00671 0 0 0 174 149 134 255
-0.87258 -0.519243 5.29005 0 0 0 200 182 168 255
-1.45641 -0.418332 4.8921 0 0 0 127 103 93 255
-1.31783 -0.420676 4.98402 0 0 0 168 161 157 255
-0.977698 -0.475858 5.29812 0 0 0 157 104 84 255
-1.10053 -0.455841 5.22186 0 0 0 154 106 88 255
-1.19612 -0.391851 5.0521 0 0 0 148 99 81 255
-1.56959 -0.316562 5.07481 0 0 0 152 106 86 255
-1.40089 -0.328917 4.93785 0 0 0 144 129 117 255
-1.23757 -0.339285 5.19946 0 0 0 151 114 92 255
-1.2832 -0.263633 5.02707 0 0 0 152 134 117 255
-1.14662 -0.257456 5.24843 0 0 0 170 151 141 255
-1.029 -0.291013 5.27772 0 0 0 194 176 159 255
-1.17906 -0.22715 5.23422 0 0 0 146 115 98 255
-0.962834 -0.264101 5.34549 0 0 0 157 114 97 255
-1.45965 -0.1598 4.96579 0 0 0 151 104 83 255
-1.3103 -0.17954 5.20483 0 0 0 157 104 77 255
-1.12724 -0.209544 5.25378 0 0 0 199 181 162 255
-1.35415 -0.147761 5.02027 0 0 0 149 109 85 255
-1.23476 -0.144744 5.22872 0 0 0 147 107 87 255
-1.14888 -0.133875 5.27871 0 0 0 180 149 133 255
-1.11543 -0.153862 5.29537 0 0 0 139 111 95 255
-1.02843 -0.161984 5.31736 0 0 0 148 108 85 255
-0.952837 -0.169358 5.34731 0 0 0 148 107 86 255
-1.57522 -0.00348829 4.92737 0 0 0 86 79 75 255
-1.43067 -0.023273 4.99516 0 0 0 115 105 93 255
-1.36917 -0.00620776 5.21234 0 0 0 121 119 115 255
-1.53988 0.0147577 4.96692 0 0 0 150 146 138 255
-1.39658 0.00759052 5.20478 0 0 0 109 112 101 255
-0.855875 -0.0383285 5.39397 0 0 0 132 123 114 255
0.381505 -0.133783 5.58993 0 0 0 143 157 111 255
-1.61403 0.0319804 5.07619 0 0 0 159 143 133 255
-1.37469 0.00735269 5.20931 0 0 0 141 127 116 255
-1.49442 0.047265 5.16434 0 0 0 67 61 55 255
-1.42486 0.0419752 5.18371 0 0 0 102 93 79 255
-1.08169 0.0144409 5.33081 0 0 0 107 99 87 255
-0.938683 0.000958604 5.37064 0 0 0 125 117 107 255
-0.997669 0.0366362 5.34702 0 0 0 134 126 114 255
0.897932 -0.133161 5.66408 0 0 0 60 73 62 255
-1.66231 0.184824 4.92505 0 0 0 123 117 110 255
-1.65996 0.18891 5.07091 0 0 0 107 68 54 255
-0.415798 0.100875 5.4944 0 0 0 185 170 151 255
-1.21753 0.184269 5.27732 0 0 0 145 95 68 255
-0.992632 0.189199 5.36748 0 0 0 70 62 56 255
-0.916793 0.177721 5.38658 0 0 0 154 144 132 255
-0.0437779 0.157556 5.53189 0 0 0 168 187 140 255
0.797465 0.0929656 5.65271 0 0 0 53 63 58 255
-1.71765 0.329442 4.91575 0 0 0 134 88 69 255
-0.00349809 0.226946 5.5463 0 0 0 69 73 53 255
-1.70489 0.462021 4.97718 0 0 0 74 42 37 255
-1.75591 0.527244 4.9272 0 0 0 69 46 31 255
1.06349 0.362839 5.67362 0 0 0 59 63 59 255
-1.51684 0.652678 5.22144 0 0 0 128 104 80 255
-1.31438 0.616885 5.2972 0 0 0 47 41 39 255
0.606836 0.532328 5.64832 0 0 0 87 88 88 255
-1.37835 0.685497 5.17548 0 0 0 114 90 73 255
-1.29014 0.710965 5.30499 0 0 0 127 97 83 255
1.39109 0.518083 5.68752 0 0 0 114 114 118 255
1.58669 0.515477 5.69671 0 0 0 34 36 38 255
-1.44766 0.771655 5.16321 0 0 0 111 85 69 255
-0.888483 0.776156 5.4269 0 0 0 69 55 51 255
-0.140701 0.725202 5.5456 0 0 0 143 149 152 255
-1.61261 0.842146 5.24351 0 0 0 127 108 89 255
-1.04985 0.801591 5.3961 0 0 0 58 46 42 255
1.63344 0.606033 5.69245 0 0 0 77 83 87 255
1.77112 0.59846 5.69301 0 0 0 80 83 89 255
-1.53533 0.845595 5.13999 0 0 0 143 116 94 255
-1.29448 0.867776 5.31679 0 0 0 66 46 40 255
-0.892376 0.853368 5.42484 0 0 0 68 50 49 255
-0.975126 0.904474 5.41502 0 0 0 78 62 57 255
-1.3901 0.928082 5.21365 0 0 0 64 52 49 255
1.31116 0.757287 5.68025 0 0 0 125 134 137 255
-1.52953 0.973052 5.26914 0 0 0 102 78 62 255
-1.00965 0.974927 5.40157 0 0 0 111 89 75 255
0.692119 0.866601 5.6302 0 0 0 111 115 121 255
1.53622 0.788725 5.65593 0 0 0 192 201 201 255
-1.21808 1.02317 5.34479 0 0 0 72 52 45 255
-0.931531 1.00521 5.42903 0 0 0 78 62 57 255
-1.63589 1.16084 5.17236 0 0 0 75 63 64 255
-1.60711 1.16518 5.21708 0 0 0 146 129 115 255
-0.845673 1.13095 5.44523 0 0 0 107 82 78 255
1.43259 0.988207 5.61719 0 0 0 110 118 124 255
1.47087 0.974 5.61839 0 0 0 194 204 203 255
-1.54749 1.19666 5.17404 0 0 0 112 91 78 255
-1.01817 1.22255 5.40452 0 0 0 96 80 74 255
-1.10898 1.24947 5.37338 0 0 0 69 62 62 255
-0.765077 1.24943 5.46924 0 0 0 99 72 58 255
-0.809545 1.28263 5.44064 0 0 0 102 77 66 255
-1.05067 1.34927 5.38479 0 0 0 72 64 60 255
-0.905726 1.3421 5.4414 0 0 0 94 76 62 255
-0.172041 1.30495 5.55517 0 0 0 60 66 68 255
-0.969745 1.37715 5.39219 0 0 0 89 77 72 255
-0.347093 1.42598 5.51997 0 0 0 132 110 96 255
-0.836217 1.53377 5.43425 0 0 0 87 73 69 255
-0.805685 1.55668 5.43933 0 0 0 142 120 110 255
0.249151 1.49549 5.56744 0 0 0 87 99 97 255
-0.81134 1.68481 5.4286 0 0 0 66 66 68 255
-0.440581 -0.873762 5.3301 0 0 0 203 196 190 255
-1.524 -0.586683 4.74624 0 0 0 195 176 166 255
1.85522 -0.955199 6.14902 0 0 0 96 120 133 255
-1.28991 -0.548003 4.95715 0 0 0 150 129 116 255
-1.16947 -0.562135 5.01929 0 0 0 182 166 153 255
-0.96259 -0.593115 5.25449 0 0 0 163 135 119 255
-0.355676 -0.672491 5.65056 0 0 0 160 162 160 255
-1.49527 -0.475324 4.82606 0 0 0 153 139 126 255
-1.59017 -0.416701 4.7719 0 0 0 159 117 90 255
1.78719 -0.797377 6.14842 0 0 0 167 167 165 255
-1.24881 -0.382244 5.18904 0 0 0 145 110 91 255
-0.968682 -0.264593 5.34024 0 0 0 167 151 139 255
-1.18363 -0.212731 5.22887 0 0 0 153 138 126 255
-1.35693 -0.142042 5.02107 0 0 0 149 109 85 255
0.316994 -0.306198 5.59758 0 0 0 100 102 89 255
-1.28977 -0.0130257 5.08777 0 0 0 90 85 84 255
1.04494 -0.0640037 5.67144 0 0 0 49 57 52 255
-0.429129 0.0856983 5.49211 0 0 0 198 180 163 255
0.928963 -0.0366241 5.65591 0 0 0 119 128 104 255
1.31845 -0.0373229 5.71271 0 0 0 141 153 116 255
-0.0368457 0.167547 5.53073 0 0 0 166 188 139 255
-1.66037 0.344251 4.97339 0 0 0 67 59 55 255
0.756765 0.160958 5.65243 0 0 0 160 176 120 255
0.620311 0.232339 5.63538 0 0 0 55 65 62 255
-0.162725 0.329865 5.51226 0 0 0 155 175 139 255
0.142412 0.294741 5.56554 0 0 0 162 179 125 255
1.50772 0.236003 5.70601 0 0 0 86 96 91 255
-1.44317 0.536248 5.12798 0 0 0 54 40 35 255
0.144355 0.450982 5.57343 0 0 0 158 176 130 255
-0.28099 0.523589 5.53381 0 0 0 87 95 92 255
2.02108 0.302715 5.73236 0 0 0 170 118 75 255
-1.49457 0.62772 5.11738 0 0 0 133 109 87 255
-1.31215 0.642076 5.29836 0 0 0 40 39 38 255
-1.65422 0.690648 5.04826 0 0 0 129 101 80 255
-1.27053 0.701839 5.31239 0 0 0 131 103 82 255
0.0926711 0.703004 5.57221 0 0 0 111 122 123 255
-1.55862 0.838958 5.13093 0 0 0 143 111 86 255
-0.881041 0.854888 5.43192 0 0 0 65 48 43 255
1.05417 0.673268 5.66054 0 0 0 73 80 86 255
1.48819 0.701982 5.66402 0 0 0 194 203 205 255
-0.787299 0.974147 5.45696 0 0 0 113 92 80 255
1.16716 0.839168 5.65412 0 0 0 133 142 143 255
1.32971 0.896304 5.6596 0 0 0 180 187 187 255
0.124764 1.00726 5.57685 0 0 0 150 157 157 255
0.289903 0.994462 5.59205 0 0 0 123 130 134 255
-1.3765 1.14456 5.23901 0 0 0 75 68 68 255
-1.33375 1.13497 5.32976 0 0 0 140 112 92 255
0.0682316 1.06036 5.56615 0 0 0 121 130 133 255
-0.77435 1.25458 5.46653 0 0 0 91 74 71 255
-1.09272 1.31766 5.36908 0 0 0 155 124 102 255
-0.395606 1.45739 5.49952 0 0 0 136 111 97 255
-0.803679 1.56312 5.43881 0 0 0 147 123 108 255
-0.730362 1.54415 5.4544 0 0 0 146 112 106 255
2.02155 1.19897 5.31074 0 0 0 124 95 91 255
-1.55159 -0.493745 4.76974 0 0 0 196 181 163 255
-1.47166 -0.517254 4.8259 0 0 0 129 94 71 255
-1.30709 -0.538587 4.94676 0 0 0 149 106 83 255
-1.20422 -0.565235 5.21328 0 0 0 155 111 95 255
-0.948168 -0.580265 5.15282 0 0 0 151 106 86 255
-0.321632 -0.665247 5.56761 0 0 0 162 163 162 255
-1.31513 -0.437236 4.9783 0 0 0 138 94 75 255
-0.902484 -0.495216 5.28242 0 0 0 153 104 86 255
-1.0974 -0.455118 5.2223 0 0 0 154 106 88 255
-1.20078 -0.399443 5.04779 0 0 0 139 110 99 255
-1.49479 -0.297084 4.89861 0 0 0 144 116 103 255
-1.4635 -0.204838 4.9393 0 0 0 156 105 75 255
-1.16977 -0.258426 5.23828 0 0 0 149 119 101 255
-1.25071 -0.198695 5.22643 0 0 0 163 153 143 255
-1.03115 -0.216584 5.31518 0 0 0 147 109 89 255
-0.958959 -0.251658 5.34476 0 0 0 146 110 98 255
-1.30019 -0.169006 5.21351 0 0 0 154 103 79 255
-1.09485 -0.185012 5.30562 0 0 0 148 108 82 255
0.469355 -0.305766 5.59414 0 0 0 90 99 89 255
0.161309 -0.210759 5.55244 0 0 0 98 102 78 255
-1.63222 0.0172667 4.88546 0 0 0 160 155 149 255
-1.53123 0.00749459 4.97545 0 0 0 109 99 89 255
-1.1814 0.000657291 5.29544 0 0 0 84 68 57 255
-1.10137 -0.00880599 5.31642 0 0 0 71 69 63 255
0.272341 -0.169191 5.57217 0 0 0 165 184 127 255
0.309821 -0.0741198 5.58171 0 0 0 157 168 128 255
1.11588 -0.102197 5.68851 0 0 0 93 102 90 255
0.0466832 0.00619201 5.54299 0 0 0 168 188 136 255
0.248443 -0.0288059 5.56661 0 0 0 126 143 122 255
-1.57926 0.152844 4.96255 0 0 0 39 42 41 255
-1.52176 0.161998 5.00594 0 0 0 44 42 42 255
-1.4814 0.158157 5.0323 0 0 0 54 52 50 255
0.738677 -0.0165379 5.64307 0 0 0 169 186 128 255
-0.895054 0.199621 5.38986 0 0 0 67 64 60 255
1.00565 0.0457308 5.67372 0 0 0 91 102 92 255
0.79625 0.100574 5.65304 0 0 0 57 67 61 255
-0.446355 0.278836 5.48492 0 0 0 117 96 82 255
-0.144106 0.248568 5.51247 0 0 0 164 182 144 255
1.49977 0.106835 5.7149 0 0 0 115 125 103 255
0.630814 0.270232 5.63248 0 0 0 51 63 59 255
1.14013 0.409735 5.67547 0 0 0 160 176 123 255
-1.52441 0.619915 5.09826 0 0 0 136 105 88 255
-1.21029 0.666148 5.33055 0 0 0 139 110 90 255
-1.05768 0.67393 5.40953 0 0 0 42 39 40 255
1.75228 0.463637 5.7195 0 0 0 45 47 53 255
1.92372 0.457173 5.68376 0 0 0 92 124 149 255
-0.400377 0.731536 5.53049 0 0 0 131 103 90 255
-1.56625 0.827592 5.12262 0 0 0 140 107 85 255
1.08061 0.729893 5.66394 0 0 0 194 205 206 255
-1.51207 0.903304 5.15053 0 0 0 57 49 45 255
-0.221995 0.864371 5.54721 0 0 0 76 84 81 255
-1.08568 0.958273 5.38731 0 0 0 77 59 58 255
0.224237 0.889177 5.58335 0 0 0 140 147 147 255
-1.47449 1.04181 5.18656 0 0 0 160 124 99 255
0.662866 0.978066 5.62435 0 0 0 197 205 206 255
-1.59486 1.11726 5.13896 0 0 0 65 60 59 255
-0.261773 1.10254 5.54675 0 0 0 164 197 164 255
1.4832 0.949352 5.59543 0 0 0 195 202 202 255
0.708861 1.12452 5.60905 0 0 0 95 103 103 255
1.51236 1.02144 5.5747 0 0 0 192 197 196 255
-0.771563 1.30429 5.45061 0 0 0 155 132 115 255
-0.818065 1.49097 5.44625 0 0 0 164 133 112 255
-0.260755 -0.666077 5.44827 0 0 0 159 164 163 255
1.86804 -0.939112 6.1566 0 0 0 85 125 146 255
-0.36873 -0.578893 5.4488 0 0 0 43 46 45 255
1.847 -0.702704 5.92364 0 0 0 53 53 53 255
-1.03803 -0.250227 5.31053 0 0 0 157 115 97 255
1.24477 -0.454692 5.91626 0 0 0 165 185 132 255
0.570924 -0.226548 5.61442 0 0 0 78 88 82 255
0.527328 -0.146004 5.6082 0 0 0 69 77 72 255
1.10131 -0.195803 5.6894 0 0 0 100 109 95 255
1.24708 -0.274116 5.71586 0 0 0 166 184 123 255
0.917097 -0.187721 5.6708 0 0 0 89 97 81 255
0.00600327 -0.0618834 5.53379 0 0 0 172 192 138 255
1.16754 -0.096394 5.69286 0 0 0 55 66 63 255
0.179313 0.0507509 5.55382 0 0 0 64 76 72 255
0.584054 -0.00100719 5.62341 0 0 0 47 55 50 255
0.86544 0.138031 5.65816 0 0 0 88 96 89 255
1.44029 0.0938953 5.7129 0 0 0 91 100 93 255
0.00155684 0.322107 5.54102 0 0 0 52 59 59 255
0.717363 0.408635 5.63934 0 0 0 151 162 120 255
-1.0573 0.671275 5.40961 0 0 0 51 41 37 255
-1.04287 0.873168 5.40239 0 0 0 152 119 96 255
-0.326473 0.8758 5.53911 0 0 0 58 61 60 255
0.514454 0.771739 5.62421 0 0 0 198 207 208 255
1.08056 0.767384 5.65795 0 0 0 196 205 208 255
1.37043 0.739862 5.67276 0 0 0 196 205 204 255
1.67745 0.722342 5.68003 0 0 0 160 168 172 255
0.0787791 1.0535 5.56826 0 0 0 132 139 140 255
-0.744233 -0.600086 5.34977 0 0 0 159 108 82 255
-1.4627 -0.454493 5.09487 0 0 0 187 175 164 255
-1.38914 -0.457825 5.12334 0 0 0 181 170 158 255
-1.36168 -0.458574 5.13597 0 0 0 177 163 149 255
-0.991047 -0.472291 5.28244 0 0 0 147 123 113 255
-1.59009 -0.32382 5.06696 0 0 0 143 115 98 255
-1.25853 -0.166376 5.22744 0 0 0 193 181 165 255
-1.31828 -0.0162882 5.2381 0 0 0 193 181 160 255
-1.52892 0.0102454 5.15279 0 0 0 78 72 60 255
0.104421 -0.116403 5.54788 0 0 0 130 140 109 255
-1.57908 0.0186415 5.13213 0 0 0 89 81 77 255
-1.46575 0.0121648 5.17898 0 0 0 120 112 102 255
-1.15191 -0.00920773 5.29206 0 0 0 150 141 134 255
-0.966803 -0.0155308 5.35341 0 0 0 95 89 81 255
-1.01879 -0.0105359 5.33452 0 0 0 80 78 73 255
-0.771722 -0.0277104 5.40249 0 0 0 130 121 107 255
-0.967799 -0.00786751 5.35389 0 0 0 96 92 87 255
-1.33851 0.0411265 5.22261 0 0 0 128 121 111 255
-1.32056 0.0386217 5.23169 0 0 0 187 179 167 255
-1.0177 0.0151737 5.33333 0 0 0 91 83 76 255
-1.22277 0.0352473 5.25974 0 0 0 154 147 139 255
-0.77108 0.0132605 5.39757 0 0 0 115 105 97 255
-0.922627 0.0313419 5.3602 0 0 0 195 179 164 255
-0.81267 0.0219941 5.38992 0 0 0 83 72 61 255
-0.847941 0.161788 5.39714 0 0 0 146 139 135 255
-0.931163 0.193328 5.37582 0 0 0 152 140 131 255
0.762438 0.0731057 5.64648 0 0 0 128 138 110 255
-0.848477 0.191745 5.39638 0 0 0 163 157 151 255
1.27985 0.103146 5.7037 0 0 0 88 101 90 255
1.32906 0.163906 5.69201 0 0 0 72 89 77 255
-0.044248 0.33862 5.54447 0 0 0 57 67 61 255
1.49886 0.280032 5.70564 0 0 0 78 90 86 255
1.44402 0.312162 5.71143 0 0 0 60 69 55 255
-0.0319424 0.455238 5.54787 0 0 0 96 108 95 255
1.27815 0.41435 5.69464 0 0 0 111 122 96 255
-0.12084 0.526807 5.5335 0 0 0 53 60 61 255
0.909351 0.476478 5.66225 0 0 0 52 59 59 255
0.988185 0.480407 5.66745 0 0 0 43 46 45 255
-0.0376415 0.560515 5.54457 0 0 0 48 54 57 255
-1.502 0.658639 5.2499 0 0 0 120 95 79 255
0.397875 0.547885 5.60134 0 0 0 117 121 122 255
0.426132 0.549992 5.6033 0 0 0 90 89 90 255
0.851866 0.521028 5.64996 0 0 0 66 71 72 255
0.960053 0.515915 5.66327 0 0 0 50 59 61 255
1.39274 0.487827 5.69043 0 0 0 107 109 111 255
0.764438 0.54318 5.64299 0 0 0 77 79 81 255
1.70505 0.479084 5.70886 0 0 0 101 103 106 255
1.66443 0.508461 5.69759 0 0 0 120 138 149 255
1.71475 0.50628 5.70066 0 0 0 127 136 140 255
0.832873 0.590369 5.64042 0 0 0 72 85 87 255
0.719487 0.627546 5.63553 0 0 0 84 91 93 255
0.739139 0.628114 5.6404 0 0 0 110 119 121 255
1.36868 0.586726 5.67564 0 0 0 57 68 71 255
-0.119793 0.727313 5.54747 0 0 0 143 153 153 255
1.41176 0.595958 5.68172 0 0 0 78 76 88 255
0.90559 0.70049 5.65147 0 0 0 132 140 143 255
0.972134 0.695908 5.65106 0 0 0 121 137 138 255
-1.13757 0.867602 5.36391 0 0 0 63 46 39 255
-1.11543 0.872789 5.37089 0 0 0 96 70 57 255
-1.23353 0.88106 5.34172 0 0 0 124 96 76 255
1.73811 0.6746 5.68669 0 0 0 180 187 189 255
0.597508 0.800896 5.61719 0 0 0 159 161 160 255
-1.33794 0.99325 5.31315 0 0 0 74 59 56 255
-0.888203 1.02918 5.4326 0 0 0 117 100 88 255
0.662702 0.911755 5.62224 0 0 0 136 140 139 255
1.43559 0.90686 5.65295 0 0 0 189 198 200 255
1.6138 0.898513 5.65712 0 0 0 161 170 171 255
1.45735 0.92688 5.65468 0 0 0 119 121 122 255
1.48048 0.927131 5.65378 0 0 0 136 142 144 255
1.35185 0.964416 5.64436 0 0 0 169 173 174 255
1.57473 0.94071 5.65745 0 0 0 194 202 200 255
-0.144942 1.11881 5.54593 0 0 0 133 141 134 255
-0.0763943 1.11718 5.5443 0 0 0 194 197 197 255
0.265032 1.09162 5.58151 0 0 0 195 202 201 255
0.108112 1.12535 5.57145 0 0 0 189 197 196 255
1.19325 1.07116 5.63252 0 0 0 145 153 154 255
1.28999 1.05914 5.63643 0 0 0 148 153 154 255
1.25282 1.10721 5.63031 0 0 0 149 161 161 255
1.29636 1.10371 5.63177 0 0 0 174 188 190 255
1.4569 1.08413 5.63321 0 0 0 187 199 197 255
1.41696 1.10237 5.63647 0 0 0 196 202 202 255
0.757716 1.17069 5.61221 0 0 0 144 155 158 255
1.36433 1.11929 5.63059 0 0 0 97 95 96 255
1.30356 1.1487 5.62992 0 0 0 169 177 183 255
1.50302 1.1363 5.62717 0 0 0 165 170 171 255
1.69166 1.12301 5.62346 0 0 0 154 166 171 255
1.64216 1.13182 5.62045 0 0 0 143 155 160 255
1.64811 1.1767 5.61131 0 0 0 163 169 171 255
1.47958 1.19634 5.61519 0 0 0 136 147 148 255
-1.38705 1.43453 5.31792 0 0 0 158 127 104 255
-0.914228 1.42486 5.41848 0 0 0 129 106 91 255
-0.617683 1.66777 5.45546 0 0 0 134 110 104 255
-0.747085 -0.600569 5.34778 0 0 0 159 108 82 255
-1.19441 -0.524118 5.19532 0 0 0 196 180 165 255
-1.21717 -0.484012 5.18973 0 0 0 196 180 165 255
-1.11935 -0.475363 5.22721 0 0 0 139 111 98 255
-0.892887 -0.459532 5.31297 0 0 0 173 149 137 255
-1.16001 -0.270771 5.25381 0 0 0 158 131 113 255
-1.43854 0.0119205 5.18305 0 0 0 80 74 68 255
1.50886 -0.205738 5.73379 0 0 0 124 135 107 255
-0.870048 0.00426226 5.37704 0 0 0 76 72 70 255
-0.777334 -0.00128598 5.39931 0 0 0 135 126 121 255
1.27099 -0.142359 5.71272 0 0 0 95 108 91 255
1.51211 -0.110371 5.73344 0 0 0 116 125 103 255
1.31758 0.0737804 5.70403 0 0 0 115 122 104 255
1.36125 0.271888 5.71724 0 0 0 91 102 91 255
0.455645 0.551731 5.62109 0 0 0 80 82 90 255
0.791958 0.52506 5.6441 0 0 0 101 112 116 255
1.1162 0.535145 5.6519 0 0 0 85 87 91 255
-1.23928 0.881679 5.34043 0 0 0 124 96 76 255
-0.846208 0.865098 5.43034 0 0 0 92 69 63 255
0.142357 1.00207 5.57663 0 0 0 132 137 138 255
1.61074 0.897739 5.65946 0 0 0 161 170 171 255
1.45691 0.929797 5.65381 0 0 0 120 123 124 255
1.35236 0.963276 5.64511 0 0 0 188 195 195 255
0.0433133 1.08862 5.55813 0 0 0 123 130 132 255
1.40391 1.05692 5.64006 0 0 0 87 95 96 255
1.45419 1.08554 5.63366 0 0 0 187 197 195 255
1.49401 1.13609 5.62664 0 0 0 133 138 139 255
1.46185 1.19811 5.61631 0 0 0 133 142 143 255
1.63459 1.18086 5.61138 0 0 0 146 154 156 255
-0.697639 1.66928 5.45404 0 0 0 131 110 101 255
-1.11332 -0.544674 5.22223 0 0 0 141 93 77 255
-1.54389 -0.424232 5.05634 0 0 0 177 151 132 255
-0.880135 -0.464357 5.31677 0 0 0 148 104 85 255
-1.23892 -0.353983 5.20086 0 0 0 174 161 147 255
-1.3379 -0.286928 5.18209 0 0 0 199 182 164 255
-1.16796 -0.277066 5.2504 0 0 0 193 178 160 255
-1.10861 -0.258586 5.28226 0 0 0 161 136 123 255
-1.17087 -0.193022 5.24868 0 0 0 142 96 75 255
0.297608 -0.209939 5.57848 0 0 0 167 182 129 255
-1.15873 -0.0231083 5.29973 0 0 0 112 104 94 255
-1.08127 -0.0239327 5.32063 0 0 0 139 130 110 255
-0.90782 0.00365414 5.36394 0 0 0 101 94 85 255
-0.873762 0.00359512 5.37661 0 0 0 76 72 70 255
0.193319 -0.0705227 5.56457 0 0 0 141 152 126 255
-0.848336 0.18509 5.39491 0 0 0 161 157 154 255
-1.72624 0.340909 5.11338 0 0 0 58 52 45 255
0.902219 0.235952 5.66127 0 0 0 59 70 66 255
0.977827 0.248116 5.67114 0 0 0 100 108 89 255
-0.180098 0.344197 5.50747 0 0 0 136 144 122 255
0.864756 0.293409 5.65539 0 0 0 123 133 112 255
1.36655 0.272725 5.72132 0 0 0 91 102 91 255
1.43241 0.345843 5.70253 0 0 0 151 163 116 255
-0.298098 0.53241 5.53232 0 0 0 90 94 94 255
0.363794 0.527055 5.56311 0 0 0 128 135 135 255
0.549287 0.542807 5.58611 0 0 0 103 108 115 255
1.18084 0.506333 5.67388 0 0 0 126 129 129 255
1.7061 0.481701 5.70338 0 0 0 101 103 106 255
-1.41042 0.729195 5.28621 0 0 0 92 76 63 255
-0.837784 0.796438 5.43884 0 0 0 143 117 96 255
-1.26591 0.824215 5.33353 0 0 0 124 96 81 255
0.769766 0.728015 5.63776 0 0 0 171 177 180 255
-1.01629 0.881649 5.39785 0 0 0 156 123 101 255
-0.849095 0.863463 5.43101 0 0 0 82 58 54 255
1.72059 0.65865 5.68629 0 0 0 65 67 69 255
1.49459 0.751822 5.6718 0 0 0 134 137 137 255
0.591198 0.959279 5.61665 0 0 0 130 139 143 255
0.549356 1.02355 5.60491 0 0 0 143 148 147 255
1.55619 0.939789 5.65758 0 0 0 195 202 200 255
-0.149193 1.09115 5.545 0 0 0 131 141 135 255
0.355875 1.04661 5.59056 0 0 0 178 187 189 255
1.72276 0.954813 5.64291 0 0 0 160 158 159 255
-0.288397 1.13836 5.53214 0 0 0 165 192 169 255
-0.0750013 1.13466 5.54412 0 0 0 166 169 169 255
1.50495 1.0335 5.63837 0 0 0 192 201 203 255
1.63905 1.13613 5.61939 0 0 0 145 151 152 255
-0.550116 1.57648 5.47706 0 0 0 159 130 113 255
-1.12645 1.63481 5.37979 0 0 0 160 142 127 255
-1.09405 1.63879 5.39155 0 0 0 146 127 115 255
-0.897264 1.64571 5.40608 0 0 0 129 111 97 255
-1.57249 -0.507579 5.02651 0 0 0 153 129 115 255
-0.77633 -0.594877 5.34287 0 0 0 156 134 128 255
1.50957 -0.0947978 5.73379 0 0 0 114 122 101 255
-1.30813 0.163979 5.2563 0 0 0 41 38 39 255
-0.702931 0.146359 5.4049 0 0 0 50 48 48 255
0.0639774 0.284746 5.56145 0 0 0 64 79 74 255
0.730644 0.276475 5.64179 0 0 0 167 183 127 255
1.13271 0.390828 5.67968 0 0 0 159 177 123 255
0.158226 0.485845 5.57806 0 0 0 53 54 51 255
-1.4359 0.750665 5.27977 0 0 0 115 92 76 255
1.72601 0.687426 5.6819 0 0 0 179 184 185 255
1.29873 0.789766 5.66425 0 0 0 116 127 130 255
-1.41417 1.04276 5.29312 0 0 0 138 114 95 255
1.50736 0.875478 5.65751 0 0 0 99 106 110 255
-0.28924 1.0775 5.53675 0 0 0 163 191 171 255
-0.128785 1.21204 5.53886 0 0 0 134 135 135 255
0.429735 1.16898 5.58976 0 0 0 182 186 187 255
-1.07619 1.30325 5.37914 0 0 0 161 135 113 255
1.3019 1.1714 5.62506 0 0 0 178 180 182 255
1.63631 1.13633 5.61838 0 0 0 145 151 152 255
-0.360855 1.41494 5.51116 0 0 0 134 113 102 255
-0.54702 1.56391 5.47953 0 0 0 156 129 111 255
0.487177 1.4826 5.54907 0 0 0 87 99 97 255
-1.11502 1.63925 5.38465 0 0 0 158 140 125 255
-1.44879 -0.486315 5.0938 0 0 0 156 142 128 255
-1.50181 -0.456592 5.07886 0 0 0 160 130 114 255
-1.5376 -0.183108 5.11954 0 0 0 146 128 111 255
-0.946212 -0.19091 5.3411 0 0 0 148 108 87 255
-1.24529 -0.167604 5.23062 0 0 0 162 131 113 255
-1.0199 -0.189658 5.31407 0 0 0 150 110 85 255
0.49755 -0.293072 5.60311 0 0 0 74 84 80 255
0.782094 -0.00982334 5.64907 0 0 0 167 185 125 255
0.155392 0.102732 5.56079 0 0 0 81 87 80 255
0.608181 0.0825726 5.63472 0 0 0 55 63 60 255
0.00289869 0.25883 5.54588 0 0 0 89 99 89 255
0.721079 0.229422 5.65772 0 0 0 164 181 125 255
-1.69531 0.425334 5.12509 0 0 0 50 36 34 255
0.207514 0.308366 5.57465 0 0 0 62 69 64 255
0.641663 0.313135 5.62892 0 0 0 57 66 63 255
0.919273 0.281021 5.66218 0 0 0 157 168 121 255
-1.50915 0.563612 5.2454 0 0 0 49 40 38 255
1.13983 0.35725 5.68779 0 0 0 157 175 124 255
1.26856 0.811299 5.65662 0 0 0 109 113 114 255
-1.49265 1.05008 5.27653 0 0 0 172 140 114 255
-1.44937 1.04148 5.28255 0 0 0 162 136 113 255
-0.283881 1.08519 5.54278 0 0 0 167 197 169 255
0.651568 0.959104 5.62144 0 0 0 195 207 206 255
-1.32407 1.18621 5.32983 0 0 0 145 118 95 255
1.41389 1.03222 5.64398 0 0 0 98 100 102 255
1.61865 1.0057 5.6503 0 0 0 91 95 97 255
-0.314994 1.23008 5.50898 0 0 0 51 52 52 255
-0.0638151 1.19858 5.53706 0 0 0 197 204 203 255
0.589921 1.2744 5.59302 0 0 0 162 171 172 255
1.23345 -0.41982 5.71417 0 0 0 168 187 126 255
0.547413 -0.250235 5.60851 0 0 0 79 89 84 255
0.589606 -0.0219191 5.6296 0 0 0 52 59 57 255
-1.14689 0.196648 5.29271 0 0 0 38 38 36 255
0.130574 0.204308 5.56342 0 0 0 153 173 125 255
-0.158523 0.312482 5.51533 0 0 0 156 176 148 255
1.34346 0.35287 5.71024 0 0 0 165 181 124 255
1.14453 0.455221 5.69097 0 0 0 57 56 51 255
-1.62678 0.644111 5.18401 0 0 0 139 111 90 255
0.783313 0.752175 5.63637 0 0 0 165 174 175 255
-1.14813 0.966192 5.36053 0 0 0 104 84 71 255
1.46534 0.873451 5.65439 0 0 0 102 105 104 255
1.42284 0.977606 5.64693 0 0 0 130 134 135 255
1.86963 -0.98871 6.00358 0 0 0 119 127 133 255
-0.452629 -0.928315 5.78771 0 0 0 73 64 64 255
1.90415 -0.937825 5.9064 0 0 0 107 113 114 255
-0.481357 -0.89456 5.73897 0 0 0 215 207 207 255
-0.482035 -0.885691 5.74345 0 0 0 210 211 208 255
1.81984 -0.847048 6.11309 0 0 0 162 166 167 255
1.86646 -0.813435 5.94569 0 0 0 147 125 105 255
-0.415901 -0.73794 5.77183 0 0 0 152 154 156 255
-0.446243 -0.717926 5.68205 0 0 0 165 170 169 255
-0.438691 -0.680209 5.59382 0 0 0 143 138 133 255
-0.992789 -0.626201 5.33228 0 0 0 186 153 148 255
-1.08214 -0.5011 5.29005 0 0 0 195 182 169 255
-0.794581 -0.505951 5.40588 0 0 0 198 179 166 255
-0.792039 -0.490709 5.40584 0 0 0 179 154 141 255
-2.53305 -0.768264 7.5811 0 0 0 156 117 103 255
2.84904 -0.421997 5.92527 0 0 0 189 146 114 255
2.5701 -0.402792 5.88856 0 0 0 192 168 157 255
2.68643 -0.405393 5.91236 0 0 0 194 163 145 255
2.91208 -0.396425 5.92977 0 0 0 208 168 144 255
2.63099 -0.375164 5.90132 0 0 0 180 130 93 255
2.73731 -0.370158 5.91958 0 0 0 190 161 147 255
2.7963 -0.369307 5.92041 0 0 0 206 159 129 255
2.66725 -0.347831 5.91099 0 0 0 165 151 147 255
2.63134 -0.336834 5.90401 0 0 0 196 189 189 255
0.613483 -0.264957 5.57554 0 0 0 117 134 99 255
2.76674 -0.314322 5.92195 0 0 0 175 129 96 255
2.57353 -0.292081 5.89941 0 0 0 189 160 145 255
2.68737 -0.29593 5.9184 0 0 0 202 166 147 255
2.79804 -0.294237 5.91702 0 0 0 198 194 193 255
2.84877 -0.29925 5.92197 0 0 0 195 190 192 255
2.74348 -0.291201 5.92546 0 0 0 194 188 188 255
-1.06553 -0.180881 5.34771 0 0 0 192 176 161 255
-0.95445 -0.185355 5.39427 0 0 0 170 132 122 255
0.679381 -0.218369 5.58674 0 0 0 130 144 98 255
1.01494 -0.225147 5.62636 0 0 0 53 71 60 255
0.897815 -0.20489 5.61315 0 0 0 150 162 112 255
0.180192 -0.166579 5.51096 0 0 0 84 92 89 255
0.885671 -0.184256 5.61242 0 0 0 141 149 124 255
2.70401 -0.203868 5.89819 0 0 0 202 194 194 255
0.657683 -0.134257 5.58981 0 0 0 83 94 70 255
0.870781 -0.107016 5.62354 0 0 0 78 85 57 255
2.81693 -0.144545 5.91251 0 0 0 176 129 103 255
2.85145 -0.145098 5.91033 0 0 0 198 195 196 255
2.80313 -0.141053 5.91821 0 0 0 170 138 115 255
-1.09127 -0.034587 5.3711 0 0 0 94 81 67 255
2.66629 -0.124338 5.88535 0 0 0 209 186 179 255
2.70531 -0.127303 5.89633 0 0 0 206 191 184 255
2.84934 -0.126204 5.90943 0 0 0 198 197 196 255
2.67805 -0.101059 5.88998 0 0 0 157 149 145 255
2.78892 -0.0920071 5.91397 0 0 0 175 129 104 255
-0.820904 0.00415175 5.45136 0 0 0 158 153 153 255
2.68173 -0.0693928 5.89323 0 0 0 183 130 91 255
-0.0815521 0.00774932 5.50517 0 0 0 152 167 130 255
0.830777 -0.0148353 5.6149 0 0 0 157 168 126 255
2.70808 -0.047863 5.90048 0 0 0 200 200 200 255
2.83713 -0.050415 5.90871 0 0 0 202 190 186 255
0.815057 0.000592537 5.61368 0 0 0 129 147 105 255
0.658734 0.0587561 5.61529 0 0 0 130 141 114 255
0.788117 0.0565402 5.61223 0 0 0 132 144 99 255
1.04079 0.0512951 5.64225 0 0 0 94 108 92 255
1.16163 0.0566837 5.67469 0 0 0 77 86 85 255
0.998187 0.0932422 5.64316 0 0 0 95 106 96 255
-0.181944 0.199538 5.51282 0 0 0 115 126 112 255
2.86879 0.136716 5.9064 0 0 0 209 166 122 255
2.91274 0.134304 5.90835 0 0 0 198 166 128 255
0.934411 0.201019 5.64107 0 0 0 86 93 90 255
1.02322 0.253245 5.65809 0 0 0 83 93 85 255
-0.119808 0.370154 5.53949 0 0 0 127 140 119 255
0.911188 0.403347 5.65176 0 0 0 84 90 76 255
0.532028 0.498232 5.59063 0 0 0 93 104 108 255
0.356789 0.506572 5.66908 0 0 0 66 74 83 255
0.480975 0.498638 5.61017 0 0 0 104 106 106 255
2.32823 0.497094 5.82968 0 0 0 147 96 71 255
0.0726352 0.556411 5.54776 0 0 0 139 137 141 255
1.22813 0.54013 5.73007 0 0 0 79 92 101 255
2.48632 0.557994 5.84296 0 0 0 155 102 62 255
2.94058 0.568192 5.86323 0 0 0 118 142 152 255
1.61826 0.597717 5.71582 0 0 0 72 80 87 255
2.98729 0.597848 5.84468 0 0 0 160 143 119 255
0.529983 0.835743 5.64129 0 0 0 165 170 174 255
2.93471 0.781326 5.81239 0 0 0 158 167 171 255
0.000689621 0.965228 5.60086 0 0 0 134 140 143 255
-0.767339 1.00638 5.51354 0 0 0 112 90 80 255
0.461823 1.02762 5.64897 0 0 0 165 170 172 255
1.43598 1.11065 5.72087 0 0 0 138 142 145 255
1.61242 1.16708 5.72987 0 0 0 79 81 81 255
1.57621 1.17946 5.71792 0 0 0 100 99 102 255
0.00481353 1.37213 5.64348 0 0 0 119 128 120 255
-0.944777 1.40221 5.38457 0 0 0 139 129 121 255
2.94678 1.27623 5.61784 0 0 0 165 170 172 255
2.23425 1.38658 5.7717 0 0 0 183 131 123 255
2.44306 1.38816 5.75701 0 0 0 195 171 170 255
2.4912 1.38698 5.75869 0 0 0 182 142 135 255
2.52209 1.37668 5.75034 0 0 0 197 154 146 255
2.65041 1.36577 5.70836 0 0 0 192 159 149 255
