ply
format ascii 1.0
comment VCGLIB generated
element vertex 1010
property float x
property float y
property float z
property float nx
property float ny
property float nz
property uchar red
property uchar green
property uchar blue
property uchar alpha
element face 0
property list uchar int vertex_indices
end_header
0.143633 -0.22625 5.54482 0 0 0 153 173 126 255
0.12931 -0.199768 5.54351 0 0 0 117 135 95 255
0.324741 -0.208494 5.56483 0 0 0 131 145 113 255
1.24754 -0.207113 5.6614 0 0 0 72 83 69 255
1.06664 -0.202557 5.6299 0 0 0 129 138 118 255
0.642479 -0.191782 5.60317 0 0 0 79 99 85 255
0.116539 -0.169911 5.54139 0 0 0 151 164 127 255
0.386405 -0.181485 5.57172 0 0 0 76 90 66 255
1.51483 -0.177374 5.67215 0 0 0 114 131 112 255
0.952731 -0.17076 5.63095 0 0 0 103 117 103 255
0.640745 -0.159231 5.60453 0 0 0 111 125 111 255
0.163834 -0.144006 5.55347 0 0 0 133 147 130 255
0.412116 -0.146077 5.57571 0 0 0 127 138 113 255
1.01155 -0.139795 5.6321 0 0 0 138 156 128 255
0.313495 -0.125174 5.57035 0 0 0 140 152 119 255
0.17582 -0.120827 5.5557 0 0 0 90 104 88 255
0.962829 -0.111556 5.63219 0 0 0 150 164 132 255
1.01318 -0.111506 5.63201 0 0 0 128 143 124 255
1.04184 -0.111815 5.63463 0 0 0 90 102 79 255
0.3589 -0.0961646 5.57385 0 0 0 87 94 83 255
0.115038 -0.087429 5.55103 0 0 0 154 169 130 255
1.07599 -0.0913955 5.63967 0 0 0 56 63 61 255
0.675362 -0.0763593 5.61226 0 0 0 105 119 98 255
0.0788169 -0.0589392 5.54742 0 0 0 128 150 111 255
0.223129 -0.0634958 5.56317 0 0 0 53 65 62 255
-0.831803 -0.0353729 5.48978 0 0 0 193 180 165 255
0.281121 -0.0375868 5.57037 0 0 0 65 79 50 255
0.366455 -0.0390179 5.57588 0 0 0 119 129 112 255
1.51708 -0.0377558 5.67582 0 0 0 112 124 105 255
-0.816145 -0.0343422 5.50551 0 0 0 127 119 111 255
0.196095 -0.0355938 5.56073 0 0 0 146 156 135 255
0.334609 -0.0320515 5.57466 0 0 0 85 99 62 255
-0.198621 -0.0266288 5.51887 0 0 0 144 151 146 255
0.652473 -0.0233477 5.61364 0 0 0 60 75 68 255
1.44081 -0.00602103 5.68054 0 0 0 131 143 127 255
1.49536 -0.0117551 5.67553 0 0 0 65 77 70 255
-0.117515 -0.011846 5.53385 0 0 0 135 148 125 255
0.310145 -0.00858165 5.57227 0 0 0 149 164 129 255
0.0845257 -1.57837e-06 5.55067 0 0 0 89 97 80 255
-0.835334 0.0150413 5.51832 0 0 0 188 180 172 255
-0.822207 0.00943726 5.55186 0 0 0 137 131 125 255
1.5195 0.0193252 5.67787 0 0 0 133 141 122 255
-0.138637 0.0230208 5.53791 0 0 0 91 106 101 255
-0.0730008 0.0242006 5.53513 0 0 0 98 105 87 255
0.0972021 0.0242298 5.55337 0 0 0 159 177 135 255
1.29974 0.0275268 5.66508 0 0 0 142 156 131 255
-0.195945 0.0289208 5.52204 0 0 0 148 153 147 255
1.05006 0.0269794 5.64374 0 0 0 89 101 91 255
1.33187 0.0268927 5.66546 0 0 0 143 153 118 255
-0.115604 0.0401622 5.53343 0 0 0 127 141 109 255
0.644398 0.0361954 5.61316 0 0 0 117 134 117 255
0.797068 0.0400866 5.62284 0 0 0 143 158 113 255
-0.0953856 0.0517927 5.53535 0 0 0 149 163 147 255
0.0568887 0.0406439 5.55123 0 0 0 132 148 124 255
0.0968229 0.0500669 5.55523 0 0 0 143 160 123 255
-0.0904219 0.0634445 5.5365 0 0 0 156 179 137 255
0.846424 0.0626476 5.62464 0 0 0 122 135 120 255
1.02371 0.0611093 5.64291 0 0 0 112 124 106 255
0.678392 0.0758395 5.61733 0 0 0 149 171 132 255
1.33251 0.077976 5.66671 0 0 0 126 134 116 255
1.51913 0.071716 5.68118 0 0 0 112 124 109 255
-0.0730549 0.085746 5.54228 0 0 0 146 160 128 255
0.00163796 0.0833934 5.55158 0 0 0 136 148 131 255
1.24195 0.0817385 5.67055 0 0 0 82 101 93 255
-0.404579 0.0920844 5.51849 0 0 0 190 182 171 255
-0.199122 0.0853811 5.52287 0 0 0 148 159 143 255
-0.0991344 0.0954966 5.5423 0 0 0 157 171 143 255
0.05845 0.0892224 5.55533 0 0 0 146 159 132 255
0.766916 0.114449 5.62684 0 0 0 149 159 127 255
1.30071 0.107471 5.66832 0 0 0 147 160 126 255
0.622981 0.128873 5.62187 0 0 0 150 167 126 255
0.108835 0.135253 5.56186 0 0 0 110 126 109 255
-0.112081 0.14112 5.54294 0 0 0 136 149 140 255
-0.0507535 0.137193 5.54954 0 0 0 169 182 159 255
0.031901 0.134852 5.55372 0 0 0 143 151 128 255
0.59604 0.137033 5.61426 0 0 0 70 81 75 255
1.3271 0.133374 5.66718 0 0 0 128 144 115 255
-0.157638 0.144831 5.53587 0 0 0 121 135 117 255
0.00437554 0.141029 5.55171 0 0 0 65 86 84 255
0.0919563 0.141996 5.56143 0 0 0 111 125 109 255
0.14798 0.143524 5.56983 0 0 0 73 84 74 255
-0.189234 0.149238 5.53201 0 0 0 142 156 138 255
0.235779 0.156748 5.5812 0 0 0 130 139 127 255
0.516113 0.15633 5.6113 0 0 0 112 123 108 255
0.564474 0.154868 5.61235 0 0 0 119 131 117 255
0.28673 0.160152 5.58255 0 0 0 109 127 118 255
0.482577 0.165245 5.60562 0 0 0 100 123 114 255
-0.762684 0.155748 5.11439 0 0 0 168 163 158 255
-0.0989974 0.17402 5.54953 0 0 0 66 77 67 255
-0.768531 0.174005 5.12886 0 0 0 168 162 155 255
0.566683 0.186255 5.61266 0 0 0 97 117 108 255
1.10222 0.191157 5.65465 0 0 0 60 74 73 255
0.234168 0.193102 5.58139 0 0 0 123 139 109 255
-0.139185 0.203906 5.5409 0 0 0 77 97 88 255
0.628499 0.201347 5.62248 0 0 0 108 123 100 255
0.029657 0.215256 5.56307 0 0 0 96 108 94 255
0.197026 0.225629 5.5778 0 0 0 85 94 64 255
-0.408947 0.234846 5.54421 0 0 0 114 102 94 255
-0.103466 0.230108 5.54981 0 0 0 162 175 152 255
0.0561214 0.233072 5.56895 0 0 0 134 153 133 255
0.486504 0.238529 5.61298 0 0 0 86 99 92 255
0.0679894 0.242334 5.57009 0 0 0 78 89 65 255
0.190834 0.241791 5.57795 0 0 0 162 170 145 255
-0.105157 0.256644 5.55093 0 0 0 123 142 112 255
-0.0781145 0.257081 5.55326 0 0 0 69 92 75 255
0.081007 0.256828 5.57295 0 0 0 78 83 80 255
0.665869 0.266121 5.62939 0 0 0 99 107 86 255
0.100121 0.276308 5.57766 0 0 0 65 89 67 255
0.169924 0.277558 5.57649 0 0 0 92 102 85 255
0.210772 0.27707 5.58098 0 0 0 113 123 106 255
-0.0794095 0.276124 5.55449 0 0 0 142 163 141 255
-0.0181998 0.282419 5.55541 0 0 0 42 62 65 255
1.92463 0.294917 5.7301 0 0 0 115 90 74 255
2.04936 0.316191 5.7665 0 0 0 100 70 54 255
-0.0985356 0.302881 5.55375 0 0 0 131 142 117 255
-0.039457 0.310164 5.55578 0 0 0 99 112 98 255
0.348736 0.327456 5.60337 0 0 0 126 134 116 255
0.677473 0.32457 5.63166 0 0 0 100 113 104 255
0.773575 0.321367 5.63702 0 0 0 152 166 122 255
0.877485 0.323266 5.64974 0 0 0 132 151 120 255
1.45147 0.328541 5.68993 0 0 0 110 119 104 255
2.0557 0.321858 5.78485 0 0 0 71 67 70 255
0.965672 0.343187 5.65395 0 0 0 67 77 71 255
-0.107164 0.34179 5.55579 0 0 0 104 116 98 255
0.0947859 0.364235 5.58301 0 0 0 127 140 130 255
0.655094 0.3689 5.63578 0 0 0 108 121 120 255
0.881637 0.373908 5.65039 0 0 0 132 151 134 255
0.910601 0.372138 5.65412 0 0 0 120 132 115 255
0.965094 0.371721 5.65615 0 0 0 133 145 127 255
1.08369 0.373574 5.66455 0 0 0 58 76 72 255
0.770481 0.373865 5.63992 0 0 0 130 146 132 255
-0.186901 0.376993 5.55511 0 0 0 131 137 128 255
0.632984 0.385998 5.64019 0 0 0 45 65 66 255
-0.0756315 0.394418 5.56296 0 0 0 144 159 150 255
-0.0417534 0.39247 5.56488 0 0 0 133 145 123 255
0.284979 0.393295 5.59712 0 0 0 106 120 117 255
0.353813 0.388333 5.60215 0 0 0 135 155 119 255
1.02403 0.399246 5.66394 0 0 0 133 144 129 255
1.42336 0.393824 5.68625 0 0 0 154 169 123 255
0.881998 0.403713 5.65168 0 0 0 113 130 111 255
0.185985 0.409338 5.58272 0 0 0 121 137 113 255
1.21917 0.426912 5.67423 0 0 0 112 125 91 255
0.0942688 0.420043 5.58614 0 0 0 165 177 155 255
-0.484008 0.423373 5.53754 0 0 0 106 85 74 255
1.02361 0.430905 5.66425 0 0 0 116 135 117 255
1.08061 0.431746 5.66633 0 0 0 150 170 135 255
1.20012 0.435421 5.67429 0 0 0 154 170 126 255
0.773506 0.443384 5.64649 0 0 0 145 158 119 255
-0.0680131 0.45518 5.56507 0 0 0 69 82 75 255
-0.128776 0.462754 5.56647 0 0 0 133 149 139 255
-0.0939009 0.462416 5.56903 0 0 0 153 166 140 255
1.47133 0.470491 5.69886 0 0 0 121 134 138 255
1.51942 0.472559 5.69798 0 0 0 129 142 142 255
1.7094 0.490488 5.78468 0 0 0 80 91 97 255
0.958695 0.477848 5.66177 0 0 0 131 138 141 255
1.4955 0.477941 5.69935 0 0 0 58 51 49 255
1.58411 0.480465 5.69895 0 0 0 90 104 116 255
1.73598 0.481183 5.7065 0 0 0 124 136 144 255
1.77124 0.475473 5.70406 0 0 0 82 97 100 255
1.02747 0.489878 5.6669 0 0 0 86 97 97 255
1.08144 0.483112 5.66575 0 0 0 47 63 65 255
1.24008 0.485996 5.67834 0 0 0 98 109 112 255
1.28375 0.492742 5.68456 0 0 0 120 119 120 255
1.54784 0.484133 5.69971 0 0 0 111 112 112 255
0.741609 0.493438 5.6389 0 0 0 90 102 106 255
1.07178 0.493643 5.6704 0 0 0 123 140 148 255
1.1099 0.490984 5.67723 0 0 0 95 115 123 255
1.15689 0.487038 5.68628 0 0 0 99 112 119 255
1.19568 0.492708 5.67083 0 0 0 110 121 122 255
1.40712 0.492832 5.69002 0 0 0 99 109 115 255
1.57439 0.495508 5.68395 0 0 0 111 122 135 255
1.6789 0.499819 5.69629 0 0 0 51 50 53 255
1.69533 0.497093 5.6879 0 0 0 64 76 86 255
0.216101 0.501167 5.60087 0 0 0 151 158 161 255
0.271198 0.496362 5.60515 0 0 0 112 120 129 255
0.639355 0.49772 5.60635 0 0 0 68 80 90 255
0.665681 0.504377 5.67864 0 0 0 74 86 95 255
0.711763 0.507335 5.64151 0 0 0 125 142 144 255
0.82934 0.497585 5.64983 0 0 0 104 123 128 255
0.936493 0.507442 5.66153 0 0 0 57 56 57 255
0.999162 0.49387 5.6655 0 0 0 112 125 132 255
-0.1494 0.499352 5.56589 0 0 0 68 82 88 255
-0.0895667 0.502839 5.57105 0 0 0 97 103 105 255
0.145567 0.507508 5.58762 0 0 0 83 99 98 255
0.391423 0.509767 5.62513 0 0 0 83 96 103 255
0.487073 0.51318 5.62914 0 0 0 134 147 150 255
0.786077 0.508282 5.64445 0 0 0 117 130 135 255
1.01359 0.513304 5.66497 0 0 0 49 53 59 255
1.49168 0.518652 5.69658 0 0 0 148 152 154 255
1.77098 0.515644 5.71545 0 0 0 144 147 150 255
-0.0290702 0.513654 5.57656 0 0 0 70 87 92 255
0.0152129 0.51741 5.58089 0 0 0 77 100 107 255
0.0661096 0.513202 5.5696 0 0 0 104 115 120 255
0.118005 0.513117 5.58367 0 0 0 129 134 137 255
0.25081 0.51767 5.60371 0 0 0 53 62 69 255
0.312591 0.513214 5.60886 0 0 0 118 126 130 255
0.352933 0.510082 5.60453 0 0 0 128 128 130 255
0.419116 0.515538 5.6006 0 0 0 126 141 147 255
0.468487 0.513718 5.60876 0 0 0 77 95 106 255
0.812405 0.514097 5.65024 0 0 0 43 52 54 255
1.14916 0.528868 5.65868 0 0 0 130 131 133 255
1.41085 0.523876 5.69268 0 0 0 107 118 124 255
1.54971 0.52294 5.69902 0 0 0 111 128 136 255
1.66299 0.528302 5.68258 0 0 0 116 119 119 255
1.69586 0.530317 5.72631 0 0 0 98 100 97 255
1.73572 0.53204 5.70978 0 0 0 82 87 88 255
-0.116062 0.515487 5.56961 0 0 0 155 153 154 255
0.0130228 0.516565 5.57402 0 0 0 77 100 107 255
0.275378 0.518146 5.60584 0 0 0 156 157 160 255
0.564708 0.520209 5.65027 0 0 0 136 143 141 255
0.655885 0.530536 5.64718 0 0 0 43 53 59 255
0.73173 0.530935 5.63995 0 0 0 136 145 144 255
1.20887 0.533647 5.67886 0 0 0 137 135 136 255
1.28046 0.528792 5.68333 0 0 0 119 120 122 255
1.32726 0.531241 5.69233 0 0 0 118 128 134 255
1.59101 0.533231 5.70611 0 0 0 70 76 76 255
-0.0979274 0.528597 5.56892 0 0 0 58 57 58 255
-0.0620658 0.528013 5.57421 0 0 0 131 136 140 255
-0.0295098 0.526322 5.57547 0 0 0 60 78 83 255
0.115607 0.529378 5.58593 0 0 0 48 55 55 255
0.255928 0.53882 5.60504 0 0 0 55 61 68 255
0.517615 0.539769 5.62935 0 0 0 138 145 151 255
0.623248 0.536713 5.63695 0 0 0 127 133 135 255
0.67721 0.534226 5.63499 0 0 0 88 99 101 255
0.921791 0.53808 5.65921 0 0 0 167 174 177 255
1.01871 0.530032 5.66436 0 0 0 48 65 70 255
1.15455 0.539393 5.68251 0 0 0 110 118 122 255
-0.194286 0.546463 5.56068 0 0 0 87 104 100 255
0.0190737 0.542003 5.55204 0 0 0 91 97 104 255
0.179915 0.540664 5.60053 0 0 0 71 83 90 255
0.704703 0.550396 5.64351 0 0 0 93 100 102 255
0.724285 0.544989 5.64503 0 0 0 40 51 62 255
0.743575 0.541373 5.64382 0 0 0 129 137 141 255
0.803285 0.545381 5.64952 0 0 0 101 110 114 255
0.860585 0.545586 5.65517 0 0 0 82 99 105 255
0.942248 0.541582 5.6609 0 0 0 149 152 155 255
0.0087698 0.554315 5.58065 0 0 0 145 142 141 255
0.224373 0.551056 5.60209 0 0 0 126 135 136 255
0.275966 0.549278 5.60662 0 0 0 83 91 97 255
0.315377 0.550828 5.61069 0 0 0 132 137 150 255
0.476089 0.545423 5.60679 0 0 0 75 94 99 255
0.522155 0.548484 5.62963 0 0 0 106 111 118 255
0.659946 0.543887 5.60762 0 0 0 84 108 118 255
-0.115908 0.554693 5.57023 0 0 0 141 141 141 255
-0.0636448 0.556726 5.57238 0 0 0 87 98 113 255
0.151698 0.559289 5.59267 0 0 0 90 104 115 255
-0.0264154 0.56375 5.577 0 0 0 130 136 141 255
0.0347379 0.561078 5.54827 0 0 0 128 134 136 255
1.3428 0.587438 5.68261 0 0 0 104 109 114 255
1.779 0.596788 5.72797 0 0 0 81 90 93 255
1.11609 0.597651 5.67188 0 0 0 94 108 117 255
1.21245 0.602315 5.67931 0 0 0 69 81 93 255
1.44698 0.602144 5.69929 0 0 0 89 98 101 255
1.50509 0.610291 5.69439 0 0 0 92 106 108 255
1.5637 0.607248 5.69467 0 0 0 97 106 111 255
1.72305 0.606085 5.71177 0 0 0 97 107 106 255
1.92584 0.611862 5.74375 0 0 0 124 140 146 255
0.725155 0.61276 5.64516 0 0 0 102 114 120 255
0.941336 0.610873 5.66698 0 0 0 78 93 100 255
1.06192 0.613962 5.67642 0 0 0 99 107 116 255
1.16369 0.618171 5.67963 0 0 0 113 132 139 255
1.25595 0.62071 5.68209 0 0 0 92 107 113 255
1.35306 0.613355 5.6936 0 0 0 105 103 103 255
0.803474 0.600669 5.64357 0 0 0 71 85 92 255
0.885883 0.619567 5.6628 0 0 0 113 118 122 255
0.946753 0.613606 5.66171 0 0 0 79 90 98 255
1.00276 0.619761 5.66859 0 0 0 81 99 108 255
1.01727 0.622754 5.67151 0 0 0 92 101 113 255
0.834245 0.636208 5.66015 0 0 0 56 66 72 255
1.53109 0.676902 5.69805 0 0 0 191 195 200 255
1.72976 0.674326 5.71855 0 0 0 165 173 176 255
1.77288 0.677356 5.72569 0 0 0 102 113 116 255
1.03525 0.685908 5.67557 0 0 0 140 153 156 255
1.0343 0.686732 5.67575 0 0 0 140 153 156 255
0.606832 0.706491 5.64532 0 0 0 169 176 180 255
0.763208 0.700203 5.65666 0 0 0 171 178 181 255
-0.169558 0.72245 5.57613 0 0 0 116 126 130 255
0.792966 0.727939 5.65724 0 0 0 117 125 129 255
1.26201 0.724567 5.69191 0 0 0 147 156 155 255
1.51282 0.758044 5.70711 0 0 0 104 108 112 255
1.40552 0.774365 5.70166 0 0 0 168 177 179 255
0.628763 0.792822 5.64726 0 0 0 147 157 164 255
1.45274 0.807559 5.705 0 0 0 122 125 129 255
1.20026 0.809352 5.685 0 0 0 183 198 200 255
-0.392154 0.794442 5.56837 0 0 0 139 113 101 255
0.0783485 0.806345 5.6031 0 0 0 197 200 202 255
1.54161 0.818449 5.70509 0 0 0 190 200 199 255
0.639163 0.817471 5.65105 0 0 0 181 194 196 255
1.33548 0.828279 5.69955 0 0 0 165 178 183 255
1.04189 0.840674 5.67976 0 0 0 186 196 204 255
1.40474 0.835326 5.69962 0 0 0 134 134 136 255
1.4402 0.841778 5.70369 0 0 0 154 161 162 255
-0.803088 0.839659 5.5871 0 0 0 84 62 58 255
1.52639 0.851957 5.70206 0 0 0 149 164 166 255
-0.751636 0.834684 5.50159 0 0 0 77 61 57 255
-0.675753 0.851583 5.63527 0 0 0 85 81 78 255
0.0813397 0.861442 5.60703 0 0 0 194 200 201 255
0.544223 0.863485 5.64359 0 0 0 189 200 202 255
1.30939 0.875903 5.7001 0 0 0 155 177 181 255
1.05956 0.880138 5.68156 0 0 0 131 135 139 255
1.16242 0.883152 5.68791 0 0 0 194 207 207 255
1.20885 0.877425 5.69086 0 0 0 156 174 181 255
1.39956 0.88122 5.70168 0 0 0 114 120 124 255
-0.387911 0.87326 5.5855 0 0 0 122 110 107 255
0.576467 0.878466 5.64702 0 0 0 196 205 208 255
1.47495 0.897584 5.73275 0 0 0 130 150 156 255
0.462511 0.900969 5.64459 0 0 0 136 140 141 255
0.50376 0.902508 5.64593 0 0 0 191 205 206 255
1.04863 0.909798 5.68152 0 0 0 175 186 187 255
1.12419 0.906154 5.68784 0 0 0 124 129 131 255
1.31215 0.908021 5.70129 0 0 0 100 113 118 255
1.613 0.909736 5.73565 0 0 0 159 167 170 255
1.34674 0.914867 5.70074 0 0 0 191 205 209 255
1.40153 0.919567 5.70557 0 0 0 187 201 205 255
1.43176 0.918269 5.72245 0 0 0 174 181 183 255
1.04759 0.924196 5.68398 0 0 0 173 182 183 255
0.0813934 0.92461 5.60925 0 0 0 194 198 199 255
1.45805 0.936452 5.72159 0 0 0 126 130 137 255
1.4795 0.937483 5.72973 0 0 0 148 156 159 255
-0.325126 0.93415 5.59274 0 0 0 128 150 143 255
-0.284681 0.923947 5.59547 0 0 0 121 137 129 255
0.71274 0.937408 5.66314 0 0 0 191 203 205 255
1.21014 0.941204 5.6897 0 0 0 173 192 196 255
1.57088 0.950117 5.74925 0 0 0 190 203 206 255
-0.187796 0.930865 5.59097 0 0 0 75 82 82 255
0.0100929 0.938398 5.60687 0 0 0 181 192 194 255
0.497238 0.947281 5.64589 0 0 0 163 166 168 255
1.32635 0.961814 5.74269 0 0 0 160 174 176 255
1.08393 0.957816 5.68842 0 0 0 176 185 186 255
1.64927 0.960081 5.71172 0 0 0 183 194 197 255
1.70445 0.964834 5.7342 0 0 0 166 168 169 255
1.15153 0.972801 5.69002 0 0 0 193 202 204 255
1.35016 0.972538 5.71689 0 0 0 183 193 195 255
-0.223248 0.965742 5.59389 0 0 0 162 186 169 255
1.13473 0.975644 5.69094 0 0 0 180 202 206 255
1.57122 0.982845 5.70926 0 0 0 107 109 112 255
-0.0383025 0.974594 5.60731 0 0 0 143 156 159 255
0.0364883 0.97238 5.60699 0 0 0 182 192 196 255
0.0633203 0.973773 5.61149 0 0 0 133 148 155 255
1.17931 0.980517 5.69049 0 0 0 182 186 187 255
1.54206 0.992321 5.71507 0 0 0 191 200 200 255
0.222247 0.988842 5.62781 0 0 0 155 168 171 255
1.06131 0.991017 5.71506 0 0 0 169 184 188 255
1.35078 1.00462 5.73246 0 0 0 100 101 102 255
-0.223302 0.98688 5.59611 0 0 0 162 192 164 255
0.135824 0.992721 5.62098 0 0 0 118 125 128 255
0.322177 1.01272 5.63569 0 0 0 166 177 178 255
0.00247353 1.00815 5.60502 0 0 0 187 196 197 255
0.25226 1.01 5.63145 0 0 0 194 205 208 255
-0.287592 1.03387 5.66859 0 0 0 105 130 119 255
-0.109569 1.02011 5.62399 0 0 0 90 98 100 255
-0.785421 1.02336 5.58937 0 0 0 88 70 63 255
-0.184513 1.02493 5.62042 0 0 0 81 90 89 255
0.701281 1.03212 5.66774 0 0 0 146 159 163 255
1.4367 1.04568 5.72371 0 0 0 88 95 100 255
-0.708933 1.01746 5.50466 0 0 0 123 101 91 255
-0.0328553 1.0318 5.60601 0 0 0 139 156 160 255
0.171563 1.04201 5.62669 0 0 0 124 133 137 255
0.23261 1.03944 5.63225 0 0 0 159 168 172 255
0.368164 1.03675 5.63959 0 0 0 145 158 159 255
0.30702 1.05806 5.63652 0 0 0 164 181 185 255
1.28534 1.07413 5.72185 0 0 0 141 158 166 255
1.49623 1.07184 5.71025 0 0 0 186 202 206 255
-0.763907 1.04564 5.53815 0 0 0 105 91 86 255
0.497927 1.06301 5.65248 0 0 0 163 178 184 255
1.31396 1.08439 5.70382 0 0 0 85 94 98 255
1.44944 1.08842 5.7435 0 0 0 159 168 172 255
-0.19194 1.07572 5.6149 0 0 0 158 184 166 255
1.34705 1.09535 5.70728 0 0 0 154 171 176 255
1.46159 1.106 5.74014 0 0 0 190 203 205 255
0.160004 1.09721 5.6304 0 0 0 173 190 198 255
0.244585 1.10672 5.69101 0 0 0 191 208 213 255
1.29436 1.12192 5.73702 0 0 0 178 192 193 255
1.40087 1.11047 5.71273 0 0 0 188 203 208 255
0.994728 1.11621 5.70764 0 0 0 127 141 145 255
1.25403 1.12547 5.70938 0 0 0 151 163 166 255
1.07005 1.12765 5.6961 0 0 0 143 156 158 255
1.36484 1.14097 5.73962 0 0 0 110 119 120 255
1.69558 1.14293 5.7543 0 0 0 148 159 160 255
-0.0983643 1.12959 5.62483 0 0 0 193 200 202 255
1.02752 1.14981 5.73214 0 0 0 176 187 188 255
-0.167295 1.13274 5.62435 0 0 0 123 143 127 255
0.0869858 1.13889 5.65434 0 0 0 179 199 203 255
1.64747 1.15566 5.75784 0 0 0 162 175 181 255
0.146986 1.1477 5.63018 0 0 0 174 180 183 255
1.08106 1.164 5.74693 0 0 0 158 163 164 255
0.0349383 1.15134 5.6143 0 0 0 187 197 200 255
1.02457 1.17192 5.74221 0 0 0 158 171 173 255
-0.369924 1.19111 5.66754 0 0 0 56 44 36 255
0.847114 1.19178 5.68177 0 0 0 114 116 117 255
-0.193294 1.19028 5.63361 0 0 0 71 83 74 255
0.611292 1.19452 5.68273 0 0 0 190 203 204 255
1.48138 1.21753 5.74029 0 0 0 125 142 150 255
1.60037 1.22136 5.75654 0 0 0 94 104 111 255
-0.161759 1.2068 5.60913 0 0 0 179 185 187 255
0.158292 1.21183 5.64428 0 0 0 183 197 200 255
0.524379 1.22987 5.66445 0 0 0 177 189 191 255
1.77613 1.31302 5.77579 0 0 0 110 115 121 255
0.563147 1.30887 5.66856 0 0 0 176 186 189 255
2.19287 1.40424 5.80843 0 0 0 195 172 173 255
2.30919 1.40247 5.8193 0 0 0 189 133 119 255
-0.194663 1.38525 5.64621 0 0 0 110 126 123 255
2.19131 1.44343 5.82028 0 0 0 191 159 153 255
-0.625955 1.62554 5.65892 0 0 0 149 115 107 255
1.15753 1.69852 5.76147 0 0 0 110 122 126 255
1.12631 1.70482 5.74271 0 0 0 123 138 143 255
0.737717 1.72896 5.76567 0 0 0 59 82 89 255
0.784884 1.70684 5.7316 0 0 0 131 147 152 255
0.90546 1.71855 5.7241 0 0 0 127 144 148 255
0.95497 1.7261 5.75457 0 0 0 105 119 122 255
1.06668 1.72294 5.74814 0 0 0 123 132 136 255
0.829795 1.72185 5.72032 0 0 0 102 120 126 255
0.877423 1.72206 5.72591 0 0 0 122 134 143 255
0.991866 1.73579 5.75516 0 0 0 119 130 139 255
0.768118 1.23809 4.06504 0 0 0 158 153 155 255
-0.36023 1.70207 5.58782 0 0 0 116 110 108 255
0.76495 1.73106 5.70789 0 0 0 74 73 72 255
0.79915 1.72938 5.70863 0 0 0 163 170 174 255
1.89307 -0.905452 5.8803 0 0 0 79 82 82 255
1.80814 -0.809277 6.14376 0 0 0 167 174 175 255
-0.844488 -0.611329 5.45641 0 0 0 147 116 105 255
-0.813274 -0.578513 5.45875 0 0 0 193 177 168 255
1.50415 -0.472253 5.63296 0 0 0 129 139 117 255
0.344246 -0.324562 5.55967 0 0 0 90 104 94 255
0.252336 -0.290558 5.55307 0 0 0 142 158 113 255
0.527879 -0.302841 5.5767 0 0 0 86 96 77 255
1.48569 -0.234757 5.67695 0 0 0 145 157 140 255
0.645045 -0.201928 5.60368 0 0 0 102 120 106 255
1.0587 -0.198381 5.6116 0 0 0 129 138 118 255
0.870321 -0.164307 5.62266 0 0 0 108 112 82 255
0.164915 -0.149479 5.55148 0 0 0 133 147 130 255
0.41266 -0.143802 5.57673 0 0 0 125 136 110 255
0.105623 -0.133899 5.54546 0 0 0 118 126 110 255
0.362729 -0.140906 5.5733 0 0 0 158 177 128 255
0.275686 -0.121483 5.56557 0 0 0 104 115 79 255
0.980629 -0.122094 5.63333 0 0 0 114 124 93 255
0.960223 -0.116619 5.63223 0 0 0 150 164 132 255
0.0956571 -0.0869497 5.54743 0 0 0 167 189 138 255
0.902134 -0.0789499 5.62624 0 0 0 148 162 134 255
0.196144 -0.0365246 5.5607 0 0 0 146 156 135 255
0.279646 -0.0305912 5.57126 0 0 0 79 93 63 255
0.311944 -0.0090853 5.57308 0 0 0 149 164 129 255
0.651419 -0.0216437 5.61307 0 0 0 60 75 68 255
-0.125516 -0.00339508 5.53349 0 0 0 132 144 122 255
1.29974 0.0172749 5.66536 0 0 0 135 147 128 255
-0.0366322 0.0374728 5.53894 0 0 0 155 178 136 255
0.952755 0.0328826 5.64216 0 0 0 45 57 56 255
0.843272 0.0621259 5.62628 0 0 0 122 135 120 255
0.68423 0.0768103 5.61799 0 0 0 148 158 126 255
-0.105853 0.0753443 5.53827 0 0 0 157 181 143 255
1.24419 0.0834808 5.66989 0 0 0 82 101 93 255
1.51154 0.0811622 5.68149 0 0 0 114 126 111 255
0.630843 0.118847 5.6212 0 0 0 118 128 106 255
0.112706 0.131613 5.56116 0 0 0 130 146 129 255
0.759511 0.130319 5.62706 0 0 0 157 173 126 255
0.00697382 0.142894 5.55109 0 0 0 57 78 76 255
1.32352 0.135511 5.66827 0 0 0 112 126 103 255
0.310231 0.161272 5.58733 0 0 0 161 171 152 255
0.481141 0.159851 5.60511 0 0 0 105 126 118 255
0.564356 0.16606 5.61259 0 0 0 129 141 123 255
-0.0491768 0.196149 5.55255 0 0 0 163 185 146 255
0.226871 0.191638 5.58045 0 0 0 131 147 117 255
0.61826 0.21287 5.6206 0 0 0 92 103 91 255
-0.185639 0.230105 5.53817 0 0 0 146 164 151 255
-0.0461352 0.218936 5.55068 0 0 0 119 128 101 255
-0.424854 0.24041 5.5431 0 0 0 118 108 105 255
-0.13129 0.229581 5.54703 0 0 0 164 175 151 255
0.656503 0.268879 5.62773 0 0 0 94 105 85 255
1.51466 0.280764 5.6864 0 0 0 86 98 92 255
-0.0876449 0.286291 5.5536 0 0 0 156 174 139 255
0.679164 0.321656 5.63059 0 0 0 153 172 138 255
0.767153 0.313768 5.63718 0 0 0 154 169 125 255
2.03423 0.331537 5.76969 0 0 0 71 63 68 255
0.116917 0.351687 5.58248 0 0 0 120 139 121 255
2.30765 0.365971 5.81753 0 0 0 131 145 142 255
0.764843 0.387946 5.63989 0 0 0 143 156 120 255
-0.13295 0.398149 5.56093 0 0 0 53 58 57 255
-0.0786998 0.391995 5.56165 0 0 0 144 159 150 255
0.621803 0.408552 5.64309 0 0 0 111 130 125 255
0.697209 0.42277 5.64079 0 0 0 113 118 86 255
1.01552 0.431881 5.66303 0 0 0 97 117 103 255
1.08061 0.430164 5.66556 0 0 0 150 170 135 255
-0.043909 0.422493 5.56304 0 0 0 130 144 117 255
-0.127585 0.451643 5.56453 0 0 0 119 134 125 255
0.0712923 0.456348 5.58821 0 0 0 139 155 131 255
1.15045 0.485211 5.67288 0 0 0 101 109 111 255
1.7588 0.511925 5.69542 0 0 0 144 147 150 255
0.922029 0.530606 5.66012 0 0 0 167 174 177 255
1.07456 0.507324 5.66043 0 0 0 115 130 135 255
0.22185 0.527676 5.6013 0 0 0 133 140 140 255
0.830286 0.537065 5.65508 0 0 0 68 81 88 255
1.14575 0.539563 5.68714 0 0 0 51 59 63 255
-0.203943 0.542519 5.55026 0 0 0 87 104 100 255
0.375817 0.546658 5.6655 0 0 0 139 140 141 255
0.661656 0.542092 5.62677 0 0 0 54 76 86 255
0.0544009 0.571192 5.66691 0 0 0 51 59 66 255
0.116342 0.542058 5.59234 0 0 0 40 46 51 255
1.93563 0.608919 5.7566 0 0 0 124 140 146 255
0.999362 0.6107 5.66659 0 0 0 80 97 104 255
1.51419 0.680069 5.69881 0 0 0 192 197 197 255
1.59232 0.68113 5.70041 0 0 0 162 171 173 255
1.04206 0.704735 5.67766 0 0 0 193 204 205 255
0.602709 0.710507 5.64626 0 0 0 169 176 180 255
-0.1704 0.720586 5.5759 0 0 0 116 126 130 255
0.0818655 0.728962 5.59951 0 0 0 199 200 201 255
0.79192 0.732754 5.65766 0 0 0 131 138 143 255
1.47619 0.754242 5.70833 0 0 0 135 139 140 255
1.51349 0.756747 5.70632 0 0 0 104 108 112 255
1.18028 0.78835 5.68482 0 0 0 191 206 212 255
1.93999 0.793116 5.77191 0 0 0 133 144 144 255
-0.395044 0.790263 5.55254 0 0 0 134 107 96 255
1.20047 0.809168 5.68502 0 0 0 183 198 200 255
1.33587 0.828601 5.69946 0 0 0 190 205 209 255
-0.780548 0.840538 5.55656 0 0 0 77 62 58 255
1.14987 0.889102 5.68883 0 0 0 192 206 208 255
0.450638 0.905981 5.64382 0 0 0 151 157 159 255
0.494045 0.900847 5.64456 0 0 0 186 200 200 255
1.42093 0.90444 5.70351 0 0 0 137 144 147 255
0.08062 0.936468 5.61162 0 0 0 193 198 198 255
1.72912 0.933066 5.75742 0 0 0 186 195 196 255
-0.322829 0.94897 5.65001 0 0 0 149 168 152 255
-0.199944 0.92713 5.58892 0 0 0 74 82 82 255
1.01885 0.953865 5.68398 0 0 0 100 114 119 255
0.501662 0.958315 5.64665 0 0 0 118 123 127 255
1.06177 0.977086 5.68897 0 0 0 168 187 194 255
1.13105 0.96797 5.69003 0 0 0 180 202 206 255
1.53631 1.01611 5.75424 0 0 0 187 200 202 255
-0.103683 1.01339 5.60734 0 0 0 90 98 100 255
0.0866892 1.0028 5.61746 0 0 0 194 203 203 255
-0.182899 1.01924 5.59119 0 0 0 81 90 89 255
-0.0249211 1.03338 5.60589 0 0 0 128 144 149 255
1.43517 1.0401 5.73181 0 0 0 88 95 100 255
2.18311 1.0704 5.79194 0 0 0 150 170 177 255
0.247248 1.04166 5.63417 0 0 0 151 153 154 255
1.49377 1.06273 5.71597 0 0 0 189 201 204 255
0.166061 1.05431 5.62681 0 0 0 117 131 135 255
0.497728 1.07583 5.65215 0 0 0 175 192 198 255
-0.192469 1.07722 5.60323 0 0 0 165 193 168 255
0.245387 1.08298 5.63544 0 0 0 192 209 212 255
1.34135 1.10333 5.7392 0 0 0 171 190 195 255
0.0274381 1.09827 5.63728 0 0 0 118 131 136 255
0.163658 1.09705 5.64061 0 0 0 186 203 210 255
1.41005 1.12417 5.77328 0 0 0 188 203 208 255
-0.0907357 1.11824 5.6307 0 0 0 195 208 210 255
-0.169666 1.13228 5.66222 0 0 0 123 143 127 255
0.28957 1.11995 5.63909 0 0 0 103 116 121 255
1.05023 1.15993 5.73897 0 0 0 142 151 152 255
-0.330379 1.15712 5.61819 0 0 0 146 174 163 255
-0.0991111 1.17665 5.68369 0 0 0 131 142 151 255
1.50231 1.19289 5.75556 0 0 0 92 96 100 255
-0.195309 1.1854 5.60773 0 0 0 74 82 74 255
0.560365 1.31329 5.69333 0 0 0 177 190 191 255
2.18545 1.42645 5.80249 0 0 0 192 160 155 255
0.746582 1.74063 5.77854 0 0 0 139 163 170 255
-0.663662 1.70196 5.57811 0 0 0 143 114 107 255
-0.64817 1.85971 5.67883 0 0 0 168 126 117 255
1.85179 -0.943563 5.91719 0 0 0 77 109 123 255
1.82245 -0.962312 6.09226 0 0 0 156 159 159 255
1.80565 -0.821802 6.15057 0 0 0 168 175 175 255
1.85236 -0.785762 5.87707 0 0 0 164 129 97 255
-0.419419 -0.677507 5.60713 0 0 0 143 146 144 255
-0.840065 -0.492172 5.49391 0 0 0 130 99 90 255
1.31187 -0.460145 5.59613 0 0 0 161 175 132 255
1.40631 -0.434581 5.6354 0 0 0 126 138 127 255
1.47871 -0.416663 5.6377 0 0 0 115 125 108 255
0.0215385 -0.322929 5.52607 0 0 0 119 130 106 255
0.443678 -0.324885 5.56692 0 0 0 83 97 86 255
0.0461295 -0.291531 5.53463 0 0 0 137 152 129 255
1.04364 -0.255958 5.62757 0 0 0 69 80 54 255
0.655843 -0.217686 5.60367 0 0 0 128 141 107 255
1.05487 -0.194583 5.63493 0 0 0 141 149 115 255
1.50515 -0.207595 5.6739 0 0 0 123 136 113 255
0.877893 -0.160442 5.62327 0 0 0 90 97 80 255
0.111369 -0.139525 5.54778 0 0 0 94 101 85 255
0.205703 -0.128072 5.56174 0 0 0 157 174 127 255
0.279827 -0.114151 5.56576 0 0 0 100 109 80 255
0.11765 -0.0858467 5.5475 0 0 0 156 168 141 255
0.365729 -0.0895032 5.57489 0 0 0 81 87 78 255
1.51037 -0.0932464 5.66081 0 0 0 111 122 106 255
0.671725 -0.0693359 5.61282 0 0 0 87 105 93 255
0.921917 -0.0777638 5.62713 0 0 0 152 167 126 255
1.04856 -0.0820518 5.63801 0 0 0 48 62 58 255
1.10198 -0.0654103 5.64126 0 0 0 84 103 96 255
1.50821 -0.0662134 5.67524 0 0 0 114 127 110 255
-0.187545 -0.0472342 5.51431 0 0 0 161 187 151 255
0.0869982 -0.0411334 5.54765 0 0 0 107 125 101 255
0.953038 -0.0156646 5.63429 0 0 0 122 134 108 255
1.44718 -0.00242512 5.68185 0 0 0 131 143 127 255
1.32513 0.00160825 5.66502 0 0 0 152 167 134 255
0.346307 0.0145911 5.57386 0 0 0 97 107 101 255
1.01833 0.027024 5.64208 0 0 0 115 127 111 255
0.0874822 0.0398031 5.55328 0 0 0 157 175 132 255
0.668624 0.0378307 5.61314 0 0 0 149 164 130 255
-0.183934 0.0633655 5.5235 0 0 0 163 182 149 255
-0.112179 0.0650959 5.53535 0 0 0 166 189 147 255
-0.425514 0.0900354 5.57318 0 0 0 192 180 168 255
1.25855 0.0863314 5.67109 0 0 0 117 128 106 255
1.5111 0.0863428 5.68122 0 0 0 113 127 110 255
-0.136549 0.11718 5.54307 0 0 0 66 77 76 255
1.31329 0.109213 5.67094 0 0 0 150 163 122 255
0.00711867 0.138464 5.55175 0 0 0 57 78 76 255
1.50023 0.129662 5.68238 0 0 0 113 127 111 255
0.214028 0.166721 5.5778 0 0 0 136 147 118 255
0.492504 0.158234 5.60566 0 0 0 122 136 121 255
0.759979 0.137597 5.62764 0 0 0 156 172 123 255
-0.788436 0.17398 5.24564 0 0 0 174 168 164 255
0.314613 0.162988 5.58603 0 0 0 161 171 152 255
-0.130218 0.178682 5.54353 0 0 0 63 78 73 255
0.199037 0.178921 5.57797 0 0 0 134 151 115 255
1.11041 0.201506 5.65579 0 0 0 81 95 90 255
-0.0327471 0.220336 5.55137 0 0 0 114 115 94 255
0.0294759 0.221212 5.56517 0 0 0 96 108 94 255
0.619584 0.211476 5.62106 0 0 0 92 103 91 255
-0.179582 0.23956 5.53794 0 0 0 151 171 148 255
0.485665 0.241621 5.61105 0 0 0 82 95 88 255
0.986856 0.268332 5.65101 0 0 0 147 159 125 255
1.51347 0.261273 5.68741 0 0 0 88 104 98 255
0.663341 0.269292 5.62753 0 0 0 99 107 86 255
1.9234 0.288815 5.72584 0 0 0 117 89 75 255
0.761965 0.285356 5.63611 0 0 0 160 177 126 255
0.0873795 0.294005 5.57974 0 0 0 64 79 74 255
0.173477 0.306002 5.57773 0 0 0 81 85 74 255
0.694682 0.309694 5.63134 0 0 0 158 177 140 255
0.336368 0.340614 5.60048 0 0 0 128 146 117 255
1.11681 0.336059 5.66945 0 0 0 123 136 120 255
2.27243 0.334304 5.80521 0 0 0 85 102 111 255
0.121403 0.342204 5.58148 0 0 0 144 160 132 255
2.31737 0.359236 5.8144 0 0 0 144 157 152 255
-0.186031 0.368573 5.5483 0 0 0 134 141 128 255
0.088546 0.361452 5.58281 0 0 0 102 116 105 255
0.880671 0.380562 5.65064 0 0 0 136 152 126 255
1.25107 0.401637 5.68153 0 0 0 116 127 99 255
1.9408 0.398037 5.77241 0 0 0 56 94 112 255
0.639924 0.406907 5.64354 0 0 0 133 151 135 255
1.10556 0.427837 5.66742 0 0 0 147 162 123 255
-0.0425918 0.417207 5.56553 0 0 0 130 144 117 255
0.755101 0.422818 5.64134 0 0 0 150 166 124 255
0.0937542 0.453321 5.58748 0 0 0 164 184 151 255
0.173204 0.441523 5.59542 0 0 0 161 179 138 255
0.943558 0.476002 5.66356 0 0 0 89 99 100 255
0.175708 0.493661 5.59926 0 0 0 49 61 59 255
0.706894 0.50775 5.62882 0 0 0 125 142 144 255
0.914187 0.517834 5.66113 0 0 0 172 178 183 255
1.08194 0.509447 5.67992 0 0 0 115 130 135 255
1.12386 0.514976 5.69487 0 0 0 83 94 95 255
1.37514 0.506753 5.67827 0 0 0 104 110 114 255
1.48974 0.510775 5.6986 0 0 0 174 178 179 255
1.76363 0.502208 5.71747 0 0 0 111 110 113 255
0.342367 0.512316 5.60355 0 0 0 128 128 130 255
0.381975 0.514765 5.62248 0 0 0 45 52 56 255
0.55029 0.516467 5.58604 0 0 0 136 143 141 255
-0.219561 0.533133 5.55627 0 0 0 91 105 100 255
-0.0692393 0.535605 5.56984 0 0 0 97 101 105 255
0.279971 0.533694 5.60772 0 0 0 150 150 152 255
-0.124217 0.56351 5.58014 0 0 0 70 84 82 255
-0.0358012 0.548187 5.57287 0 0 0 57 66 71 255
0.231559 0.553016 5.60562 0 0 0 186 186 186 255
2.17394 0.625227 5.79872 0 0 0 195 149 108 255
0.817555 0.615463 5.6593 0 0 0 103 115 120 255
0.72728 0.611701 5.64563 0 0 0 102 114 120 255
1.73199 0.676555 5.72403 0 0 0 165 173 176 255
0.562867 0.71793 5.64554 0 0 0 190 206 211 255
1.04915 0.69869 5.67653 0 0 0 192 202 203 255
0.0866868 0.724338 5.59955 0 0 0 189 200 201 255
1.44428 0.755125 5.70304 0 0 0 141 145 146 255
1.29241 0.746504 5.69288 0 0 0 144 153 159 255
1.4373 0.747362 5.70297 0 0 0 186 192 193 255
1.94083 0.790943 5.78114 0 0 0 135 146 146 255
-0.399106 0.790133 5.58241 0 0 0 136 110 101 255
1.34486 0.793526 5.69865 0 0 0 188 206 211 255
0.514928 0.853947 5.64388 0 0 0 149 162 165 255
1.31922 0.873288 5.69922 0 0 0 193 204 207 255
1.40467 0.869158 5.7021 0 0 0 122 127 131 255
1.15183 0.868289 5.68662 0 0 0 144 158 166 255
-0.199717 0.909184 5.58965 0 0 0 71 84 85 255
1.73296 0.916161 5.7069 0 0 0 192 203 206 255
1.04579 0.919755 5.68347 0 0 0 174 183 184 255
1.11094 0.93577 5.68906 0 0 0 115 121 127 255
1.5577 0.952828 5.7498 0 0 0 190 203 208 255
-0.30116 0.943247 5.59761 0 0 0 152 173 157 255
0.00856937 0.941826 5.60499 0 0 0 181 192 194 255
0.0487669 0.929355 5.60927 0 0 0 113 132 136 255
0.696228 0.944138 5.65952 0 0 0 194 205 208 255
1.35324 0.979601 5.74302 0 0 0 169 181 184 255
1.6735 0.961764 5.74347 0 0 0 184 188 189 255
0.400802 0.963358 5.6382 0 0 0 119 131 135 255
-0.221804 0.980017 5.59116 0 0 0 162 192 164 255
1.1717 0.974909 5.69036 0 0 0 184 193 195 255
-0.0500415 0.99638 5.60833 0 0 0 173 183 185 255
-0.27054 1.02784 5.64286 0 0 0 97 120 110 255
-0.181344 1.02567 5.59139 0 0 0 76 89 88 255
0.0447065 1.00682 5.60754 0 0 0 170 182 182 255
0.386105 1.02223 5.64011 0 0 0 193 209 210 255
1.42699 1.04605 5.73305 0 0 0 87 100 104 255
-0.0160526 1.04225 5.6061 0 0 0 116 130 137 255
1.50049 1.07097 5.75335 0 0 0 186 202 206 255
0.408529 1.04191 5.64318 0 0 0 191 209 212 255
2.20228 1.08343 5.80205 0 0 0 177 194 200 255
0.514659 1.07412 5.65303 0 0 0 191 207 210 255
0.201319 1.08406 5.63269 0 0 0 193 208 213 255
0.0293123 1.11532 5.68339 0 0 0 110 126 129 255
1.21484 1.1182 5.70241 0 0 0 103 106 112 255
1.27786 1.11596 5.70832 0 0 0 167 180 182 255
-0.0702719 1.11677 5.64859 0 0 0 192 209 214 255
-0.0312002 1.10786 5.61338 0 0 0 193 209 211 255
0.610078 1.12519 5.66003 0 0 0 115 123 129 255
1.05251 1.14732 5.71338 0 0 0 118 125 127 255
0.0758188 1.13526 5.62379 0 0 0 188 208 210 255
0.988335 1.16607 5.69667 0 0 0 191 207 211 255
0.115981 1.15769 5.65081 0 0 0 133 142 143 255
1.60941 1.18188 5.76612 0 0 0 87 87 89 255
0.604983 1.19219 5.66566 0 0 0 186 197 198 255
0.939728 1.19691 5.73716 0 0 0 183 198 205 255
-0.14797 1.20902 5.6031 0 0 0 163 175 175 255
0.105944 1.23658 5.68956 0 0 0 189 203 208 255
1.76034 1.29545 5.73827 0 0 0 127 134 139 255
0.56818 1.30657 5.69414 0 0 0 158 176 179 255
2.01201 1.31112 5.72813 0 0 0 170 191 198 255
2.20995 1.42999 5.83597 0 0 0 189 186 189 255
-0.610312 1.61342 5.65547 0 0 0 154 117 111 255
0.747824 1.73677 5.78078 0 0 0 139 163 170 255
0.800264 1.72797 5.76577 0 0 0 164 178 183 255
0.91257 1.75128 5.7727 0 0 0 146 158 158 255
0.734117 1.74133 5.74241 0 0 0 137 154 161 255
-0.379406 1.80039 5.67531 0 0 0 143 116 107 255
1.82571 -0.942759 6.10375 0 0 0 102 103 103 255
1.8648 -0.88153 5.82169 0 0 0 80 80 80 255
1.76322 -0.837802 6.13567 0 0 0 166 173 170 255
1.86027 -0.684612 5.62542 0 0 0 59 57 58 255
-0.839096 -0.612585 5.4885 0 0 0 136 108 99 255
1.27653 -0.437548 5.60453 0 0 0 160 181 133 255
1.49833 -0.465531 5.65772 0 0 0 129 142 120 255
-0.213421 -0.4238 5.5208 0 0 0 151 161 144 255
1.49188 -0.236137 5.67554 0 0 0 145 157 140 255
1.21724 -0.20073 5.62159 0 0 0 52 66 60 255
0.122923 -0.165341 5.54472 0 0 0 151 163 129 255
0.343063 -0.148856 5.57107 0 0 0 164 187 134 255
-0.196042 -0.073782 5.51034 0 0 0 174 178 167 255
0.661111 -0.0690888 5.6124 0 0 0 69 89 80 255
0.0912798 -0.0360365 5.54844 0 0 0 134 152 128 255
1.02384 -0.0679418 5.63288 0 0 0 70 82 78 255
-0.827439 -0.00567128 5.53923 0 0 0 84 80 81 255
1.31848 -0.0163308 5.66515 0 0 0 143 158 121 255
0.686945 0.0106723 5.61324 0 0 0 166 184 134 255
0.0351654 0.0239897 5.54851 0 0 0 167 189 138 255
0.890556 0.0286742 5.62787 0 0 0 59 72 69 255
0.611638 0.164431 5.61813 0 0 0 137 155 117 255
-0.0230026 0.210704 5.55437 0 0 0 165 183 141 255
0.168752 0.188134 5.57579 0 0 0 163 186 140 255
-0.440898 0.249386 5.53795 0 0 0 110 101 102 255
-0.0248862 0.238416 5.55588 0 0 0 55 72 65 255
0.0383877 0.245701 5.56326 0 0 0 57 74 68 255
0.743118 0.246025 5.63787 0 0 0 163 181 130 255
0.982052 0.270839 5.65003 0 0 0 141 152 121 255
0.88026 0.287505 5.64586 0 0 0 143 157 125 255
1.36131 0.320196 5.68519 0 0 0 153 172 122 255
2.00578 0.343813 5.76837 0 0 0 60 61 67 255
2.26439 0.351741 5.83608 0 0 0 79 107 120 255
1.05918 0.344478 5.66231 0 0 0 51 68 67 255
0.325868 0.372033 5.60184 0 0 0 164 181 146 255
1.4013 0.370479 5.68749 0 0 0 151 166 120 255
-0.0580996 0.404767 5.56504 0 0 0 159 178 144 255
0.662759 0.397501 5.64312 0 0 0 142 152 120 255
1.01194 0.413188 5.6603 0 0 0 100 113 101 255
0.098771 0.428718 5.58699 0 0 0 165 184 157 255
0.151436 0.437311 5.59292 0 0 0 166 187 139 255
1.76218 0.513209 5.72025 0 0 0 75 80 83 255
2.24945 0.528779 5.79232 0 0 0 188 137 90 255
0.206533 0.522365 5.6 0 0 0 44 50 50 255
-0.0683283 0.549908 5.56994 0 0 0 87 97 110 255
1.94087 0.622502 5.77653 0 0 0 157 175 177 255
1.04433 0.691024 5.67631 0 0 0 190 201 202 255
1.47405 0.710178 5.70496 0 0 0 190 203 208 255
-0.412966 0.797649 5.60878 0 0 0 131 105 94 255
1.20361 0.785058 5.68609 0 0 0 163 178 182 255
1.27614 0.788799 5.69562 0 0 0 146 154 154 255
0.597394 0.852576 5.64863 0 0 0 191 209 209 255
0.511501 0.865557 5.64527 0 0 0 144 146 148 255
1.48978 0.856782 5.68985 0 0 0 95 105 113 255
-0.432664 0.894132 5.5801 0 0 0 139 116 106 255
-0.352021 0.908456 5.58932 0 0 0 52 56 58 255
-0.206917 0.898382 5.5894 0 0 0 73 86 86 255
1.31037 0.889825 5.70037 0 0 0 165 175 176 255
1.19971 0.948171 5.68868 0 0 0 144 163 168 255
-0.36531 0.954517 5.64208 0 0 0 65 69 70 255
1.34173 0.961851 5.70525 0 0 0 190 200 202 255
1.49657 0.953309 5.72614 0 0 0 196 205 211 255
0.0658313 1.00918 5.61666 0 0 0 169 178 179 255
1.41259 1.03977 5.71775 0 0 0 96 105 111 255
1.51355 1.03167 5.73125 0 0 0 161 167 169 255
-0.259304 1.01807 5.58766 0 0 0 96 111 104 255
-0.0863349 1.01577 5.60644 0 0 0 95 108 112 255
0.108959 1.04979 5.62617 0 0 0 119 128 132 255
0.200475 1.04634 5.62931 0 0 0 191 206 210 255
0.3682 1.04312 5.63951 0 0 0 140 153 155 255
2.18594 1.06741 5.79433 0 0 0 162 181 188 255
-0.154097 1.09365 5.62319 0 0 0 122 136 138 255
-0.0615041 1.08621 5.60864 0 0 0 191 209 212 255
1.39219 1.11352 5.738 0 0 0 180 186 190 255
0.299842 1.11312 5.63951 0 0 0 91 113 117 255
0.610446 1.13963 5.66213 0 0 0 120 129 135 255
-0.316879 1.15561 5.66265 0 0 0 159 192 170 255
0.957392 1.19938 5.76625 0 0 0 189 206 210 255
-0.366628 1.2135 5.66544 0 0 0 56 47 40 255
-0.215853 1.20877 5.64417 0 0 0 79 86 88 255
-0.118315 1.24115 5.72105 0 0 0 192 206 210 255
0.0912422 1.24059 5.7055 0 0 0 191 206 210 255
1.36212 1.30101 5.75123 0 0 0 140 157 159 255
-0.721912 1.48834 5.62008 0 0 0 101 64 70 255
-0.402256 1.47718 5.62639 0 0 0 136 117 109 255
-0.583414 1.58785 5.5724 0 0 0 155 128 115 255
-0.397885 1.67383 5.65665 0 0 0 116 104 104 255
1.86212 -0.894581 5.9708 0 0 0 68 106 129 255
1.86141 -0.705483 5.67853 0 0 0 60 60 60 255
-0.39118 -0.604559 5.51035 0 0 0 50 56 56 255
-0.818828 -0.614656 5.48959 0 0 0 148 108 101 255
-0.849281 -0.50629 5.51527 0 0 0 153 102 86 255
-0.190466 -0.403202 5.53197 0 0 0 162 188 154 255
0.290967 -0.303317 5.55373 0 0 0 92 105 96 255
0.350602 -0.308841 5.56056 0 0 0 82 97 92 255
0.164294 -0.245946 5.54511 0 0 0 137 153 111 255
1.0658 -0.233415 5.60545 0 0 0 74 89 84 255
1.14674 -0.213087 5.61246 0 0 0 57 69 64 255
0.310821 -0.187376 5.56372 0 0 0 163 185 135 255
1.15368 -0.191955 5.60997 0 0 0 74 84 81 255
1.21648 -0.201841 5.62397 0 0 0 54 66 62 255
0.13461 -0.160422 5.54588 0 0 0 85 101 89 255
1.02637 -0.143391 5.63068 0 0 0 147 155 118 255
1.0916 -0.132765 5.63744 0 0 0 115 127 110 255
-0.187975 -0.096138 5.51536 0 0 0 165 190 149 255
0.256954 -0.115279 5.56333 0 0 0 167 187 137 255
1.03405 -0.0401578 5.63594 0 0 0 48 62 60 255
0.283934 -0.0673733 5.56991 0 0 0 136 149 109 255
-0.839302 -0.0130361 5.52964 0 0 0 169 160 147 255
0.0228198 -0.00909825 5.55104 0 0 0 168 189 141 255
-0.139716 0.0659781 5.54041 0 0 0 164 187 145 255
-0.444387 0.0640184 5.54184 0 0 0 196 182 168 255
0.623614 0.0639938 5.6175 0 0 0 65 77 73 255
0.812815 0.0827494 5.62609 0 0 0 69 81 77 255
0.177258 0.0783391 5.56404 0 0 0 70 85 80 255
1.30276 0.0958768 5.66735 0 0 0 143 156 122 255
1.48353 0.0935614 5.682 0 0 0 109 121 105 255
-0.797108 0.208487 5.57522 0 0 0 42 40 38 255
-0.158507 0.178416 5.53863 0 0 0 77 90 79 255
-0.0192435 0.170692 5.55174 0 0 0 162 177 142 255
0.627825 0.163404 5.62037 0 0 0 160 179 132 255
0.154101 0.193481 5.57542 0 0 0 164 188 141 255
1.94741 0.239464 5.73652 0 0 0 132 76 48 255
0.719222 0.246532 5.64213 0 0 0 165 183 131 255
-0.167959 0.283823 5.54353 0 0 0 149 175 144 255
-0.000588141 0.293671 5.55603 0 0 0 63 78 73 255
0.0333232 0.28873 5.57225 0 0 0 92 107 100 255
0.13457 0.26056 5.57867 0 0 0 166 186 136 255
0.935195 0.281654 5.6534 0 0 0 148 163 130 255
1.0755 0.300097 5.66141 0 0 0 50 59 59 255
1.99542 0.34276 5.76044 0 0 0 62 58 63 255
0.333837 0.369119 5.60142 0 0 0 164 183 133 255
1.38549 0.354448 5.68577 0 0 0 153 169 127 255
0.746297 0.424989 5.64101 0 0 0 149 163 125 255
1.12305 0.406715 5.66763 0 0 0 156 173 124 255
1.94014 0.450659 5.74885 0 0 0 48 132 162 255
-0.257595 0.527259 5.55775 0 0 0 92 107 102 255
0.284086 0.540728 5.60899 0 0 0 170 169 172 255
1.71632 0.702901 5.73812 0 0 0 184 196 198 255
0.529986 0.718022 5.64285 0 0 0 190 206 209 255
-0.148725 0.765556 5.57967 0 0 0 132 146 150 255
1.94505 0.755919 5.77222 0 0 0 158 172 172 255
1.25933 0.831799 5.69586 0 0 0 106 121 125 255
1.488 0.864067 5.73646 0 0 0 99 111 116 255
-0.231095 0.850682 5.58736 0 0 0 55 70 75 255
0.0507749 0.904886 5.60831 0 0 0 125 143 144 255
1.08333 0.920958 5.68662 0 0 0 171 180 181 255
1.72425 0.928327 5.73763 0 0 0 182 191 193 255
1.14656 0.946607 5.68981 0 0 0 179 192 194 255
2.0406 0.985526 5.79285 0 0 0 94 136 163 255
0.677464 0.972686 5.66645 0 0 0 175 190 193 255
1.52222 1.00794 5.73717 0 0 0 173 181 184 255
-0.317812 1.02732 5.66912 0 0 0 163 196 172 255
-0.175152 1.0196 5.60762 0 0 0 81 90 89 255
0.394692 1.03865 5.64051 0 0 0 194 208 209 255
0.815673 1.02547 5.66755 0 0 0 164 175 178 255
1.6199 1.02451 5.75571 0 0 0 93 102 106 255
-0.0257666 1.09126 5.61175 0 0 0 190 208 211 255
0.11401 1.06443 5.62687 0 0 0 116 131 135 255
1.50187 1.06865 5.74972 0 0 0 186 202 206 255
0.311752 1.10647 5.64064 0 0 0 98 116 120 255
0.653292 1.12302 5.66085 0 0 0 111 128 134 255
0.971187 1.18508 5.72017 0 0 0 190 207 212 255
-0.107922 1.23446 5.68474 0 0 0 190 200 201 255
0.0928753 1.24599 5.6773 0 0 0 188 201 203 255
1.74751 1.28169 5.75506 0 0 0 133 133 136 255
2.02253 1.3225 5.80601 0 0 0 153 180 191 255
-0.587855 1.59765 5.65077 0 0 0 143 113 103 255
1.84127 -0.88753 6.55893 0 0 0 165 171 170 255
1.45464 -0.435727 5.64819 0 0 0 111 122 109 255
-0.175014 -0.35397 5.49922 0 0 0 164 191 152 255
0.524514 -0.243788 5.57528 0 0 0 77 93 87 255
0.904546 -0.165001 5.62342 0 0 0 75 88 81 255
1.11174 -0.213478 5.59259 0 0 0 56 62 57 255
-0.190426 -0.155083 5.55451 0 0 0 163 190 149 255
0.293287 -0.144212 5.56785 0 0 0 145 162 113 255
0.586899 -0.179244 5.60266 0 0 0 60 74 69 255
0.906046 -0.113015 5.62557 0 0 0 97 107 97 255
1.27637 -0.119497 5.66272 0 0 0 79 92 85 255
-0.174687 -0.056205 5.51526 0 0 0 161 187 151 255
0.00136018 -0.0416398 5.5369 0 0 0 168 189 141 255
0.301569 -0.034699 5.57159 0 0 0 125 133 118 255
0.699671 -0.0697255 5.6129 0 0 0 156 175 138 255
1.28084 0.0124383 5.66706 0 0 0 80 94 87 255
-0.185717 0.0422692 5.52314 0 0 0 164 188 152 255
0.13818 0.0241264 5.55598 0 0 0 86 96 91 255
1.46013 0.0948359 5.69039 0 0 0 93 105 99 255
0.603254 0.166137 5.61834 0 0 0 133 148 117 255
0.855698 0.0961461 5.62988 0 0 0 70 85 80 255
0.65914 0.203377 5.62327 0 0 0 160 177 126 255
0.694431 0.282905 5.62755 0 0 0 158 177 138 255
0.888717 0.282825 5.64679 0 0 0 150 163 131 255
0.000855758 0.395193 5.57341 0 0 0 60 74 72 255
1.32296 0.331899 5.67828 0 0 0 161 178 129 255
1.13157 0.472832 5.67057 0 0 0 49 64 63 255
-0.44879 0.676532 5.55846 0 0 0 119 97 85 255
0.114843 0.745473 5.60088 0 0 0 190 207 210 255
0.514315 0.748984 5.63378 0 0 0 190 208 213 255
0.787917 0.76983 5.65558 0 0 0 163 176 180 255
1.0647 0.747969 5.67839 0 0 0 192 205 210 255
1.65732 0.731121 5.7041 0 0 0 151 166 171 255
-0.268936 0.863637 5.65495 0 0 0 53 66 70 255
1.46685 0.871504 5.73338 0 0 0 118 130 135 255
-0.331362 0.903399 5.589 0 0 0 81 92 93 255
1.06936 0.888293 5.68317 0 0 0 140 151 157 255
1.67569 0.894659 5.72623 0 0 0 157 165 167 255
1.47142 0.959442 5.73626 0 0 0 168 180 189 255
0.68738 1.10435 5.66645 0 0 0 125 136 139 255
-0.306773 1.33101 5.70169 0 0 0 64 78 76 255
1.67364 1.26791 5.76534 0 0 0 136 152 154 255
-1.71501 -0.705696 4.371 0 0 0 167 146 144 255
-1.50235 -0.585398 4.76879 0 0 0 153 121 101 255
-1.59773 -0.582927 4.99901 0 0 0 146 114 98 255
-1.59505 -0.532088 4.70905 0 0 0 137 89 63 255
-1.32274 -0.554285 4.92873 0 0 0 180 163 152 255
-1.46672 -0.553349 5.10833 0 0 0 147 133 119 255
-1.00185 -0.618352 5.31451 0 0 0 165 143 130 255
-1.26649 -0.563102 5.17976 0 0 0 147 122 106 255
-1.41943 -0.539044 5.15059 0 0 0 195 181 168 255
-1.11915 -0.573323 5.19665 0 0 0 154 125 111 255
-1.07559 -0.584168 5.28075 0 0 0 138 117 106 255
-1.05753 -0.585329 5.27913 0 0 0 144 115 102 255
-1.02138 -0.595483 5.3143 0 0 0 145 118 105 255
-0.377849 -0.671685 5.54599 0 0 0 163 158 160 255
-1.27125 -0.531849 4.96856 0 0 0 189 176 165 255
-1.24749 -0.539117 4.9851 0 0 0 148 105 81 255
-1.21263 -0.552884 5.20362 0 0 0 185 166 155 255
-0.966554 -0.597646 5.3287 0 0 0 135 121 105 255
-1.36269 -0.514408 4.92725 0 0 0 187 158 150 255
-1.17931 -0.522538 5.03129 0 0 0 184 163 150 255
-1.08257 -0.567353 5.29803 0 0 0 185 166 156 255
-0.980203 -0.570532 5.3146 0 0 0 178 156 143 255
-0.888822 -0.58327 5.33793 0 0 0 197 181 166 255
-0.414198 -0.633404 5.48492 0 0 0 118 116 111 255
-1.40377 -0.487245 4.8897 0 0 0 149 99 75 255
-1.01638 -0.562999 5.30079 0 0 0 195 181 166 255
-0.858428 -0.567017 5.36221 0 0 0 148 100 87 255
-1.62431 -0.446309 5.0584 0 0 0 156 137 119 255
-0.913784 -0.535394 5.34426 0 0 0 199 180 173 255
-1.62184 -0.428948 5.04979 0 0 0 137 98 84 255
-1.26839 -0.460409 4.99894 0 0 0 198 180 163 255
-1.426 -0.429858 4.90516 0 0 0 136 98 81 255
-1.24502 -0.470999 5.22553 0 0 0 191 175 164 255
-1.39493 -0.428826 4.93295 0 0 0 130 114 106 255
-1.37519 -0.43139 4.95029 0 0 0 143 97 83 255
-1.10685 -0.484875 5.28009 0 0 0 194 177 160 255
-1.02926 -0.486207 5.26133 0 0 0 178 157 144 255
-0.980167 -0.494497 5.32331 0 0 0 191 175 159 255
-1.39748 -0.440951 5.14851 0 0 0 139 117 103 255
-1.37411 -0.441278 5.15594 0 0 0 150 96 76 255
-1.26432 -0.438583 5.00745 0 0 0 160 132 116 255
-1.24574 -0.440769 5.01583 0 0 0 151 106 88 255
-0.897587 -0.499774 5.3439 0 0 0 199 182 168 255
-0.826518 -0.503421 5.37465 0 0 0 193 179 167 255
-0.862572 -0.491833 5.36599 0 0 0 144 125 110 255
-1.10144 -0.45321 5.23577 0 0 0 107 91 82 255
-1.03245 -0.461582 5.26355 0 0 0 157 108 90 255
-0.967508 -0.471962 5.32551 0 0 0 145 100 83 255
-0.984232 -0.459209 5.32048 0 0 0 146 105 86 255
-0.819728 -0.477634 5.37324 0 0 0 131 116 108 255
-1.23172 -0.422656 5.20251 0 0 0 191 179 169 255
-1.27876 -0.402388 5.21105 0 0 0 198 180 163 255
-1.23341 -0.406423 5.20497 0 0 0 192 180 168 255
-1.2763 -0.37717 5.2017 0 0 0 162 140 129 255
-1.19014 -0.382657 5.05914 0 0 0 169 129 105 255
-1.47927 -0.323469 4.89155 0 0 0 151 104 84 255
-1.45409 -0.330715 5.13355 0 0 0 153 121 107 255
-1.40947 -0.329419 5.15206 0 0 0 141 109 87 255
-1.47292 -0.304157 4.90215 0 0 0 153 128 116 255
-1.2427 -0.339043 5.21232 0 0 0 151 114 92 255
-1.34867 -0.26305 4.99673 0 0 0 167 142 122 255
-1.28754 -0.270583 5.0276 0 0 0 188 171 153 255
-1.23699 -0.267161 5.20788 0 0 0 150 107 83 255
-1.33485 -0.241574 5.19515 0 0 0 196 179 162 255
-1.29581 -0.251301 5.1956 0 0 0 165 119 105 255
-1.0457 -0.274463 5.32999 0 0 0 151 109 91 255
-0.974456 -0.281605 5.36143 0 0 0 159 111 86 255
-1.35558 -0.235801 5.18409 0 0 0 137 106 90 255
-1.4509 -0.202684 4.95514 0 0 0 202 173 153 255
-1.01986 -0.254759 5.33959 0 0 0 179 134 112 255
-0.990753 -0.259319 5.35475 0 0 0 191 184 173 255
-1.33894 -0.165134 5.02141 0 0 0 140 101 82 255
0.357943 -0.32949 5.603 0 0 0 120 137 86 255
0.404645 -0.326535 5.59321 0 0 0 69 74 58 255
0.472785 -0.331834 5.59086 0 0 0 116 119 98 255
