ply
format ascii 1.0
comment VCGLIB generated
element vertex 1018
property float x
property float y
property float z
property float nx
property float ny
property float nz
property uchar red
property uchar green
property uchar blue
property uchar alpha
element face 0
property list uchar int vertex_indices
end_header
-1.01701 1.22211 5.40181 0 0 0 96 80 74 255
-1.10963 1.25021 5.37557 0 0 0 69 62 62 255
-0.765392 1.25039 5.46978 0 0 0 99 72 58 255
-0.809116 1.28298 5.43893 0 0 0 102 77 66 255
-1.05127 1.35002 5.38674 0 0 0 72 64 60 255
-0.905508 1.34273 5.44021 0 0 0 94 76 62 255
-0.176197 1.30994 5.57582 0 0 0 60 66 68 255
-0.97025 1.37784 5.39383 0 0 0 89 77 72 255
-0.35262 1.4343 5.54202 0 0 0 132 110 96 255
-0.835196 1.53358 5.43011 0 0 0 87 73 69 255
-0.804834 1.55669 5.43546 0 0 0 142 120 110 255
0.248725 1.4967 5.56892 0 0 0 87 99 97 255
-0.809605 1.68331 5.42272 0 0 0 66 66 68 255
-0.440581 -0.873762 5.3301 0 0 0 203 196 190 255
-1.524 -0.586683 4.74624 0 0 0 195 176 166 255
1.85522 -0.955199 6.14902 0 0 0 96 120 133 255
-1.28991 -0.548003 4.95715 0 0 0 150 129 116 255
-1.16947 -0.562135 5.01929 0 0 0 182 166 153 255
-0.967166 -0.593806 5.2705 0 0 0 163 135 119 255
-0.355676 -0.672491 5.65056 0 0 0 160 162 160 255
-1.49527 -0.475324 4.82606 0 0 0 153 139 126 255
-1.59017 -0.416701 4.7719 0 0 0 159 117 90 255
1.78719 -0.797377 6.14842 0 0 0 167 167 165 255
-1.25415 -0.382538 5.20543 0 0 0 145 110 91 255
-0.975419 -0.264706 5.36279 0 0 0 167 151 139 255
-1.18802 -0.212807 5.24202 0 0 0 153 138 126 255
-1.35693 -0.142042 5.02107 0 0 0 149 109 85 255
0.316585 -0.305994 5.60042 0 0 0 100 102 89 255
-1.28977 -0.0130257 5.08777 0 0 0 90 85 84 255
1.04349 -0.063319 5.64176 0 0 0 49 57 52 255
-0.434103 0.0853934 5.51302 0 0 0 198 180 163 255
0.928305 -0.0363865 5.63346 0 0 0 119 128 104 255
1.31433 -0.0365775 5.67182 0 0 0 141 153 116 255
-0.0384426 0.167516 5.54018 0 0 0 166 188 139 255
-1.66037 0.344251 4.97339 0 0 0 67 59 55 255
0.756819 0.161084 5.63144 0 0 0 160 176 120 255
0.620492 0.232138 5.62558 0 0 0 55 65 62 255
-0.166297 0.330141 5.53157 0 0 0 155 175 139 255
0.141755 0.294727 5.57028 0 0 0 162 179 125 255
1.50414 0.234497 5.67903 0 0 0 86 96 91 255
-1.44317 0.536248 5.12798 0 0 0 54 40 35 255
0.14351 0.451431 5.5797 0 0 0 158 176 130 255
-0.286133 0.525689 5.55968 0 0 0 87 95 92 255
2.01976 0.3018 5.72606 0 0 0 170 118 75 255
-1.49457 0.62772 5.11738 0 0 0 133 109 87 255
-1.31405 0.642931 5.30424 0 0 0 40 39 38 255
-1.65422 0.690648 5.04826 0 0 0 129 101 80 255
-1.27206 0.702627 5.31735 0 0 0 131 103 82 255
0.0899728 0.705783 5.59235 0 0 0 111 122 123 255
-1.55862 0.838958 5.13093 0 0 0 143 111 86 255
-0.882048 0.85595 5.43571 0 0 0 65 48 43 255
1.0545 0.674177 5.66868 0 0 0 73 80 86 255
1.49101 0.698625 5.67722 0 0 0 194 203 205 255
-0.787946 0.975137 5.45938 0 0 0 113 92 80 255
1.16831 0.841099 5.67091 0 0 0 133 142 143 255
1.33185 0.899448 5.68112 0 0 0 180 187 187 255
0.121579 1.01154 5.60016 0 0 0 150 157 157 255
0.287408 0.998951 5.61696 0 0 0 123 130 134 255
-1.3765 1.14456 5.23901 0 0 0 75 68 68 255
-1.33464 1.13576 5.33262 0 0 0 140 112 92 255
0.06416 1.06577 5.59485 0 0 0 121 130 133 255
-0.774611 1.2555 5.46689 0 0 0 91 74 71 255
-1.09325 1.31832 5.37083 0 0 0 155 124 102 255
-0.395983 1.45834 5.49953 0 0 0 136 111 97 255
-0.802853 1.56316 5.43497 0 0 0 147 123 108 255
-0.729691 1.54431 5.45096 0 0 0 146 112 106 255
2.02155 1.19897 5.31074 0 0 0 124 95 91 255
-1.55159 -0.493745 4.76974 0 0 0 196 181 163 255
-1.47166 -0.517254 4.8259 0 0 0 129 94 71 255
-1.30709 -0.538587 4.94676 0 0 0 149 106 83 255
-1.21076 -0.566149 5.23343 0 0 0 155 111 95 255
-0.948168 -0.580265 5.15282 0 0 0 151 106 86 255
-0.321632 -0.665247 5.56761 0 0 0 162 163 162 255
-1.31513 -0.437236 4.9783 0 0 0 138 94 75 255
-0.906452 -0.495836 5.29614 0 0 0 153 104 86 255
-1.10222 -0.45575 5.23727 0 0 0 154 106 88 255
-1.20078 -0.399443 5.04779 0 0 0 139 110 99 255
-1.49479 -0.297084 4.89861 0 0 0 144 116 103 255
-1.4635 -0.204838 4.9393 0 0 0 156 105 75 255
-1.17409 -0.258398 5.25256 0 0 0 149 119 101 255
-1.25508 -0.198477 5.24032 0 0 0 163 153 143 255
-1.03812 -0.216686 5.33735 0 0 0 147 109 89 255
-0.965968 -0.251838 5.36761 0 0 0 146 110 98 255
-1.30469 -0.168737 5.22744 0 0 0 154 103 79 255
-1.1011 -0.184709 5.32629 0 0 0 148 108 82 255
0.468788 -0.305378 5.59758 0 0 0 90 99 89 255
0.161546 -0.210827 5.54981 0 0 0 98 102 78 255
-1.63222 0.0172667 4.88546 0 0 0 160 155 149 255
-1.53123 0.00749459 4.97545 0 0 0 109 99 89 255
-1.187 0.00132096 5.31333 0 0 0 84 68 57 255
-1.10708 -0.00822742 5.33464 0 0 0 71 69 63 255
0.272729 -0.169328 5.56732 0 0 0 165 184 127 255
0.310332 -0.0742179 5.57465 0 0 0 157 168 128 255
1.11354 -0.100979 5.652 0 0 0 93 102 90 255
0.046388 0.00568551 5.54379 0 0 0 168 188 136 255
0.248514 -0.0291764 5.56539 0 0 0 126 143 122 255
-1.57926 0.152844 4.96255 0 0 0 39 42 41 255
-1.52176 0.161998 5.00594 0 0 0 44 42 42 255
-1.4814 0.158157 5.0323 0 0 0 54 52 50 255
0.738754 -0.0167048 5.62097 0 0 0 169 186 128 255
-0.898706 0.200563 5.40286 0 0 0 67 64 60 255
1.00433 0.0459349 5.64407 0 0 0 91 102 92 255
0.796188 0.100346 5.63355 0 0 0 57 67 61 255
-0.450735 0.280106 5.50378 0 0 0 117 96 82 255
-0.147371 0.24924 5.53131 0 0 0 164 182 144 255
1.49472 0.107118 5.67525 0 0 0 115 125 103 255
0.630921 0.269812 5.62417 0 0 0 51 63 59 255
1.13984 0.408747 5.67033 0 0 0 160 176 123 255
-1.52441 0.619915 5.09826 0 0 0 136 105 88 255
-1.2118 0.666935 5.33561 0 0 0 139 110 90 255
-1.05989 0.675357 5.41692 0 0 0 42 39 40 255
1.75001 0.462392 5.70563 0 0 0 45 47 53 255
1.92945 0.455577 5.70788 0 0 0 92 124 149 255
-0.40453 0.733592 5.5479 0 0 0 131 103 90 255
-1.56625 0.827592 5.12262 0 0 0 140 107 85 255
1.08129 0.73202 5.67653 0 0 0 194 205 206 255
-1.51207 0.903304 5.15053 0 0 0 57 49 45 255
-0.225953 0.867743 5.56593 0 0 0 76 84 81 255
-1.08561 0.958693 5.38813 0 0 0 77 59 58 255
0.22176 0.892601 5.60492 0 0 0 140 147 147 255
-1.47449 1.04181 5.18656 0 0 0 160 124 99 255
0.662177 0.981794 5.64431 0 0 0 197 205 206 255
-1.59482 1.11721 5.13896 0 0 0 65 60 59 255
-0.262277 1.10352 5.54851 0 0 0 164 197 164 255
1.48658 0.952222 5.61975 0 0 0 195 202 202 255
0.708865 1.1244 5.60823 0 0 0 95 103 103 255
1.51204 1.01963 5.57063 0 0 0 192 197 196 255
-0.77133 1.30479 5.44933 0 0 0 155 132 115 255
-0.81745 1.49124 5.44331 0 0 0 164 133 112 255
-0.260755 -0.666077 5.44827 0 0 0 159 164 163 255
1.86804 -0.939112 6.1566 0 0 0 85 125 146 255
-0.36873 -0.578893 5.4488 0 0 0 43 46 45 255
1.8458 -0.702188 5.91952 0 0 0 53 53 53 255
-1.04506 -0.250401 5.33322 0 0 0 157 115 97 255
1.24444 -0.454136 5.91632 0 0 0 165 185 132 255
0.571273 -0.225811 5.5984 0 0 0 78 88 82 255
0.527923 -0.145798 5.59226 0 0 0 69 77 72 255
1.09867 -0.193355 5.64703 0 0 0 100 109 95 255
1.24342 -0.271661 5.67481 0 0 0 166 184 123 255
0.916262 -0.186503 5.64025 0 0 0 89 97 81 255
0.0050891 -0.0619305 5.53792 0 0 0 172 192 138 255
1.16489 -0.0952576 5.65532 0 0 0 55 66 63 255
0.179398 0.0504649 5.55267 0 0 0 64 76 72 255
0.584077 -0.00138084 5.61579 0 0 0 47 55 50 255
0.865137 0.137652 5.63925 0 0 0 88 96 89 255
1.43691 0.0937734 5.68502 0 0 0 91 100 93 255
0.000170004 0.322403 5.55046 0 0 0 52 59 59 255
0.717279 0.408208 5.63459 0 0 0 151 162 120 255
-1.05953 0.672705 5.41706 0 0 0 51 41 37 255
-1.04366 0.87415 5.40553 0 0 0 152 119 96 255
-0.331977 0.880192 5.56445 0 0 0 58 61 60 255
0.513655 0.772756 5.63683 0 0 0 198 207 208 255
1.0813 0.76847 5.67268 0 0 0 196 205 208 255
1.37183 0.741265 5.68545 0 0 0 196 205 204 255
1.67841 0.722922 5.68514 0 0 0 160 168 172 255
0.0749198 1.05858 5.59559 0 0 0 132 139 140 255
-0.751395 -0.601059 5.37621 0 0 0 159 108 82 255
-1.47045 -0.455482 5.11566 0 0 0 187 175 164 255
-1.3964 -0.45875 5.1436 0 0 0 181 170 158 255
-1.36878 -0.459471 5.15607 0 0 0 177 163 149 255
-0.998889 -0.473331 5.30871 0 0 0 147 123 113 255
-1.59799 -0.324416 5.08705 0 0 0 143 115 98 255
-1.26331 -0.166218 5.24238 0 0 0 193 181 165 255
-1.32278 -0.0157976 5.25192 0 0 0 193 181 160 255
-1.53425 0.0106886 5.16747 0 0 0 78 72 60 255
0.104378 -0.116575 5.54726 0 0 0 130 140 109 255
-1.58455 0.0190753 5.14688 0 0 0 89 81 77 255
-1.47076 0.0126382 5.19326 0 0 0 120 112 102 255
-1.15732 -0.00865632 5.3099 0 0 0 150 141 134 255
-0.971345 -0.0148447 5.36998 0 0 0 95 89 81 255
-1.0236 -0.00989505 5.35148 0 0 0 80 78 73 255
-0.775369 -0.0269896 5.41743 0 0 0 130 121 107 255
-0.972316 -0.00716607 5.37036 0 0 0 96 92 87 255
-1.34268 0.0416604 5.23544 0 0 0 128 121 111 255
-1.32471 0.0391667 5.24454 0 0 0 187 179 167 255
-1.02233 0.0158424 5.34976 0 0 0 91 83 76 255
-1.22651 0.0357892 5.27196 0 0 0 154 147 139 255
-0.77446 0.0139941 5.41157 0 0 0 115 105 97 255
-0.92671 0.03207 5.37553 0 0 0 195 179 164 255
-0.816231 0.0227467 5.40428 0 0 0 83 72 61 255
-0.851149 0.162767 5.40991 0 0 0 146 139 135 255
-0.934374 0.194311 5.38826 0 0 0 152 140 131 255
0.7622 0.0731448 5.62876 0 0 0 128 138 110 255
-0.851437 0.192729 5.40836 0 0 0 163 157 151 255
1.27695 0.103795 5.67588 0 0 0 88 101 90 255
1.3262 0.164005 5.66654 0 0 0 72 89 77 255
-0.0456285 0.339263 5.55385 0 0 0 57 67 61 255
1.49525 0.279022 5.68092 0 0 0 78 90 86 255
1.44048 0.31203 5.68489 0 0 0 60 69 55 255
-0.0334332 0.456164 5.55729 0 0 0 96 108 95 255
1.27729 0.413363 5.68504 0 0 0 111 122 96 255
-0.123498 0.528332 5.54954 0 0 0 53 60 61 255
0.90911 0.476185 5.65694 0 0 0 52 59 59 255
0.987801 0.479656 5.66063 0 0 0 43 46 45 255
-0.039696 0.561869 5.5585 0 0 0 48 54 57 255
-1.50432 0.659678 5.25722 0 0 0 120 95 79 255
0.397299 0.549213 5.61206 0 0 0 117 121 122 255
0.425848 0.550578 5.60754 0 0 0 90 89 90 255
0.851674 0.520623 5.64712 0 0 0 66 71 72 255
0.959954 0.515765 5.66005 0 0 0 50 59 61 255
1.39151 0.4871 5.67949 0 0 0 107 109 111 255
0.764302 0.543442 5.64141 0 0 0 77 79 81 255
1.69647 0.476239 5.6582 0 0 0 101 103 106 255
1.66294 0.507986 5.68838 0 0 0 120 138 149 255
1.71305 0.506268 5.69106 0 0 0 127 136 140 255
0.832866 0.590026 5.64397 0 0 0 72 85 87 255
0.719189 0.627946 5.63915 0 0 0 84 91 93 255
0.738893 0.628662 5.64558 0 0 0 110 119 121 255
1.36851 0.585558 5.67332 0 0 0 57 68 71 255
-0.122738 0.730447 5.56523 0 0 0 143 153 153 255
1.41152 0.594987 5.67928 0 0 0 78 76 88 255
0.905688 0.701909 5.65864 0 0 0 132 140 143 255
0.972152 0.697011 5.65707 0 0 0 121 137 138 255
-1.13804 0.868503 5.3666 0 0 0 63 46 39 255
-1.11586 0.873695 5.37346 0 0 0 96 70 57 255
-1.23496 0.882136 5.34683 0 0 0 124 96 76 255
1.7379 0.674299 5.68475 0 0 0 180 187 189 255
0.597003 0.802158 5.62925 0 0 0 159 161 160 255
-1.33923 0.994275 5.31759 0 0 0 74 59 56 255
-0.888675 1.03026 5.43442 0 0 0 117 100 88 255
0.662277 0.914138 5.63891 0 0 0 136 140 139 255
1.43865 0.909874 5.67649 0 0 0 189 198 200 255
1.61756 0.900613 5.6796 0 0 0 161 170 171 255
1.46045 0.929963 5.67739 0 0 0 119 121 122 255
1.48398 0.930494 5.67847 0 0 0 136 142 144 255
1.35467 0.967859 5.66893 0 0 0 169 173 174 255
1.57828 0.943871 5.67936 0 0 0 194 202 200 255
-0.150155 1.12463 5.57391 0 0 0 133 141 134 255
-0.0818883 1.12374 5.57776 0 0 0 194 197 197 255
0.26226 1.0965 5.60839 0 0 0 195 202 201 255
0.10779 1.12608 5.57234 0 0 0 189 197 196 255
1.19603 1.07634 5.66668 0 0 0 145 153 154 255
1.29342 1.06415 5.6702 0 0 0 148 153 154 255
1.25294 1.10645 5.62898 0 0 0 149 161 161 255
1.29647 1.10287 5.6303 0 0 0 174 188 190 255
1.457 1.08295 5.63113 0 0 0 187 199 197 255
1.42088 1.10766 5.66799 0 0 0 196 202 202 255
0.757668 1.17083 5.61243 0 0 0 144 155 158 255
1.36449 1.11843 5.62932 0 0 0 97 95 96 255
1.30374 1.14801 5.62896 0 0 0 169 177 183 255
1.50323 1.13519 5.62556 0 0 0 165 170 171 255
1.6919 1.12159 5.62168 0 0 0 154 166 171 255
1.65071 1.1398 5.66685 0 0 0 143 155 160 255
1.64844 1.17543 5.61 0 0 0 163 169 171 255
1.47989 1.19542 5.61428 0 0 0 136 147 148 255
-1.38766 1.4355 5.31975 0 0 0 158 127 104 255
-0.913642 1.42536 5.41573 0 0 0 129 106 91 255
-0.618034 1.66901 5.45394 0 0 0 134 110 104 255
-0.754252 -0.601554 5.37421 0 0 0 159 108 82 255
-1.20073 -0.525072 5.21486 0 0 0 196 180 165 255
-1.22339 -0.484835 5.20879 0 0 0 196 180 165 255
-1.12814 -0.476702 5.25469 0 0 0 139 111 98 255
-0.899864 -0.460352 5.33774 0 0 0 173 149 137 255
-1.16762 -0.271132 5.2776 0 0 0 158 131 113 255
-1.44331 0.0123797 5.1969 0 0 0 80 74 68 255
1.50255 -0.200526 5.68737 0 0 0 124 135 107 255
-0.87402 0.00499282 5.39239 0 0 0 76 72 70 255
-0.780871 -0.000547924 5.41381 0 0 0 135 126 121 255
1.26697 -0.139689 5.67388 0 0 0 95 108 91 255
1.50525 -0.106946 5.68559 0 0 0 116 125 103 255
1.31412 0.0741783 5.67254 0 0 0 115 122 104 255
1.35793 0.27177 5.68885 0 0 0 91 102 91 255
0.45569 0.552197 5.62203 0 0 0 80 82 90 255
0.791837 0.524748 5.64143 0 0 0 101 112 116 255
1.11593 0.535071 5.64955 0 0 0 85 87 91 255
-1.24072 0.882758 5.34555 0 0 0 124 96 76 255
-0.84691 0.866145 5.43345 0 0 0 92 69 63 255
0.13941 1.00623 5.59985 0 0 0 132 137 138 255
1.61418 0.899631 5.67993 0 0 0 161 170 171 255
1.46012 0.933066 5.67749 0 0 0 120 123 124 255
1.35514 0.966542 5.66924 0 0 0 188 195 195 255
0.0393109 1.09378 5.58565 0 0 0 123 130 132 255
1.4081 1.06199 5.67371 0 0 0 87 95 96 255
1.4543 1.08439 5.63166 0 0 0 187 197 195 255
1.49421 1.13498 5.62497 0 0 0 133 138 139 255
1.46217 1.19726 5.61559 0 0 0 133 142 143 255
1.63493 1.17963 5.61011 0 0 0 146 154 156 255
-0.697784 1.67043 5.45196 0 0 0 131 110 101 255
-1.12287 -0.546442 5.25174 0 0 0 141 93 77 255
-1.55182 -0.425178 5.07687 0 0 0 177 151 132 255
-0.887026 -0.465168 5.34142 0 0 0 148 104 85 255
-1.24453 -0.354357 5.21814 0 0 0 174 161 147 255
-1.34388 -0.287159 5.19963 0 0 0 199 182 164 255
-1.17563 -0.277457 5.2743 0 0 0 193 178 160 255
-1.11586 -0.258779 5.30554 0 0 0 161 136 123 255
-1.1775 -0.193119 5.26988 0 0 0 142 96 75 255
0.298014 -0.209178 5.57223 0 0 0 167 182 129 255
-1.16457 -0.0225281 5.31861 0 0 0 112 104 94 255
-1.08664 -0.0233218 5.33876 0 0 0 139 130 110 255
-0.912005 0.00435074 5.3797 0 0 0 101 94 85 255
-0.877768 0.004327 5.39204 0 0 0 76 72 70 255
0.193258 -0.0706639 5.56392 0 0 0 141 152 126 255
-0.851387 0.186064 5.40715 0 0 0 161 157 154 255
-1.73015 0.341677 5.12397 0 0 0 58 52 45 255
0.901797 0.235924 5.64919 0 0 0 59 70 66 255
0.976662 0.247977 5.6494 0 0 0 100 108 89 255
-0.184058 0.344603 5.52894 0 0 0 136 144 122 255
0.864505 0.293199 5.64778 0 0 0 123 133 112 255
1.36303 0.272534 5.69152 0 0 0 91 102 91 255
1.42899 0.345105 5.6767 0 0 0 151 163 116 255
-0.302655 0.534339 5.5557 0 0 0 90 94 94 255
0.362645 0.528164 5.57358 0 0 0 128 135 135 255
0.54883 0.543998 5.59841 0 0 0 103 108 115 255
1.18059 0.506566 5.67095 0 0 0 126 129 129 255
1.70519 0.481501 5.69724 0 0 0 101 103 106 255
-1.41241 0.730283 5.29276 0 0 0 92 76 63 255
-0.838725 0.797607 5.44292 0 0 0 143 117 96 255
-1.26758 0.825344 5.3393 0 0 0 124 96 81 255
0.769692 0.730181 5.64707 0 0 0 171 177 180 255
-1.01684 0.88265 5.40061 0 0 0 156 123 101 255
-0.849821 0.864529 5.4342 0 0 0 82 58 54 255
1.72016 0.657927 5.68335 0 0 0 65 67 69 255
1.49532 0.752303 5.67686 0 0 0 134 137 137 255
0.59041 0.962689 5.63701 0 0 0 130 139 143 255
0.54822 1.02795 5.63104 0 0 0 143 148 147 255
1.5595 0.942899 5.67861 0 0 0 195 202 200 255
-0.154277 1.09699 5.57187 0 0 0 131 141 135 255
0.353585 1.05179 5.61968 0 0 0 178 187 189 255
1.72726 0.957927 5.6662 0 0 0 160 158 159 255
-0.295541 1.14475 5.5675 0 0 0 165 192 169 255
-0.0753957 1.13547 5.54512 0 0 0 166 169 169 255
1.50985 1.03777 5.67201 0 0 0 192 201 203 255
1.6393 1.13481 5.61783 0 0 0 145 151 152 255
-0.550728 1.57798 5.47684 0 0 0 159 130 113 255
-1.12744 1.63625 5.38239 0 0 0 160 142 127 255
-1.09509 1.64032 5.39432 0 0 0 146 127 115 255
-0.896049 1.64494 5.40199 0 0 0 129 111 97 255
-1.58151 -0.508996 5.04915 0 0 0 153 129 115 255
-0.783843 -0.595947 5.36997 0 0 0 156 134 128 255
1.5034 -0.093197 5.69164 0 0 0 114 122 101 255
-1.31174 0.164724 5.26778 0 0 0 41 38 39 255
-0.705345 0.147116 5.41573 0 0 0 50 48 48 255
0.0631549 0.285029 5.56546 0 0 0 64 79 74 255
0.730397 0.275677 5.63036 0 0 0 167 183 127 255
1.13231 0.390166 5.67413 0 0 0 159 177 123 255
0.157557 0.486496 5.58245 0 0 0 53 54 51 255
-1.43791 0.751763 5.28626 0 0 0 115 92 76 255
1.72602 0.687541 5.68133 0 0 0 179 184 185 255
1.29959 0.79031 5.67228 0 0 0 116 127 130 255
-1.41526 1.04365 5.297 0 0 0 138 114 95 255
1.51022 0.877467 5.67693 0 0 0 99 106 110 255
-0.289972 1.07874 5.53926 0 0 0 163 191 171 255
-0.133898 1.22235 5.56394 0 0 0 134 135 135 255
0.429539 1.16942 5.59022 0 0 0 182 186 187 255
-1.07703 1.30431 5.38196 0 0 0 161 135 113 255
1.3021 1.17076 5.62431 0 0 0 178 180 182 255
1.63655 1.135 5.61678 0 0 0 145 151 152 255
-0.361685 1.41652 5.5126 0 0 0 134 113 102 255
-0.547612 1.56538 5.47931 0 0 0 156 129 111 255
0.487 1.48382 5.55192 0 0 0 87 99 97 255
-1.11605 1.64074 5.38735 0 0 0 158 140 125 255
-1.45673 -0.487446 5.11513 0 0 0 156 142 128 255
-1.50987 -0.457637 5.10006 0 0 0 160 130 114 255
-1.54408 -0.18315 5.13689 0 0 0 146 128 111 255
-0.951766 -0.190671 5.36098 0 0 0 148 108 87 255
-1.25 -0.167446 5.24546 0 0 0 162 131 113 255
-1.02579 -0.189503 5.33439 0 0 0 150 110 85 255
0.498034 -0.291474 5.58658 0 0 0 74 84 80 255
0.781627 -0.00924601 5.62754 0 0 0 167 185 125 255
0.155118 0.102501 5.56257 0 0 0 81 87 80 255
0.608185 0.0826663 5.62271 0 0 0 55 63 60 255
0.00174629 0.259522 5.55453 0 0 0 89 99 89 255
0.720648 0.229901 5.64029 0 0 0 164 181 125 255
-1.69864 0.426246 5.13427 0 0 0 50 36 34 255
0.20728 0.308626 5.57765 0 0 0 62 69 64 255
0.64146 0.313059 5.62427 0 0 0 57 66 63 255
0.918896 0.280913 5.65211 0 0 0 157 168 121 255
-1.51195 0.564718 5.2539 0 0 0 49 40 38 255
1.13883 0.357602 5.67506 0 0 0 157 175 124 255
1.26952 0.812416 5.6674 0 0 0 109 113 114 255
-1.49363 1.05081 5.28049 0 0 0 172 140 114 255
-1.45031 1.04218 5.28638 0 0 0 162 136 113 255
-0.284597 1.08647 5.54525 0 0 0 167 197 169 255
0.651029 0.962199 5.6395 0 0 0 195 207 206 255
-1.32497 1.18718 5.33298 0 0 0 145 118 95 255
1.41768 1.03677 5.674 0 0 0 98 100 102 255
1.62394 1.01079 5.68118 0 0 0 91 95 97 255
-0.315864 1.2314 5.51127 0 0 0 51 52 52 255
-0.0698828 1.20768 5.57145 0 0 0 197 204 203 255
0.589747 1.27496 5.59394 0 0 0 162 171 172 255
1.22883 -0.415281 5.66804 0 0 0 168 187 126 255
0.548004 -0.248795 5.59037 0 0 0 79 89 84 255
0.589616 -0.0212913 5.61517 0 0 0 52 59 57 255
-1.15029 0.197388 5.30504 0 0 0 38 38 36 255
0.130103 0.204339 5.56669 0 0 0 153 173 125 255
-0.161633 0.312191 5.5334 0 0 0 156 176 148 255
1.34145 0.352238 5.69168 0 0 0 165 181 124 255
1.14394 0.454955 5.68364 0 0 0 57 56 51 255
-1.62926 0.64529 5.19107 0 0 0 139 111 90 255
0.783351 0.754407 5.64829 0 0 0 165 174 175 255
-1.14937 0.967253 5.36503 0 0 0 104 84 71 255
1.46796 0.875521 5.6737 0 0 0 102 105 104 255
1.4263 0.981223 5.67324 0 0 0 130 134 135 255
1.8571 -0.952769 5.87355 0 0 0 119 127 133 255
-0.470963 -0.93296 5.85104 0 0 0 73 64 64 255
1.89447 -0.913593 5.82299 0 0 0 107 113 114 255
-0.500023 -0.899427 5.80183 0 0 0 215 207 207 255
-0.503569 -0.891399 5.80922 0 0 0 210 211 208 255
1.80852 -0.815682 5.97752 0 0 0 162 166 167 255
1.85525 -0.790598 5.84619 0 0 0 147 125 105 255
-0.433111 -0.741152 5.83155 0 0 0 152 154 156 255
-0.46489 -0.722361 5.74392 0 0 0 165 170 169 255
-0.453563 -0.684862 5.64359 0 0 0 143 138 133 255
-1.01451 -0.631643 5.3878 0 0 0 186 153 148 255
-1.10236 -0.505332 5.34026 0 0 0 195 182 169 255
-0.810438 -0.508945 5.45106 0 0 0 198 179 166 255
-0.807602 -0.493551 5.45029 0 0 0 179 154 141 255
-2.59014 -0.754863 7.7116 0 0 0 156 117 103 255
2.80644 -0.403278 5.767 0 0 0 189 146 114 255
2.53853 -0.385989 5.74692 0 0 0 192 168 157 255
2.64833 -0.387297 5.75461 0 0 0 194 163 145 255
2.86734 -0.378115 5.76909 0 0 0 208 168 144 255
2.59694 -0.359185 5.75498 0 0 0 180 130 93 255
2.69871 -0.352935 5.76349 0 0 0 190 161 147 255
2.75569 -0.352121 5.76266 0 0 0 206 159 129 255
2.63097 -0.33196 5.75793 0 0 0 165 151 147 255
2.59717 -0.321622 5.756 0 0 0 196 189 189 255
0.612676 -0.264403 5.57409 0 0 0 117 134 99 255
2.72844 -0.299761 5.77059 0 0 0 175 129 96 255
2.54127 -0.278175 5.75209 0 0 0 189 160 145 255
2.65038 -0.281583 5.76356 0 0 0 202 166 147 255
2.76046 -0.281371 5.77263 0 0 0 198 194 193 255
2.80942 -0.285071 5.7739 0 0 0 195 190 192 255
2.70531 -0.277508 5.77207 0 0 0 194 188 188 255
-1.08003 -0.18177 5.38523 0 0 0 192 176 161 255
-0.967884 -0.185957 5.4308 0 0 0 170 132 122 255
0.678329 -0.218199 5.5875 0 0 0 130 144 98 255
1.01612 -0.222127 5.59183 0 0 0 53 71 60 255
0.898931 -0.203083 5.58788 0 0 0 150 162 112 255
0.173859 -0.168643 5.53734 0 0 0 84 92 89 255
0.886755 -0.182876 5.58789 0 0 0 141 149 124 255
2.67044 -0.193664 5.75993 0 0 0 202 194 194 255
0.657267 -0.133737 5.58609 0 0 0 83 94 70 255
0.872864 -0.105159 5.59285 0 0 0 78 85 57 255
2.78172 -0.135875 5.77628 0 0 0 176 129 103 255
2.81495 -0.136675 5.77297 0 0 0 198 195 196 255
2.76779 -0.132028 5.77948 0 0 0 170 138 115 255
-1.10334 -0.0343094 5.40288 0 0 0 94 81 67 255
2.6386 -0.117543 5.76803 0 0 0 209 186 179 255
2.67452 -0.119654 5.76873 0 0 0 206 191 184 255
2.81426 -0.118635 5.77706 0 0 0 198 197 196 255
2.64925 -0.0950225 5.76952 0 0 0 157 149 145 255
2.75686 -0.0851941 5.78689 0 0 0 175 129 104 255
-0.830479 0.00490176 5.47961 0 0 0 158 153 153 255
2.6525 -0.0636111 5.76971 0 0 0 183 130 91 255
-0.0893309 0.00635622 5.53269 0 0 0 152 167 130 255
0.831577 -0.014737 5.59785 0 0 0 157 168 126 255
2.67758 -0.0419471 5.77253 0 0 0 200 200 200 255
2.80422 -0.0445567 5.78185 0 0 0 202 190 186 255
0.816034 0.00117905 5.59566 0 0 0 129 147 105 255
0.658494 0.0582937 5.61153 0 0 0 130 141 114 255
0.787572 0.0556414 5.60901 0 0 0 132 144 99 255
1.04162 0.0515364 5.61531 0 0 0 94 108 92 255
1.16238 0.0570602 5.63507 0 0 0 77 86 85 255
0.998818 0.0926745 5.62179 0 0 0 95 106 96 255
-0.191208 0.20001 5.5451 0 0 0 115 126 112 255
2.84055 0.13791 5.79693 0 0 0 209 166 122 255
2.88254 0.135715 5.79436 0 0 0 198 166 128 255
0.934289 0.199943 5.63327 0 0 0 86 93 90 255
1.02417 0.25242 5.63338 0 0 0 83 93 85 255
-0.125973 0.370911 5.56066 0 0 0 127 140 119 255
0.911613 0.402781 5.64409 0 0 0 84 90 76 255
0.527815 0.498587 5.61387 0 0 0 93 104 108 255
0.361497 0.506154 5.64771 0 0 0 66 74 83 255
0.478493 0.499106 5.62352 0 0 0 104 106 106 255
2.32128 0.493722 5.78655 0 0 0 147 96 71 255
0.0635054 0.558914 5.58484 0 0 0 139 137 141 255
1.22942 0.538199 5.69119 0 0 0 79 92 101 255
2.47969 0.554518 5.80484 0 0 0 155 102 62 255
2.93298 0.564594 5.83011 0 0 0 118 142 152 255
1.61767 0.595717 5.70174 0 0 0 72 80 87 255
2.98456 0.594143 5.83044 0 0 0 160 143 119 255
0.526671 0.838036 5.66125 0 0 0 165 170 174 255
2.9418 0.780234 5.83182 0 0 0 158 167 171 255
-0.00624472 0.970552 5.62849 0 0 0 134 140 143 255
-0.765287 1.00749 5.50975 0 0 0 112 90 80 255
0.458373 1.03146 5.66901 0 0 0 165 170 172 255
1.43703 1.11516 5.74836 0 0 0 138 142 145 255
1.61467 1.17212 5.75997 0 0 0 79 81 81 255
1.5785 1.18628 5.75599 0 0 0 100 99 102 255
-0.00048221 1.37966 5.66484 0 0 0 119 128 120 255
-0.931269 1.39673 5.35437 0 0 0 139 129 121 255
2.951 1.27331 5.6203 0 0 0 165 170 172 255
2.2374 1.38712 5.77528 0 0 0 183 131 123 255
2.46417 1.40759 5.8535 0 0 0 195 171 170 255
2.49558 1.38755 5.76515 0 0 0 182 142 135 255
2.54919 1.40287 5.86698 0 0 0 197 154 146 255
2.68573 1.39209 5.85099 0 0 0 192 159 149 255
2.35946 1.40512 5.76519 0 0 0 195 174 171 255
2.52667 1.40204 5.75878 0 0 0 179 158 156 255
2.5634 1.39583 5.73583 0 0 0 187 175 176 255
2.62419 1.38527 5.71344 0 0 0 195 178 174 255
2.85638 1.33309 5.55214 0 0 0 203 148 130 255
2.78 1.37577 5.66541 0 0 0 204 157 144 255
2.81148 1.36151 5.6105 0 0 0 209 167 163 255
2.98573 1.39047 5.82972 0 0 0 181 149 145 255
2.25921 1.42959 5.72988 0 0 0 201 189 189 255
2.51378 1.43874 5.84666 0 0 0 201 189 191 255
2.75377 1.40139 5.77173 0 0 0 203 166 158 255
2.46197 1.45504 5.8534 0 0 0 199 183 182 255
2.59315 1.41941 5.73098 0 0 0 173 149 147 255
2.63468 1.42172 5.73269 0 0 0 208 191 191 255
2.68183 1.41174 5.70063 0 0 0 189 180 178 255
2.772 1.40314 5.66693 0 0 0 188 167 170 255
2.85967 1.36936 5.56215 0 0 0 200 153 144 255
2.97358 1.41748 5.81246 0 0 0 205 167 163 255
2.71525 1.42401 5.6858 0 0 0 171 141 137 255
0.740621 1.70481 5.76166 0 0 0 67 76 84 255
1.30872 1.72018 5.80146 0 0 0 114 118 122 255
0.844139 1.7484 5.77197 0 0 0 72 77 80 255
1.14806 1.73679 5.78986 0 0 0 137 139 140 255
1.2328 1.72668 5.79612 0 0 0 121 128 136 255
1.52692 1.71227 5.81411 0 0 0 87 96 99 255
1.19521 1.74047 5.79779 0 0 0 121 127 132 255
1.30941 1.73466 5.80222 0 0 0 114 113 114 255
1.35712 1.72608 5.80831 0 0 0 138 146 155 255
1.42655 1.72263 5.80445 0 0 0 137 137 137 255
1.44817 1.73305 5.80767 0 0 0 94 99 104 255
1.47445 1.72439 5.80631 0 0 0 99 120 125 255
1.51887 1.72604 5.81292 0 0 0 119 135 142 255
0.791752 1.76119 5.76476 0 0 0 124 130 135 255
1.28933 1.73824 5.80499 0 0 0 155 160 165 255
1.41692 1.74649 5.80045 0 0 0 144 144 144 255
0.871295 1.76923 5.77182 0 0 0 147 147 149 255
0.956958 1.76459 5.77091 0 0 0 117 118 121 255
1.06526 1.76105 5.78429 0 0 0 160 162 164 255
1.12506 1.75718 5.78979 0 0 0 144 148 150 255
1.19677 1.74894 5.79683 0 0 0 143 150 150 255
1.42453 1.74102 5.80328 0 0 0 140 141 141 255
1.18014 1.76804 5.79582 0 0 0 113 119 122 255
1.25526 1.77272 5.8053 0 0 0 119 125 128 255
1.48663 1.75304 5.8082 0 0 0 156 158 162 255
1.5338 1.75102 5.81815 0 0 0 157 160 166 255
1.31241 1.76141 5.80428 0 0 0 106 113 117 255
-0.33982 1.897 5.6242 0 0 0 150 156 159 255
-0.560102 1.90124 5.51856 0 0 0 119 86 86 255
-0.391761 1.90741 5.54958 0 0 0 119 97 101 255
-0.492543 -0.923742 5.75187 0 0 0 83 73 73 255
2.72229 -0.314726 5.76924 0 0 0 168 135 119 255
2.54202 -0.27814 5.75039 0 0 0 196 187 186 255
2.65084 -0.288207 5.75869 0 0 0 195 195 195 255
2.80988 -0.289277 5.77387 0 0 0 195 190 192 255
2.74412 -0.279684 5.7717 0 0 0 196 165 151 255
2.87217 -0.280639 5.77711 0 0 0 204 182 171 255
0.654213 -0.109247 5.58801 0 0 0 58 70 66 255
2.63765 -0.116553 5.76834 0 0 0 209 186 179 255
2.79723 -0.11769 5.77892 0 0 0 191 160 146 255
2.6288 -0.0805398 5.77101 0 0 0 184 127 85 255
2.66028 -0.045551 5.77016 0 0 0 206 176 169 255
2.87305 -0.0416027 5.79142 0 0 0 202 184 177 255
2.58951 -0.037535 5.77726 0 0 0 197 190 188 255
2.75053 -0.0378912 5.79096 0 0 0 202 192 191 255
2.78941 -0.0417274 5.78578 0 0 0 200 187 185 255
-0.0959274 0.153688 5.54859 0 0 0 137 151 116 255
0.150493 0.415674 5.58552 0 0 0 161 176 139 255
-0.0921475 0.547187 5.57562 0 0 0 44 48 53 255
2.93604 0.564046 5.826 0 0 0 118 142 152 255
2.93327 0.640922 5.82641 0 0 0 123 141 144 255
2.96511 0.674049 5.82469 0 0 0 159 161 147 255
0.518892 0.838204 5.66111 0 0 0 174 179 183 255
0.0074588 0.997645 5.6287 0 0 0 171 182 185 255
0.990017 1.1435 5.72693 0 0 0 183 192 195 255
2.45787 1.42573 5.89459 0 0 0 191 135 118 255
2.51661 1.42434 5.87541 0 0 0 184 152 145 255
2.84605 1.3369 5.55089 0 0 0 173 143 140 255
2.7123 1.42312 5.68703 0 0 0 171 141 137 255
2.77274 1.39769 5.65327 0 0 0 180 159 162 255
-0.357804 1.76383 5.57473 0 0 0 137 109 102 255
1.41193 1.73208 5.80636 0 0 0 163 173 179 255
1.12345 1.74654 5.78796 0 0 0 143 146 147 255
1.23057 1.75527 5.79823 0 0 0 145 145 145 255
-0.589458 1.80646 5.46673 0 0 0 170 131 119 255
-0.455333 -0.913038 5.48958 0 0 0 196 186 178 255
1.84877 -0.940176 5.88822 0 0 0 90 119 140 255
-0.486041 -0.926228 5.77 0 0 0 80 69 69 255
1.83322 -0.928038 5.91812 0 0 0 110 112 116 255
-0.497912 -0.885986 5.81732 0 0 0 210 211 208 255
1.79833 -0.829274 6.01927 0 0 0 163 167 167 255
-0.487684 -0.754261 5.79368 0 0 0 183 184 182 255
-0.428395 -0.745886 5.85446 0 0 0 159 163 163 255
-0.925548 -0.621313 5.41707 0 0 0 146 120 104 255
-0.424179 -0.647975 5.55621 0 0 0 120 119 117 255
-0.831288 -0.502952 5.45327 0 0 0 149 104 85 255
2.80745 -0.398157 5.76535 0 0 0 199 186 181 255
2.54532 -0.372602 5.74852 0 0 0 199 189 190 255
2.59439 -0.384282 5.75319 0 0 0 183 126 82 255
2.64361 -0.373575 5.75467 0 0 0 210 181 167 255
-1.14128 -0.284827 5.33377 0 0 0 156 131 118 255
-7.20035 -1.07678 15.9399 0 0 0 151 103 81 255
2.86465 -0.359114 5.76725 0 0 0 197 194 193 255
2.54053 -0.286875 5.74926 0 0 0 189 162 146 255
0.626599 -0.205123 5.5777 0 0 0 75 85 77 255
-1.16247 -0.147518 5.35871 0 0 0 127 113 101 255
0.194644 -0.142746 5.54791 0 0 0 148 157 127 255
2.66144 -0.198347 5.76083 0 0 0 199 193 194 255
2.7863 -0.161833 5.77243 0 0 0 202 180 162 255
2.65684 -0.105442 5.76774 0 0 0 197 188 187 255
-0.102211 0.0113015 5.53045 0 0 0 90 99 90 255
1.03127 -0.0189224 5.61161 0 0 0 47 59 55 255
0.367537 0.0110665 5.56163 0 0 0 82 91 77 255
-0.431671 0.0774122 5.54628 0 0 0 197 181 168 255
1.10693 0.395859 5.67068 0 0 0 159 173 128 255
1.40021 0.389014 5.65897 0 0 0 158 175 128 255
0.492957 0.547709 5.61555 0 0 0 83 84 86 255
0.705034 0.527766 5.6387 0 0 0 113 118 118 255
2.93572 0.567922 5.827 0 0 0 124 136 138 255
2.17463 0.61841 5.78134 0 0 0 198 153 104 255
0.264684 0.92831 5.64954 0 0 0 189 199 201 255
1.67597 0.956631 5.74736 0 0 0 162 168 171 255
1.57756 1.01146 5.73412 0 0 0 108 113 116 255
-0.0927984 1.16731 5.63178 0 0 0 125 131 134 255
0.982825 1.14876 5.72589 0 0 0 183 192 196 255
2.633 1.38664 5.72773 0 0 0 207 188 184 255
2.52351 1.40744 5.7588 0 0 0 205 189 189 255
2.43243 1.4341 5.76992 0 0 0 186 163 162 255
2.83987 1.37795 5.58066 0 0 0 192 180 180 255
2.7524 1.45621 5.84909 0 0 0 171 141 137 255
1.19647 1.75062 5.79735 0 0 0 143 150 150 255
1.35337 1.73481 5.80524 0 0 0 140 148 154 255
-0.3565 1.7693 5.57298 0 0 0 136 115 105 255
0.967099 1.751 5.77614 0 0 0 117 116 116 255
1.05297 1.75056 5.77727 0 0 0 142 146 149 255
1.52408 1.74003 5.81802 0 0 0 161 168 169 255
-0.47858 -0.922701 5.77299 0 0 0 86 65 66 255
1.78181 -0.842807 6.04305 0 0 0 165 168 167 255
-0.393721 -0.74129 5.80714 0 0 0 158 164 162 255
2.79695 -0.389505 5.76472 0 0 0 180 132 89 255
2.74953 -0.291236 5.77569 0 0 0 180 142 124 255
2.55997 -0.188613 5.75709 0 0 0 194 158 141 255
0.388519 -0.0644411 5.55814 0 0 0 68 80 76 255
2.60331 -0.118572 5.77599 0 0 0 183 126 82 255
0.879209 0.00852289 5.60407 0 0 0 78 86 81 255
2.57129 -0.0634651 5.77426 0 0 0 194 198 202 255
2.76823 -0.047407 5.79253 0 0 0 202 171 156 255
-0.0243992 0.0704704 5.54411 0 0 0 95 107 94 255
0.909819 0.0392094 5.60401 0 0 0 44 51 48 255
0.755726 0.181284 5.60722 0 0 0 156 173 124 255
2.01726 0.334493 5.75361 0 0 0 70 58 63 255
1.09328 0.410977 5.66675 0 0 0 130 149 97 255
2.39214 0.474344 5.79131 0 0 0 191 143 103 255
2.26516 0.549662 5.79418 0 0 0 208 154 90 255
0.611988 0.836823 5.66379 0 0 0 196 205 207 255
-0.255282 1.02253 5.60578 0 0 0 81 96 91 255
-0.0464262 1.07156 5.62746 0 0 0 195 206 207 255
-0.216777 1.08073 5.61209 0 0 0 167 195 169 255
-0.35087 1.19128 5.60352 0 0 0 51 45 41 255
1.01674 1.19507 5.72253 0 0 0 199 208 211 255
1.36045 1.30044 5.75762 0 0 0 147 156 158 255
-0.940813 1.37293 5.37515 0 0 0 91 68 60 255
2.13376 1.32968 5.87395 0 0 0 121 96 93 255
-0.686573 1.44817 5.49622 0 0 0 106 66 67 255
2.39173 1.42072 5.7771 0 0 0 181 141 136 255
-0.483249 -0.889117 5.49146 0 0 0 197 187 182 255
1.85376 -0.921892 5.90041 0 0 0 85 119 143 255
1.77927 -0.872175 6.01906 0 0 0 166 168 167 255
-0.343419 -0.757248 5.79806 0 0 0 158 165 162 255
1.84758 -0.695297 5.66138 0 0 0 53 53 55 255
-0.822197 -0.59032 5.4393 0 0 0 146 99 85 255
-1.09283 -0.478432 5.35029 0 0 0 140 104 87 255
0.141977 -0.119362 5.53962 0 0 0 85 94 82 255
0.39164 -0.158626 5.55525 0 0 0 116 132 117 255
2.54272 -0.117906 5.76476 0 0 0 207 185 175 255
-1.10083 -0.00329129 5.39154 0 0 0 154 146 141 255
1.33305 -0.0577901 5.63188 0 0 0 149 162 124 255
0.699433 -0.0192403 5.59947 0 0 0 168 186 132 255
0.893818 0.0497603 5.60498 0 0 0 55 64 61 255
-1.17184 0.180334 5.37183 0 0 0 39 37 36 255
-1.15516 0.177673 5.41584 0 0 0 40 40 40 255
-0.90105 0.171379 5.46259 0 0 0 45 42 43 255
0.759244 0.188481 5.61079 0 0 0 154 171 122 255
0.629386 0.290478 5.61571 0 0 0 53 62 59 255
1.0853 0.338592 5.65701 0 0 0 47 59 57 255
2.34845 0.324923 5.79126 0 0 0 160 162 159 255
1.47546 0.488661 5.68385 0 0 0 149 152 153 255
2.26589 0.541058 5.79218 0 0 0 197 144 80 255
2.4542 0.558134 5.80483 0 0 0 190 144 98 255
0.116643 0.708227 5.61502 0 0 0 173 180 183 255
1.06447 0.721614 5.68927 0 0 0 195 205 208 255
1.07208 0.683641 5.68862 0 0 0 168 171 174 255
1.70562 0.687403 5.70662 0 0 0 178 185 188 255
-0.219226 0.856037 5.59816 0 0 0 55 63 66 255
1.7075 0.902966 5.73288 0 0 0 177 181 184 255
0.323132 1.12379 5.66721 0 0 0 109 119 122 255
2.21685 1.10675 5.83046 0 0 0 188 199 204 255
-0.796089 1.29312 5.50918 0 0 0 132 112 103 255
-0.41158 1.44733 5.5915 0 0 0 136 112 98 255
-0.420064 -0.654141 5.58693 0 0 0 63 64 64 255
0.523806 -0.268943 5.54859 0 0 0 66 78 74 255
0.901988 -0.192491 5.59004 0 0 0 113 125 93 255
1.13343 -0.204299 5.5905 0 0 0 64 71 66 255
1.16299 -0.144422 5.59963 0 0 0 61 70 67 255
0.897234 0.157366 5.6219 0 0 0 53 58 57 255
1.93251 0.204391 5.78164 0 0 0 135 95 75 255
0.704842 0.340696 5.63116 0 0 0 150 153 113 255
2.12926 0.646315 5.78756 0 0 0 184 127 85 255
1.45474 0.709398 5.71034 0 0 0 194 203 207 255
1.92812 0.708548 5.76949 0 0 0 99 106 109 255
2.29569 0.738349 5.82145 0 0 0 66 59 61 255
-0.373948 0.810552 5.5911 0 0 0 36 34 34 255
1.68793 0.89493 5.72757 0 0 0 163 167 168 255
0.609727 0.976969 5.67149 0 0 0 197 206 209 255
-0.0674314 1.21697 5.63068 0 0 0 196 208 207 255
3.65829 -2.13316 8.40368 0 0 0 121 123 125 255
-0.496153 -0.901715 5.70773 0 0 0 87 87 85 255
2.92593 -0.403553 5.73743 0 0 0 213 170 147 255
3.0842 -0.405638 5.75541 0 0 0 211 168 142 255
3.38868 -0.411281 5.75904 0 0 0 189 162 151 255
3.25715 -0.400211 5.75052 0 0 0 195 153 126 255
0.561628 -0.289644 5.5521 0 0 0 96 107 97 255
2.87741 -0.35346 5.72129 0 0 0 183 172 167 255
2.92631 -0.351545 5.72841 0 0 0 207 168 154 255
2.97111 -0.353539 5.72727 0 0 0 218 179 158 255
3.01659 -0.35984 5.73326 0 0 0 188 173 169 255
3.38454 -0.35508 5.74724 0 0 0 207 178 163 255
3.5121 -0.360239 5.74499 0 0 0 187 162 152 255
2.55905 -0.327059 5.70592 0 0 0 154 144 138 255
3.00144 -0.33253 5.73454 0 0 0 162 131 119 255
3.53712 -0.469028 7.0441 0 0 0 192 176 173 255
4.1291 -0.551115 7.73744 0 0 0 186 159 145 255
1.02615 -0.242352 5.58576 0 0 0 109 123 109 255
3.00139 -0.296833 5.73382 0 0 0 179 127 94 255
3.14646 -0.309875 5.75023 0 0 0 150 136 129 255
4.07122 -0.508407 7.67914 0 0 0 167 131 108 255
2.92761 -0.280524 5.7371 0 0 0 195 180 176 255
3.08011 -0.280118 5.73738 0 0 0 192 185 187 255
3.68202 -0.412311 7.05176 0 0 0 191 185 178 255
3.38092 -0.288883 5.7471 0 0 0 184 154 142 255
4.09948 -0.620247 9.14012 0 0 0 204 185 181 255
4.12793 -0.491441 7.75477 0 0 0 196 181 174 255
3.53365 -0.287876 5.74883 0 0 0 185 187 189 255
2.97186 -0.237665 5.74307 0 0 0 183 163 156 255
0.943179 -0.131587 5.57957 0 0 0 78 95 89 255
3.36684 -0.196593 5.78287 0 0 0 217 171 149 255
3.38514 -0.183825 5.77638 0 0 0 178 131 111 255
1.51586 -0.119878 5.60162 0 0 0 113 126 108 255
3.00335 -0.155334 5.75725 0 0 0 200 185 181 255
4.01681 -0.329685 8.01308 0 0 0 216 186 176 255
4.35211 -0.363503 8.39774 0 0 0 210 190 185 255
0.958606 -0.0815682 5.5854 0 0 0 134 144 111 255
3.05606 -0.137328 5.75009 0 0 0 168 134 114 255
3.1315 -0.138898 5.75683 0 0 0 165 133 116 255
3.84392 -0.290628 7.81939 0 0 0 159 136 125 255
3.85128 -0.290687 7.81476 0 0 0 161 130 115 255
3.38112 -0.138914 5.76915 0 0 0 162 158 156 255
4.29275 -0.351544 9.15287 0 0 0 192 195 196 255
4.2766 -0.362513 8.88602 0 0 0 174 128 100 255
0.672679 -0.0441152 5.58735 0 0 0 95 105 90 255
3.80036 -0.213751 7.75007 0 0 0 151 139 133 255
0.984812 -0.0239512 5.60021 0 0 0 52 71 67 255
2.89798 -0.0643093 5.76801 0 0 0 170 125 100 255
3.38769 -0.0759117 5.79125 0 0 0 162 153 149 255
3.00505 -0.0491856 5.7633 0 0 0 197 170 168 255
3.08586 -0.0503079 5.77087 0 0 0 208 188 185 255
3.15975 -0.0513192 5.76476 0 0 0 193 181 181 255
3.91288 -0.179237 7.92315 0 0 0 189 157 142 255
4.40116 -0.251814 9.025 0 0 0 191 172 162 255
1.01917 0.0818373 5.59964 0 0 0 80 96 84 255
0.967135 0.120751 5.62204 0 0 0 83 97 95 255
3.12201 0.072901 5.79379 0 0 0 209 157 114 255
3.26222 0.0784656 5.80056 0 0 0 190 145 107 255
3.0814 0.0859174 5.79397 0 0 0 205 158 121 255
3.32132 0.129165 5.79235 0 0 0 191 166 136 255
0.503477 0.501423 5.62755 0 0 0 57 68 72 255
0.040959 0.541905 5.60657 0 0 0 39 53 64 255
0.329353 0.530262 5.61471 0 0 0 31 41 49 255
0.0170129 0.546404 5.60772 0 0 0 133 142 143 255
0.365706 0.543329 5.62301 0 0 0 141 143 145 255
1.08703 0.526727 5.70473 0 0 0 141 143 145 255
3.04583 0.479489 5.82401 0 0 0 125 151 162 255
1.64485 0.522185 5.69787 0 0 0 93 93 95 255
3.21635 0.582818 5.84594 0 0 0 172 161 149 255
3.24335 0.613383 5.85407 0 0 0 159 156 149 255
3.21064 0.667291 5.8635 0 0 0 167 173 165 255
2.14158 0.729882 5.78892 0 0 0 176 105 77 255
3.12328 0.717086 5.85115 0 0 0 146 148 147 255
3.1526 0.724018 5.85098 0 0 0 167 167 164 255
0.0566654 0.836972 5.64541 0 0 0 142 148 154 255
0.18631 0.973935 5.66257 0 0 0 169 187 190 255
1.74446 0.958965 5.73529 0 0 0 146 155 158 255
0.0236016 1.1574 5.65042 0 0 0 190 197 200 255
1.40178 1.17642 5.75299 0 0 0 162 170 175 255
3.16091 1.15406 5.91568 0 0 0 152 150 128 255
3.12275 1.40208 5.95522 0 0 0 188 147 136 255
3.35339 1.38014 5.92834 0 0 0 181 124 109 255
3.31185 1.39319 5.92634 0 0 0 189 173 175 255
3.25554 1.41337 5.9153 0 0 0 185 149 146 255
3.57304 1.36749 5.77493 0 0 0 215 177 172 255
2.64443 1.45038 5.90464 0 0 0 165 118 106 255
3.17547 1.43796 5.90232 0 0 0 202 183 181 255
3.24517 1.43364 5.91329 0 0 0 198 193 195 255
3.30524 1.43322 5.92288 0 0 0 189 152 153 255
3.65115 1.40358 5.82324 0 0 0 181 161 162 255
1.25094 1.7447 5.82466 0 0 0 93 101 106 255
0.818954 1.76032 5.7794 0 0 0 160 165 166 255
0.884778 1.76139 5.79003 0 0 0 125 133 138 255
3.25803 -0.39423 5.74957 0 0 0 192 156 137 255
1.00163 -0.259803 5.58937 0 0 0 135 148 115 255
1.13114 -0.259104 5.58998 0 0 0 109 125 105 255
2.9955 -0.316205 5.73248 0 0 0 177 127 94 255
1.16276 -0.256469 5.5897 0 0 0 139 157 126 255
2.92737 -0.289743 5.73677 0 0 0 195 180 174 255
3.67535 -0.413162 7.04199 0 0 0 192 191 190 255
3.52668 -0.29288 5.74779 0 0 0 191 161 146 255
3.16904 -0.274525 5.75575 0 0 0 204 186 184 255
4.12567 -0.489046 7.79157 0 0 0 196 185 182 255
3.85643 -0.385704 6.53127 0 0 0 194 188 190 255
2.96848 -0.238932 5.73957 0 0 0 182 163 157 255
3.00278 -0.154969 5.75842 0 0 0 199 155 132 255
2.89778 -0.118001 5.74433 0 0 0 181 125 90 255
3.04126 -0.121872 5.74627 0 0 0 179 128 95 255
3.11629 -0.122077 5.75223 0 0 0 168 128 104 255
4.43342 -0.391593 9.71903 0 0 0 192 175 166 255
2.88864 -0.0741313 5.76439 0 0 0 180 128 98 255
3.00495 -0.0492546 5.76318 0 0 0 197 170 168 255
3.08341 -0.0537296 5.77463 0 0 0 208 188 185 255
3.1555 -0.0505138 5.76269 0 0 0 193 181 181 255
3.21907 -0.0513264 5.77384 0 0 0 165 142 136 255
-0.094572 0.136496 5.55815 0 0 0 126 137 129 255
0.0645581 0.396389 5.60698 0 0 0 52 66 63 255
1.14916 0.503773 5.65553 0 0 0 135 141 143 255
1.7089 0.595469 5.71845 0 0 0 100 113 122 255
3.25451 0.78295 5.86257 0 0 0 111 135 128 255
3.07219 0.976869 5.88623 0 0 0 188 177 120 255
0.171835 1.09112 5.66838 0 0 0 191 208 210 255
1.30796 1.06901 5.75113 0 0 0 86 97 102 255
0.584346 1.13031 5.69639 0 0 0 126 142 147 255
2.59523 1.45303 5.90243 0 0 0 196 186 187 255
2.74951 1.43639 5.91628 0 0 0 182 173 174 255
3.23457 1.4242 5.92125 0 0 0 191 181 181 255
0.726443 1.73293 5.78125 0 0 0 90 104 109 255
3.66382 -2.2693 8.39605 0 0 0 75 68 68 255
3.66533 -2.15178 8.40564 0 0 0 74 72 74 255
-0.524886 -0.969421 5.90126 0 0 0 84 86 85 255
-0.232689 -0.462071 5.52125 0 0 0 35 45 42 255
2.91987 -0.394125 5.72784 0 0 0 196 166 156 255
3.08325 -0.395523 5.75366 0 0 0 200 181 176 255
3.26246 -0.386435 5.75174 0 0 0 192 183 179 255
3.00684 -0.35467 5.73279 0 0 0 211 184 173 255
3.15898 -0.278873 5.75296 0 0 0 189 170 168 255
4.10487 -0.488494 7.75173 0 0 0 196 185 182 255
3.52542 -0.29382 5.74731 0 0 0 191 161 146 255
0.893404 -0.14213 5.57866 0 0 0 70 86 81 255
2.90107 -0.142857 5.73745 0 0 0 151 141 140 255
2.92002 -0.157857 5.7435 0 0 0 209 188 182 255
3.15024 -0.160699 5.76449 0 0 0 199 181 176 255
3.85276 -0.332844 7.81978 0 0 0 192 176 175 255
2.90487 -0.0995719 5.75151 0 0 0 180 125 85 255
3.04093 -0.111045 5.74575 0 0 0 180 127 96 255
2.86454 -0.0584198 5.75529 0 0 0 198 200 204 255
3.16159 -0.0723372 5.76891 0 0 0 194 182 180 255
3.08377 -0.0467844 5.77112 0 0 0 208 188 185 255
2.91613 -0.0426679 5.76442 0 0 0 216 186 170 255
3.82298 -0.157672 7.78367 0 0 0 197 194 197 255
3.84486 -0.158007 7.77677 0 0 0 198 185 182 255
3.37354 -0.0552511 5.78438 0 0 0 197 198 199 255
0.589581 0.165302 5.59863 0 0 0 132 145 111 255
0.210782 0.23738 5.57832 0 0 0 68 90 84 255
3.1455 0.295835 5.80481 0 0 0 183 186 185 255
1.15392 0.504542 5.62979 0 0 0 135 141 143 255
3.40776 0.445802 5.82612 0 0 0 167 191 204 255
1.63122 0.505274 5.69409 0 0 0 147 147 147 255
3.15741 0.602575 5.83474 0 0 0 71 72 79 255
3.23532 0.616507 5.854 0 0 0 168 155 139 255
3.20622 0.65519 5.85674 0 0 0 175 164 147 255
3.03665 0.695723 5.84845 0 0 0 161 130 102 255
1.27926 0.762461 5.69777 0 0 0 123 136 141 255
3.14763 0.719087 5.84757 0 0 0 155 154 150 255
3.34105 0.704592 5.87312 0 0 0 147 182 198 255
2.92004 0.797605 5.84736 0 0 0 188 205 212 255
3.25728 0.781037 5.85841 0 0 0 119 139 130 255
3.35523 0.891878 5.89451 0 0 0 145 163 133 255
1.47422 0.987943 5.7477 0 0 0 189 202 205 255
3.13867 0.95788 5.89276 0 0 0 99 98 91 255
3.0665 0.977182 5.88626 0 0 0 183 175 121 255
1.59845 1.19047 5.76845 0 0 0 87 104 112 255
2.98508 1.15721 5.89331 0 0 0 155 173 152 255
2.99221 1.32066 5.91709 0 0 0 177 196 204 255
3.32044 1.39248 5.92674 0 0 0 196 185 186 255
0.465957 1.52315 5.72543 0 0 0 86 102 103 255
-0.30879 1.8258 5.5204 0 0 0 69 71 70 255
1.915 1.85075 5.91358 0 0 0 77 87 94 255
-0.330706 1.83795 5.32468 0 0 0 130 100 99 255
-0.402661 -0.621973 5.49833 0 0 0 76 80 81 255
2.58909 -0.195419 5.72092 0 0 0 211 173 160 255
2.53892 -0.134592 5.72163 0 0 0 199 185 178 255
3.03613 -0.152966 5.74913 0 0 0 197 181 174 255
1.29065 -0.0359968 5.61788 0 0 0 52 60 50 255
2.54347 -0.0971361 5.73112 0 0 0 197 188 184 255
0.61829 0.328477 5.62823 0 0 0 48 70 72 255
2.99245 0.434123 5.81596 0 0 0 116 139 150 255
3.21443 0.583312 5.84533 0 0 0 172 161 149 255
3.12749 0.593372 5.82041 0 0 0 68 69 73 255
3.22908 0.61987 5.8515 0 0 0 168 155 139 255
3.06051 0.633113 5.86348 0 0 0 67 67 76 255
0.573452 0.860812 5.67122 0 0 0 190 207 215 255
2.90206 0.790849 5.84284 0 0 0 189 206 213 255
-0.420087 0.883799 5.59876 0 0 0 111 99 99 255
0.681286 0.84726 5.66761 0 0 0 122 136 141 255
-0.0755109 1.0495 5.63207 0 0 0 187 200 204 255
0.122237 1.04168 5.65405 0 0 0 114 131 137 255
1.51273 1.02121 5.75061 0 0 0 162 176 178 255
0.679318 1.13133 5.71209 0 0 0 98 115 122 255
0.437549 1.18208 5.68989 0 0 0 191 204 205 255
2.20001 1.17303 5.86955 0 0 0 180 204 209 255
2.03573 1.35787 5.86062 0 0 0 184 173 173 255
3.00259 1.32635 5.9245 0 0 0 181 200 210 255
-0.409176 1.45959 5.56903 0 0 0 132 112 104 255
-0.390365 -0.60818 5.48776 0 0 0 49 54 57 255
3.12783 -0.305708 5.75008 0 0 0 193 183 181 255
0.186004 -0.197768 5.5423 0 0 0 78 91 85 255
-0.187048 -0.0973071 5.55231 0 0 0 163 190 149 255
2.79324 -0.145658 5.7412 0 0 0 192 186 186 255
2.72953 -0.107757 5.74497 0 0 0 192 190 191 255
0.72389 0.00663252 5.62052 0 0 0 159 184 132 255
0.162547 0.0926613 5.5829 0 0 0 71 87 82 255
-0.468029 0.250875 5.55415 0 0 0 112 99 94 255
0.0564013 0.267171 5.58541 0 0 0 52 66 63 255
0.0448213 0.325012 5.59271 0 0 0 57 74 70 255
1.17098 0.368839 5.64534 0 0 0 157 175 132 255
3.14606 0.326065 5.80588 0 0 0 176 194 203 255
-0.099318 0.568902 5.58476 0 0 0 50 62 65 255
0.0627101 0.539083 5.60542 0 0 0 136 136 136 255
3.08326 0.600259 5.86847 0 0 0 69 69 71 255
3.12517 0.603857 5.82881 0 0 0 68 69 73 255
2.89383 0.66953 5.83691 0 0 0 88 101 105 255
1.49848 0.842776 5.72163 0 0 0 103 116 122 255
1.49807 0.979101 5.74264 0 0 0 183 201 205 255
2.69135 1.05472 5.86642 0 0 0 189 208 215 255
2.94186 1.30214 5.90969 0 0 0 159 182 192 255
2.217 1.43921 5.89943 0 0 0 174 155 157 255
-0.371466 1.66193 5.5767 0 0 0 112 101 100 255
-0.523591 -0.89839 6.48332 0 0 0 154 165 165 255
1.79236 -0.656594 5.60269 0 0 0 42 49 51 255
-0.335481 -0.534131 5.47507 0 0 0 38 42 43 255
1.47091 -0.445596 5.56684 0 0 0 79 95 89 255
0.59555 -0.230074 5.57549 0 0 0 65 82 76 255
1.04056 -0.237362 5.57881 0 0 0 71 85 77 255
-0.193159 -0.152588 5.53398 0 0 0 163 190 151 255
0.514012 -0.202527 5.54917 0 0 0 51 69 68 255
-0.166732 -0.0605027 5.54721 0 0 0 166 191 150 255
-0.010776 -0.0158144 5.56987 0 0 0 168 192 141 255
0.29843 -0.0956744 5.5712 0 0 0 140 151 122 255
1.18513 -0.0646578 5.59299 0 0 0 50 64 66 255
1.30299 -0.103194 5.61066 0 0 0 149 163 122 255
-0.50191 0.0306607 5.61103 0 0 0 197 181 170 255
0.575998 0.0115661 5.60688 0 0 0 38 52 49 255
0.201643 0.0330838 5.55861 0 0 0 65 82 77 255
2.62818 0.476169 5.78844 0 0 0 89 84 85 255
2.41007 0.538537 5.7896 0 0 0 203 160 101 255
-0.350313 0.858002 5.6152 0 0 0 60 67 65 255
2.84704 0.78196 5.83915 0 0 0 189 207 213 255
2.55434 1.09829 5.89642 0 0 0 185 203 209 255
2.68702 1.06352 5.86618 0 0 0 189 208 215 255
2.80436 1.0869 5.8778 0 0 0 167 195 208 255
-0.281407 1.3176 5.60711 0 0 0 56 65 68 255
1.69416 1.26682 5.80332 0 0 0 142 157 164 255
2.8159 1.2432 5.90648 0 0 0 192 212 219 255
-0.40508 1.39137 5.51971 0 0 0 132 112 103 255
-0.548189 -0.926656 5.7726 0 0 0 71 70 70 255
-0.504157 -0.943902 5.95026 0 0 0 87 66 69 255
-0.455751 -0.72331 5.74087 0 0 0 170 177 177 255
-0.25589 -0.442499 5.53309 0 0 0 112 116 110 255
0.00415477 -0.343822 5.55428 0 0 0 122 142 118 255
0.363825 -0.329386 5.55543 0 0 0 106 123 87 255
3.36014 -0.40036 5.82934 0 0 0 205 173 158 255
3.59074 -0.372245 5.8646 0 0 0 188 165 156 255
3.64241 -0.367205 5.84767 0 0 0 185 158 142 255
3.16663 -0.346896 5.79423 0 0 0 166 143 132 255
3.1908 -0.344897 5.79211 0 0 0 188 175 170 255
3.32844 -0.348975 5.87234 0 0 0 173 132 102 255
3.50104 -0.336989 5.83692 0 0 0 188 188 188 255
3.61889 -0.34516 5.87142 0 0 0 177 128 95 255
3.46386 -0.311166 5.80576 0 0 0 172 127 96 255
3.31391 -0.293671 5.82443 0 0 0 195 190 190 255
3.48509 -0.282455 5.8032 0 0 0 190 190 190 255
2.99942 -0.255653 5.77306 0 0 0 158 156 157 255
0.422426 -0.162768 5.58196 0 0 0 131 136 107 255
3.3528 -0.164963 5.82267 0 0 0 195 182 177 255
3.4039 -0.163923 5.79923 0 0 0 191 179 172 255
3.45447 -0.165391 5.82181 0 0 0 188 160 148 255
3.55596 -0.168184 5.84394 0 0 0 195 192 193 255
3.64928 -0.1708 5.88872 0 0 0 194 178 177 255
0.336584 -0.0646827 5.5807 0 0 0 147 166 121 255
3.27509 -0.14065 5.80272 0 0 0 172 132 109 255
3.25398 -0.137261 5.79277 0 0 0 156 146 142 255
3.34784 -0.136969 5.79761 0 0 0 155 143 140 255
3.30732 -0.121486 5.80865 0 0 0 205 194 189 255
3.24745 -0.0905929 5.80271 0 0 0 167 139 125 255
3.61702 -0.106896 5.91898 0 0 0 161 158 153 255
3.29538 -0.0526123 5.80161 0 0 0 210 172 150 255
0.0337599 0.0580703 5.60874 0 0 0 97 105 95 255
3.54536 -0.0061155 5.83934 0 0 0 194 147 115 255
2.54567 0.058433 5.78606 0 0 0 197 140 96 255
2.92025 0.0851299 5.82335 0 0 0 200 147 110 255
3.63019 0.0771212 5.83042 0 0 0 193 151 115 255
2.54472 0.102037 5.76765 0 0 0 195 146 103 255
3.31559 0.0839618 5.83813 0 0 0 198 146 106 255
3.48884 0.0844203 5.86074 0 0 0 188 149 112 255
2.54239 0.144389 5.73501 0 0 0 195 151 111 255
3.23773 0.131598 5.80633 0 0 0 202 164 130 255
3.57961 0.129192 5.77579 0 0 0 199 159 125 255
2.96263 0.16654 5.80189 0 0 0 207 165 127 255
1.38008 0.285474 5.68459 0 0 0 53 69 67 255
1.98964 0.299262 5.75269 0 0 0 154 109 79 255
3.80926 0.288424 5.86759 0 0 0 102 84 79 255
0.969723 0.422288 5.65045 0 0 0 54 69 64 255
1.34637 0.482463 5.66167 0 0 0 99 104 107 255
3.81114 0.420593 5.85012 0 0 0 74 84 90 255
1.70331 0.520217 5.64052 0 0 0 120 128 137 255
0.840143 0.620258 5.67335 0 0 0 61 69 74 255
2.22224 0.5943 5.75463 0 0 0 143 88 59 255
3.83085 0.631439 5.90334 0 0 0 70 76 82 255
0.159506 0.919892 5.63544 0 0 0 172 180 186 255
4.69689 1.1223 8.61108 0 0 0 69 74 75 255
4.76835 1.1564 8.70316 0 0 0 130 142 147 255
4.62299 1.1575 8.44086 0 0 0 74 76 78 255
3.26202 0.922717 5.85441 0 0 0 143 115 73 255
4.80021 1.2879 8.77484 0 0 0 183 176 165 255
