ply
format ascii 1.0
comment VCGLIB generated
element vertex 1003
property float x
property float y
property float z
property float nx
property float ny
property float nz
property uchar red
property uchar green
property uchar blue
property uchar alpha
element face 0
property list uchar int vertex_indices
end_header
-1.32469 0.74645 5.94139 0 0 0 59 41 38 255
-1.12337 0.730523 5.87619 0 0 0 87 65 50 255
-1.72823 0.757351 5.91181 0 0 0 93 63 51 255
-1.09541 0.757553 5.97095 0 0 0 95 76 64 255
-0.387611 0.588456 4.35437 0 0 0 108 114 117 255
-0.36233 0.589069 4.35714 0 0 0 129 137 140 255
-1.42375 0.801859 5.96336 0 0 0 53 38 29 255
-1.31507 0.796954 5.93353 0 0 0 69 49 35 255
-1.16328 0.808141 5.95545 0 0 0 98 73 57 255
0.603698 0.618754 4.42769 0 0 0 193 203 202 255
-1.34513 0.841666 5.95424 0 0 0 62 50 41 255
-1.28783 0.836803 5.94856 0 0 0 62 47 44 255
-1.7505 0.845403 5.93421 0 0 0 125 95 73 255
-1.18713 0.864573 5.96359 0 0 0 66 50 40 255
0.281306 0.639125 4.39523 0 0 0 185 189 190 255
0.60564 0.654468 4.42986 0 0 0 191 197 197 255
-1.50981 0.864491 5.93088 0 0 0 114 94 80 255
-1.80375 0.887054 5.94263 0 0 0 123 100 90 255
0.191772 0.669243 4.40765 0 0 0 160 166 165 255
0.74868 0.676669 4.45116 0 0 0 158 167 169 255
0.794924 0.672667 4.44423 0 0 0 127 144 144 255
0.621475 0.681195 4.43405 0 0 0 141 151 154 255
0.709338 0.683412 4.44454 0 0 0 193 198 198 255
-1.33245 0.902203 5.94842 0 0 0 56 48 42 255
-1.11045 0.900458 5.89724 0 0 0 80 66 61 255
0.198372 0.687672 4.40639 0 0 0 190 192 193 255
0.657864 0.702753 4.4382 0 0 0 144 142 143 255
0.670272 0.702113 4.44138 0 0 0 135 135 135 255
0.225096 0.699012 4.40679 0 0 0 192 199 199 255
0.613196 0.704946 4.43526 0 0 0 167 173 175 255
-1.81047 0.941163 5.94241 0 0 0 129 114 99 255
-1.20844 0.938441 5.96827 0 0 0 90 71 64 255
-0.181223 0.702263 4.38186 0 0 0 194 197 197 255
0.173855 0.715312 4.40382 0 0 0 188 197 195 255
0.139922 0.716965 4.39763 0 0 0 123 133 134 255
0.617213 0.727269 4.43884 0 0 0 191 198 198 255
0.751163 0.737401 4.46224 0 0 0 184 193 194 255
-1.31873 0.976704 5.96057 0 0 0 66 57 54 255
0.352633 0.741388 4.41434 0 0 0 179 186 184 255
-1.30096 0.988765 5.95385 0 0 0 60 55 54 255
0.645929 0.747274 4.44511 0 0 0 182 184 185 255
0.687612 0.759869 4.45193 0 0 0 183 194 195 255
-1.78229 1.00624 5.9471 0 0 0 92 76 71 255
-0.471337 0.758229 4.38526 0 0 0 124 138 127 255
-0.234731 0.762508 4.38404 0 0 0 173 179 181 255
-0.523864 0.782515 4.44026 0 0 0 142 158 150 255
0.208772 0.785254 4.40981 0 0 0 133 142 144 255
-0.895921 0.902606 5.05785 0 0 0 75 59 51 255
-0.242035 0.785813 4.3827 0 0 0 125 127 129 255
-0.0796926 0.788128 4.39777 0 0 0 187 191 192 255
-0.424971 0.794904 4.38843 0 0 0 162 184 161 255
-0.269993 0.793967 4.38564 0 0 0 155 162 165 255
-0.216103 0.789504 4.38426 0 0 0 186 193 190 255
-0.191765 0.793392 4.39114 0 0 0 136 142 142 255
0.0829865 0.797105 4.40465 0 0 0 188 194 195 255
0.0233764 0.802129 4.40098 0 0 0 138 145 150 255
-0.128321 0.80836 4.39638 0 0 0 115 121 122 255
-0.948013 0.961431 5.22371 0 0 0 69 48 40 255
-0.581315 0.869958 4.70536 0 0 0 138 153 145 255
-0.0304901 0.81076 4.40399 0 0 0 191 200 200 255
0.334343 0.817785 4.42455 0 0 0 136 146 149 255
-1.20332 1.1099 5.99202 0 0 0 65 57 53 255
-0.243313 0.81948 4.39184 0 0 0 187 189 190 255
0.0563968 0.828812 4.40255 0 0 0 133 138 139 255
-0.324305 0.834136 4.39298 0 0 0 84 91 91 255
-0.268325 0.836809 4.38906 0 0 0 146 150 151 255
-0.101983 0.841268 4.39575 0 0 0 129 135 138 255
-0.0460723 0.836261 4.40031 0 0 0 162 167 166 255
0.0121328 0.856087 4.41323 0 0 0 166 175 177 255
0.791975 0.876913 4.47448 0 0 0 148 152 156 255
0.638164 0.885646 4.46206 0 0 0 173 180 182 255
-0.388135 0.877746 4.39238 0 0 0 166 189 161 255
-0.110875 0.892844 4.41248 0 0 0 184 193 192 255
0.771535 0.90146 4.4771 0 0 0 128 134 135 255
-1.19121 1.30455 6.4484 0 0 0 64 57 54 255
-0.320484 0.926175 4.40573 0 0 0 200 202 201 255
-0.160068 0.920743 4.40357 0 0 0 189 198 197 255
-0.11927 0.932167 4.41391 0 0 0 183 185 186 255
-0.374038 0.934693 4.41963 0 0 0 129 147 139 255
-0.211373 0.942183 4.42133 0 0 0 168 178 180 255
0.276715 0.953095 4.43944 0 0 0 196 202 201 255
0.0345468 0.967966 4.42257 0 0 0 183 192 192 255
-0.38754 0.972188 4.40023 0 0 0 72 78 67 255
-0.904814 1.22255 5.55322 0 0 0 91 80 77 255
-0.0993644 0.981453 4.41559 0 0 0 182 190 192 255
0.192217 0.987153 4.43702 0 0 0 169 176 176 255
-0.371689 0.986965 4.4033 0 0 0 194 195 195 255
-1.02402 1.2447 5.55949 0 0 0 102 89 82 255
-0.750133 1.54287 6.15171 0 0 0 170 175 176 255
-1.15137 1.53204 6.05831 0 0 0 74 69 71 255
-0.387038 1.1374 4.43172 0 0 0 110 123 116 255
-1.5273 1.56111 5.93324 0 0 0 82 80 80 255
-1.48606 -0.633937 5.82185 0 0 0 142 106 88 255
-1.61678 -0.629043 5.81464 0 0 0 158 133 117 255
-1.53941 -0.628471 5.81808 0 0 0 150 133 121 255
-1.8722 -0.609986 5.79693 0 0 0 135 116 101 255
-1.82759 -0.614979 5.79124 0 0 0 142 110 98 255
-1.7544 -0.612673 5.81271 0 0 0 145 110 90 255
-1.40742 -0.62054 5.83222 0 0 0 154 125 111 255
-1.88192 -0.608207 5.79532 0 0 0 161 146 130 255
-1.63047 -0.595532 5.80509 0 0 0 191 176 159 255
-1.49206 -0.591766 5.81232 0 0 0 189 174 158 255
0.796364 -0.427332 4.32684 0 0 0 154 167 126 255
-1.85625 -0.573788 5.79999 0 0 0 194 173 160 255
-1.79374 -0.575672 5.79638 0 0 0 144 104 86 255
-1.70484 -0.578008 5.80238 0 0 0 189 175 161 255
-1.49017 -0.570093 5.80948 0 0 0 190 174 157 255
-1.83528 -0.542226 5.80181 0 0 0 192 176 157 255
-1.44949 -0.534725 5.79327 0 0 0 120 90 82 255
-1.66095 -0.529273 5.79599 0 0 0 146 99 83 255
-1.576 -0.531244 5.78865 0 0 0 133 101 86 255
-1.8979 -0.502689 5.79002 0 0 0 189 177 163 255
-1.82687 -0.502999 5.793 0 0 0 150 137 124 255
-0.459781 -0.345594 4.23717 0 0 0 132 135 116 255
-1.5247 -0.483031 5.80872 0 0 0 157 130 112 255
0.00363685 -0.27249 4.27482 0 0 0 109 116 93 255
0.0487025 -0.274816 4.27943 0 0 0 133 144 106 255
0.0695249 -0.275024 4.27783 0 0 0 84 92 81 255
0.106404 -0.280405 4.28325 0 0 0 114 128 83 255
-0.0677812 -0.250554 4.2771 0 0 0 152 164 111 255
-1.61005 -0.350468 5.83237 0 0 0 119 100 87 255
-1.62215 -0.347349 5.831 0 0 0 140 127 111 255
-1.51304 -0.352227 5.8508 0 0 0 146 113 90 255
-1.68561 -0.338425 5.82434 0 0 0 146 105 86 255
-1.44734 -0.338286 5.84671 0 0 0 132 116 101 255
-0.0211595 -0.211311 4.26974 0 0 0 155 167 133 255
-1.44309 -0.296208 5.83688 0 0 0 159 130 114 255
-1.39 -0.301141 5.84092 0 0 0 190 172 155 255
-1.56015 -0.279859 5.83642 0 0 0 154 106 87 255
-1.41458 -0.262456 5.81226 0 0 0 156 120 105 255
-1.49156 -0.258184 5.81372 0 0 0 144 105 87 255
0.25705 -0.172868 4.29951 0 0 0 85 96 79 255
0.751083 -0.174792 4.34387 0 0 0 71 79 70 255
-1.57135 -0.247853 5.84171 0 0 0 133 109 97 255
0.0519479 -0.163977 4.29231 0 0 0 74 77 58 255
0.437721 -0.160632 4.32009 0 0 0 122 136 94 255
0.253978 -0.148001 4.3035 0 0 0 108 122 100 255
0.556264 -0.145735 4.33126 0 0 0 141 152 119 255
0.0321693 -0.125105 4.29517 0 0 0 156 172 117 255
0.0788394 -0.131137 4.30052 0 0 0 123 133 100 255
-0.135373 -0.127918 4.28102 0 0 0 134 146 128 255
0.517006 -0.119646 4.32445 0 0 0 149 163 122 255
-0.170565 -0.110894 4.29138 0 0 0 87 99 86 255
0.589154 -0.104965 4.33641 0 0 0 52 59 57 255
-1.02573 -0.154689 5.9276 0 0 0 120 114 108 255
-0.172338 -0.076192 4.2942 0 0 0 158 170 127 255
-0.0813052 -0.0547019 4.29692 0 0 0 72 74 60 255
-0.104247 -0.0421294 4.29133 0 0 0 130 138 115 255
-0.0348491 -0.0375725 4.30195 0 0 0 64 70 59 255
-1.91042 -0.0719706 5.87138 0 0 0 132 123 114 255
-0.874182 -0.07747 6.05175 0 0 0 180 163 146 255
0.263314 -0.0374114 4.31028 0 0 0 55 64 61 255
0.815131 -0.0352392 4.37221 0 0 0 152 168 125 255
-0.00764635 -0.0134531 4.30563 0 0 0 148 162 121 255
0.792424 -0.0219087 4.36619 0 0 0 118 132 107 255
-0.358468 0.000957946 4.27773 0 0 0 101 110 94 255
0.521574 -0.00390638 4.33536 0 0 0 45 54 50 255
0.431638 0.0250348 4.33757 0 0 0 124 137 111 255
-0.367283 0.0234217 4.2814 0 0 0 159 167 135 255
-0.302955 0.0294194 4.30068 0 0 0 146 159 117 255
-0.187083 0.0261637 4.30089 0 0 0 156 173 124 255
-0.221593 0.0462415 4.28858 0 0 0 102 104 81 255
-0.343219 0.062962 4.29682 0 0 0 156 174 131 255
-0.259678 0.0670934 4.29726 0 0 0 137 146 121 255
0.368638 0.0689208 4.33079 0 0 0 160 158 124 255
-0.374268 0.0990246 4.29222 0 0 0 69 76 63 255
-0.257987 0.112181 4.29691 0 0 0 68 79 64 255
-0.227974 0.111549 4.30087 0 0 0 154 165 136 255
0.200277 0.111738 4.33225 0 0 0 139 144 113 255
0.638985 0.125966 4.36448 0 0 0 75 89 87 255
-0.346448 0.145457 4.29869 0 0 0 63 70 62 255
-0.290386 0.177044 4.3211 0 0 0 87 101 57 255
-0.241563 0.176332 4.31012 0 0 0 64 70 33 255
-0.346879 0.189143 4.31002 0 0 0 160 175 138 255
-0.0877222 0.185731 4.33115 0 0 0 77 87 76 255
-0.317486 0.206636 4.31937 0 0 0 66 82 62 255
0.29241 0.223997 4.36146 0 0 0 72 87 77 255
-0.0863933 0.223305 4.33214 0 0 0 113 123 104 255
0.381786 0.234831 4.36196 0 0 0 148 157 115 255
0.456207 0.228953 4.36926 0 0 0 139 152 113 255
-0.324447 0.231342 4.31871 0 0 0 152 165 131 255
-0.177366 0.237083 4.32084 0 0 0 68 76 67 255
0.520881 0.251688 4.37056 0 0 0 64 72 66 255
-0.176014 0.260865 4.33083 0 0 0 64 73 70 255
-2.00524 0.349375 5.86985 0 0 0 59 40 35 255
-0.342162 0.280802 4.32732 0 0 0 62 67 65 255
-0.184713 0.293349 4.3334 0 0 0 118 122 103 255
0.576946 0.299079 4.38362 0 0 0 125 136 120 255
0.625058 0.313249 4.3976 0 0 0 140 157 125 255
0.573681 0.321183 4.39313 0 0 0 97 109 94 255
-0.355185 0.326295 4.31924 0 0 0 55 62 44 255
-0.310351 0.324645 4.32364 0 0 0 157 170 141 255
-0.112716 0.337039 4.33997 0 0 0 157 171 126 255
0.371019 0.325689 4.37434 0 0 0 146 160 116 255
-2.10663 0.439611 5.89673 0 0 0 73 57 46 255
-1.53495 0.452357 5.92354 0 0 0 42 33 27 255
0.775506 0.359123 4.40411 0 0 0 108 117 118 255
0.701818 0.358419 4.39901 0 0 0 93 102 104 255
-1.73722 0.479439 5.91521 0 0 0 118 93 79 255
-0.36256 0.361176 4.33173 0 0 0 71 74 73 255
-0.202492 0.366424 4.34356 0 0 0 116 123 112 255
-0.198411 0.36319 4.34501 0 0 0 133 143 116 255
0.488133 0.382569 4.38631 0 0 0 114 120 125 255
0.513337 0.378764 4.39103 0 0 0 49 53 51 255
-1.62877 0.515769 5.89916 0 0 0 100 80 64 255
-1.51578 0.529689 5.93531 0 0 0 118 95 76 255
-0.801953 0.521407 5.89796 0 0 0 116 87 71 255
0.182415 0.400099 4.35755 0 0 0 56 68 64 255
0.402525 0.405427 4.37861 0 0 0 132 143 143 255
0.429656 0.411149 4.38543 0 0 0 115 127 132 255
-0.351219 0.418148 4.33231 0 0 0 103 103 103 255
-0.0473405 0.412295 4.35286 0 0 0 49 54 58 255
0.228325 0.41711 4.33692 0 0 0 114 117 120 255
-0.0243114 0.422016 4.35255 0 0 0 36 45 46 255
0.197953 0.426017 4.35619 0 0 0 120 125 128 255
-1.26165 0.574685 5.91383 0 0 0 62 38 30 255
-1.34073 0.600198 5.92128 0 0 0 54 37 30 255
-0.405546 0.442537 4.34346 0 0 0 87 97 94 255
-1.34341 0.667738 5.93254 0 0 0 56 47 45 255
-1.60965 0.671615 5.91953 0 0 0 57 42 32 255
-1.77917 0.682883 5.91336 0 0 0 145 115 88 255
0.21386 0.553762 4.36798 0 0 0 190 197 197 255
-0.187801 0.577239 4.36417 0 0 0 174 179 181 255
-1.42464 0.80132 5.96028 0 0 0 53 38 29 255
-0.385349 0.588703 4.3544 0 0 0 112 123 127 255
0.2768 0.64468 4.39375 0 0 0 191 197 198 255
0.605517 0.654402 4.42983 0 0 0 191 197 197 255
-1.11947 0.912238 5.90515 0 0 0 93 85 80 255
0.700068 0.696497 4.44369 0 0 0 193 200 200 255
-1.22654 0.949939 5.97067 0 0 0 87 72 65 255
0.667402 0.724892 4.44318 0 0 0 118 121 121 255
-1.86879 0.957409 5.95178 0 0 0 97 72 54 255
-1.8176 0.953209 5.94454 0 0 0 134 116 102 255
0.167931 0.719051 4.4022 0 0 0 191 199 197 255
0.749631 0.735538 4.4625 0 0 0 184 193 194 255
-1.31311 0.989774 5.97135 0 0 0 61 58 59 255
0.33515 0.733572 4.40958 0 0 0 188 192 193 255
0.591724 0.743784 4.43867 0 0 0 101 110 111 255
-1.78167 0.988449 5.93874 0 0 0 133 114 101 255
0.687472 0.757587 4.45177 0 0 0 183 194 195 255
0.167069 0.760252 4.40423 0 0 0 136 135 138 255
-0.23467 0.76276 4.38393 0 0 0 173 179 181 255
-1.25951 1.06937 5.97768 0 0 0 71 59 52 255
-0.165048 0.812349 4.40042 0 0 0 191 198 198 255
-0.325454 0.828205 4.39289 0 0 0 81 90 89 255
-0.235664 0.820332 4.39348 0 0 0 184 187 187 255
-0.586144 0.889488 4.7477 0 0 0 133 152 146 255
-0.465954 0.833977 4.40527 0 0 0 115 128 117 255
-0.758136 1.10066 5.84911 0 0 0 73 59 54 255
-0.39687 0.8384 4.39308 0 0 0 77 88 79 255
-0.261902 0.836626 4.39149 0 0 0 132 136 137 255
-0.0391591 0.833972 4.40344 0 0 0 150 154 154 255
0.0125329 0.851331 4.41242 0 0 0 151 161 166 255
0.166173 0.859753 4.42309 0 0 0 178 188 189 255
0.756926 0.87597 4.47092 0 0 0 119 125 126 255
0.798919 0.874666 4.47285 0 0 0 171 180 182 255
-0.107705 0.892543 4.41345 0 0 0 184 193 192 255
0.0014636 0.900448 4.41712 0 0 0 108 117 120 255
0.14236 0.905352 4.42114 0 0 0 129 140 141 255
0.629437 0.915928 4.46409 0 0 0 135 144 143 255
-0.371109 0.924969 4.39874 0 0 0 130 143 135 255
-0.171074 0.920773 4.40539 0 0 0 190 199 199 255
-0.559182 0.94411 4.38572 0 0 0 54 51 53 255
-0.392864 0.972647 4.39868 0 0 0 73 80 66 255
-0.112283 0.98395 4.41056 0 0 0 188 197 196 255
-0.367683 1.03064 4.41142 0 0 0 121 126 125 255
0.230351 1.05899 4.44777 0 0 0 181 186 187 255
-1.27156 1.66818 6.66808 0 0 0 61 59 62 255
-0.74855 1.55339 6.15369 0 0 0 179 184 183 255
-0.610029 -0.525076 4.28498 0 0 0 53 52 50 255
-1.92141 -0.649405 5.77739 0 0 0 131 110 97 255
-2.0593 -0.644126 5.78433 0 0 0 142 115 97 255
-1.49098 -0.630901 5.81365 0 0 0 137 112 96 255
-1.87173 -0.604133 5.8029 0 0 0 126 99 83 255
-1.39476 -0.600389 5.83156 0 0 0 144 109 98 255
-1.88299 -0.593387 5.80353 0 0 0 136 102 82 255
-1.64462 -0.568788 5.80225 0 0 0 177 159 144 255
-1.47962 -0.574784 5.80815 0 0 0 192 174 154 255
0.789624 -0.412681 4.28261 0 0 0 156 171 125 255
-1.84124 -0.562108 5.80183 0 0 0 193 176 157 255
-1.7019 -0.568332 5.80003 0 0 0 189 175 161 255
-1.58362 -0.56096 5.78791 0 0 0 150 116 96 255
-1.7341 -0.548407 5.77319 0 0 0 129 114 103 255
-1.65761 -0.546398 5.79978 0 0 0 142 99 86 255
-2.02755 -0.500735 5.81708 0 0 0 151 101 70 255
-1.94882 -0.496552 5.79896 0 0 0 135 112 100 255
-1.502 -0.480829 5.81061 0 0 0 166 139 123 255
-1.69559 -0.41338 5.86717 0 0 0 149 126 100 255
-1.86829 -0.398341 5.82673 0 0 0 148 109 87 255
-1.74561 -0.409696 5.82974 0 0 0 144 113 92 255
0.00670403 -0.277708 4.2771 0 0 0 106 112 90 255
0.0851657 -0.275255 4.27972 0 0 0 85 92 77 255
-0.250908 -0.262066 4.26363 0 0 0 104 120 97 255
-0.0448192 -0.2601 4.28083 0 0 0 80 83 65 255
-1.41241 -0.36197 5.83942 0 0 0 120 105 92 255
-0.0665281 -0.244342 4.27545 0 0 0 140 150 99 255
0.583217 -0.2411 4.32699 0 0 0 88 97 69 255
-1.38365 -0.311587 5.83444 0 0 0 190 172 154 255
0.246292 -0.181435 4.29603 0 0 0 86 96 84 255
0.264638 -0.187596 4.29628 0 0 0 122 131 100 255
0.597051 -0.191889 4.32341 0 0 0 137 144 111 255
-1.37982 -0.24837 5.83421 0 0 0 155 137 128 255
-0.113219 -0.171738 4.27603 0 0 0 77 87 76 255
-1.78673 -0.251093 5.80565 0 0 0 153 102 79 255
-1.67026 -0.25074 5.82777 0 0 0 146 102 80 255
0.447914 -0.155793 4.32159 0 0 0 86 94 78 255
-0.118958 -0.133649 4.27751 0 0 0 130 142 110 255
-0.171559 -0.112276 4.29023 0 0 0 87 99 86 255
-0.112227 -0.114292 4.28128 0 0 0 144 159 123 255
-0.0354736 -0.10528 4.29641 0 0 0 95 105 83 255
0.270878 -0.104011 4.30807 0 0 0 96 106 96 255
0.485866 -0.0971078 4.32196 0 0 0 153 163 116 255
0.586922 -0.0945708 4.33519 0 0 0 46 55 52 255
-1.58107 -0.117453 5.82903 0 0 0 89 85 78 255
-1.47347 -0.128471 5.85468 0 0 0 139 127 111 255
-1.29491 -0.132563 5.7947 0 0 0 140 132 123 255
0.034263 -0.0811788 4.3061 0 0 0 81 88 56 255
0.282664 -0.0781143 4.31388 0 0 0 96 106 85 255
0.635547 -0.0820746 4.34416 0 0 0 88 97 89 255
-1.62064 -0.108279 5.8432 0 0 0 101 95 90 255
-2.01383 -0.0916455 5.84855 0 0 0 123 118 111 255
-1.69229 -0.0909396 5.81418 0 0 0 93 86 85 255
-1.55086 -0.107126 5.85179 0 0 0 142 131 126 255
-0.10149 -0.0459876 4.28819 0 0 0 134 144 109 255
-0.870308 -0.0734653 6.05131 0 0 0 180 162 146 255
0.0336286 -0.0408671 4.3049 0 0 0 118 128 107 255
0.514899 -0.0454133 4.34197 0 0 0 119 127 102 255
0.815832 -0.0305037 4.37171 0 0 0 150 163 121 255
-0.430674 -0.0341913 4.3041 0 0 0 163 178 143 255
-0.183905 -0.0274883 4.30022 0 0 0 134 144 109 255
0.280221 -0.043819 4.31185 0 0 0 142 152 116 255
-0.354499 0.000330679 4.2754 0 0 0 105 108 92 255
0.570716 -0.00705963 4.34037 0 0 0 116 127 113 255
0.280693 0.0117045 4.33496 0 0 0 154 164 117 255
0.755431 0.024143 4.36969 0 0 0 105 114 101 255
-1.44548 0.0445789 5.85641 0 0 0 129 88 67 255
0.805323 0.0482847 4.37053 0 0 0 151 162 117 255
-0.418701 0.0571 4.2895 0 0 0 157 177 139 255
-0.34602 0.0624466 4.29463 0 0 0 156 174 131 255
0.251689 0.0778616 4.32513 0 0 0 148 159 118 255
0.36529 0.080436 4.32851 0 0 0 155 168 113 255
0.14444 0.111162 4.32706 0 0 0 122 134 117 255
0.00101322 0.11898 4.32015 0 0 0 167 177 144 255
0.215083 0.113034 4.33466 0 0 0 137 141 101 255
-2.08619 0.156983 5.83756 0 0 0 108 88 78 255
0.648289 0.125913 4.36585 0 0 0 77 87 84 255
-0.294749 0.160424 4.31163 0 0 0 165 184 137 255
0.480762 0.160771 4.35922 0 0 0 54 62 59 255
-1.99804 0.222933 5.88575 0 0 0 65 56 52 255
0.556613 0.17809 4.35887 0 0 0 142 152 123 255
-0.407246 0.185598 4.29749 0 0 0 150 163 138 255
-0.297911 0.194692 4.31743 0 0 0 82 90 79 255
0.283568 0.199264 4.34844 0 0 0 90 99 86 255
-1.97351 0.283833 5.90188 0 0 0 46 35 32 255
0.299379 0.23227 4.36142 0 0 0 159 173 129 255
-0.128319 0.230171 4.33373 0 0 0 161 177 130 255
0.650717 0.235266 4.37893 0 0 0 131 140 112 255
0.0270806 0.257592 4.33388 0 0 0 124 136 104 255
-0.332694 0.280139 4.32889 0 0 0 59 64 63 255
0.606418 0.26075 4.38032 0 0 0 52 56 49 255
-2.02335 0.350474 5.87205 0 0 0 66 42 40 255
-0.158425 0.283434 4.33815 0 0 0 143 154 116 255
0.467256 0.280764 4.36496 0 0 0 149 161 133 255
0.762312 0.28932 4.41166 0 0 0 123 132 91 255
0.368212 0.296504 4.3603 0 0 0 144 156 111 255
-0.403289 0.306089 4.33085 0 0 0 135 148 124 255
0.259712 0.311215 4.36442 0 0 0 137 148 119 255
0.635431 0.308453 4.39812 0 0 0 144 157 109 255
0.715635 0.311326 4.4055 0 0 0 155 168 118 255
-0.194389 0.31963 4.32934 0 0 0 53 62 59 255
0.307503 0.31794 4.35913 0 0 0 120 121 92 255
0.366017 0.33052 4.37435 0 0 0 144 157 118 255
-0.373821 0.329605 4.32491 0 0 0 49 52 47 255
-1.53514 0.457031 5.92391 0 0 0 42 33 27 255
-0.0978313 0.349977 4.34867 0 0 0 141 160 115 255
-0.35442 0.375282 4.33892 0 0 0 127 142 121 255
-0.186531 0.376874 4.34494 0 0 0 145 156 117 255
0.79117 0.366859 4.40743 0 0 0 99 99 97 255
-2.13157 0.496161 6.03262 0 0 0 64 50 37 255
0.656668 0.378705 4.39935 0 0 0 100 110 116 255
-1.50393 0.515564 5.93194 0 0 0 118 92 77 255
0.324586 0.391816 4.36635 0 0 0 108 117 116 255
0.401776 0.397034 4.37746 0 0 0 138 142 142 255
0.0352479 0.403771 4.36015 0 0 0 116 123 123 255
0.352543 0.404887 4.37522 0 0 0 81 84 86 255
0.500477 0.399357 4.38768 0 0 0 158 158 158 255
-1.584 0.568838 5.92361 0 0 0 35 32 33 255
0.105169 0.419788 4.37255 0 0 0 133 137 140 255
0.125374 0.424539 4.35764 0 0 0 72 78 79 255
-0.302043 0.439011 4.34071 0 0 0 135 136 136 255
-1.1834 0.603494 5.92161 0 0 0 59 43 37 255
-0.266656 0.44317 4.35217 0 0 0 135 137 143 255
-0.222168 0.44979 4.34234 0 0 0 126 130 130 255
0.575552 0.471634 4.40337 0 0 0 85 102 110 255
0.350276 0.478217 4.3887 0 0 0 101 112 120 255
-1.78561 0.685982 5.91258 0 0 0 149 117 91 255
0.603818 0.535143 4.40994 0 0 0 190 199 198 255
0.378329 0.541243 4.3904 0 0 0 168 177 176 255
0.222721 0.555972 4.3731 0 0 0 190 197 197 255
0.247128 0.553913 4.38145 0 0 0 168 172 175 255
-1.13796 0.755222 5.99576 0 0 0 66 50 46 255
-0.178972 0.580838 4.36493 0 0 0 189 194 195 255
0.739619 0.612655 4.44461 0 0 0 170 179 181 255
-1.51065 0.8793 5.9324 0 0 0 130 103 85 255
0.179175 0.680857 4.40902 0 0 0 156 160 161 255
0.707056 0.671732 4.44677 0 0 0 144 151 155 255
0.222279 0.686978 4.40831 0 0 0 192 201 201 255
-1.22015 0.951565 5.97301 0 0 0 87 72 65 255
-1.86115 0.953953 5.95147 0 0 0 69 58 54 255
0.664019 0.72725 4.44298 0 0 0 118 121 121 255
0.592752 0.737487 4.43567 0 0 0 101 110 111 255
0.703569 0.756345 4.45147 0 0 0 189 195 194 255
-0.403454 0.758139 4.37262 0 0 0 68 75 75 255
-0.201283 0.751086 4.3823 0 0 0 115 123 125 255
-0.163164 0.766462 4.39472 0 0 0 189 198 197 255
0.629551 0.766278 4.44351 0 0 0 150 160 163 255
0.722237 0.754198 4.45432 0 0 0 149 153 151 255
-0.496675 0.778724 4.39547 0 0 0 156 173 149 255
-1.2701 1.08045 6.03111 0 0 0 63 55 51 255
-0.426528 0.806716 4.39077 0 0 0 163 186 158 255
-0.280847 0.808415 4.38348 0 0 0 182 188 188 255
0.0760303 0.812256 4.40476 0 0 0 195 202 202 255
-0.127276 0.823033 4.3951 0 0 0 120 129 130 255
-0.394208 0.837716 4.39505 0 0 0 77 88 79 255
-0.255139 0.842051 4.39264 0 0 0 115 122 122 255
-0.105492 0.830331 4.39702 0 0 0 124 132 136 255
0.0420308 0.830443 4.39996 0 0 0 172 178 179 255
0.17332 0.862558 4.42169 0 0 0 188 197 196 255
-0.0315019 0.873582 4.41152 0 0 0 195 203 205 255
-0.394084 0.878847 4.39299 0 0 0 165 188 160 255
-0.0934725 0.886188 4.41488 0 0 0 194 205 203 255
-0.300639 0.88093 4.38855 0 0 0 196 204 204 255
-0.206648 0.893908 4.41377 0 0 0 116 122 122 255
0.260622 0.902998 4.43935 0 0 0 114 121 123 255
0.580707 0.912532 4.46118 0 0 0 187 200 200 255
0.629284 0.917819 4.46413 0 0 0 135 144 143 255
-0.627652 0.971151 4.77724 0 0 0 122 98 87 255
-0.36992 0.899167 4.398 0 0 0 126 133 128 255
-0.25683 0.908404 4.40551 0 0 0 196 205 202 255
-0.532092 0.969266 4.49865 0 0 0 158 184 173 255
-0.312173 0.952555 4.41332 0 0 0 125 129 129 255
0.264721 0.950554 4.43636 0 0 0 186 193 193 255
-1.31646 1.33145 6.039 0 0 0 128 107 94 255
-0.362666 0.991632 4.40592 0 0 0 183 190 188 255
0.237968 1.05155 4.45129 0 0 0 163 174 175 255
-0.390551 1.08402 4.41734 0 0 0 66 71 69 255
-1.29475 1.66942 6.80868 0 0 0 73 60 53 255
-0.753162 1.5563 6.15339 0 0 0 177 183 182 255
-1.56327 1.58393 6.11853 0 0 0 95 85 79 255
-2.05191 -0.644295 5.77219 0 0 0 136 112 94 255
-2.07755 -0.612305 5.78444 0 0 0 150 123 107 255
-2.05054 -0.61349 5.7744 0 0 0 128 91 73 255
0.767571 -0.393479 4.25909 0 0 0 157 174 121 255
-1.52161 -0.482392 5.80929 0 0 0 138 102 84 255
-0.0170155 -0.26676 4.2795 0 0 0 138 151 111 255
-1.55897 -0.266939 5.83796 0 0 0 138 124 111 255
0.0626028 -0.128277 4.29724 0 0 0 127 137 104 255
-0.111909 -0.113703 4.28217 0 0 0 144 159 123 255
-1.42872 -0.119254 5.85739 0 0 0 169 161 150 255
0.576636 -0.0792896 4.3325 0 0 0 47 57 54 255
-1.88891 -0.0920258 5.85045 0 0 0 110 104 97 255
-0.427115 -0.0409507 4.30472 0 0 0 162 177 142 255
0.791855 -0.0604758 4.29208 0 0 0 142 156 117 255
-2.01247 -0.0804376 5.85381 0 0 0 152 152 152 255
0.00895597 -0.0408734 4.3042 0 0 0 83 88 61 255
-0.355024 0.00771804 4.27728 0 0 0 91 99 85 255
0.289905 -0.00184563 4.33379 0 0 0 162 179 121 255
0.469006 -0.0172635 4.34186 0 0 0 70 77 68 255
-1.37039 0.0147927 5.87066 0 0 0 39 39 39 255
-0.419618 0.0492694 4.29121 0 0 0 157 177 139 255
0.808671 0.0519125 4.37136 0 0 0 151 161 115 255
-2.09958 0.0618927 5.87769 0 0 0 38 38 38 255
-2.05344 0.0621353 5.85389 0 0 0 40 37 37 255
-0.371034 0.103505 4.28902 0 0 0 62 68 65 255
0.240114 0.104503 4.33516 0 0 0 156 173 126 255
0.362683 0.0914961 4.30469 0 0 0 152 168 112 255
-0.36246 0.142131 4.29152 0 0 0 57 69 62 255
-0.298091 0.145226 4.30998 0 0 0 163 185 137 255
0.247029 0.16313 4.34007 0 0 0 76 86 77 255
-0.276204 0.186328 4.31556 0 0 0 53 66 56 255
-1.98691 0.269226 5.89349 0 0 0 99 84 73 255
-0.406455 0.197032 4.29846 0 0 0 147 166 132 255
0.348065 0.201414 4.35307 0 0 0 160 179 118 255
-0.196231 0.215207 4.31322 0 0 0 57 60 54 255
-1.96371 0.29782 5.8979 0 0 0 40 38 37 255
0.609157 0.245621 4.37942 0 0 0 56 61 59 255
-2.05312 0.336758 5.86183 0 0 0 67 39 37 255
-2.13127 0.342399 5.8411 0 0 0 114 82 67 255
-0.403038 0.288197 4.33353 0 0 0 145 159 133 255
0.649382 0.298033 4.4011 0 0 0 154 169 121 255
-0.107772 0.288993 4.33979 0 0 0 73 88 74 255
0.279929 0.301279 4.36846 0 0 0 136 146 113 255
0.371019 0.325689 4.37434 0 0 0 146 160 116 255
-0.296031 0.331782 4.32698 0 0 0 130 145 107 255
-0.179647 0.352519 4.34514 0 0 0 168 178 140 255
-0.14428 0.343689 4.34814 0 0 0 163 178 130 255
-1.77684 0.487514 5.91484 0 0 0 129 101 77 255
-2.08005 0.506946 5.93094 0 0 0 53 50 42 255
-0.349985 0.435495 4.33354 0 0 0 170 172 171 255
-0.149059 0.428678 4.35646 0 0 0 136 138 140 255
-0.0883375 0.40664 4.34656 0 0 0 45 55 52 255
-0.445267 0.438447 4.33392 0 0 0 90 99 93 255
-2.14396 0.579246 5.79202 0 0 0 78 44 37 255
-1.81779 0.67417 5.92215 0 0 0 142 106 86 255
0.603709 0.541821 4.40958 0 0 0 192 199 199 255
-1.28233 0.716506 5.93659 0 0 0 109 88 79 255
0.747184 0.604588 4.44436 0 0 0 183 192 193 255
0.801867 0.599763 4.43658 0 0 0 138 141 141 255
-1.64483 0.825104 5.9579 0 0 0 147 121 98 255
-1.72824 0.862949 5.94176 0 0 0 146 114 92 255
0.235812 0.670648 4.40186 0 0 0 194 200 200 255
-1.84611 0.935861 5.94534 0 0 0 57 52 51 255
-1.50373 0.910518 5.93364 0 0 0 136 102 82 255
0.173323 0.690438 4.40731 0 0 0 156 161 159 255
-0.0487321 0.712598 4.38707 0 0 0 131 138 141 255
0.624665 0.716936 4.43898 0 0 0 192 200 199 255
-0.409937 0.753214 4.3721 0 0 0 72 83 80 255
0.314786 0.741162 4.40758 0 0 0 193 200 201 255
-0.495456 0.790032 4.39545 0 0 0 159 179 154 255
-0.184889 0.816031 4.39442 0 0 0 179 184 182 255
-0.453533 0.838392 4.40621 0 0 0 100 113 104 255
-0.0588238 0.845836 4.40283 0 0 0 193 200 200 255
0.0467678 0.849946 4.40689 0 0 0 188 193 196 255
0.286231 0.896891 4.44214 0 0 0 115 120 123 255
0.00701424 0.895244 4.41641 0 0 0 102 111 112 255
0.575271 0.917215 4.45926 0 0 0 187 200 200 255
-0.519491 0.970614 4.47942 0 0 0 159 188 174 255
0.541159 0.955415 4.50267 0 0 0 194 203 203 255
-0.403028 0.977452 4.3976 0 0 0 79 85 82 255
-0.334989 0.98875 4.41029 0 0 0 195 202 200 255
-0.762511 1.56471 6.15715 0 0 0 178 183 181 255
0.714541 -0.719284 4.56127 0 0 0 92 105 108 255
-0.602923 -0.510484 4.28483 0 0 0 48 55 55 255
-2.08779 -0.609609 5.78631 0 0 0 173 161 147 255
-1.74996 -0.589083 5.79834 0 0 0 156 124 110 255
-1.6667 -0.59959 5.79913 0 0 0 145 100 81 255
-1.52384 -0.609861 5.81513 0 0 0 148 103 80 255
-1.8854 -0.577399 5.80855 0 0 0 135 92 75 255
0.774502 -0.394121 4.28842 0 0 0 161 179 124 255
-2.04002 -0.519401 5.81023 0 0 0 154 108 85 255
-1.49306 -0.473173 5.81111 0 0 0 168 142 128 255
-0.427973 -0.326524 4.23986 0 0 0 161 186 146 255
-0.244641 -0.256212 4.26257 0 0 0 102 110 89 255
-0.0392272 -0.264227 4.28085 0 0 0 85 89 70 255
0.0135764 -0.263565 4.27495 0 0 0 85 94 84 255
-1.85554 -0.374344 5.8233 0 0 0 146 99 78 255
0.572644 -0.229413 4.32406 0 0 0 85 93 78 255
-1.78543 -0.262177 5.81318 0 0 0 146 99 75 255
-1.43887 -0.306067 5.83652 0 0 0 138 106 91 255
-0.129097 -0.198078 4.28658 0 0 0 100 110 90 255
0.261597 -0.185054 4.29536 0 0 0 122 131 100 255
0.721125 -0.202111 4.33324 0 0 0 55 64 56 255
-0.0577045 -0.117181 4.28751 0 0 0 159 174 121 255
0.625615 -0.139475 4.33657 0 0 0 117 126 103 255
0.268492 -0.0790027 4.31118 0 0 0 63 73 67 255
0.0124121 -0.0111127 4.30915 0 0 0 72 74 46 255
0.304242 -0.0330114 4.32349 0 0 0 163 181 125 255
-1.33251 0.0166951 5.86778 0 0 0 39 38 38 255
-0.227697 0.00362024 4.29847 0 0 0 168 186 132 255
-1.51166 0.0548876 5.85159 0 0 0 37 37 37 255
0.248891 0.046804 4.32651 0 0 0 61 68 66 255
0.387907 0.0476337 4.33716 0 0 0 59 67 55 255
-0.418496 0.0517382 4.29037 0 0 0 157 177 139 255
0.245362 0.119665 4.33246 0 0 0 157 170 120 255
0.356075 0.131049 4.33747 0 0 0 153 168 115 255
-2.04698 0.193737 5.8426 0 0 0 154 124 97 255
-0.284094 0.146085 4.30469 0 0 0 160 180 130 255
-0.116489 0.144838 4.31168 0 0 0 166 182 126 255
-0.389866 0.200214 4.30511 0 0 0 154 168 126 255
0.356668 0.185398 4.60846 0 0 0 162 181 122 255
0.554115 0.188938 4.35829 0 0 0 142 156 111 255
-0.203321 0.230993 4.31346 0 0 0 58 70 66 255
0.489252 0.205656 4.3747 0 0 0 154 166 122 255
0.610776 0.190799 4.37906 0 0 0 50 55 53 255
-0.413814 0.253544 4.46853 0 0 0 155 174 140 255
-0.155771 0.235787 4.33119 0 0 0 153 170 121 255
-0.200817 0.250549 4.31279 0 0 0 61 69 64 255
0.0167109 0.282369 4.33812 0 0 0 167 182 133 255
0.674402 0.287703 4.43343 0 0 0 159 174 119 255
-1.70585 0.408606 5.89788 0 0 0 40 34 32 255
-0.322637 0.361424 4.33538 0 0 0 111 123 100 255
-1.7885 0.484963 5.90708 0 0 0 130 102 80 255
0.498303 0.389841 4.38678 0 0 0 178 180 182 255
-2.0522 0.5389 5.91797 0 0 0 47 37 32 255
-0.0147822 0.419851 4.34929 0 0 0 183 188 186 255
-1.97675 0.6168 5.94434 0 0 0 48 43 41 255
0.614738 0.541573 4.41324 0 0 0 192 201 201 255
0.198875 0.562039 4.36795 0 0 0 191 199 198 255
-0.163347 0.596505 4.36768 0 0 0 190 199 199 255
0.387252 0.556548 4.39312 0 0 0 171 178 178 255
-1.64637 0.80557 5.94988 0 0 0 138 112 92 255
-0.375217 0.612015 4.354 0 0 0 133 139 138 255
0.795183 0.631492 4.44268 0 0 0 115 122 124 255
-1.60892 0.877809 5.9448 0 0 0 92 70 57 255
0.608895 0.727536 4.43838 0 0 0 149 155 158 255
-1.826 0.928897 5.94312 0 0 0 54 51 52 255
-0.430393 0.69847 4.36515 0 0 0 61 64 63 255
-0.204668 0.739574 4.38212 0 0 0 125 134 136 255
0.70212 0.755648 4.45166 0 0 0 189 197 197 255
0.285132 0.754591 4.4108 0 0 0 194 201 204 255
-0.49416 0.834805 4.40921 0 0 0 166 193 162 255
-0.376952 0.830706 4.39161 0 0 0 101 106 101 255
0.0859068 0.829009 4.40906 0 0 0 194 204 203 255
-0.257542 0.880545 4.39788 0 0 0 191 201 199 255
-0.156829 0.857918 4.40162 0 0 0 113 115 116 255
-0.0684384 0.87741 4.41517 0 0 0 196 203 203 255
0.285048 0.922537 4.44157 0 0 0 114 123 126 255
0.552896 0.936758 4.46149 0 0 0 192 202 200 255
-0.53486 0.96419 4.5828 0 0 0 161 191 174 255
-0.322354 0.998329 4.41753 0 0 0 195 202 200 255
-0.153657 1.00522 4.42792 0 0 0 193 203 202 255
-1.30113 1.67206 6.80435 0 0 0 99 84 77 255
-1.67838 1.67887 6.62453 0 0 0 67 69 68 255
0.218185 -0.185343 4.29075 0 0 0 56 62 53 255
0.536857 -0.224467 4.33603 0 0 0 121 134 93 255
0.653906 -0.192808 4.32497 0 0 0 73 80 73 255
0.462751 -0.183578 4.32342 0 0 0 113 125 86 255
-0.0180649 -0.134325 4.29271 0 0 0 155 170 120 255
0.227303 -0.154136 4.29926 0 0 0 58 66 56 255
-0.174662 -0.113249 4.29066 0 0 0 91 102 89 255
0.778831 -0.106877 4.3655 0 0 0 64 76 67 255
-0.0245016 -0.07262 4.30289 0 0 0 137 148 108 255
0.299001 -0.0737966 4.31573 0 0 0 141 152 128 255
-0.406513 -0.0264033 4.29163 0 0 0 161 182 136 255
-0.268299 -0.0306379 4.27526 0 0 0 168 186 132 255
0.772178 0.00301324 4.3739 0 0 0 70 77 73 255
-0.109085 0.0422549 4.31174 0 0 0 62 71 68 255
0.234394 0.113571 4.33456 0 0 0 150 167 120 255
0.457349 0.0883549 4.34854 0 0 0 53 60 57 255
-1.93176 0.208492 5.85619 0 0 0 142 111 87 255
-0.40395 0.243694 4.45981 0 0 0 161 181 144 255
0.300615 0.212051 4.36205 0 0 0 159 170 130 255
-0.257372 0.252277 4.31998 0 0 0 47 54 52 255
0.315417 0.291197 4.36056 0 0 0 150 162 117 255
0.671562 0.339803 4.40826 0 0 0 53 63 55 255
0.395273 0.600928 4.399 0 0 0 165 165 167 255
0.645217 0.606637 4.53673 0 0 0 193 202 202 255
-0.374028 0.618029 4.35331 0 0 0 134 140 143 255
-0.453111 0.706563 4.38878 0 0 0 57 61 62 255
-1.52572 1.04391 5.97084 0 0 0 160 134 113 255
0.265632 0.765529 4.41352 0 0 0 193 202 202 255
-0.17827 0.869306 4.40701 0 0 0 118 126 127 255
-0.560067 0.985041 4.82228 0 0 0 161 194 174 255
-2.6198 -0.802574 5.67807 0 0 0 141 135 135 255
-2.31718 -0.787244 5.59811 0 0 0 90 76 77 255
-2.28919 -0.795 5.60424 0 0 0 188 184 183 255
-2.6388 -0.782894 5.62338 0 0 0 90 79 85 255
0.951672 -0.442194 4.34548 0 0 0 130 139 124 255
-2.66601 -0.662118 5.69831 0 0 0 125 102 89 255
-0.448543 -0.346597 4.25323 0 0 0 165 184 164 255
-1.24998 -0.668208 5.78009 0 0 0 169 153 145 255
0.920834 -0.378658 4.34834 0 0 0 155 173 140 255
-2.65641 -0.607221 5.6923 0 0 0 95 78 75 255
-1.64689 -0.630642 5.77225 0 0 0 202 189 175 255
-1.32261 -0.63754 5.78022 0 0 0 154 134 126 255
-1.31009 -0.63726 5.77929 0 0 0 155 127 112 255
-1.26455 -0.649033 5.78614 0 0 0 157 138 129 255
-1.19299 -0.626912 5.69357 0 0 0 150 133 123 255
-1.01262 -0.649334 5.77251 0 0 0 153 119 105 255
-1.14387 -0.636351 5.78972 0 0 0 203 188 178 255
-1.22182 -0.618779 5.75375 0 0 0 188 167 158 255
-1.10829 -0.616073 5.7826 0 0 0 144 116 102 255
-1.02873 -0.608787 5.75512 0 0 0 201 186 178 255
-1.15938 -0.592323 5.79123 0 0 0 204 187 174 255
0.0290307 -0.277756 4.27555 0 0 0 92 103 93 255
-1.05233 -0.544885 5.67563 0 0 0 198 189 179 255
-1.35538 -0.553685 5.7934 0 0 0 197 189 183 255
-1.21596 -0.553684 5.76733 0 0 0 202 187 176 255
-1.14798 -0.561684 5.80163 0 0 0 195 185 177 255
-1.10688 -0.55742 5.7905 0 0 0 166 154 142 255
-1.19928 -0.527836 5.73504 0 0 0 135 124 114 255
-1.05748 -0.536615 5.76595 0 0 0 142 114 103 255
-1.03185 -0.547311 5.79066 0 0 0 177 163 151 255
-1.28909 -0.531424 5.78071 0 0 0 158 121 106 255
-1.22486 -0.520024 5.77322 0 0 0 187 158 148 255
-1.12688 -0.537413 5.78845 0 0 0 140 116 105 255
-2.6486 -0.482076 5.75813 0 0 0 87 69 55 255
-2.64217 -0.402084 5.73098 0 0 0 52 37 40 255
-2.64588 -0.384093 5.71552 0 0 0 104 89 88 255
0.553121 -0.199016 4.34205 0 0 0 121 133 113 255
-1.87859 -0.401 5.7887 0 0 0 147 130 116 255
-1.83516 -0.389265 5.81195 0 0 0 202 173 157 255
0.504198 -0.169928 4.32322 0 0 0 113 126 112 255
0.963108 -0.191068 4.36997 0 0 0 122 139 119 255
-1.49326 -0.361083 5.80471 0 0 0 146 130 116 255
-1.28635 -0.364401 5.81915 0 0 0 149 131 121 255
-1.22414 -0.350324 5.80807 0 0 0 199 188 178 255
0.493961 -0.13567 4.32399 0 0 0 93 107 92 255
0.600172 -0.118735 4.33826 0 0 0 108 124 111 255
-1.79177 -0.298121 5.82241 0 0 0 198 182 168 255
0.0270553 -0.0957563 4.29652 0 0 0 123 139 101 255
0.509093 -0.0991892 4.32712 0 0 0 129 143 110 255
-1.68642 -0.25999 5.81634 0 0 0 199 185 174 255
-1.38337 -0.275389 5.82481 0 0 0 203 189 173 255
0.495777 -0.0880176 4.32925 0 0 0 158 174 133 255
-1.27849 -0.262124 5.828 0 0 0 151 121 107 255
-1.25962 -0.264042 5.82426 0 0 0 146 107 86 255
-1.17746 -0.254304 5.73849 0 0 0 152 114 99 255
-1.18673 -0.269404 5.82233 0 0 0 155 112 94 255
0.0170576 -0.0609508 4.30056 0 0 0 151 170 128 255
-1.59876 -0.232862 5.82124 0 0 0 168 142 128 255
-1.58724 -0.235175 5.81474 0 0 0 154 124 111 255
0.972595 -0.0768569 4.38759 0 0 0 124 136 120 255
-2.66801 -0.162684 5.81139 0 0 0 116 70 67 255
-2.64405 -0.17663 5.85707 0 0 0 144 92 64 255
0.97452 -0.0351951 4.3899 0 0 0 126 141 124 255
-1.04526 -0.16515 5.77649 0 0 0 177 169 160 255
-1.29342 -0.152319 5.82337 0 0 0 136 131 121 255
-1.21991 -0.154544 5.83751 0 0 0 119 114 104 255
-1.10755 -0.169228 5.83901 0 0 0 191 180 168 255
-1.03317 -0.162972 5.84154 0 0 0 195 183 172 255
-1.41521 -0.146129 5.83472 0 0 0 148 139 128 255
-1.16325 -0.157277 5.84429 0 0 0 149 140 124 255
0.824643 -0.0194942 4.37639 0 0 0 148 162 124 255
-1.5612 -0.134052 5.83968 0 0 0 182 174 163 255
-1.03909 -0.139349 5.76336 0 0 0 102 96 94 255
-0.356361 0.0350518 4.27877 0 0 0 133 147 131 255
0.263571 0.00900389 4.33162 0 0 0 124 142 128 255
-1.80751 -0.125002 5.83531 0 0 0 143 139 133 255
-1.20365 -0.137036 5.82424 0 0 0 141 137 134 255
-1.11605 -0.138086 5.82934 0 0 0 120 116 111 255
-1.09497 -0.13781 5.84081 0 0 0 194 184 172 255
-1.03874 -0.124797 5.76395 0 0 0 95 93 91 255
-1.1704 -0.118511 5.82791 0 0 0 99 96 94 255
-1.1051 -0.115643 5.82532 0 0 0 81 78 71 255
-1.02732 -0.127931 5.84058 0 0 0 171 167 166 255
-1.0185 -0.127182 5.85159 0 0 0 160 155 154 255
-1.44533 -0.0974316 5.83167 0 0 0 111 108 104 255
-1.04089 -0.109078 5.77204 0 0 0 104 102 98 255
-1.79074 -0.0859563 5.83936 0 0 0 173 169 163 255
-1.30113 -0.098628 5.80798 0 0 0 148 145 137 255
-1.27643 -0.0993029 5.83687 0 0 0 155 148 139 255
-1.23193 -0.0995363 5.83165 0 0 0 112 107 97 255
-1.21876 -0.0969796 5.81002 0 0 0 114 108 101 255
-1.15573 -0.103876 5.83574 0 0 0 195 184 172 255
-1.09026 -0.10968 5.83866 0 0 0 132 123 112 255
0.826549 0.0168608 4.38146 0 0 0 135 142 119 255
0.975293 0.00860921 4.391 0 0 0 127 138 128 255
-1.55877 -0.081955 5.82679 0 0 0 194 186 177 255
-1.60643 -0.0781149 5.84193 0 0 0 143 136 129 255
-1.81037 -0.0730364 5.87703 0 0 0 157 148 134 255
-0.203126 0.106607 4.31418 0 0 0 153 165 147 255
-0.122433 0.0976824 4.31273 0 0 0 93 103 99 255
0.80961 0.0679054 4.37845 0 0 0 98 110 91 255
-0.296716 0.108179 4.30294 0 0 0 157 171 155 255
-0.273002 0.10689 4.29555 0 0 0 133 144 133 255
0.821641 0.071122 4.3838 0 0 0 133 148 124 255
-2.30482 0.0502277 5.75813 0 0 0 88 47 43 255
-2.2933 0.0398855 5.79032 0 0 0 200 169 161 255
-1.00757 0.00938527 5.78294 0 0 0 117 117 117 255
-1.2059 0.0179488 5.84249 0 0 0 151 148 146 255
-1.28428 0.0267582 5.8485 0 0 0 151 142 132 255
-1.22367 0.0169338 5.83828 0 0 0 136 131 131 255
-1.1522 0.0262446 5.82005 0 0 0 162 157 150 255
-1.08614 0.0170854 5.84484 0 0 0 143 139 138 255
-1.01881 0.0232416 5.84533 0 0 0 122 120 121 255
-2.29403 0.0679151 5.8035 0 0 0 43 36 35 255
-1.20343 0.0381606 5.84739 0 0 0 146 139 125 255
-1.29095 0.0393668 5.84169 0 0 0 162 158 155 255
-1.12761 0.0352585 5.82873 0 0 0 168 160 154 255
-1.08151 0.0275167 5.84919 0 0 0 150 145 136 255
-1.018 0.0296077 5.85052 0 0 0 164 159 147 255
-0.417495 0.16148 4.3083 0 0 0 102 113 105 255
-0.087254 0.149022 4.31206 0 0 0 172 192 141 255
-1.86609 0.0772892 5.85819 0 0 0 182 168 146 255
-1.88113 0.0802244 5.84949 0 0 0 180 169 159 255
-0.633625 0.144077 4.63917 0 0 0 43 46 45 255
-0.368446 0.172707 4.28722 0 0 0 94 112 99 255
-0.223032 0.175345 4.30895 0 0 0 96 109 97 255
-0.0984045 0.164421 4.31748 0 0 0 127 145 103 255
-0.211614 0.182976 4.30965 0 0 0 119 141 118 255
-0.312283 0.190695 4.32057 0 0 0 128 142 126 255
-0.268449 0.200682 4.32317 0 0 0 88 102 97 255
-2.30396 0.16893 5.80388 0 0 0 121 90 71 255
-1.30834 0.139483 5.86599 0 0 0 99 73 57 255
-0.276026 0.222211 4.31802 0 0 0 47 60 51 255
-0.276725 0.234797 4.31748 0 0 0 47 61 57 255
0.904266 0.193964 4.40488 0 0 0 88 95 89 255
-0.241373 0.243365 4.32628 0 0 0 52 62 57 255
0.917901 0.2072 4.40777 0 0 0 79 80 77 255
-0.357523 0.265083 4.31172 0 0 0 169 194 154 255
-0.288488 0.257259 4.31816 0 0 0 102 120 110 255
0.638833 0.236793 4.38071 0 0 0 86 101 94 255
0.931441 0.221986 4.41513 0 0 0 122 131 112 255
-0.367974 0.272446 4.3181 0 0 0 137 161 125 255
-0.353319 0.303139 4.31895 0 0 0 129 148 128 255
-0.35217 0.308689 4.31894 0 0 0 128 145 126 255
0.621666 0.280087 4.38975 0 0 0 109 122 114 255
0.909355 0.273982 4.41266 0 0 0 161 177 133 255
-0.364103 0.344573 4.32188 0 0 0 100 110 107 255
0.555328 0.320642 4.38411 0 0 0 88 106 102 255
-0.334591 0.365063 4.33674 0 0 0 153 171 158 255
-0.280878 0.371214 4.34406 0 0 0 100 112 106 255
-0.0556031 0.362923 4.35174 0 0 0 67 82 74 255
0.989904 0.327608 4.43563 0 0 0 130 145 151 255
0.944553 0.336056 4.42568 0 0 0 170 176 178 255
1.39719 0.304396 5.27609 0 0 0 46 55 59 255
0.49782 0.362782 4.38684 0 0 0 148 159 166 255
0.845823 0.349441 4.41726 0 0 0 100 106 109 255
1.06063 0.340058 4.45335 0 0 0 126 127 127 255
1.0826 0.337969 4.44349 0 0 0 130 138 143 255
0.561377 0.360769 4.38695 0 0 0 48 61 68 255
0.876171 0.350444 4.42378 0 0 0 125 130 134 255
0.966096 0.345003 4.43029 0 0 0 80 78 79 255
1.02003 0.342435 4.44035 0 0 0 153 155 158 255
0.493641 0.369068 4.38701 0 0 0 135 156 169 255
0.635709 0.365232 4.39391 0 0 0 57 59 59 255
0.825648 0.354133 4.42082 0 0 0 140 159 161 255
0.89929 0.356611 4.42779 0 0 0 134 141 150 255
1.04029 0.350077 4.44089 0 0 0 159 159 159 255
1.26731 0.337978 4.91696 0 0 0 92 106 117 255
0.240461 0.385795 4.36773 0 0 0 136 145 148 255
1.12119 0.359717 4.44553 0 0 0 60 57 61 255
-1.52655 0.419734 5.89767 0 0 0 91 68 51 255
0.708032 0.374235 4.40674 0 0 0 142 152 152 255
0.862569 0.368982 4.42548 0 0 0 57 61 63 255
1.05668 0.363046 4.43972 0 0 0 172 173 176 255
1.10504 0.360567 4.44465 0 0 0 111 128 135 255
-0.234301 0.414692 4.34301 0 0 0 111 116 123 255
-0.175658 0.414119 4.34472 0 0 0 124 134 140 255
-0.0193191 0.40611 4.3524 0 0 0 194 203 204 255
0.165284 0.395182 4.36489 0 0 0 47 61 66 255
1.04699 0.368195 4.44157 0 0 0 50 52 54 255
-0.334068 0.424232 4.33984 0 0 0 53 58 61 255
-0.155806 0.411521 4.34393 0 0 0 125 129 134 255
0.966758 0.374481 4.43017 0 0 0 186 197 198 255
1.01452 0.374707 4.44012 0 0 0 84 104 109 255
-0.0338216 0.416921 4.35492 0 0 0 52 62 68 255
0.518562 0.396915 4.39485 0 0 0 56 59 61 255
0.63533 0.393016 4.39653 0 0 0 129 134 135 255
0.828421 0.386652 4.4213 0 0 0 138 154 159 255
0.877191 0.387798 4.4253 0 0 0 136 156 160 255
0.902935 0.385425 4.43222 0 0 0 106 113 115 255
1.03733 0.379304 4.44016 0 0 0 126 128 130 255
1.08374 0.376462 4.44288 0 0 0 114 128 132 255
1.11105 0.372045 4.44353 0 0 0 144 141 144 255
-0.181701 0.424799 4.34673 0 0 0 70 76 80 255
-0.13091 0.428983 4.35746 0 0 0 134 145 152 255
0.217613 0.413284 4.36247 0 0 0 131 137 138 255
0.33672 0.409621 4.37542 0 0 0 53 54 54 255
0.389357 0.40999 4.37519 0 0 0 75 81 88 255
0.661839 0.398071 4.40173 0 0 0 128 144 148 255
0.896805 0.385508 4.43171 0 0 0 64 64 67 255
-2.61484 0.507675 5.98501 0 0 0 123 96 80 255
-0.0502435 0.428807 4.35303 0 0 0 57 56 59 255
0.0483751 0.427463 4.35642 0 0 0 160 160 160 255
0.530418 0.409681 4.39416 0 0 0 143 151 156 255
0.551733 0.406268 4.38831 0 0 0 67 70 77 255
0.591948 0.403264 4.39603 0 0 0 104 116 123 255
0.615891 0.405164 4.39606 0 0 0 118 133 140 255
0.377535 0.417191 4.37583 0 0 0 106 124 129 255
-0.410039 0.449787 4.32755 0 0 0 92 106 104 255
-0.0247463 0.437772 4.35218 0 0 0 158 167 173 255
0.210357 0.429716 4.35119 0 0 0 68 72 80 255
0.283091 0.427124 4.37395 0 0 0 102 106 109 255
-0.289816 0.452956 4.34093 0 0 0 46 51 49 255
-0.241427 0.457506 4.34662 0 0 0 156 158 162 255
-0.0294746 0.441389 4.35344 0 0 0 143 156 167 255
0.0292226 0.440012 4.36044 0 0 0 117 130 135 255
-0.578883 0.463266 4.52583 0 0 0 65 66 66 255
-0.175196 0.45309 4.34868 0 0 0 90 95 100 255
0.844985 0.440641 4.42607 0 0 0 126 130 133 255
0.86808 0.436378 4.43063 0 0 0 85 102 107 255
0.434187 0.458663 4.39239 0 0 0 84 95 100 255
0.897627 0.446261 4.43136 0 0 0 76 84 93 255
0.930171 0.441579 4.44023 0 0 0 83 92 101 255
0.975294 0.442568 4.44069 0 0 0 112 121 126 255
1.03626 0.43763 4.44519 0 0 0 95 101 106 255
0.707413 0.45723 4.41273 0 0 0 101 111 117 255
1.06482 0.441381 4.44556 0 0 0 115 131 145 255
1.08681 0.441506 4.44665 0 0 0 121 130 132 255
1.11303 0.444053 4.45159 0 0 0 100 103 109 255
-1.0468 0.538819 5.89025 0 0 0 128 114 104 255
0.426995 0.470144 4.39134 0 0 0 55 56 59 255
0.771951 0.457101 4.42542 0 0 0 110 117 123 255
0.853799 0.454535 4.42632 0 0 0 123 133 139 255
1.02528 0.446923 4.44159 0 0 0 90 100 108 255
-1.08269 0.544342 5.90045 0 0 0 61 49 53 255
0.411823 0.474887 4.38763 0 0 0 83 95 108 255
0.666209 0.46929 4.41519 0 0 0 116 122 129 255
0.740726 0.462177 4.41484 0 0 0 114 124 126 255
0.930939 0.453012 4.44261 0 0 0 98 100 105 255
0.558837 0.479202 4.39862 0 0 0 93 111 119 255
0.626604 0.47108 4.40699 0 0 0 81 89 91 255
-1.0225 0.555945 5.89611 0 0 0 67 52 46 255
0.355079 0.487121 4.38939 0 0 0 115 137 147 255
-1.88796 0.607215 5.93019 0 0 0 111 97 83 255
-0.975145 0.576195 5.92531 0 0 0 64 56 52 255
-0.958053 0.580335 5.93003 0 0 0 61 53 51 255
-1.63825 0.613011 5.90608 0 0 0 62 49 44 255
-1.50218 0.599069 5.91411 0 0 0 59 47 45 255
-1.10665 0.605752 5.92783 0 0 0 74 55 45 255
1.01079 0.502563 4.44812 0 0 0 192 192 193 255
0.544902 0.526615 4.40014 0 0 0 127 137 146 255
-1.4393 0.659161 5.92505 0 0 0 120 90 78 255
-1.16704 0.656696 5.91811 0 0 0 86 66 59 255
-1.31668 0.667427 5.91993 0 0 0 60 44 45 255
0.779792 0.550191 4.43723 0 0 0 141 141 143 255
0.940094 0.55967 4.45084 0 0 0 175 181 186 255
-1.05664 0.70588 5.93671 0 0 0 92 73 64 255
0.98879 0.567313 4.45025 0 0 0 140 144 146 255
-0.980406 0.701595 5.83853 0 0 0 82 64 56 255
-1.33514 0.735542 5.91997 0 0 0 50 38 37 255
-0.971181 0.733233 5.9821 0 0 0 92 76 69 255
0.693452 0.599746 4.43359 0 0 0 161 163 167 255
-0.923054 0.740524 5.98834 0 0 0 78 62 54 255
0.903814 0.591446 4.45797 0 0 0 154 155 157 255
-1.53802 0.779825 5.92981 0 0 0 63 53 45 255
0.946573 0.605611 4.45638 0 0 0 134 133 136 255
0.958178 0.604487 4.44854 0 0 0 168 179 182 255
-1.09862 0.765574 5.93513 0 0 0 115 103 99 255
-0.961441 0.762367 5.98135 0 0 0 90 75 65 255
-1.34506 0.777945 5.92607 0 0 0 70 53 45 255
0.238579 0.635046 4.38381 0 0 0 169 175 178 255
-0.185084 0.658546 4.37864 0 0 0 188 194 199 255
-1.36435 0.797405 5.9234 0 0 0 85 59 50 255
0.624937 0.635958 4.43318 0 0 0 178 188 191 255
-0.178873 0.673154 4.38394 0 0 0 168 172 175 255
0.840447 0.636754 4.44995 0 0 0 187 198 201 255
0.915394 0.635156 4.45707 0 0 0 92 97 99 255
0.939339 0.636371 4.45978 0 0 0 177 179 183 255
1.02589 0.637974 4.46911 0 0 0 192 194 196 255
1.00513 0.648232 4.46393 0 0 0 170 186 188 255
-2.04793 0.874948 5.89632 0 0 0 118 85 64 255
-0.0390026 0.693277 4.38346 0 0 0 203 213 214 255
0.155981 0.686594 4.39737 0 0 0 141 141 142 255
0.827508 0.66662 4.45114 0 0 0 181 194 199 255
1.01988 0.654911 4.46799 0 0 0 202 209 210 255
0.871225 0.669121 4.4617 0 0 0 203 210 212 255
-1.02726 0.849287 5.95071 0 0 0 95 67 58 255
0.824967 0.672981 4.45309 0 0 0 157 170 175 255
0.90442 0.673146 4.46146 0 0 0 117 120 122 255
-0.983969 0.872905 5.99 0 0 0 118 90 79 255
0.966061 0.682372 4.46781 0 0 0 141 161 168 255
0.829211 0.691005 4.45413 0 0 0 117 121 123 255
1.07717 0.685867 4.47224 0 0 0 167 179 177 255
-1.0909 0.899179 5.88159 0 0 0 70 62 61 255
-0.176954 0.740498 4.38892 0 0 0 198 211 213 255
-0.00506239 0.733714 4.3841 0 0 0 158 160 162 255
0.684221 0.711917 4.44079 0 0 0 130 146 147 255
0.901218 0.706505 4.46399 0 0 0 197 210 212 255
0.934278 0.698864 4.46548 0 0 0 199 202 202 255
-0.104127 0.743843 4.39272 0 0 0 202 210 212 255
0.189803 0.7357 4.40314 0 0 0 126 126 126 255
0.29415 0.725723 4.40857 0 0 0 128 128 130 255
0.637585 0.716876 4.43894 0 0 0 205 213 214 255
0.849822 0.709187 4.45585 0 0 0 199 216 222 255
0.860061 0.708352 4.45822 0 0 0 205 219 221 255
-0.17533 0.75636 4.39328 0 0 0 199 213 214 255
0.919951 0.719743 4.46084 0 0 0 144 147 149 255
0.972587 0.717489 4.47433 0 0 0 162 172 174 255
1.04988 0.716823 4.47108 0 0 0 204 208 209 255
-1.83237 0.961662 5.9413 0 0 0 136 114 108 255
-1.76346 0.958947 5.93696 0 0 0 116 101 95 255
-0.396239 0.768755 4.38283 0 0 0 73 87 85 255
-0.188425 0.763211 4.39021 0 0 0 117 129 137 255
-3.03742 1.08778 6.7252 0 0 0 78 95 93 255
0.113418 0.754923 4.39308 0 0 0 180 194 199 255
0.900421 0.732878 4.46053 0 0 0 188 197 199 255
0.617762 0.74534 4.43671 0 0 0 126 130 133 255
0.836687 0.737474 4.45051 0 0 0 188 201 206 255
-0.182943 0.778228 4.38903 0 0 0 181 191 192 255
1.11422 0.738336 4.48471 0 0 0 196 210 210 255
0.865587 0.751937 4.4569 0 0 0 198 213 215 255
1.02075 0.758916 4.46888 0 0 0 201 212 215 255
1.0417 0.750433 4.47374 0 0 0 137 139 141 255
0.72892 0.768804 4.4481 0 0 0 190 193 194 255
-0.153603 0.805982 4.38852 0 0 0 198 211 215 255
-0.0581613 0.799092 4.39456 0 0 0 152 159 161 255
0.654133 0.776909 4.44441 0 0 0 147 150 151 255
0.868588 0.770051 4.45967 0 0 0 101 101 101 255
-1.04847 0.99944 5.97911 0 0 0 94 75 66 255
-0.112836 0.808788 4.39784 0 0 0 170 177 180 255
0.15851 0.79907 4.40975 0 0 0 185 194 195 255
-0.106393 0.817464 4.39722 0 0 0 176 182 184 255
1.00147 0.783247 4.47042 0 0 0 161 167 169 255
0.142869 0.82476 4.40817 0 0 0 186 196 200 255
0.189792 0.816826 4.41221 0 0 0 168 170 172 255
0.858421 0.796874 4.46455 0 0 0 119 140 149 255
0.873324 0.801596 4.46088 0 0 0 97 100 105 255
-1.05202 1.05136 5.96402 0 0 0 101 82 73 255
-1.23841 1.06538 5.96537 0 0 0 68 58 57 255
-0.371117 0.855837 4.39011 0 0 0 133 145 152 255
0.487895 0.823963 4.43499 0 0 0 170 179 181 255
0.942651 0.804907 4.46866 0 0 0 86 100 105 255
0.194097 0.838353 4.41792 0 0 0 135 142 151 255
0.982467 0.816573 4.48107 0 0 0 205 207 209 255
-1.27769 1.07906 5.95832 0 0 0 77 60 54 255
-1.97322 1.11134 5.91837 0 0 0 135 98 88 255
0.81539 0.830927 4.46503 0 0 0 148 157 163 255
0.789144 0.836019 4.46389 0 0 0 155 159 160 255
0.0542268 0.862306 4.4093 0 0 0 202 215 218 255
0.475901 0.852681 4.43614 0 0 0 175 186 190 255
-2.14311 1.14178 5.86994 0 0 0 110 79 71 255
-1.07505 1.10164 5.96438 0 0 0 99 84 77 255
0.733283 0.845786 4.45741 0 0 0 144 159 163 255
0.989479 0.835132 4.48358 0 0 0 196 209 212 255
0.768383 0.853256 4.46506 0 0 0 180 184 188 255
0.834883 0.848479 4.46493 0 0 0 104 108 111 255
0.937766 0.858429 4.47687 0 0 0 142 144 145 255
0.346692 0.877788 4.421 0 0 0 145 161 166 255
0.971034 0.857265 4.47958 0 0 0 187 191 194 255
0.830621 0.868529 4.46975 0 0 0 201 207 207 255
