ply
format ascii 1.0
comment VCGLIB generated
element vertex 1009
property float x
property float y
property float z
property float nx
property float ny
property float nz
property uchar red
property uchar green
property uchar blue
property uchar alpha
element face 0
property list uchar int vertex_indices
end_header
0.373846 0.225201 4.36508 0 0 0 159 176 130 255
-2.00885 0.22298 5.72588 0 0 0 151 125 100 255
-0.378076 0.299346 4.35603 0 0 0 147 170 142 255
-0.167219 0.338622 4.37434 0 0 0 171 195 144 255
-0.165554 0.33304 4.37224 0 0 0 173 191 151 255
-2.09761 0.364416 5.74848 0 0 0 144 117 97 255
0.356988 0.323033 4.37132 0 0 0 152 171 134 255
0.874469 0.353716 4.4161 0 0 0 147 156 160 255
1.03689 0.347613 4.42542 0 0 0 159 159 159 255
0.681922 0.369379 4.40441 0 0 0 105 122 128 255
0.706999 0.36802 4.40661 0 0 0 146 156 156 255
0.886725 0.371644 4.41786 0 0 0 131 126 130 255
-0.027265 0.405032 4.37403 0 0 0 173 181 182 255
0.339458 0.391021 4.39063 0 0 0 122 125 127 255
0.962057 0.371398 4.41905 0 0 0 145 162 166 255
-2.6233 0.482712 6.01799 0 0 0 119 96 79 255
0.636949 0.387819 4.40179 0 0 0 148 155 156 255
0.661259 0.39152 4.40403 0 0 0 132 147 153 255
0.893465 0.378253 4.41896 0 0 0 141 144 146 255
0.219118 0.419324 4.3846 0 0 0 87 94 95 255
0.615242 0.400904 4.40164 0 0 0 86 91 95 255
-1.70025 0.477351 5.76748 0 0 0 128 104 88 255
-0.421235 0.444236 4.34358 0 0 0 93 108 103 255
0.0266321 0.435605 4.37879 0 0 0 57 64 69 255
0.0522206 0.428716 4.38007 0 0 0 160 160 160 255
-0.172439 0.450207 4.37402 0 0 0 120 124 130 255
-0.154345 0.448372 4.37388 0 0 0 95 104 106 255
-0.570339 0.470464 4.51923 0 0 0 43 48 46 255
0.979975 0.447823 4.4292 0 0 0 109 111 115 255
1.0297 0.438203 4.43407 0 0 0 100 110 115 255
-1.89236 0.56146 5.7637 0 0 0 132 106 85 255
-1.09458 0.538879 5.85042 0 0 0 58 47 45 255
-1.03812 0.538221 5.82479 0 0 0 128 114 104 255
0.428314 0.464224 4.40267 0 0 0 96 106 110 255
0.774519 0.456406 4.42518 0 0 0 110 117 123 255
0.433968 0.479334 4.40556 0 0 0 64 70 74 255
-1.66373 0.581051 5.79047 0 0 0 122 98 81 255
-1.43743 0.608967 5.81717 0 0 0 125 100 86 255
-1.04945 0.618858 5.85738 0 0 0 73 58 53 255
0.998999 0.510864 4.43419 0 0 0 203 211 215 255
-1.15679 0.652251 5.83545 0 0 0 95 74 68 255
-1.56225 0.688233 5.81468 0 0 0 98 80 74 255
0.730454 0.550431 4.42617 0 0 0 175 184 185 255
0.798999 0.554112 4.43278 0 0 0 143 149 152 255
-1.67711 0.722863 5.80632 0 0 0 148 120 100 255
0.966163 0.567127 4.44035 0 0 0 144 142 142 255
0.953925 0.592595 4.44355 0 0 0 182 189 193 255
1.00463 0.606457 4.4481 0 0 0 129 144 144 255
0.841678 0.609202 4.4409 0 0 0 147 164 167 255
-1.45708 0.825085 5.82151 0 0 0 55 44 43 255
0.190119 0.654309 4.41021 0 0 0 201 215 217 255
0.820239 0.641545 4.44255 0 0 0 100 105 117 255
0.930954 0.642707 4.44996 0 0 0 172 177 182 255
-0.177063 0.691328 4.40324 0 0 0 187 196 200 255
1.01352 0.647341 4.45423 0 0 0 187 193 193 255
-0.0921897 0.697141 4.3992 0 0 0 205 217 221 255
-1.03538 0.847599 5.87657 0 0 0 88 71 67 255
0.905288 0.671456 4.45179 0 0 0 117 120 122 255
0.850367 0.693218 4.44954 0 0 0 204 219 223 255
1.07741 0.681738 4.46248 0 0 0 178 179 183 255
0.834721 0.704094 4.44847 0 0 0 110 122 127 255
-0.486706 0.769972 4.39927 0 0 0 151 169 155 255
0.335217 0.746955 4.41954 0 0 0 204 219 223 255
1.0401 0.722387 4.46112 0 0 0 203 214 217 255
-0.934955 0.925457 5.73136 0 0 0 71 59 55 255
-0.428867 0.781187 4.39703 0 0 0 121 134 134 255
0.86237 0.744832 4.45483 0 0 0 194 205 207 255
1.10948 0.737068 4.47142 0 0 0 196 210 210 255
0.0852989 0.77751 4.42249 0 0 0 112 124 132 255
0.729439 0.763124 4.45123 0 0 0 173 175 177 255
-0.53808 0.831429 4.44608 0 0 0 155 183 178 255
0.918943 0.779711 4.4594 0 0 0 111 118 120 255
0.957684 0.758024 4.46526 0 0 0 188 197 201 255
-0.331224 0.811231 4.40085 0 0 0 92 93 93 255
-0.284883 0.832717 4.40737 0 0 0 196 214 217 255
1.02365 0.777103 4.46579 0 0 0 204 217 222 255
-2.61342 1.13083 6.12397 0 0 0 150 117 97 255
0.31229 0.838946 4.42831 0 0 0 112 119 121 255
-2.02616 1.08957 5.72763 0 0 0 116 80 66 255
-1.04597 1.0615 5.88256 0 0 0 83 68 64 255
0.989204 0.821632 4.4738 0 0 0 203 216 219 255
-2.4188 1.17612 6.19548 0 0 0 126 105 94 255
0.807583 0.845716 4.46394 0 0 0 135 142 146 255
0.840875 0.834121 4.464 0 0 0 94 98 105 255
0.864602 0.845319 4.46665 0 0 0 159 177 186 255
0.986919 0.837752 4.47411 0 0 0 182 195 198 255
0.913527 0.858836 4.47319 0 0 0 203 216 217 255
-0.312016 0.922974 4.42571 0 0 0 203 218 220 255
0.820648 0.882566 4.46891 0 0 0 185 189 191 255
0.885216 0.890655 4.47469 0 0 0 102 105 113 255
0.195862 0.926761 4.43336 0 0 0 205 220 222 255
0.627921 0.900939 4.4631 0 0 0 124 135 138 255
0.99648 0.897712 4.47983 0 0 0 180 190 193 255
-2.30846 1.30528 6.21163 0 0 0 147 131 118 255
-0.986664 1.20712 5.90216 0 0 0 133 112 98 255
0.0248713 0.972585 4.43365 0 0 0 202 217 219 255
-0.62763 1.12993 5.01472 0 0 0 58 56 59 255
0.310528 0.990914 4.45222 0 0 0 173 186 191 255
-2.70189 1.41246 6.1427 0 0 0 141 149 159 255
-1.28697 1.30681 5.85167 0 0 0 155 130 114 255
-2.71785 1.45365 6.10588 0 0 0 37 42 46 255
-1.41548 1.47106 5.91163 0 0 0 152 127 114 255
-2.64967 1.59108 6.02464 0 0 0 153 164 165 255
-0.678313 1.31638 5.18865 0 0 0 88 70 72 255
-0.0352111 1.23964 4.46021 0 0 0 101 115 113 255
0.168327 1.22411 4.46857 0 0 0 100 115 112 255
0.411506 1.362 4.50038 0 0 0 70 83 90 255
0.733838 1.34691 4.49443 0 0 0 125 132 143 255
0.706128 1.36097 4.49813 0 0 0 195 207 214 255
-2.89351 -1.03496 6.42171 0 0 0 135 139 140 255
-2.33999 -0.763357 5.63123 0 0 0 83 51 53 255
-2.67898 -0.731076 5.74528 0 0 0 141 113 93 255
0.876817 -0.400787 4.36109 0 0 0 134 147 124 255
-1.98787 -0.637148 5.65836 0 0 0 152 133 118 255
-0.454299 -0.350586 4.29011 0 0 0 165 184 164 255
-1.04836 -0.639606 5.7545 0 0 0 149 109 93 255
-2.01921 -0.536888 5.66149 0 0 0 145 119 105 255
-1.05191 -0.54965 5.76816 0 0 0 154 114 102 255
0.57289 -0.24309 4.32825 0 0 0 94 108 76 255
-2.61955 -0.421094 5.77296 0 0 0 132 111 98 255
0.950114 -0.217551 4.35877 0 0 0 129 141 117 255
-1.30439 -0.297229 5.68788 0 0 0 174 149 135 255
-1.17954 -0.274975 5.77562 0 0 0 151 113 96 255
0.628625 -0.0935179 4.34686 0 0 0 86 108 100 255
-0.434184 -0.0537385 4.31032 0 0 0 171 185 168 255
0.505075 -0.0572333 4.34536 0 0 0 127 140 115 255
0.568932 -0.051006 4.35117 0 0 0 54 67 64 255
0.469487 -0.00425986 4.35521 0 0 0 54 62 61 255
0.493645 0.0033657 4.35122 0 0 0 46 58 56 255
-1.53579 -0.094577 5.74531 0 0 0 136 130 126 255
-0.372975 0.0536418 4.31365 0 0 0 175 201 156 255
-2.23743 0.00938095 5.70507 0 0 0 204 190 172 255
-2.59181 0.0754186 5.87492 0 0 0 144 89 76 255
-0.102879 0.136376 4.33167 0 0 0 168 191 141 255
-2.21416 0.087041 5.70057 0 0 0 38 36 37 255
0.664405 0.231714 4.39749 0 0 0 136 147 124 255
-2.08458 0.370736 5.75848 0 0 0 142 118 98 255
-1.97723 0.352194 5.71862 0 0 0 81 46 45 255
-1.88436 0.336939 5.7627 0 0 0 53 38 37 255
0.35683 0.312754 4.37028 0 0 0 162 180 138 255
-0.118396 0.348419 4.34906 0 0 0 173 200 147 255
-2.62355 0.481364 6.01848 0 0 0 119 96 79 255
-0.119373 0.398039 4.35872 0 0 0 50 61 60 255
0.639354 0.390284 4.40269 0 0 0 148 155 156 255
0.874679 0.372245 4.41683 0 0 0 132 153 163 255
-0.00205639 0.4185 4.37617 0 0 0 50 52 53 255
-1.73434 0.466349 5.74609 0 0 0 139 116 94 255
-0.440516 0.45745 4.34231 0 0 0 78 86 84 255
-1.45993 0.493088 5.81989 0 0 0 129 105 91 255
-1.87249 0.552402 5.76586 0 0 0 141 113 90 255
0.812937 0.572677 4.43281 0 0 0 153 156 162 255
0.952 0.561144 4.43967 0 0 0 175 180 183 255
0.265096 0.611058 4.4106 0 0 0 155 162 166 255
0.91761 0.589854 4.44396 0 0 0 175 181 183 255
0.813428 0.605304 4.43481 0 0 0 131 132 136 255
-1.49812 0.827198 5.81365 0 0 0 53 41 33 255
0.711644 0.645323 4.43606 0 0 0 137 143 150 255
-1.59526 0.833445 5.79813 0 0 0 166 140 121 255
-1.69972 0.870538 5.81106 0 0 0 147 122 102 255
0.856027 0.696356 4.4513 0 0 0 205 218 223 255
1.0334 0.7319 4.46174 0 0 0 204 216 218 255
0.246275 0.77348 4.43063 0 0 0 193 208 217 255
-0.985798 0.990648 5.89024 0 0 0 107 98 95 255
0.711383 0.74768 4.45143 0 0 0 191 197 202 255
0.967621 0.752488 4.46696 0 0 0 200 217 218 255
-1.24321 1.01022 5.82358 0 0 0 146 122 103 255
-0.0837389 0.826933 4.42048 0 0 0 204 220 223 255
0.203323 0.816379 4.42922 0 0 0 144 155 160 255
0.996145 0.798137 4.47065 0 0 0 179 196 200 255
0.0916484 0.838307 4.4294 0 0 0 203 221 224 255
0.502461 0.842464 4.44964 0 0 0 116 118 120 255
-0.404959 0.888602 4.39949 0 0 0 179 207 175 255
-0.0884961 0.875311 4.42705 0 0 0 203 220 226 255
0.989839 0.824715 4.47399 0 0 0 202 217 221 255
-0.893713 1.12195 6.01081 0 0 0 90 66 67 255
-0.35386 0.892082 4.40508 0 0 0 137 149 153 255
-0.298282 0.894864 4.41765 0 0 0 205 220 222 255
-0.271892 0.899372 4.41561 0 0 0 203 221 224 255
-0.581836 0.943387 4.55286 0 0 0 75 68 70 255
0.758564 0.892756 4.46619 0 0 0 136 146 145 255
0.170532 0.927794 4.43287 0 0 0 204 218 218 255
0.561592 0.919152 4.45701 0 0 0 200 216 220 255
0.829653 0.921011 4.46762 0 0 0 173 182 183 255
-0.602753 1.01458 4.63217 0 0 0 132 112 101 255
-0.115464 1.00106 4.41803 0 0 0 183 190 193 255
-0.649139 1.14516 5.08531 0 0 0 52 57 57 255
-2.7252 1.44857 6.08214 0 0 0 35 41 46 255
-2.54543 1.57981 6.07671 0 0 0 151 134 126 255
-2.65116 1.59279 6.01644 0 0 0 153 164 164 255
-2.35643 -0.764583 5.61631 0 0 0 81 49 53 255
-0.449618 -0.33054 4.29394 0 0 0 171 199 165 255
-1.22803 -0.63706 5.71159 0 0 0 154 120 107 255
-2.02463 -0.562869 5.65527 0 0 0 162 141 128 255
-1.42402 -0.597585 5.7128 0 0 0 157 121 106 255
-1.15921 -0.59837 5.74208 0 0 0 147 113 101 255
-1.85198 -0.532314 5.6995 0 0 0 158 117 103 255
-1.16375 -0.568838 5.75335 0 0 0 153 119 111 255
-1.99857 -0.503009 5.66855 0 0 0 163 114 90 255
-1.16969 -0.341657 5.67171 0 0 0 152 120 109 255
0.0181667 -0.140761 4.30929 0 0 0 173 194 140 255
-1.77684 -0.260126 5.72047 0 0 0 171 137 118 255
-1.47602 -0.299513 5.73897 0 0 0 173 155 143 255
-1.24804 -0.287795 5.74932 0 0 0 147 115 100 255
-1.30636 -0.274794 5.74076 0 0 0 148 112 95 255
-0.427757 -0.0702165 4.31555 0 0 0 169 196 155 255
-0.197593 -0.0411074 4.30861 0 0 0 128 143 114 255
-0.0237292 -0.0545462 4.31995 0 0 0 133 148 114 255
0.312925 -0.0306263 4.35709 0 0 0 173 196 138 255
0.459932 -0.019553 4.35626 0 0 0 81 93 89 255
-0.277671 0.0175936 4.33585 0 0 0 174 201 149 255
-0.236646 0.00879572 4.30214 0 0 0 175 202 148 255
-0.21172 0.0130685 4.30733 0 0 0 176 198 145 255
-1.42315 -0.129037 5.75512 0 0 0 193 181 169 255
0.787892 0.0358389 4.37305 0 0 0 130 145 118 255
-0.963904 -0.0119745 5.85763 0 0 0 48 48 50 255
-0.752831 0.0648465 4.95342 0 0 0 46 46 46 255
0.361903 0.110385 4.34971 0 0 0 161 181 130 255
-1.92756 0.05839 5.72951 0 0 0 46 46 46 255
-2.33461 0.0749594 6.03482 0 0 0 33 33 33 255
-1.66933 0.0929183 5.76537 0 0 0 40 40 40 255
-2.27795 0.171828 5.66248 0 0 0 134 98 75 255
-0.392325 0.221479 4.35437 0 0 0 169 195 159 255
0.361458 0.195478 4.358 0 0 0 168 187 134 255
-0.143539 0.244422 4.35254 0 0 0 152 171 135 255
-0.397292 0.267641 4.35222 0 0 0 161 184 154 255
-0.0942772 0.27096 4.36018 0 0 0 85 97 93 255
0.296037 0.296702 4.38578 0 0 0 140 154 125 255
-0.169167 0.340152 4.37539 0 0 0 171 195 144 255
-0.128751 0.345795 4.34974 0 0 0 172 197 145 255
-2.09244 0.379786 5.75138 0 0 0 144 118 95 255
-2.64057 0.430297 6.08497 0 0 0 132 104 83 255
-1.8081 0.407739 5.7779 0 0 0 75 65 60 255
-0.438893 0.451846 4.34206 0 0 0 103 117 112 255
-1.4253 0.472281 5.82357 0 0 0 124 100 87 255
-0.163397 0.443908 4.37361 0 0 0 94 109 113 255
-0.0304904 0.432562 4.37686 0 0 0 70 84 90 255
-1.95386 0.570067 5.74752 0 0 0 57 45 41 255
-2.15274 0.633483 5.7395 0 0 0 123 62 46 255
0.618392 0.503552 4.41978 0 0 0 57 69 74 255
-1.49389 0.830971 5.81379 0 0 0 45 41 38 255
0.255518 0.657026 4.40778 0 0 0 206 219 224 255
0.331383 0.6805 4.41842 0 0 0 103 113 120 255
-0.571569 0.759758 4.67864 0 0 0 80 86 89 255
-0.418056 0.727923 4.38273 0 0 0 78 92 92 255
-1.49592 0.942278 5.83735 0 0 0 141 116 94 255
-1.37559 0.93749 5.83376 0 0 0 47 44 48 255
0.239681 0.776109 4.42971 0 0 0 191 205 212 255
0.86283 0.739224 4.4545 0 0 0 204 213 215 255
0.22312 0.831234 4.43531 0 0 0 190 207 214 255
-0.362917 0.871348 4.40173 0 0 0 120 125 130 255
-0.291135 0.892795 4.41773 0 0 0 204 221 222 255
-0.713338 1.00123 5.1205 0 0 0 88 72 72 255
0.825883 0.865923 4.46717 0 0 0 173 177 181 255
0.0354538 0.900564 4.42776 0 0 0 118 130 137 255
0.332287 0.906692 4.44576 0 0 0 110 127 135 255
-0.999121 1.17067 5.89143 0 0 0 142 116 101 255
-0.402659 0.996873 4.40802 0 0 0 92 106 106 255
0.122907 0.949249 4.43863 0 0 0 194 205 208 255
-2.70489 1.40875 6.14121 0 0 0 141 149 159 255
-1.28554 1.30922 5.85242 0 0 0 155 130 114 255
0.242711 1.03638 4.4557 0 0 0 171 186 188 255
-1.18526 1.54217 6.11669 0 0 0 134 119 113 255
-2.54361 1.59081 6.08487 0 0 0 146 137 135 255
0.166378 1.21841 4.46636 0 0 0 99 113 111 255
-1.02755 -0.587402 5.58035 0 0 0 171 157 151 255
0.144426 -0.240933 4.30263 0 0 0 77 87 83 255
0.209525 -0.219235 4.31001 0 0 0 85 99 92 255
0.533952 -0.206807 4.33838 0 0 0 95 108 99 255
0.136625 -0.200699 4.31144 0 0 0 89 102 93 255
-0.00571969 -0.145397 4.31285 0 0 0 174 197 137 255
0.24325 -0.169887 4.31806 0 0 0 71 82 77 255
-1.25028 -0.322144 5.74386 0 0 0 157 116 103 255
0.588673 -0.13937 4.34628 0 0 0 140 153 119 255
-0.0629685 -0.0700777 4.31624 0 0 0 153 173 132 255
0.245935 -0.0978622 4.32044 0 0 0 60 73 68 255
-0.257306 -0.0209336 4.30997 0 0 0 175 202 148 255
-0.0300007 -0.0523532 4.32048 0 0 0 89 101 85 255
0.538151 0.0117695 4.35118 0 0 0 91 110 104 255
-2.31485 -0.023946 5.96144 0 0 0 206 191 172 255
-0.419364 0.151642 4.33312 0 0 0 85 100 95 255
-2.19834 0.100909 5.8757 0 0 0 33 33 33 255
-2.03998 0.105145 5.72198 0 0 0 36 35 38 255
0.31488 0.154488 4.37204 0 0 0 169 189 134 255
0.498583 0.194251 4.38069 0 0 0 152 165 131 255
-0.405374 0.235749 4.35005 0 0 0 158 181 152 255
0.229502 0.216191 4.35297 0 0 0 73 87 85 255
-2.07704 0.294308 5.7389 0 0 0 56 41 44 255
0.00446638 0.283796 4.36262 0 0 0 170 195 150 255
-0.328836 0.392151 4.36518 0 0 0 41 42 41 255
-2.0907 0.415551 5.75431 0 0 0 141 114 96 255
-1.7917 0.514967 5.76967 0 0 0 133 112 95 255
-1.65629 0.453706 5.78123 0 0 0 46 38 38 255
-1.2164 0.453777 5.81167 0 0 0 54 42 43 255
-2.18489 0.540008 5.74285 0 0 0 91 49 41 255
0.623685 0.49758 4.41951 0 0 0 55 65 69 255
0.197195 0.585683 4.38707 0 0 0 206 219 224 255
0.200746 0.634591 4.39871 0 0 0 206 219 224 255
-1.77254 0.888061 5.78467 0 0 0 58 49 44 255
0.599758 0.717901 4.43608 0 0 0 114 125 128 255
-1.49778 1.0087 5.83041 0 0 0 162 140 124 255
0.27204 0.781353 4.4322 0 0 0 206 221 225 255
0.34176 0.848119 4.43558 0 0 0 143 149 153 255
0.288127 0.873789 4.43838 0 0 0 112 122 126 255
-1.05046 1.14781 5.90502 0 0 0 138 120 108 255
-0.299603 1.02357 4.44015 0 0 0 166 175 176 255
-0.176803 1.01305 4.43192 0 0 0 186 199 201 255
2.5153 -2.61875 8.59319 0 0 0 87 87 87 255
-3.14912 -2.48428 8.42635 0 0 0 32 33 37 255
2.49904 -2.4669 8.51441 0 0 0 92 89 90 255
2.5034 -2.30614 8.50291 0 0 0 111 113 112 255
2.54164 -2.22002 8.64667 0 0 0 100 93 96 255
1.23981 -0.652236 4.32618 0 0 0 106 108 108 255
-1.13993 -0.642514 5.71021 0 0 0 187 177 163 255
-1.13131 -0.646587 5.72593 0 0 0 175 168 154 255
-1.34627 -0.615581 5.67086 0 0 0 148 134 121 255
-1.30281 -0.601817 5.70492 0 0 0 183 166 157 255
-1.42916 -0.576886 5.71365 0 0 0 202 189 175 255
-1.30491 -0.54984 5.71425 0 0 0 201 189 175 255
-1.36662 -0.525443 5.7198 0 0 0 159 146 130 255
1.67318 -0.488247 5.48756 0 0 0 205 170 146 255
1.36466 -0.300956 4.63779 0 0 0 165 165 165 255
0.561922 -0.232785 4.33237 0 0 0 116 129 107 255
1.72247 -0.452608 5.51412 0 0 0 211 170 137 255
1.68766 -0.448332 5.51954 0 0 0 211 176 154 255
1.91097 -0.516703 6.00658 0 0 0 173 138 113 255
-0.0689754 -0.160533 4.30994 0 0 0 168 189 144 255
0.448618 -0.181744 4.33372 0 0 0 152 167 125 255
1.68832 -0.406938 5.52151 0 0 0 209 176 157 255
-0.117526 -0.15861 4.31668 0 0 0 105 118 107 255
0.434572 -0.174502 4.33008 0 0 0 149 160 122 255
1.90838 -0.447112 6.07114 0 0 0 188 174 168 255
0.0379787 -0.112985 4.32121 0 0 0 164 183 133 255
2.28344 -0.513199 7.11346 0 0 0 205 165 138 255
1.68867 -0.290545 5.56316 0 0 0 170 137 116 255
0.0299152 -0.0704741 4.32802 0 0 0 79 90 59 255
2.30086 -0.414899 7.15588 0 0 0 202 204 203 255
0.950146 -0.050296 4.36343 0 0 0 81 88 84 255
-1.27903 -0.109217 5.748 0 0 0 107 96 88 255
-1.28158 -0.0955599 5.66345 0 0 0 143 138 132 255
-1.11702 -0.100249 5.76208 0 0 0 131 123 111 255
-0.633413 0.0492045 4.50996 0 0 0 190 175 157 255
-0.371041 0.0654383 4.31615 0 0 0 154 175 129 255
0.56315 0.0312307 4.3592 0 0 0 69 81 66 255
0.551811 0.0426084 4.36083 0 0 0 103 115 104 255
0.760738 0.0451605 4.37663 0 0 0 52 59 50 255
0.772209 0.0566266 4.37786 0 0 0 68 80 74 255
-1.20426 0.042657 5.72062 0 0 0 111 105 99 255
0.783618 0.0658059 4.37616 0 0 0 63 73 65 255
-1.89735 0.0760301 5.70799 0 0 0 135 127 127 255
0.793503 0.0762841 4.36978 0 0 0 65 80 75 255
-0.121658 0.204376 4.34905 0 0 0 161 181 129 255
-0.320087 0.246965 4.34435 0 0 0 135 150 113 255
-0.232024 0.254603 4.3434 0 0 0 82 96 91 255
1.97813 0.155694 6.05572 0 0 0 128 155 160 255
0.000985821 0.304814 4.36503 0 0 0 143 157 131 255
-0.00900614 0.31898 4.36534 0 0 0 84 95 82 255
1.89248 0.229642 6.05501 0 0 0 143 160 161 255
-0.288317 0.342484 4.35898 0 0 0 139 152 127 255
-0.0797239 0.360545 4.36442 0 0 0 130 140 118 255
-0.223478 0.373784 4.36324 0 0 0 72 84 80 255
1.89498 0.291561 6.05926 0 0 0 133 150 152 255
1.19602 0.332663 4.42996 0 0 0 90 95 101 255
1.9226 0.319555 6.06053 0 0 0 177 169 137 255
0.267211 0.378328 4.39062 0 0 0 56 67 70 255
1.10554 0.343843 4.42648 0 0 0 145 158 162 255
1.12964 0.354549 4.42841 0 0 0 49 57 61 255
0.116102 0.393403 4.39046 0 0 0 90 96 97 255
0.845749 0.367309 4.4118 0 0 0 128 128 130 255
0.0493764 0.403813 4.38101 0 0 0 42 50 56 255
1.12978 0.355642 4.42841 0 0 0 49 58 62 255
1.14158 0.358854 4.42835 0 0 0 132 146 148 255
0.289722 0.405107 4.38728 0 0 0 52 57 62 255
1.17485 0.367054 4.42967 0 0 0 73 73 75 255
1.19367 0.361772 4.43356 0 0 0 152 155 156 255
1.16306 0.37244 4.42783 0 0 0 94 100 104 255
0.857335 0.38579 4.415 0 0 0 75 84 90 255
1.05533 0.373802 4.41958 0 0 0 116 130 130 255
1.13534 0.380268 4.42673 0 0 0 92 100 105 255
0.301174 0.418296 4.39032 0 0 0 111 130 138 255
-0.594253 0.469058 4.57827 0 0 0 68 65 61 255
-0.637664 0.484941 4.7204 0 0 0 117 94 78 255
1.9001 0.412875 6.06925 0 0 0 176 185 191 255
-0.949418 0.540877 5.67183 0 0 0 106 98 92 255
0.995935 0.435579 4.43005 0 0 0 66 70 75 255
1.14787 0.430969 4.43849 0 0 0 106 114 122 255
1.19566 0.425335 4.43844 0 0 0 104 110 114 255
-2.0372 0.600186 5.59341 0 0 0 86 51 42 255
0.784952 0.44831 4.42297 0 0 0 80 88 91 255
1.15949 0.437587 4.43684 0 0 0 120 119 126 255
1.20004 0.440117 4.43783 0 0 0 91 91 95 255
1.14531 0.440222 4.43817 0 0 0 91 92 93 255
0.897718 0.455666 4.42477 0 0 0 89 103 101 255
0.515213 0.478726 4.40822 0 0 0 107 113 118 255
1.1681 0.491388 4.44068 0 0 0 199 199 199 255
1.20009 0.49011 4.44602 0 0 0 115 122 127 255
0.491037 0.530193 4.41087 0 0 0 140 153 157 255
1.0407 0.505407 4.44035 0 0 0 161 174 176 255
1.0731 0.502943 4.44546 0 0 0 180 183 186 255
-1.47637 0.744505 5.80573 0 0 0 76 57 48 255
-1.09814 0.740534 5.7551 0 0 0 76 59 47 255
0.718159 0.595895 4.43393 0 0 0 204 215 218 255
0.269253 0.623501 4.41215 0 0 0 164 168 169 255
1.01572 0.6214 4.45069 0 0 0 196 208 209 255
0.659654 0.667946 4.43553 0 0 0 151 162 165 255
-0.00263492 0.711033 4.40827 0 0 0 156 163 163 255
0.696368 0.720308 4.44528 0 0 0 195 209 209 255
-0.0630847 0.757577 4.41262 0 0 0 171 182 183 255
0.0158912 0.755293 4.42066 0 0 0 168 177 176 255
1.18617 0.714769 4.46591 0 0 0 195 201 201 255
1.97928 0.847887 6.12497 0 0 0 171 180 184 255
0.0288894 0.779833 4.42131 0 0 0 105 118 121 255
1.16014 0.735916 4.46418 0 0 0 162 162 162 255
0.84333 0.74874 4.45165 0 0 0 157 167 167 255
-0.430317 0.822863 4.41227 0 0 0 172 195 164 255
-1.82519 1.06765 5.7119 0 0 0 144 105 83 255
0.958562 0.778688 4.46497 0 0 0 184 191 193 255
1.91961 0.922587 6.10935 0 0 0 193 152 136 255
1.97264 0.922643 6.12011 0 0 0 203 162 148 255
1.37415 0.774194 4.58766 0 0 0 144 131 126 255
0.95813 0.787608 4.46516 0 0 0 170 181 184 255
-1.99319 1.09761 5.72054 0 0 0 120 84 74 255
1.3663 0.782829 4.56255 0 0 0 151 139 135 255
1.96732 0.943864 6.12087 0 0 0 202 185 185 255
0.433457 0.864525 4.45181 0 0 0 195 197 199 255
1.13568 0.835276 4.48044 0 0 0 145 152 154 255
0.996806 0.853478 4.47596 0 0 0 148 149 149 255
1.15423 0.87711 4.48756 0 0 0 170 189 196 255
0.807142 0.89972 4.46892 0 0 0 133 136 137 255
1.10035 0.899427 4.48641 0 0 0 105 108 110 255
1.15477 0.896004 4.48677 0 0 0 153 161 164 255
1.17648 0.98916 4.4958 0 0 0 137 134 135 255
1.22592 1.01617 4.49884 0 0 0 124 131 132 255
-0.544187 1.19752 4.50595 0 0 0 181 183 183 255
-1.43556 1.52325 5.77788 0 0 0 79 81 83 255
1.25946 -0.676279 4.42424 0 0 0 180 181 181 255
1.28475 -0.633807 4.43365 0 0 0 154 177 180 255
-1.17469 -0.565393 5.73382 0 0 0 157 133 121 255
-0.254487 -0.276803 4.29292 0 0 0 124 138 117 255
-0.0677988 -0.267753 4.29175 0 0 0 176 200 137 255
0.913923 -0.286138 4.35087 0 0 0 134 143 122 255
0.58345 -0.255621 4.3299 0 0 0 173 192 136 255
1.36219 -0.300995 4.6325 0 0 0 165 165 165 255
0.276161 -0.199138 4.33006 0 0 0 140 151 119 255
-1.58876 -0.312816 5.73705 0 0 0 140 124 111 255
1.90874 -0.451485 6.06775 0 0 0 208 192 185 255
0.0718958 -0.151466 4.31873 0 0 0 94 104 95 255
-1.37514 -0.246424 5.74149 0 0 0 157 129 118 255
-1.33216 -0.248818 5.71952 0 0 0 188 171 156 255
1.40501 -0.18694 4.73655 0 0 0 200 171 149 255
1.51987 -0.212188 5.07457 0 0 0 165 140 124 255
-0.42842 -0.0247141 4.32145 0 0 0 147 162 138 255
2.29458 -0.419475 7.14519 0 0 0 203 164 133 255
0.95236 -0.0460669 4.36496 0 0 0 84 92 81 255
-0.41962 0.0373535 4.33004 0 0 0 173 200 157 255
-0.124128 0.325141 4.35199 0 0 0 168 172 148 255
-0.0810231 0.358336 4.36393 0 0 0 130 140 118 255
1.19457 0.431927 4.43789 0 0 0 101 108 111 255
1.14982 0.434885 4.43871 0 0 0 94 101 110 255
-0.630247 0.533587 4.68438 0 0 0 118 98 87 255
-1.18667 0.633687 5.79772 0 0 0 146 119 98 255
1.04805 0.503314 4.44249 0 0 0 163 173 176 255
0.718154 0.595894 4.43387 0 0 0 204 215 218 255
-1.9642 1.0495 5.72753 0 0 0 124 75 66 255
1.36686 0.771737 4.56223 0 0 0 194 167 166 255
1.36811 0.767461 4.56189 0 0 0 182 151 148 255
1.15208 0.880466 4.48673 0 0 0 170 189 196 255
0.612975 0.914522 4.45694 0 0 0 152 158 157 255
0.498699 0.957447 4.4636 0 0 0 162 176 179 255
1.07172 0.940259 4.48842 0 0 0 115 116 122 255
-0.983635 1.31032 5.82879 0 0 0 58 59 60 255
1.22224 1.01749 4.49599 0 0 0 123 132 131 255
1.35688 1.02149 4.50129 0 0 0 211 204 205 255
2.52915 -2.32333 8.60687 0 0 0 93 91 92 255
2.57598 -2.28143 8.76539 0 0 0 100 91 94 255
1.25877 -0.661202 4.42615 0 0 0 79 81 83 255
-1.13149 -0.650179 5.72758 0 0 0 175 168 154 255
-0.848512 -0.481698 5.00539 0 0 0 203 182 173 255
-0.464974 -0.338624 4.28708 0 0 0 132 146 129 255
-1.31034 -0.576047 5.65945 0 0 0 203 192 178 255
-1.18774 -0.573068 5.67713 0 0 0 203 189 179 255
-0.864365 -0.466084 5.08377 0 0 0 201 191 177 255
-1.76761 -0.494172 5.69471 0 0 0 160 140 124 255
-0.064294 -0.26666 4.29341 0 0 0 175 198 138 255
0.734162 -0.223549 4.34022 0 0 0 135 149 119 255
1.36643 -0.298047 4.64352 0 0 0 172 174 175 255
0.536377 -0.126706 4.34225 0 0 0 90 97 73 255
1.84287 -0.370123 6.00567 0 0 0 200 182 171 255
1.38443 -0.175958 4.69365 0 0 0 186 175 166 255
1.675 -0.264044 5.52692 0 0 0 185 130 87 255
2.30694 -0.427218 7.16748 0 0 0 200 203 203 255
-1.72373 -0.106971 5.72759 0 0 0 120 111 97 255
-1.69016 -0.105553 5.73373 0 0 0 124 117 104 255
0.0239687 0.00122785 4.3368 0 0 0 101 114 101 255
-0.422788 0.034265 4.32824 0 0 0 172 193 165 255
-0.0150788 0.0207241 4.32753 0 0 0 52 69 63 255
-0.635046 0.0372032 4.4419 0 0 0 194 179 159 255
-2.20314 0.0382658 5.65675 0 0 0 204 188 169 255
-2.19872 0.107846 5.66096 0 0 0 33 32 33 255
-0.0794395 0.133975 4.33727 0 0 0 141 155 125 255
0.47229 0.164126 4.37842 0 0 0 68 79 75 255
0.842538 0.178874 4.38798 0 0 0 105 116 104 255
-0.338569 0.233159 4.33557 0 0 0 168 188 149 255
-1.93293 0.28677 5.70868 0 0 0 145 118 94 255
0.770721 0.276572 4.40596 0 0 0 124 136 108 255
-2.01762 0.46152 5.73719 0 0 0 60 45 41 255
1.17703 0.34691 4.42902 0 0 0 130 133 132 255
1.19594 0.357378 4.45429 0 0 0 135 132 133 255
0.846981 0.385369 4.41234 0 0 0 54 63 70 255
-1.64754 0.596972 5.77142 0 0 0 109 84 68 255
1.15505 0.437693 4.43825 0 0 0 119 124 132 255
0.785172 0.448636 4.42294 0 0 0 83 90 94 255
1.06583 0.505559 4.44795 0 0 0 180 181 185 255
1.19314 0.493856 4.44558 0 0 0 114 122 130 255
0.612936 0.604417 4.43193 0 0 0 203 216 219 255
1.01669 0.608323 4.44946 0 0 0 202 211 212 255
-1.6865 0.859239 5.72532 0 0 0 144 119 95 255
-1.66348 0.934531 5.77471 0 0 0 62 58 60 255
-0.036058 0.754031 4.41389 0 0 0 188 201 203 255
0.247533 0.759947 4.4302 0 0 0 141 154 156 255
-1.96195 1.0523 5.72776 0 0 0 124 75 66 255
-0.220609 0.826668 4.42283 0 0 0 187 194 196 255
1.37591 0.780853 4.57686 0 0 0 186 170 173 255
0.0995975 0.848113 4.42794 0 0 0 205 220 222 255
0.935287 0.817433 4.46539 0 0 0 92 108 109 255
-0.138023 0.940695 4.42194 0 0 0 125 133 134 255
-0.128796 0.980725 4.41885 0 0 0 194 210 214 255
-1.06431 1.27924 5.82966 0 0 0 116 102 93 255
-0.982072 1.31265 5.83142 0 0 0 61 61 61 255
1.21968 1.00869 4.5003 0 0 0 126 133 134 255
-0.772996 1.33557 5.30475 0 0 0 98 79 81 255
0.849758 1.08227 4.49158 0 0 0 127 144 134 255
-1.1033 1.4659 5.85593 0 0 0 79 70 66 255
-0.542106 1.19452 4.48034 0 0 0 190 197 197 255
-0.608674 -0.487004 4.30616 0 0 0 45 49 50 255
0.726523 -0.221082 4.33872 0 0 0 116 126 107 255
-1.14574 -0.274186 5.63125 0 0 0 151 122 106 255
0.0434079 -0.127198 4.31807 0 0 0 163 181 130 255
-0.0212107 -0.0247396 4.3254 0 0 0 105 117 99 255
0.538801 0.0310409 4.35571 0 0 0 99 112 105 255
0.954466 0.0528465 4.3763 0 0 0 121 135 116 255
-0.308649 0.135175 4.33233 0 0 0 163 185 139 255
0.972865 0.148214 4.39297 0 0 0 100 112 103 255
0.354284 0.185396 4.35662 0 0 0 171 190 131 255
-0.153361 0.255811 4.3539 0 0 0 150 165 128 255
-2.01595 0.470208 5.7409 0 0 0 68 53 46 255
-1.54713 0.427931 5.77282 0 0 0 125 99 76 255
1.17198 0.347172 4.42849 0 0 0 91 97 96 255
0.971533 0.525783 4.43353 0 0 0 203 215 215 255
1.16131 0.50747 4.44147 0 0 0 202 203 203 255
0.907717 0.578926 4.43919 0 0 0 168 169 169 255
-1.37815 0.908066 5.80061 0 0 0 60 53 47 255
1.16204 0.704116 4.46196 0 0 0 202 211 211 255
-0.198633 0.825005 4.41524 0 0 0 187 193 195 255
0.964687 0.7754 4.46556 0 0 0 204 214 214 255
-0.298424 0.836488 4.40743 0 0 0 119 132 136 255
-0.133104 0.835305 4.40879 0 0 0 126 137 140 255
0.916569 0.800853 4.4596 0 0 0 105 114 117 255
-0.0755366 0.863811 4.42486 0 0 0 206 220 221 255
0.612541 0.929876 4.45763 0 0 0 202 213 215 255
0.889185 1.01499 4.48723 0 0 0 158 165 163 255
-1.68945 1.37797 5.61111 0 0 0 102 82 77 255
-0.402724 1.0791 4.42164 0 0 0 66 76 81 255
-0.443941 -0.346115 4.30041 0 0 0 173 197 160 255
-1.28528 -0.281249 5.66464 0 0 0 146 118 100 255
-0.0846276 -0.113069 4.32244 0 0 0 155 176 122 255
0.589317 -0.0531664 4.3518 0 0 0 54 63 60 255
-1.36841 -0.112165 5.72531 0 0 0 164 154 142 255
0.455978 -0.00382416 4.35748 0 0 0 66 76 70 255
-0.653394 0.047134 4.55782 0 0 0 191 176 159 255
-0.3994 0.0556414 4.33646 0 0 0 173 198 153 255
-1.36369 0.0245508 5.75738 0 0 0 45 45 45 255
0.156205 0.120764 4.34759 0 0 0 91 101 82 255
-1.72101 0.0950776 5.74605 0 0 0 45 42 41 255
0.260803 0.158874 4.35862 0 0 0 108 119 98 255
0.973995 0.150458 4.39334 0 0 0 99 111 102 255
-0.155986 0.2202 4.34764 0 0 0 168 189 141 255
0.267178 0.203421 4.3611 0 0 0 68 80 76 255
0.468614 0.201621 4.38721 0 0 0 163 175 139 255
-2.04219 0.312447 5.71388 0 0 0 60 44 42 255
0.624812 0.238572 4.38901 0 0 0 50 65 60 255
0.887932 0.247399 4.39102 0 0 0 162 178 131 255
-0.241732 0.437411 4.37139 0 0 0 144 142 143 255
-2.08685 0.589377 5.58788 0 0 0 120 64 46 255
-0.292791 0.438239 4.36826 0 0 0 79 90 93 255
-1.88361 0.586237 5.73206 0 0 0 56 46 40 255
-1.77272 0.67096 5.73691 0 0 0 143 113 89 255
-1.70158 0.693497 5.76227 0 0 0 83 68 52 255
0.408738 0.595574 4.42355 0 0 0 176 186 186 255
-1.59962 0.777291 5.78037 0 0 0 154 132 114 255
-1.64368 0.821354 5.78058 0 0 0 177 144 114 255
0.969372 0.62512 4.44463 0 0 0 109 112 115 255
-1.49596 0.874591 5.79678 0 0 0 83 76 76 255
0.719512 0.6266 4.4361 0 0 0 187 190 190 255
1.17417 0.695628 4.46306 0 0 0 205 212 212 255
0.308916 0.766888 4.4168 0 0 0 205 220 222 255
-0.512244 0.820231 4.41629 0 0 0 170 204 186 255
1.09244 0.738156 4.46933 0 0 0 110 117 118 255
-0.146106 0.86752 4.41352 0 0 0 121 134 136 255
0.921445 0.803494 4.46118 0 0 0 98 108 111 255
-0.290235 0.882497 4.41549 0 0 0 205 221 220 255
-0.0592061 0.884758 4.42162 0 0 0 207 220 220 255
-0.932649 1.13321 5.72937 0 0 0 142 117 101 255
-1.08692 1.40988 5.85897 0 0 0 63 61 60 255
-0.551823 1.20659 4.46816 0 0 0 188 195 193 255
-0.59002 -0.489119 4.31851 0 0 0 45 48 50 255
-0.434482 -0.310128 4.30151 0 0 0 174 202 160 255
0.144942 -0.255679 4.30458 0 0 0 80 91 82 255
0.500259 -0.19193 4.33199 0 0 0 77 88 71 255
0.69078 -0.187529 4.34049 0 0 0 66 76 73 255
0.154485 -0.176509 4.31362 0 0 0 64 77 73 255
0.453525 -0.176878 4.33428 0 0 0 143 158 116 255
-0.43359 -0.11077 4.31225 0 0 0 175 200 155 255
0.609315 -0.140428 4.3421 0 0 0 121 133 112 255
-0.0537968 -0.0915446 4.32131 0 0 0 173 198 141 255
0.800327 -0.09525 4.35747 0 0 0 144 158 121 255
-0.695797 0.0185399 4.58757 0 0 0 194 178 161 255
-0.154098 0.0154143 4.33132 0 0 0 86 102 90 255
0.933355 0.0302063 4.38142 0 0 0 114 126 111 255
-0.14905 0.1632 4.33726 0 0 0 163 186 131 255
0.273315 0.155957 4.36401 0 0 0 162 180 135 255
-1.90092 0.222378 5.73338 0 0 0 157 132 108 255
0.23961 0.201603 4.35623 0 0 0 51 61 58 255
0.844257 0.239725 4.39814 0 0 0 171 192 136 255
-1.75576 0.426225 5.75155 0 0 0 130 111 95 255
-1.65173 0.424956 5.77645 0 0 0 70 59 51 255
-1.19968 0.627653 5.73565 0 0 0 144 117 97 255
-1.63582 0.749304 5.78501 0 0 0 154 125 100 255
0.185263 0.589331 4.38486 0 0 0 205 220 222 255
0.629703 0.574539 4.43513 0 0 0 206 220 222 255
0.384929 0.612272 4.41766 0 0 0 178 188 188 255
0.76756 0.636292 4.4388 0 0 0 139 147 150 255
0.953497 0.643693 4.44848 0 0 0 128 123 125 255
-0.514911 0.864173 4.43023 0 0 0 173 211 189 255
-0.70488 0.933205 4.87498 0 0 0 124 110 98 255
-0.093192 0.838039 4.42234 0 0 0 165 174 175 255
0.299032 0.893287 4.44692 0 0 0 123 136 138 255
-0.673186 -0.414935 4.46265 0 0 0 200 188 172 255
-0.721114 -0.421737 4.58129 0 0 0 144 119 105 255
-0.65161 -0.383258 4.462 0 0 0 49 49 49 255
-0.707209 -0.40198 4.59623 0 0 0 146 101 79 255
-1.26335 -0.544427 5.70703 0 0 0 193 177 162 255
-0.697845 -0.360355 4.58145 0 0 0 178 170 165 255
-0.726993 -0.349987 4.61033 0 0 0 159 140 128 255
-1.63659 -0.497461 5.70945 0 0 0 153 129 119 255
-0.652284 -0.30701 4.43146 0 0 0 194 183 169 255
-1.48505 -0.45087 5.73002 0 0 0 148 111 93 255
3.05823 -1.01977 8.56953 0 0 0 216 166 140 255
1.84382 -0.572787 5.97691 0 0 0 216 173 146 255
1.97621 -0.579152 5.99454 0 0 0 213 170 140 255
1.74233 -0.560289 5.96228 0 0 0 210 171 143 255
2.6889 -0.876486 7.85536 0 0 0 206 182 173 255
1.78877 -0.538848 5.9685 0 0 0 213 178 162 255
1.91122 -0.352185 4.76777 0 0 0 205 164 133 255
1.8855 -0.53482 5.98177 0 0 0 219 185 167 255
1.92765 -0.535677 5.97838 0 0 0 214 172 146 255
3.16631 -1.00033 8.89893 0 0 0 215 161 127 255
1.43942 -0.363669 4.99726 0 0 0 190 158 138 255
1.70139 -0.518578 5.96291 0 0 0 203 162 140 255
2.06353 -0.533032 6.00153 0 0 0 186 170 167 255
0.0892956 -0.213649 4.30685 0 0 0 73 85 67 255
0.950317 -0.242183 4.3401 0 0 0 162 167 140 255
3.25483 -0.955545 8.89075 0 0 0 170 154 147 255
1.67809 -0.481201 5.98 0 0 0 183 134 100 255
1.9128 -0.497125 5.99415 0 0 0 189 139 102 255
2.03885 -0.507796 6.0004 0 0 0 180 145 124 255
1.85101 -0.477953 5.98284 0 0 0 198 174 159 255
1.76333 -0.307857 4.72698 0 0 0 205 200 202 255
1.44592 -0.102803 3.31987 0 0 0 207 200 200 255
0.555455 -0.213636 4.33353 0 0 0 70 78 68 255
1.7499 -0.468332 5.97429 0 0 0 203 200 201 255
1.98111 -0.481092 5.99707 0 0 0 202 195 195 255
2.05467 -0.483453 6.01478 0 0 0 219 180 159 255
1.96945 -0.345768 5.02329 0 0 0 200 189 186 255
-1.22984 -0.330284 5.72426 0 0 0 191 167 152 255
1.70529 -0.458666 5.97113 0 0 0 202 188 183 255
1.80353 -0.46502 5.97609 0 0 0 202 196 196 255
0.0248673 -0.154349 4.31344 0 0 0 134 149 110 255
2.76805 -0.596329 7.65325 0 0 0 203 193 190 255
1.46886 -0.0545781 3.44689 0 0 0 221 199 191 255
2.04597 -0.388703 6.0203 0 0 0 210 172 149 255
2.21271 -0.394956 6.0372 0 0 0 210 190 183 255
1.7524 -0.361323 5.98818 0 0 0 193 180 175 255
1.91901 -0.368922 6.00025 0 0 0 204 175 157 255
4.10442 -1.17575 12.4672 0 0 0 185 150 130 255
1.83802 -0.344634 5.99766 0 0 0 174 140 114 255
1.96112 -0.352803 6.01235 0 0 0 179 143 115 255
2.02226 -0.35522 6.01898 0 0 0 179 142 118 255
1.99602 -0.250579 5.10163 0 0 0 182 161 153 255
1.69723 -0.118729 4.0407 0 0 0 188 141 111 255
0.524576 -0.10893 4.33877 0 0 0 156 172 128 255
1.36483 -0.171847 4.71603 0 0 0 194 190 189 255
1.75491 -0.32784 5.98961 0 0 0 212 206 206 255
2.95 -0.639491 8.74411 0 0 0 187 141 113 255
1.71447 -0.295559 5.9792 0 0 0 181 138 109 255
1.83633 -0.293437 5.9939 0 0 0 188 136 99 255
2.05535 -0.296002 6.02115 0 0 0 206 170 147 255
2.24358 -0.299663 6.06955 0 0 0 199 195 194 255
-0.693398 -0.0510739 4.61187 0 0 0 197 183 164 255
1.92488 -0.284642 6.00637 0 0 0 202 186 175 255
1.34753 -0.135717 4.62797 0 0 0 187 188 190 255
1.75014 -0.266287 5.99715 0 0 0 204 203 206 255
-1.21701 -0.112758 5.69396 0 0 0 97 91 84 255
1.76942 -0.0786654 4.30909 0 0 0 217 195 190 255
-0.692686 -0.0173242 4.6162 0 0 0 194 180 167 255
0.413238 -0.0429783 4.33993 0 0 0 167 181 131 255
0.503346 -0.0359901 4.34159 0 0 0 77 85 75 255
0.400772 -0.0268977 4.33662 0 0 0 138 157 110 255
0.423813 -0.0260948 4.34522 0 0 0 82 93 62 255
-0.665691 -0.00215053 4.56783 0 0 0 181 170 154 255
0.519694 -0.0223654 4.34349 0 0 0 117 124 110 255
0.566525 -0.0244855 4.34996 0 0 0 59 66 57 255
-1.9517 -0.0396028 5.70157 0 0 0 166 158 147 255
0.595914 -0.00714108 4.35766 0 0 0 100 109 94 255
2.19818 -0.150391 6.04666 0 0 0 201 169 134 255
0.526419 0.0640643 4.36322 0 0 0 93 103 100 255
-0.171445 0.269903 4.35243 0 0 0 99 108 97 255
2.11705 0.304632 6.06633 0 0 0 170 164 159 255
1.16518 0.335268 4.42207 0 0 0 145 149 149 255
1.17547 0.32873 4.4235 0 0 0 43 45 47 255
1.14 0.343307 4.4233 0 0 0 150 159 158 255
0.828259 0.366681 4.41105 0 0 0 105 115 119 255
2.07448 0.350116 6.06936 0 0 0 170 166 160 255
0.80645 0.372063 4.40972 0 0 0 43 53 52 255
-0.601326 0.425922 4.46964 0 0 0 141 113 94 255
0.686924 0.389568 4.40815 0 0 0 103 107 107 255
0.715163 0.386512 4.41075 0 0 0 80 84 84 255
0.757802 0.391625 4.40796 0 0 0 93 101 108 255
0.0784396 0.434695 4.38444 0 0 0 126 126 127 255
0.180121 0.431322 4.38668 0 0 0 112 113 113 255
0.516431 0.411417 4.40208 0 0 0 159 162 164 255
2.16416 0.396884 6.08668 0 0 0 125 137 130 255
1.15862 0.422089 4.4315 0 0 0 59 62 68 255
-0.703726 0.519567 4.85609 0 0 0 87 66 55 255
-0.661458 0.52665 4.74194 0 0 0 136 113 100 255
0.48429 0.485109 4.40922 0 0 0 88 94 97 255
-0.660358 0.807417 4.74725 0 0 0 93 72 59 255
2.23173 0.898293 6.12184 0 0 0 204 161 143 255
2.06287 0.906884 6.11181 0 0 0 195 154 139 255
2.18192 0.928177 6.15381 0 0 0 199 180 181 255
1.7817 0.948966 6.1068 0 0 0 199 166 161 255
2.2286 0.932743 6.12456 0 0 0 209 176 168 255
1.82627 0.956507 6.08597 0 0 0 200 154 144 255
1.77491 0.975144 6.10704 0 0 0 174 150 150 255
-0.002367 0.912956 4.43115 0 0 0 111 119 120 255
2.1256 1.48388 5.67015 0 0 0 200 201 201 255
1.03815 1.34764 4.5292 0 0 0 118 119 125 255
0.431568 1.37695 4.50122 0 0 0 155 158 157 255
0.794908 1.364 4.51385 0 0 0 173 175 177 255
0.824365 1.36319 4.52529 0 0 0 97 107 109 255
0.89552 1.36072 4.52207 0 0 0 159 161 165 255
0.93987 1.35991 4.53231 0 0 0 157 158 162 255
0.956699 1.35607 4.52383 0 0 0 136 139 143 255
0.990864 1.35341 4.51861 0 0 0 126 137 142 255
1.02449 1.35349 4.52685 0 0 0 148 163 166 255
0.460294 1.38412 4.50888 0 0 0 163 170 175 255
0.499957 1.37975 4.50443 0 0 0 128 138 146 255
0.523201 1.37885 4.50824 0 0 0 121 135 140 255
0.594782 1.37824 4.50907 0 0 0 160 169 174 255
0.639449 1.37291 4.50498 0 0 0 154 164 165 255
0.655081 1.37778 4.51937 0 0 0 135 142 145 255
0.725123 1.37403 4.50865 0 0 0 146 154 159 255
0.764216 1.3682 4.50752 0 0 0 168 179 182 255
0.407821 1.39199 4.50957 0 0 0 83 82 85 255
0.419362 1.38712 4.50793 0 0 0 84 82 87 255
0.811789 1.37479 4.5166 0 0 0 90 90 92 255
0.85637 1.37265 4.51816 0 0 0 83 84 88 255
0.971727 1.37112 4.52564 0 0 0 91 92 94 255
0.728287 1.37667 4.51094 0 0 0 149 151 152 255
0.840902 1.37162 4.49577 0 0 0 135 139 138 255
0.895629 1.37963 4.52136 0 0 0 153 158 158 255
0.936679 1.3742 4.52371 0 0 0 144 143 145 255
0.955403 1.37352 4.51694 0 0 0 166 180 182 255
1.04081 1.37327 4.53254 0 0 0 184 184 184 255
0.407639 1.40149 4.50903 0 0 0 83 82 85 255
0.414055 1.3953 4.48549 0 0 0 81 85 88 255
0.476605 1.39749 4.50355 0 0 0 82 86 85 255
0.517105 1.39581 4.50692 0 0 0 99 99 99 255
0.794551 1.3801 4.51379 0 0 0 179 178 178 255
0.869792 1.38286 4.51811 0 0 0 134 136 140 255
1.00357 1.37907 4.53266 0 0 0 176 178 182 255
0.536093 1.40223 4.50565 0 0 0 157 157 158 255
0.570463 1.40482 4.5119 0 0 0 160 159 160 255
0.590952 1.40634 4.50928 0 0 0 145 148 151 255
0.656404 1.39764 4.5118 0 0 0 171 177 177 255
0.707524 1.39337 4.50848 0 0 0 186 193 193 255
0.750672 1.39516 4.51455 0 0 0 130 141 145 255
0.773723 1.39097 4.51292 0 0 0 179 179 179 255
0.844032 1.38519 4.51438 0 0 0 163 170 170 255
0.389091 1.41201 4.50696 0 0 0 160 160 160 255
0.432759 1.4113 4.49291 0 0 0 156 167 170 255
0.463808 1.415 4.50913 0 0 0 160 162 163 255
0.50262 1.40936 4.50218 0 0 0 166 170 171 255
1.2617 -0.630052 4.33617 0 0 0 194 196 196 255
-0.665513 -0.422232 4.41979 0 0 0 203 189 173 255
-0.653729 -0.383314 4.46398 0 0 0 49 49 49 255
-1.08816 -0.54002 5.45315 0 0 0 171 143 128 255
-0.711765 -0.385463 4.62493 0 0 0 174 169 169 255
-1.81442 -0.480255 5.69278 0 0 0 165 129 111 255
1.73932 -0.555385 5.96792 0 0 0 210 171 143 255
1.97067 -0.570755 5.99595 0 0 0 208 174 155 255
2.70033 -0.879813 7.88938 0 0 0 206 182 173 255
1.90999 -0.54035 5.99163 0 0 0 203 161 132 255
2.06496 -0.52576 6.00456 0 0 0 205 194 191 255
1.44136 -0.367481 5.00545 0 0 0 207 182 168 255
4.5114 -1.62252 13.5976 0 0 0 205 200 202 255
0.554786 -0.213386 4.33379 0 0 0 70 78 68 255
2.04011 -0.481909 6.00862 0 0 0 205 194 190 255
1.94664 -0.348703 5.00945 0 0 0 213 195 191 255
2.0338 -0.384106 6.02232 0 0 0 210 176 156 255
1.73189 -0.365018 5.98338 0 0 0 205 192 186 255
1.83952 -0.346328 5.9971 0 0 0 184 135 104 255
-0.181254 -0.0666553 4.31113 0 0 0 164 176 130 255
1.35481 -0.15967 4.68029 0 0 0 186 188 189 255
1.83116 -0.313841 5.98744 0 0 0 189 133 93 255
-0.674122 -0.0612392 4.57052 0 0 0 199 182 160 255
1.79567 -0.284266 5.99302 0 0 0 185 172 167 255
2.05559 -0.304192 6.02636 0 0 0 206 170 150 255
2.1444 -0.297933 6.04465 0 0 0 209 187 174 255
2.22982 -0.302298 6.04365 0 0 0 217 199 192 255
1.80861 -0.278294 5.99769 0 0 0 208 210 211 255
-0.685037 -0.00618674 4.60087 0 0 0 193 180 164 255
0.8126 0.0281587 4.36782 0 0 0 142 151 120 255
-0.340545 0.119642 4.33581 0 0 0 156 171 135 255
0.504782 0.131709 4.36721 0 0 0 83 92 93 255
-2.02731 0.175429 5.7493 0 0 0 127 96 74 255
1.32696 0.11201 4.46696 0 0 0 187 189 188 255
0.568687 0.164663 4.36983 0 0 0 50 62 58 255
2.28483 0.117073 6.08503 0 0 0 190 203 212 255
2.22057 0.340579 6.0807 0 0 0 153 181 193 255
-0.593903 0.416809 4.42422 0 0 0 137 109 89 255
-0.369155 0.438252 4.35636 0 0 0 49 51 53 255
0.704935 0.399728 4.41074 0 0 0 58 62 65 255
2.00483 0.567711 6.08573 0 0 0 181 181 130 255
-1.18404 0.734783 5.82734 0 0 0 142 120 105 255
0.399784 0.56734 4.41999 0 0 0 129 131 132 255
1.94412 0.71363 6.09829 0 0 0 144 158 142 255
2.2399 0.899105 6.1586 0 0 0 204 161 143 255
1.73716 0.936075 6.03314 0 0 0 208 179 173 255
0.56674 1.37907 4.50813 0 0 0 159 167 168 255
0.409414 1.39144 4.50423 0 0 0 83 82 85 255
0.430587 1.38477 4.50359 0 0 0 125 127 127 255
0.842398 1.37789 4.51356 0 0 0 176 184 183 255
1.03525 1.37082 4.5327 0 0 0 151 151 151 255
0.383555 1.39421 4.50605 0 0 0 120 128 137 255
0.709094 1.39413 4.51277 0 0 0 186 193 193 255
0.770663 1.3814 4.51463 0 0 0 188 189 190 255
0.418764 1.41848 4.50549 0 0 0 93 108 117 255
0.500719 1.40891 4.50385 0 0 0 166 170 171 255
1.21776 -0.637663 4.31997 0 0 0 81 86 88 255
-1.93546 -0.660054 5.65769 0 0 0 198 181 164 255
-0.668181 -0.422506 4.42451 0 0 0 203 189 173 255
-1.70693 -0.605158 5.69746 0 0 0 159 135 115 255
-1.22181 -0.525799 5.71007 0 0 0 159 138 127 255
-1.76442 -0.512811 5.69326 0 0 0 191 175 162 255
1.74179 -0.555299 5.96995 0 0 0 210 171 143 255
1.97477 -0.568089 5.9955 0 0 0 208 174 155 255
2.74136 -0.865662 8.0084 0 0 0 217 189 171 255
-1.34541 -0.35615 5.71738 0 0 0 147 133 116 255
1.60929 -0.411851 5.67453 0 0 0 203 190 185 255
2.9896 -0.755242 8.8622 0 0 0 210 174 156 255
0.773337 -0.141995 4.35005 0 0 0 84 93 84 255
1.72438 -0.359712 5.9821 0 0 0 203 187 179 255
1.84413 -0.311045 5.9982 0 0 0 191 134 90 255
-0.668709 -0.0671446 4.55364 0 0 0 196 182 161 255
2.05457 -0.302924 6.02672 0 0 0 206 170 150 255
1.34701 -0.153735 4.65816 0 0 0 98 100 99 255
1.72215 -0.263954 5.97595 0 0 0 216 185 164 255
1.83716 -0.270902 6.00153 0 0 0 212 174 156 255
-0.667476 -0.0308387 4.56321 0 0 0 101 95 88 255
-1.72377 -0.0781451 5.72531 0 0 0 130 110 98 255
0.816073 -0.0535518 4.36182 0 0 0 167 183 136 255
-0.329525 0.121628 4.33732 0 0 0 166 182 138 255
2.05197 0.00116529 6.04521 0 0 0 196 183 178 255
1.32807 0.118605 4.47136 0 0 0 181 194 194 255
-0.362281 0.194462 4.33412 0 0 0 174 193 149 255
-0.27566 0.246835 4.35189 0 0 0 48 60 58 255
2.27864 0.120776 6.08442 0 0 0 190 204 213 255
2.07334 0.259497 6.0719 0 0 0 79 77 77 255
1.96632 0.260154 6.04166 0 0 0 80 78 79 255
2.13537 0.262586 6.06446 0 0 0 178 162 144 255
1.98461 0.28471 6.04657 0 0 0 80 76 77 255
2.12265 0.288955 6.06623 0 0 0 179 161 139 255
1.97622 0.339003 6.058 0 0 0 180 156 130 255
2.07451 0.34923 6.06916 0 0 0 170 166 160 255
-0.589803 0.408836 4.42046 0 0 0 134 108 91 255
-0.0680813 0.410006 4.36768 0 0 0 190 190 191 255
1.87929 0.418514 6.0596 0 0 0 202 208 211 255
-0.679383 0.529958 4.78075 0 0 0 142 118 105 255
2.06272 0.532104 6.07831 0 0 0 168 157 112 255
0.546866 0.544826 4.41303 0 0 0 148 156 157 255
0.830673 0.593785 4.43641 0 0 0 136 141 141 255
1.95393 0.713973 6.09925 0 0 0 158 174 148 255
1.94788 0.835023 6.11117 0 0 0 177 186 189 255
0.75087 0.718889 4.44917 0 0 0 161 167 169 255
0.852297 0.722586 4.44888 0 0 0 177 183 181 255
2.16215 0.932305 6.14514 0 0 0 192 179 179 255
-0.313816 0.835882 4.4047 0 0 0 100 106 112 255
0.50351 1.38919 4.50691 0 0 0 173 175 177 255
0.93637 1.36784 4.52299 0 0 0 144 144 146 255
1.03644 1.36132 4.52637 0 0 0 161 161 161 255
1.22047 -0.624926 4.31654 0 0 0 76 78 78 255
-1.67355 -0.607382 5.69746 0 0 0 195 177 163 255
0.779014 -0.404479 4.30824 0 0 0 170 188 132 255
-1.93602 -0.545727 5.67295 0 0 0 208 191 172 255
2.02484 -0.511988 5.99963 0 0 0 214 197 192 255
3.157 -0.911375 8.68463 0 0 0 203 200 201 255
-0.103115 -0.113332 4.31915 0 0 0 182 194 147 255
0.56549 -0.0766869 4.34689 0 0 0 56 66 60 255
3.86169 -0.980356 11.8545 0 0 0 208 205 207 255
1.68607 -0.281107 5.9721 0 0 0 211 195 188 255
1.33444 0.120072 4.47412 0 0 0 184 198 198 255
2.05489 0.0264313 6.0443 0 0 0 192 202 208 255
-1.92235 0.24858 5.7212 0 0 0 88 78 70 255
2.26756 0.129911 6.08131 0 0 0 193 205 212 255
2.19564 0.212776 6.08099 0 0 0 98 101 109 255
-1.80983 0.386431 5.75079 0 0 0 47 36 34 255
1.99886 0.235478 6.03851 0 0 0 77 77 77 255
2.11818 0.258884 6.06726 0 0 0 180 161 138 255
2.20213 0.23529 6.08299 0 0 0 96 95 100 255
-0.136776 0.33091 4.35969 0 0 0 169 181 150 255
1.84424 0.311166 6.0379 0 0 0 103 110 112 255
2.23209 0.331739 6.07848 0 0 0 183 207 214 255
-0.280817 0.444474 4.37078 0 0 0 81 86 85 255
-0.655716 0.542634 4.67634 0 0 0 147 120 102 255
2.0739 0.5919 6.07557 0 0 0 91 83 77 255
-0.184105 0.596096 4.39485 0 0 0 204 211 211 255
0.813642 0.59058 4.43187 0 0 0 150 150 151 255
2.12431 0.643758 6.11437 0 0 0 83 78 80 255
0.856885 0.60025 4.4408 0 0 0 208 218 219 255
-0.50556 0.768684 4.42267 0 0 0 147 165 152 255
1.02339 0.738374 4.45748 0 0 0 190 198 195 255
1.12724 0.73467 4.46987 0 0 0 209 211 212 255
-0.00255123 0.806746 4.42021 0 0 0 127 137 139 255
1.54094 0.84238 5.20936 0 0 0 204 178 173 255
1.00799 0.810875 4.46987 0 0 0 205 210 208 255
-0.289597 0.847305 4.41052 0 0 0 206 214 214 255
-0.185881 0.929657 4.42571 0 0 0 208 217 218 255
-0.366818 1.00725 4.43308 0 0 0 149 149 149 255
1.20691 0.992879 4.49468 0 0 0 149 154 153 255
1.37251 1.04643 4.53292 0 0 0 226 220 220 255
1.48417 -0.844535 5.15128 0 0 0 204 205 202 255
-0.651947 -0.442743 4.3214 0 0 0 206 192 176 255
-0.13561 -0.181228 4.31505 0 0 0 97 108 96 255
-0.031364 -0.141478 4.3167 0 0 0 167 183 127 255
1.68708 -0.291887 5.97627 0 0 0 213 200 193 255
-0.00672517 -0.0521237 4.32237 0 0 0 176 194 138 255
0.811843 -0.0663174 4.35929 0 0 0 160 172 128 255
-0.238315 -0.00489489 4.30154 0 0 0 178 202 142 255
-0.414009 0.0558657 4.33462 0 0 0 176 197 151 255
-0.291757 0.0580402 4.33045 0 0 0 101 113 100 255
-1.22758 0.0196286 5.7594 0 0 0 49 48 46 255
-1.78697 0.0808692 5.74205 0 0 0 48 39 39 255
-1.737 0.0836331 5.74719 0 0 0 42 41 38 255
0.000809034 0.131245 4.34435 0 0 0 168 176 136 255
0.970165 0.129291 4.3864 0 0 0 83 90 88 255
1.33522 0.132259 4.44075 0 0 0 184 198 199 255
-0.216244 0.205337 4.33656 0 0 0 60 68 58 255
0.337363 0.189965 4.36044 0 0 0 175 194 133 255
1.33863 0.140987 4.42947 0 0 0 184 198 200 255
1.95127 0.120725 6.03954 0 0 0 102 114 121 255
1.85545 0.194839 6.03269 0 0 0 119 132 139 255
0.34728 0.299981 4.36752 0 0 0 163 177 131 255
-1.78348 0.396291 5.76133 0 0 0 42 37 39 255
-0.397062 0.341034 4.35535 0 0 0 59 64 63 255
-0.171895 0.353469 4.3802 0 0 0 173 193 141 255
-0.248436 0.38104 4.36283 0 0 0 48 55 55 255
-1.71518 0.518068 5.76098 0 0 0 73 53 38 255
0.6481 0.371312 4.40444 0 0 0 61 66 66 255
1.16111 0.350139 4.42305 0 0 0 76 78 79 255
1.85656 0.426668 6.06184 0 0 0 201 210 212 255
-0.650578 0.543553 4.66152 0 0 0 149 123 101 255
0.61609 0.559301 4.42991 0 0 0 208 217 219 255
1.83052 0.611884 6.06096 0 0 0 122 135 135 255
-1.60515 0.802071 5.77908 0 0 0 150 128 108 255
-1.40167 0.874002 5.81345 0 0 0 57 45 46 255
-1.54811 0.937215 5.8028 0 0 0 163 139 120 255
-0.422233 0.711029 4.37595 0 0 0 70 79 78 255
0.987434 0.6669 4.44955 0 0 0 109 116 120 255
1.89762 0.809322 6.11451 0 0 0 197 206 208 255
-1.35761 0.949561 5.80647 0 0 0 76 68 62 255
-0.201499 0.71834 4.40117 0 0 0 134 143 143 255
1.16228 0.686677 4.45723 0 0 0 188 190 189 255
0.313894 0.755678 4.41643 0 0 0 210 219 218 255
0.633516 0.747433 4.442 0 0 0 154 152 153 255
-9.69537e-05 0.801939 4.41999 0 0 0 128 136 138 255
0.699757 0.90026 4.45858 0 0 0 184 191 191 255
0.264921 0.972479 4.44813 0 0 0 187 193 193 255
-1.3744 1.31157 5.82819 0 0 0 68 67 67 255
1.20445 0.99917 4.4942 0 0 0 138 145 145 255
1.37019 1.01192 4.53239 0 0 0 203 176 174 255
-1.44396 1.48325 5.78064 0 0 0 80 76 77 255
1.2033 -0.624157 4.39125 0 0 0 66 67 69 255
0.740332 -0.374227 4.3208 0 0 0 177 194 131 255
-0.75845 -0.289127 4.57974 0 0 0 204 186 169 255
-0.443055 -0.264338 4.30549 0 0 0 165 184 148 255
0.127986 -0.231745 4.30372 0 0 0 90 100 90 255
0.211699 -0.202005 4.30701 0 0 0 59 70 65 255
0.639312 -0.191837 4.33356 0 0 0 98 105 94 255
0.63286 -0.226992 4.33171 0 0 0 85 92 79 255
0.140866 -0.184823 4.31618 0 0 0 68 77 74 255
-0.00948948 -0.127594 4.31335 0 0 0 173 189 129 255
0.244652 -0.124109 4.32116 0 0 0 66 73 68 255
-0.682667 -0.0588969 4.52128 0 0 0 204 184 164 255
0.322912 -0.0716055 4.35358 0 0 0 174 189 127 255
-0.710174 0.0125567 4.59363 0 0 0 197 180 163 255
0.773745 -0.0345312 4.36168 0 0 0 86 94 87 255
-0.131547 0.0401489 4.33471 0 0 0 75 83 76 255
0.418042 0.0242989 4.35289 0 0 0 88 103 82 255
0.468682 0.0968152 4.3634 0 0 0 56 66 62 255
