ply
format ascii 1.0
comment VCGLIB generated
element vertex 1004
property float x
property float y
property float z
property float nx
property float ny
property float nz
property uchar red
property uchar green
property uchar blue
property uchar alpha
element face 0
property list uchar int vertex_indices
end_header
0.599369 -0.245517 4.33293 0 0 0 134 144 97 255
0.64233 -0.244707 4.34128 0 0 0 104 116 80 255
-1.68006 -0.344705 5.80836 0 0 0 146 105 86 255
0.62029 -0.234302 4.33032 0 0 0 132 142 110 255
-1.6045 -0.335358 5.87431 0 0 0 189 172 155 255
0.224372 -0.228449 4.29524 0 0 0 157 167 134 255
0.236633 -0.21929 4.29948 0 0 0 99 107 76 255
-0.132164 -0.201918 4.29108 0 0 0 152 166 120 255
0.250136 -0.209198 4.30113 0 0 0 167 181 130 255
-0.0193705 -0.206601 4.25084 0 0 0 155 167 133 255
0.742721 -0.20632 4.34608 0 0 0 73 81 59 255
-0.14054 -0.198517 4.28993 0 0 0 121 133 106 255
-0.0342598 -0.195854 4.24748 0 0 0 93 106 83 255
-0.146163 -0.185601 4.28363 0 0 0 147 163 117 255
0.604077 -0.190869 4.32072 0 0 0 136 144 112 255
-1.58504 -0.271892 5.83608 0 0 0 191 174 155 255
-1.55687 -0.268302 5.84229 0 0 0 140 104 85 255
0.00322973 -0.179235 4.25663 0 0 0 127 144 97 255
-1.61649 -0.256956 5.82584 0 0 0 142 123 109 255
-1.47228 -0.254374 5.78449 0 0 0 142 101 83 255
-0.15952 -0.169073 4.28053 0 0 0 148 163 117 255
-0.107341 -0.172946 4.26492 0 0 0 74 84 74 255
-1.55861 -0.250861 5.84463 0 0 0 139 113 101 255
-1.49525 -0.254303 5.80334 0 0 0 150 134 119 255
-1.77525 -0.241627 5.77502 0 0 0 148 112 87 255
-1.67637 -0.245452 5.82704 0 0 0 145 118 99 255
-1.66582 -0.246888 5.83119 0 0 0 146 102 80 255
-1.59901 -0.24626 5.79939 0 0 0 140 116 99 255
0.0544115 -0.154794 4.28674 0 0 0 76 79 60 255
0.441074 -0.159847 4.32274 0 0 0 122 136 94 255
-0.167543 -0.145062 4.28549 0 0 0 151 165 112 255
0.253265 -0.145496 4.29944 0 0 0 108 122 100 255
-0.127625 -0.142109 4.27449 0 0 0 82 92 82 255
-0.0806157 -0.143726 4.26616 0 0 0 131 138 106 255
0.081792 -0.141857 4.30304 0 0 0 119 124 107 255
0.558385 -0.138703 4.33126 0 0 0 140 150 120 255
0.263166 -0.127805 4.30486 0 0 0 77 92 59 255
-0.175628 -0.119044 4.28313 0 0 0 90 101 88 255
-0.13507 -0.125471 4.27163 0 0 0 134 146 128 255
0.581074 -0.123886 4.33324 0 0 0 77 85 61 255
-0.00171014 -0.108486 4.28919 0 0 0 136 148 99 255
0.516883 -0.118233 4.32073 0 0 0 149 163 122 255
0.559038 -0.12036 4.33176 0 0 0 128 137 115 255
-1.11136 -0.172367 5.93244 0 0 0 148 138 122 255
-0.042567 -0.105243 4.30048 0 0 0 84 98 57 255
-1.02826 -0.164485 5.93991 0 0 0 141 132 122 255
-0.125167 -0.102716 4.28194 0 0 0 94 96 81 255
0.611506 -0.102454 4.34216 0 0 0 53 60 46 255
-1.36957 -0.151071 5.86889 0 0 0 130 118 106 255
-1.17164 -0.159669 5.93584 0 0 0 148 131 117 255
-1.1096 -0.16697 5.92066 0 0 0 120 113 100 255
-0.174234 -0.091884 4.28404 0 0 0 94 102 92 255
0.0802316 -0.0962158 4.30899 0 0 0 47 61 47 255
0.276494 -0.098084 4.30833 0 0 0 147 154 115 255
0.0295912 -0.0861885 4.30964 0 0 0 81 88 56 255
0.467333 -0.0923015 4.32264 0 0 0 154 168 124 255
-1.47643 -0.132957 5.83351 0 0 0 139 127 111 255
-1.23587 -0.131777 5.82298 0 0 0 184 169 158 255
-0.166835 -0.0783603 4.28743 0 0 0 144 155 114 255
-1.77941 -0.131496 5.91864 0 0 0 121 116 106 255
-1.70008 -0.121 5.84092 0 0 0 110 106 101 255
-1.64909 -0.127419 5.87766 0 0 0 149 137 119 255
-1.5945 -0.130669 5.88781 0 0 0 85 81 73 255
0.282985 -0.0804439 4.31324 0 0 0 97 107 87 255
-1.83764 -0.11676 5.86506 0 0 0 103 92 79 255
-1.55496 -0.128242 5.89301 0 0 0 135 126 111 255
-1.9341 -0.103212 5.83953 0 0 0 135 125 107 255
-1.89873 -0.115175 5.92203 0 0 0 168 155 137 255
-1.36851 -0.116248 5.8865 0 0 0 108 98 89 255
-1.33538 -0.0980485 5.78844 0 0 0 182 168 155 255
-0.0816574 -0.0615965 4.30081 0 0 0 106 118 89 255
-2.0172 -0.102902 5.85016 0 0 0 134 125 109 255
-1.91051 -0.10596 5.86259 0 0 0 193 175 159 255
-1.6452 -0.103301 5.89915 0 0 0 89 81 78 255
-1.62922 -0.0991131 5.85437 0 0 0 110 104 99 255
-1.39549 -0.100654 5.85375 0 0 0 184 171 158 255
-1.22821 -0.0993683 5.75655 0 0 0 141 125 110 255
-0.151941 -0.0546714 4.26978 0 0 0 48 54 50 255
0.27649 -0.0606651 4.29724 0 0 0 131 142 118 255
-1.81737 -0.0893038 5.81773 0 0 0 183 176 165 255
-1.75117 -0.101283 5.88137 0 0 0 186 174 160 255
-1.54788 -0.0958809 5.85776 0 0 0 124 115 109 255
-1.48992 -0.0932117 5.86827 0 0 0 110 101 101 255
-1.42413 -0.0956535 5.86844 0 0 0 133 124 114 255
-0.192189 -0.0537001 4.27702 0 0 0 121 137 93 255
0.00882587 -0.0431967 4.30156 0 0 0 134 149 103 255
0.0389465 -0.0429912 4.29467 0 0 0 119 130 108 255
-1.68493 -0.0755566 5.82835 0 0 0 142 133 122 255
-0.173786 -0.0347968 4.30003 0 0 0 71 82 60 255
-0.0285721 -0.0381319 4.30488 0 0 0 68 75 64 255
0.268516 -0.0352712 4.29934 0 0 0 59 69 63 255
0.800727 -0.0404866 4.37838 0 0 0 107 121 102 255
-2.03037 -0.0681952 5.8517 0 0 0 94 87 76 255
-1.99876 -0.0716912 5.86371 0 0 0 123 117 110 255
-1.92849 -0.0692889 5.82924 0 0 0 148 138 119 255
-1.89798 -0.0669701 5.8523 0 0 0 98 90 82 255
-1.81731 -0.0662463 5.82855 0 0 0 101 90 75 255
-1.80635 -0.0636691 5.81395 0 0 0 96 87 73 255
-1.75694 -0.0726345 5.87212 0 0 0 116 111 103 255
-0.856302 -0.0686672 6.0276 0 0 0 178 165 147 255
-0.0997039 -0.0317867 4.28305 0 0 0 139 147 110 255
-0.101986 -0.0177851 4.28126 0 0 0 119 125 91 255
0.257446 -0.0158688 4.31857 0 0 0 77 86 74 255
0.792099 -0.0215441 4.36875 0 0 0 118 132 107 255
-0.427003 -0.00925427 4.28091 0 0 0 139 148 123 255
-0.0106632 -0.0141969 4.3034 0 0 0 148 162 121 255
-0.19318 -0.00141206 4.30306 0 0 0 111 123 82 255
-0.333961 0.0109059 4.27138 0 0 0 155 163 141 255
0.390364 0.0112733 4.34195 0 0 0 136 147 110 255
-0.180747 0.0143981 4.29846 0 0 0 144 158 115 255
-0.367406 0.0229415 4.26281 0 0 0 159 167 135 255
-0.32485 0.0210236 4.28035 0 0 0 108 121 83 255
0.383085 0.023738 4.34607 0 0 0 131 140 96 255
0.572909 0.0185371 4.33715 0 0 0 107 119 97 255
-0.423151 0.029287 4.26665 0 0 0 165 172 158 255
0.27114 0.0305626 4.33951 0 0 0 125 135 101 255
0.42987 0.0257336 4.33836 0 0 0 124 137 111 255
0.74688 0.0249758 4.3678 0 0 0 93 103 93 255
-0.20985 0.0352563 4.28874 0 0 0 143 160 111 255
-0.181325 0.0344523 4.29407 0 0 0 147 164 115 255
-0.0512884 0.0356957 4.30883 0 0 0 80 90 85 255
0.369888 0.0358823 4.34078 0 0 0 126 137 95 255
0.286191 0.0407782 4.33665 0 0 0 153 165 131 255
-1.67996 0.0456959 5.86531 0 0 0 155 146 141 255
-1.62514 0.0479349 5.85429 0 0 0 150 139 136 255
-1.45352 0.0390714 5.85784 0 0 0 128 88 67 255
-0.342695 0.0461747 4.27811 0 0 0 156 167 138 255
-1.81533 0.0573569 5.86257 0 0 0 139 127 124 255
-1.60477 0.0485548 5.85308 0 0 0 108 105 102 255
-0.331149 0.0546057 4.2855 0 0 0 99 111 81 255
0.795448 0.0528053 4.3633 0 0 0 144 156 120 255
-1.88152 0.0639689 5.86203 0 0 0 150 144 136 255
-1.74298 0.0592664 5.85507 0 0 0 141 129 123 255
-1.68068 0.052722 5.86757 0 0 0 144 132 123 255
-1.9406 0.0660707 5.85687 0 0 0 146 144 142 255
-0.319699 0.0723353 4.28876 0 0 0 144 153 125 255
-0.258145 0.0710919 4.28173 0 0 0 139 148 122 255
-0.210162 0.06982 4.27951 0 0 0 143 154 116 255
0.368899 0.072124 4.31827 0 0 0 157 169 116 255
-1.95467 0.0840141 5.86117 0 0 0 97 92 85 255
-1.80516 0.0697965 5.84605 0 0 0 149 143 138 255
0.242855 0.0743452 4.31706 0 0 0 128 139 109 255
-2.02681 0.0815583 5.87502 0 0 0 151 134 126 255
-1.93822 0.0854927 5.8594 0 0 0 75 68 61 255
-0.423249 0.0819729 4.2945 0 0 0 153 156 151 255
0.158275 0.0853295 4.32915 0 0 0 77 85 82 255
0.222149 0.0891285 4.3284 0 0 0 68 79 70 255
0.13903 0.0935703 4.32507 0 0 0 48 50 50 255
-0.371024 0.0985493 4.28083 0 0 0 66 73 59 255
-0.212267 0.102643 4.28294 0 0 0 140 150 117 255
-0.160702 0.100413 4.2975 0 0 0 111 121 104 255
-0.0755369 0.103844 4.29183 0 0 0 96 104 87 255
0.198924 0.105614 4.33222 0 0 0 136 141 111 255
-0.233916 0.105449 4.28621 0 0 0 133 145 116 255
-0.13934 0.10634 4.29053 0 0 0 72 82 79 255
0.133903 0.113756 4.3161 0 0 0 120 125 119 255
-0.349539 0.119276 4.2765 0 0 0 135 139 119 255
-0.252725 0.112776 4.28429 0 0 0 59 71 56 255
-0.182074 0.111516 4.28616 0 0 0 108 119 92 255
0.165262 0.111313 4.31921 0 0 0 110 118 109 255
-0.415327 0.122636 4.28184 0 0 0 140 148 127 255
-0.39008 0.119472 4.28209 0 0 0 113 123 102 255
-0.110528 0.12202 4.30547 0 0 0 163 172 144 255
-0.0607526 0.120846 4.31515 0 0 0 127 130 112 255
-0.0271477 0.12316 4.30982 0 0 0 103 116 109 255
0.641781 0.123574 4.36571 0 0 0 75 89 87 255
-2.11889 0.153726 5.83715 0 0 0 116 99 94 255
-0.340034 0.138652 4.28703 0 0 0 70 79 51 255
0.197959 0.132171 4.32146 0 0 0 100 114 96 255
-0.0649053 0.142593 4.3096 0 0 0 123 136 95 255
-2.08206 0.178271 5.8208 0 0 0 70 37 35 255
0.256214 0.145693 4.33925 0 0 0 101 112 87 255
-0.0645708 0.15011 4.30774 0 0 0 123 136 95 255
-1.98258 0.187271 5.82352 0 0 0 101 77 57 255
-0.0937373 0.176578 4.31912 0 0 0 79 86 50 255
0.139549 0.174826 4.31972 0 0 0 78 88 85 255
0.264007 0.174603 4.33504 0 0 0 49 62 52 255
0.578397 0.172605 4.3614 0 0 0 86 96 77 255
-0.298099 0.187421 4.31129 0 0 0 83 88 74 255
0.283031 0.193815 4.34976 0 0 0 90 101 63 255
-0.199197 0.196161 4.30156 0 0 0 54 62 55 255
-0.101258 0.197807 4.32409 0 0 0 161 170 132 255
0.456681 0.206414 4.37072 0 0 0 151 164 127 255
-0.184914 0.209561 4.30676 0 0 0 128 134 109 255
-0.33812 0.20955 4.30283 0 0 0 120 139 104 255
-0.115595 0.219936 4.32799 0 0 0 89 102 52 255
-0.217522 0.226013 4.28883 0 0 0 92 101 89 255
-0.175237 0.223103 4.30602 0 0 0 71 85 75 255
-0.0861704 0.217037 4.32782 0 0 0 114 119 104 255
-0.311384 0.230792 4.30851 0 0 0 147 158 136 255
-0.246306 0.232875 4.30369 0 0 0 93 98 85 255
0.378893 0.23917 4.3611 0 0 0 149 159 115 255
0.45864 0.235997 4.37143 0 0 0 140 153 115 255
0.296111 0.243437 4.36422 0 0 0 150 160 118 255
0.531523 0.248431 4.37614 0 0 0 62 69 52 255
-0.336624 0.249743 4.30235 0 0 0 125 135 101 255
-0.0271002 0.257086 4.3188 0 0 0 106 117 107 255
0.461505 0.272663 4.35806 0 0 0 136 149 127 255
0.490813 0.268861 4.36738 0 0 0 102 113 96 255
0.530172 0.270256 4.36008 0 0 0 134 149 131 255
0.629304 0.265912 4.3813 0 0 0 59 70 61 255
-2.00483 0.350261 5.88763 0 0 0 60 40 36 255
0.274622 0.28272 4.36176 0 0 0 100 112 101 255
0.375874 0.277435 4.34282 0 0 0 140 149 114 255
0.622812 0.289716 4.40977 0 0 0 98 112 94 255
0.263666 0.293385 4.36425 0 0 0 47 59 55 255
0.484586 0.289517 4.36197 0 0 0 69 72 64 255
0.580961 0.291584 4.3904 0 0 0 123 132 117 255
-0.182312 0.29382 4.33224 0 0 0 118 122 103 255
0.745431 0.304726 4.41649 0 0 0 107 116 81 255
0.468749 0.300808 4.36381 0 0 0 123 133 110 255
-0.411238 0.31028 4.3233 0 0 0 106 111 105 255
-0.0219883 0.310974 4.33778 0 0 0 97 102 86 255
0.0381653 0.306644 4.34704 0 0 0 133 145 107 255
0.236683 0.313623 4.35361 0 0 0 81 93 89 255
0.726379 0.316715 4.41747 0 0 0 154 170 117 255
-0.287098 0.320124 4.32285 0 0 0 126 138 111 255
0.581058 0.319677 4.40132 0 0 0 114 126 106 255
0.628469 0.321704 4.41363 0 0 0 142 159 126 255
-2.08996 0.412202 5.82952 0 0 0 65 48 40 255
-0.31065 0.320529 4.31314 0 0 0 140 154 127 255
0.316809 0.321098 4.35709 0 0 0 118 128 96 255
0.330867 0.323588 4.36575 0 0 0 118 128 96 255
-1.55301 0.436658 5.98097 0 0 0 77 53 38 255
-0.183915 0.336778 4.34487 0 0 0 140 152 128 255
-0.10035 0.326501 4.35022 0 0 0 111 119 107 255
0.384128 0.339138 4.38776 0 0 0 144 156 113 255
-0.0803013 0.340519 4.35929 0 0 0 57 65 58 255
0.356497 0.344806 4.38162 0 0 0 130 140 107 255
-1.67772 0.457232 5.92556 0 0 0 90 67 56 255
0.499363 0.350525 4.38782 0 0 0 45 54 55 255
0.529604 0.361556 4.39921 0 0 0 138 140 144 255
0.759051 0.354514 4.4061 0 0 0 94 101 103 255
0.791963 0.356141 4.40621 0 0 0 116 123 123 255
0.68752 0.358872 4.39412 0 0 0 112 122 124 255
0.730792 0.357468 4.40017 0 0 0 118 119 119 255
0.560778 0.374003 4.38462 0 0 0 126 134 134 255
0.592576 0.372141 4.38752 0 0 0 113 114 116 255
0.619285 0.364908 4.38839 0 0 0 94 102 106 255
0.653582 0.360835 4.39117 0 0 0 89 96 104 255
-1.73177 0.486003 5.95805 0 0 0 102 83 68 255
-0.311287 0.37308 4.34527 0 0 0 83 93 73 255
0.488973 0.378713 4.39118 0 0 0 100 107 111 255
0.518804 0.377403 4.39945 0 0 0 49 53 51 255
0.667817 0.374123 4.40043 0 0 0 40 42 45 255
0.742562 0.374178 4.40464 0 0 0 46 47 47 255
-0.359777 0.378842 4.34298 0 0 0 119 128 120 255
-0.334341 0.383394 4.34065 0 0 0 145 159 127 255
-0.287858 0.380163 4.35115 0 0 0 94 103 91 255
-0.227149 0.384413 4.35437 0 0 0 64 72 65 255
0.290967 0.388707 4.37971 0 0 0 71 81 84 255
0.355048 0.379869 4.37095 0 0 0 80 95 97 255
0.426474 0.380986 4.38748 0 0 0 110 121 120 255
0.507927 0.376731 4.39821 0 0 0 38 39 38 255
0.592973 0.37942 4.38547 0 0 0 125 129 132 255
0.774564 0.377056 4.40966 0 0 0 51 53 57 255
-1.64969 0.506568 5.93066 0 0 0 97 77 67 255
0.179362 0.39441 4.38924 0 0 0 64 75 78 255
0.210026 0.39207 4.37396 0 0 0 91 98 97 255
0.323756 0.384149 4.36798 0 0 0 111 113 115 255
0.389504 0.384605 4.36548 0 0 0 89 98 100 255
0.573957 0.38518 4.38655 0 0 0 47 51 52 255
0.792087 0.385222 4.40372 0 0 0 95 97 98 255
0.265884 0.39453 4.37874 0 0 0 86 93 97 255
0.445061 0.395719 4.38542 0 0 0 46 46 46 255
0.556389 0.390689 4.37991 0 0 0 135 136 136 255
0.733958 0.392334 4.4011 0 0 0 126 126 126 255
0.745296 0.399041 4.4036 0 0 0 88 91 91 255
-1.17266 0.51776 5.89857 0 0 0 112 94 78 255
-0.0699236 0.396522 4.33711 0 0 0 173 175 176 255
-0.0298483 0.393244 4.3436 0 0 0 140 144 145 255
0.0373485 0.403686 4.34842 0 0 0 85 87 86 255
0.0962698 0.40172 4.36759 0 0 0 132 132 133 255
0.147863 0.397536 4.36386 0 0 0 127 133 136 255
0.24447 0.398093 4.37913 0 0 0 135 135 135 255
0.678661 0.399602 4.40235 0 0 0 124 124 127 255
-1.66921 0.52724 5.93193 0 0 0 41 36 34 255
-1.53275 0.536455 5.98116 0 0 0 97 79 71 255
-1.14495 0.53039 5.89381 0 0 0 74 55 46 255
-0.0468927 0.406303 4.34623 0 0 0 52 52 52 255
0.00160392 0.404261 4.34562 0 0 0 110 123 128 255
0.0335905 0.400154 4.36475 0 0 0 90 98 98 255
0.0633258 0.404383 4.35707 0 0 0 92 100 104 255
0.205673 0.405128 4.37216 0 0 0 136 141 144 255
0.26595 0.405824 4.37546 0 0 0 142 150 156 255
0.276358 0.40478 4.37094 0 0 0 47 49 51 255
0.303182 0.403469 4.3626 0 0 0 151 153 157 255
0.351522 0.408121 4.36972 0 0 0 144 146 147 255
0.50003 0.399953 4.38789 0 0 0 178 180 179 255
0.574154 0.404246 4.38156 0 0 0 65 65 69 255
-1.58657 0.548939 5.98401 0 0 0 71 61 57 255
-0.33002 0.409997 4.32132 0 0 0 133 132 132 255
-0.190452 0.404918 4.3318 0 0 0 44 51 49 255
-0.131568 0.407361 4.32931 0 0 0 74 81 79 255
0.405986 0.413221 4.37369 0 0 0 81 92 97 255
0.451719 0.411427 4.37544 0 0 0 59 68 72 255
-0.367678 0.413877 4.32164 0 0 0 79 84 85 255
0.1719 0.420608 4.35353 0 0 0 147 147 147 255
0.323105 0.416691 4.35929 0 0 0 123 123 123 255
0.397883 0.422513 4.37359 0 0 0 36 49 54 255
-1.25654 0.562224 5.96013 0 0 0 68 51 39 255
-0.350427 0.415243 4.31628 0 0 0 103 103 103 255
-0.247702 0.424591 4.33065 0 0 0 121 122 124 255
-0.197977 0.423154 4.33589 0 0 0 143 145 146 255
-0.163548 0.421191 4.32751 0 0 0 59 65 70 255
-0.0193813 0.42661 4.34031 0 0 0 149 153 154 255
0.243369 0.420543 4.36586 0 0 0 91 91 91 255
0.266868 0.417747 4.3632 0 0 0 120 129 131 255
-1.27968 0.571739 5.92459 0 0 0 66 41 32 255
-0.361829 0.424528 4.31975 0 0 0 83 87 94 255
-0.306107 0.430777 4.32324 0 0 0 65 65 67 255
-0.278202 0.425099 4.32684 0 0 0 101 104 109 255
-0.228945 0.42345 4.34427 0 0 0 84 85 85 255
-0.0976391 0.42961 4.3366 0 0 0 120 124 128 255
0.0690664 0.428583 4.33974 0 0 0 89 94 95 255
0.094394 0.429302 4.34873 0 0 0 125 131 136 255
0.125523 0.426157 4.33875 0 0 0 72 78 79 255
0.146113 0.429711 4.34597 0 0 0 110 109 112 255
0.194318 0.423508 4.34848 0 0 0 93 99 103 255
-0.148443 0.437687 4.34927 0 0 0 40 41 45 255
-0.0699315 0.441821 4.34037 0 0 0 151 155 159 255
-0.0178664 0.428458 4.3384 0 0 0 158 162 163 255
0.00775173 0.431488 4.33291 0 0 0 93 93 93 255
-0.251145 0.444398 4.31835 0 0 0 132 133 133 255
-1.33896 0.595719 5.94878 0 0 0 73 48 36 255
-1.25766 0.604077 5.99928 0 0 0 52 40 36 255
-1.19227 0.601182 5.95017 0 0 0 59 43 37 255
-0.403742 0.442631 4.33024 0 0 0 87 97 94 255
-0.216707 0.450038 4.34672 0 0 0 126 130 130 255
-0.19682 0.446618 4.3335 0 0 0 141 139 140 255
-0.12732 0.448317 4.33778 0 0 0 90 92 96 255
0.662259 0.458637 4.41307 0 0 0 103 108 114 255
0.741462 0.451492 4.42109 0 0 0 84 97 100 255
-0.344034 0.454083 4.31444 0 0 0 158 158 158 255
-0.30317 0.452827 4.324 0 0 0 131 131 131 255
-0.263394 0.452647 4.33747 0 0 0 69 69 71 255
0.430891 0.447849 4.36674 0 0 0 79 85 86 255
0.564701 0.467118 4.40084 0 0 0 86 107 114 255
0.581607 0.468861 4.40621 0 0 0 76 90 96 255
0.618097 0.463019 4.41112 0 0 0 77 94 98 255
0.703008 0.465044 4.43083 0 0 0 109 109 111 255
0.780091 0.470583 4.45042 0 0 0 88 99 100 255
0.343547 0.470357 4.3737 0 0 0 108 121 126 255
0.514033 0.464226 4.3918 0 0 0 65 76 77 255
-2.11622 0.594311 5.74857 0 0 0 70 42 28 255
-1.55997 0.62878 5.9567 0 0 0 59 41 31 255
0.418389 0.483742 4.40316 0 0 0 109 120 121 255
0.474287 0.474751 4.3981 0 0 0 102 107 115 255
0.531641 0.477109 4.41036 0 0 0 67 79 79 255
0.439767 0.490747 4.40653 0 0 0 62 71 80 255
-1.2109 0.643382 5.96965 0 0 0 130 105 88 255
0.342875 0.494113 4.39743 0 0 0 88 90 91 255
-1.63046 0.674701 6.03528 0 0 0 79 58 43 255
-1.50977 0.665227 5.97823 0 0 0 45 36 35 255
-1.33598 0.655226 5.96056 0 0 0 74 57 52 255
-1.51946 0.668931 5.96721 0 0 0 55 40 34 255
-1.20538 0.670042 5.96506 0 0 0 97 68 51 255
-1.78154 0.680007 5.94158 0 0 0 135 107 82 255
-1.61657 0.675039 5.95056 0 0 0 57 42 32 255
-1.44754 0.690396 5.95495 0 0 0 68 45 37 255
-1.26516 0.69709 5.9962 0 0 0 65 46 37 255
0.595935 0.526236 4.41122 0 0 0 174 183 183 255
-1.3169 0.71301 5.97434 0 0 0 55 36 28 255
-1.69622 0.712279 5.94136 0 0 0 68 52 46 255
-1.56218 0.716213 5.95501 0 0 0 68 51 37 255
0.379057 0.536959 4.38145 0 0 0 158 166 166 255
-1.2252 0.725809 5.98441 0 0 0 86 63 50 255
0.221793 0.546555 4.3624 0 0 0 185 191 192 255
-1.63995 0.736482 5.96275 0 0 0 59 44 35 255
-1.2813 0.736608 5.98129 0 0 0 50 36 34 255
0.25036 0.552079 4.37246 0 0 0 168 172 175 255
-1.40202 0.755701 6.00915 0 0 0 58 39 30 255
-1.33537 0.750371 5.98425 0 0 0 59 41 38 255
-1.14314 0.736878 5.96619 0 0 0 87 65 50 255
-1.7303 0.758557 5.91869 0 0 0 93 63 51 255
-1.09764 0.758459 5.98244 0 0 0 95 76 64 255
-0.386043 0.587345 4.33957 0 0 0 108 114 117 255
-0.360484 0.587751 4.33874 0 0 0 129 137 140 255
-1.44198 0.808468 6.03138 0 0 0 53 38 29 255
-1.32371 0.800828 5.96855 0 0 0 69 49 35 255
-1.17356 0.813185 6.00242 0 0 0 98 73 57 255
0.605006 0.619152 4.436 0 0 0 193 203 202 255
-1.35764 0.847113 6.0037 0 0 0 62 50 41 255
-1.29881 0.841871 5.99385 0 0 0 62 47 44 255
-1.75739 0.84827 5.95549 0 0 0 125 95 73 255
-1.20069 0.871263 6.02408 0 0 0 66 50 40 255
0.280763 0.638451 4.38733 0 0 0 185 189 190 255
0.606225 0.654471 4.43344 0 0 0 191 197 197 255
-1.51801 0.868007 5.95992 0 0 0 114 94 80 255
-1.81809 0.892268 5.98508 0 0 0 123 100 90 255
0.19235 0.67037 4.42138 0 0 0 160 166 165 255
0.749235 0.67669 4.45374 0 0 0 158 167 169 255
0.794827 0.672302 4.44342 0 0 0 127 144 144 255
0.622064 0.681233 4.43754 0 0 0 141 151 154 255
0.710597 0.683784 4.45121 0 0 0 193 198 198 255
-1.34272 0.907679 5.98946 0 0 0 56 48 42 255
-1.11946 0.905146 5.93931 0 0 0 80 66 61 255
0.198711 0.688334 4.4143 0 0 0 190 192 193 255
0.658182 0.702631 4.43982 0 0 0 144 142 143 255
0.670646 0.702042 4.44329 0 0 0 135 135 135 255
0.225411 0.699594 4.41308 0 0 0 192 199 199 255
0.61357 0.704883 4.43742 0 0 0 167 173 175 255
-1.82406 0.946708 5.98255 0 0 0 129 114 99 255
-1.22203 0.946109 6.02785 0 0 0 90 71 64 255
-0.181003 0.701877 4.37695 0 0 0 194 197 197 255
0.173697 0.714867 4.40022 0 0 0 188 197 195 255
0.139706 0.716198 4.39113 0 0 0 123 133 134 255
0.617677 0.727342 4.44155 0 0 0 191 198 198 255
0.754289 0.738769 4.47832 0 0 0 184 193 194 255
-1.32979 0.983078 6.00522 0 0 0 66 57 54 255
0.352048 0.740589 4.40748 0 0 0 179 186 184 255
-1.3207 1.00035 6.03392 0 0 0 60 55 54 255
0.647268 0.747969 4.45302 0 0 0 182 184 185 255
0.688945 0.760388 4.45928 0 0 0 183 194 195 255
-1.79167 1.01087 5.97545 0 0 0 92 76 71 255
-0.469767 0.757185 4.37301 0 0 0 124 138 127 255
-0.234183 0.761666 4.37549 0 0 0 173 179 181 255
-0.520596 0.778569 4.41717 0 0 0 142 158 150 255
0.208847 0.785418 4.4117 0 0 0 133 142 144 255
-0.895921 0.902606 5.05785 0 0 0 75 59 51 255
-0.241086 0.784295 4.36894 0 0 0 125 127 129 255
-0.0796895 0.788122 4.39626 0 0 0 187 191 192 255
-0.424414 0.794478 4.38327 0 0 0 162 184 161 255
-0.269379 0.793065 4.37727 0 0 0 155 162 165 255
-0.215461 0.788446 4.37376 0 0 0 186 193 190 255
-0.191569 0.793069 4.38697 0 0 0 136 142 142 255
0.082879 0.796456 4.3986 0 0 0 188 194 195 255
0.0233523 0.801692 4.39717 0 0 0 138 145 150 255
-0.128106 0.807715 4.39027 0 0 0 115 121 122 255
-0.948013 0.961431 5.22371 0 0 0 69 48 40 255
-0.581315 0.869958 4.70536 0 0 0 138 153 145 255
-0.0304692 0.81052 4.40069 0 0 0 191 200 200 255
0.334037 0.817168 4.42067 0 0 0 136 146 149 255
-1.22087 1.12234 6.06927 0 0 0 65 57 53 255
-0.242559 0.81831 4.38084 0 0 0 187 189 190 255
0.0563342 0.828205 4.39706 0 0 0 133 138 139 255
-0.324135 0.834421 4.39064 0 0 0 84 91 91 255
-0.267107 0.835012 4.37323 0 0 0 146 150 151 255
-0.101563 0.839886 4.38296 0 0 0 129 135 138 255
-0.0458692 0.83498 4.38901 0 0 0 162 167 166 255
0.0120861 0.856489 4.41606 0 0 0 166 175 177 255
0.792677 0.876989 4.47761 0 0 0 148 152 156 255
0.640272 0.887264 4.47494 0 0 0 173 180 182 255
-0.386295 0.875903 4.37551 0 0 0 166 189 161 255
-0.111184 0.894073 4.41947 0 0 0 184 193 192 255
0.771723 0.901386 4.47769 0 0 0 128 134 135 255
-1.19121 1.30455 6.4484 0 0 0 64 57 54 255
-0.320802 0.927038 4.40853 0 0 0 200 202 201 255
-0.159904 0.920363 4.39955 0 0 0 189 198 197 255
-0.119418 0.932788 4.41657 0 0 0 183 185 186 255
-0.373407 0.934342 4.41331 0 0 0 129 147 139 255
-0.211807 0.94356 4.42734 0 0 0 168 178 180 255
0.27673 0.953219 4.43956 0 0 0 196 202 201 255
0.0345262 0.967781 4.4197 0 0 0 183 192 192 255
-0.386666 0.971309 4.39195 0 0 0 72 78 67 255
-0.904814 1.22255 5.55322 0 0 0 91 80 77 255
-0.0992814 0.981107 4.41229 0 0 0 182 190 192 255
0.192467 0.988192 4.44317 0 0 0 169 176 176 255
-0.370535 0.985516 4.39212 0 0 0 194 195 195 255
-1.02402 1.2447 5.55949 0 0 0 102 89 82 255
-0.750133 1.54287 6.15171 0 0 0 170 175 176 255
-1.15546 1.53637 6.07769 0 0 0 74 69 71 255
-0.387288 1.13843 4.43354 0 0 0 110 123 116 255
-1.54415 1.58003 5.99807 0 0 0 82 80 80 255
-1.49152 -0.63857 5.84146 0 0 0 142 106 88 255
-1.62379 -0.634409 5.83766 0 0 0 158 133 117 255
-1.54481 -0.632835 5.83676 0 0 0 150 133 121 255
-1.87503 -0.612763 5.80507 0 0 0 135 116 101 255
-1.82945 -0.617471 5.79677 0 0 0 142 110 98 255
-1.76209 -0.617956 5.83599 0 0 0 145 110 90 255
-1.41694 -0.627988 5.86809 0 0 0 154 125 111 255
-1.88414 -0.610535 5.80175 0 0 0 161 146 130 255
-1.63373 -0.598444 5.81581 0 0 0 191 176 159 255
-1.49592 -0.594936 5.8262 0 0 0 189 174 158 255
0.794838 -0.424746 4.31933 0 0 0 154 167 126 255
-1.85819 -0.576015 5.80572 0 0 0 194 173 160 255
-1.7976 -0.578755 5.80787 0 0 0 144 104 86 255
-1.70734 -0.58056 5.81032 0 0 0 189 175 161 255
-1.492 -0.571582 5.81626 0 0 0 190 174 157 255
-1.83699 -0.543425 5.80703 0 0 0 192 176 157 255
-1.44691 -0.533531 5.78438 0 0 0 120 90 82 255
-1.6584 -0.528072 5.78837 0 0 0 146 99 83 255
-1.57191 -0.528892 5.77545 0 0 0 133 101 86 255
-1.89338 -0.501557 5.77789 0 0 0 189 177 163 255
-1.82297 -0.501416 5.78218 0 0 0 150 137 124 255
-0.457609 -0.342535 4.21879 0 0 0 132 135 116 255
-1.52461 -0.483419 5.80881 0 0 0 157 130 112 255
0.00355037 -0.272308 4.27383 0 0 0 109 116 93 255
0.0485989 -0.274426 4.27745 0 0 0 133 144 106 255
0.0694578 -0.275088 4.27834 0 0 0 84 92 81 255
0.106391 -0.280689 4.28522 0 0 0 114 128 83 255
-0.0678374 -0.250465 4.27474 0 0 0 152 164 111 255
-1.61149 -0.351863 5.83739 0 0 0 119 100 87 255
-1.62415 -0.349068 5.83781 0 0 0 140 127 111 255
-1.52394 -0.357747 5.88902 0 0 0 146 113 90 255
-1.68611 -0.339869 5.82619 0 0 0 146 105 86 255
-1.45405 -0.342098 5.8714 0 0 0 132 116 101 255
-0.0211174 -0.208294 4.25086 0 0 0 155 167 133 255
-1.44409 -0.296747 5.84096 0 0 0 159 130 114 255
-1.39276 -0.302503 5.85177 0 0 0 190 172 155 255
-1.56423 -0.281538 5.85053 0 0 0 154 106 87 255
-1.40956 -0.260283 5.79427 0 0 0 156 120 105 255
-1.48621 -0.256032 5.79546 0 0 0 144 105 87 255
0.25706 -0.172879 4.30034 0 0 0 85 96 79 255
0.751654 -0.174866 4.34653 0 0 0 71 79 70 255
-1.57505 -0.249487 5.85458 0 0 0 133 109 97 255
0.0518061 -0.162954 4.28649 0 0 0 74 77 58 255
0.437945 -0.160708 4.32213 0 0 0 122 136 94 255
0.253924 -0.147885 4.30339 0 0 0 108 122 100 255
0.556571 -0.14565 4.33328 0 0 0 141 152 119 255
0.0320679 -0.124632 4.29135 0 0 0 156 172 117 255
0.0787635 -0.130985 4.29995 0 0 0 123 133 100 255
-0.13514 -0.126873 4.27256 0 0 0 134 146 128 255
0.516574 -0.118929 4.32137 0 0 0 149 163 122 255
-0.170434 -0.110432 4.28666 0 0 0 87 99 86 255
0.589731 -0.105039 4.33998 0 0 0 52 59 57 255
-1.02573 -0.154689 5.9276 0 0 0 120 114 108 255
-0.172096 -0.0754889 4.28737 0 0 0 158 170 127 255
-0.081306 -0.0543354 4.29354 0 0 0 72 74 60 255
-0.104143 -0.0415493 4.28509 0 0 0 130 138 115 255
-0.0349418 -0.0377481 4.30302 0 0 0 64 70 59 255
-1.91574 -0.073726 5.88652 0 0 0 132 123 114 255
-0.874182 -0.07747 6.05175 0 0 0 180 163 146 255
0.262333 -0.0358064 4.29674 0 0 0 55 64 61 255
0.817763 -0.0360322 4.38407 0 0 0 152 168 125 255
-0.00770756 -0.0132693 4.30257 0 0 0 148 162 121 255
0.793036 -0.0216823 4.36886 0 0 0 118 132 107 255
-0.357439 0.0017811 4.26638 0 0 0 101 110 94 255
0.520061 -0.00270666 4.32451 0 0 0 45 54 50 255
0.431821 0.0250042 4.33928 0 0 0 124 137 111 255
-0.365512 0.0246708 4.26316 0 0 0 159 167 135 255
-0.30271 0.0296191 4.29659 0 0 0 146 159 117 255
-0.186744 0.0266908 4.2929 0 0 0 156 173 124 255
-0.221126 0.0468127 4.27974 0 0 0 102 104 81 255
-0.342579 0.0635801 4.28917 0 0 0 156 174 131 255
-0.258847 0.0678389 4.28471 0 0 0 137 146 121 255
0.367484 0.0700036 4.31907 0 0 0 160 158 124 255
-0.373219 0.0995411 4.28125 0 0 0 69 76 63 255
-0.257042 0.113034 4.28292 0 0 0 68 79 64 255
-0.227054 0.112426 4.28552 0 0 0 154 165 136 255
0.200114 0.111847 4.32989 0 0 0 139 144 113 255
0.639111 0.126046 4.36509 0 0 0 75 89 87 255
-0.344919 0.146253 4.28214 0 0 0 63 70 62 255
-0.290147 0.177231 4.31713 0 0 0 87 101 57 255
-0.241144 0.176633 4.30286 0 0 0 64 70 33 255
-0.345443 0.18974 4.29452 0 0 0 160 175 138 255
-0.0877107 0.185717 4.32813 0 0 0 77 87 76 255
-0.316509 0.20697 4.30758 0 0 0 66 82 62 255
0.293193 0.223609 4.37236 0 0 0 72 87 77 255
-0.0862413 0.223506 4.32428 0 0 0 113 123 104 255
0.382122 0.234941 4.36545 0 0 0 148 157 115 255
0.456685 0.228955 4.3733 0 0 0 139 152 113 255
-0.323647 0.23152 4.30908 0 0 0 152 165 131 255
-0.176977 0.237288 4.31197 0 0 0 68 76 67 255
0.520979 0.251755 4.37122 0 0 0 64 72 66 255
-0.176038 0.260945 4.32981 0 0 0 64 73 70 255
-2.01251 0.350102 5.88934 0 0 0 59 40 35 255
-0.342023 0.280759 4.32493 0 0 0 62 67 65 255
-0.184619 0.293434 4.3303 0 0 0 118 122 103 255
0.577231 0.299198 4.38538 0 0 0 125 136 120 255
0.627144 0.313211 4.41027 0 0 0 140 157 125 255
0.575242 0.321043 4.40351 0 0 0 97 109 94 255
-0.35352 0.326271 4.30199 0 0 0 55 62 44 255
-0.309254 0.324677 4.31043 0 0 0 157 170 141 255
-0.112871 0.337197 4.34198 0 0 0 157 171 126 255
0.371163 0.325583 4.37599 0 0 0 146 160 116 255
-2.12068 0.439995 5.93228 0 0 0 73 57 46 255
-1.55088 0.453346 5.97839 0 0 0 42 33 27 255
0.776842 0.359191 4.41046 0 0 0 108 117 118 255
0.701466 0.358555 4.39685 0 0 0 93 102 104 255
-1.7519 0.481119 5.9602 0 0 0 118 93 79 255
-0.362051 0.361073 4.32593 0 0 0 71 74 73 255
-0.202318 0.366369 4.33941 0 0 0 116 123 112 255
-0.198198 0.363187 4.34016 0 0 0 133 143 116 255
0.488468 0.382576 4.38891 0 0 0 114 120 125 255
0.514081 0.378736 4.39658 0 0 0 49 53 51 255
-1.63454 0.516779 5.91826 0 0 0 100 80 64 255
-1.52777 0.531872 5.97752 0 0 0 118 95 76 255
-0.801953 0.521407 5.89796 0 0 0 116 87 71 255
0.182423 0.400115 4.35868 0 0 0 56 68 64 255
0.401974 0.405321 4.37324 0 0 0 132 143 143 255
0.429862 0.411279 4.38727 0 0 0 115 127 132 255
-0.349682 0.417545 4.31619 0 0 0 103 103 103 255
-0.0472276 0.412103 4.34384 0 0 0 49 54 58 255
0.228325 0.41711 4.33692 0 0 0 114 117 120 255
-0.0242421 0.421958 4.34314 0 0 0 36 45 46 255
0.198075 0.426228 4.35933 0 0 0 120 125 128 255
-1.26717 0.576157 5.93733 0 0 0 62 38 30 255
-1.34794 0.601962 5.95005 0 0 0 54 37 30 255
-0.404251 0.442297 4.33183 0 0 0 87 97 94 255
-1.35314 0.670655 5.9711 0 0 0 56 47 45 255
-1.61887 0.673927 5.95014 0 0 0 57 42 32 255
-1.7881 0.685474 5.94028 0 0 0 145 115 88 255
0.213067 0.552776 4.35279 0 0 0 190 197 197 255
-0.187133 0.576386 4.35146 0 0 0 174 179 181 255
-1.44173 0.807575 6.02399 0 0 0 53 38 29 255
-0.383635 0.587498 4.33819 0 0 0 112 123 127 255
0.276215 0.643962 4.38538 0 0 0 191 197 198 255
0.606102 0.654403 4.43341 0 0 0 191 197 197 255
-1.12539 0.915748 5.93288 0 0 0 93 85 80 255
0.700664 0.696482 4.44674 0 0 0 193 200 200 255
-1.2411 0.958095 6.03354 0 0 0 87 72 65 255
0.668282 0.725099 4.44809 0 0 0 118 121 121 255
-1.88777 0.964744 6.00596 0 0 0 97 72 54 255
-1.83185 0.95908 5.98643 0 0 0 134 116 102 255
0.167736 0.718451 4.39745 0 0 0 191 199 197 255
0.753011 0.737104 4.47995 0 0 0 184 193 194 255
-1.32749 0.997823 6.02948 0 0 0 61 58 59 255
0.334291 0.73244 4.39898 0 0 0 188 192 193 255
0.592761 0.744284 4.44538 0 0 0 101 110 111 255
-1.79155 0.993068 5.96852 0 0 0 133 114 101 255
0.6889 0.758196 4.45967 0 0 0 183 194 195 255
0.166928 0.759797 4.40088 0 0 0 136 135 138 255
-0.234122 0.761909 4.37538 0 0 0 173 179 181 255
-1.27388 1.07855 6.03822 0 0 0 71 59 52 255
-0.16492 0.812204 4.39712 0 0 0 191 198 198 255
-0.325483 0.828679 4.39261 0 0 0 81 90 89 255
-0.235104 0.819473 4.38491 0 0 0 184 187 187 255
-0.586144 0.889488 4.7477 0 0 0 133 152 146 255
-0.465383 0.833672 4.40045 0 0 0 115 128 117 255
-0.758136 1.10066 5.84911 0 0 0 73 59 54 255
-0.396477 0.838332 4.38911 0 0 0 77 88 79 255
-0.260842 0.835028 4.37732 0 0 0 132 136 137 255
-0.0390204 0.833022 4.39449 0 0 0 150 154 154 255
0.0124861 0.851738 4.4153 0 0 0 151 161 166 255
0.166329 0.860385 4.42787 0 0 0 178 188 189 255
0.756971 0.875616 4.47079 0 0 0 119 125 126 255
0.799608 0.874759 4.47589 0 0 0 171 180 182 255
-0.108039 0.893901 4.42127 0 0 0 184 193 192 255
0.00142406 0.900826 4.41849 0 0 0 108 117 120 255
0.142519 0.906244 4.4272 0 0 0 129 140 141 255
0.630425 0.91645 4.47021 0 0 0 135 144 143 255
-0.373619 0.928363 4.42097 0 0 0 130 143 135 255
-0.171008 0.920716 4.40337 0 0 0 190 199 199 255
-0.559182 0.94411 4.38572 0 0 0 54 51 53 255
-0.39194 0.971709 4.39006 0 0 0 73 80 66 255
-0.112001 0.982993 4.40353 0 0 0 188 197 196 255
-0.367404 1.03057 4.40831 0 0 0 121 126 125 255
0.230844 1.06093 4.45798 0 0 0 181 186 187 255
-1.27156 1.66818 6.66808 0 0 0 61 59 62 255
-0.74855 1.55339 6.15369 0 0 0 179 184 183 255
-0.607727 -0.522402 4.26983 0 0 0 53 52 50 255
-1.92553 -0.652567 5.78884 0 0 0 131 110 97 255
-2.06218 -0.646641 5.79189 0 0 0 142 115 97 255
-1.4959 -0.635224 5.83126 0 0 0 137 112 96 255
-1.87543 -0.607439 5.81348 0 0 0 126 99 83 255
-1.4032 -0.606778 5.86369 0 0 0 144 109 98 255
-1.88726 -0.596929 5.81564 0 0 0 136 102 82 255
-1.64536 -0.569801 5.80496 0 0 0 177 159 144 255
-1.48118 -0.576195 5.81403 0 0 0 192 174 154 255
0.789624 -0.412681 4.28261 0 0 0 156 171 125 255
-1.84233 -0.563512 5.80519 0 0 0 193 176 157 255
-1.70301 -0.569754 5.80374 0 0 0 189 175 161 255
-1.58065 -0.559655 5.7785 0 0 0 150 116 96 255
-1.72792 -0.545629 5.75497 0 0 0 129 114 103 255
-1.65745 -0.546555 5.79962 0 0 0 142 99 86 255
-2.03078 -0.502871 5.82573 0 0 0 151 101 70 255
-1.95018 -0.497951 5.80288 0 0 0 135 112 100 255
-1.50141 -0.481013 5.80895 0 0 0 166 139 123 255
-1.71002 -0.420816 5.9124 0 0 0 149 126 100 255
-1.87198 -0.400918 5.83736 0 0 0 148 109 87 255
-1.75303 -0.413917 5.85231 0 0 0 144 113 92 255
0.00662122 -0.278112 4.27922 0 0 0 106 112 90 255
0.0850476 -0.274979 4.27789 0 0 0 85 92 77 255
-0.250544 -0.261135 4.25665 0 0 0 104 120 97 255
-0.0449339 -0.260542 4.28241 0 0 0 80 83 65 255
-1.41748 -0.365236 5.8586 0 0 0 120 105 92 255
-0.0665499 -0.243973 4.27121 0 0 0 140 150 99 255
0.583282 -0.240646 4.32736 0 0 0 88 97 69 255
-1.38623 -0.313142 5.84464 0 0 0 190 172 154 255
0.246118 -0.180977 4.29413 0 0 0 86 96 84 255
0.264343 -0.186934 4.29281 0 0 0 122 131 100 255
0.59641 -0.190804 4.3194 0 0 0 137 144 111 255
-1.37909 -0.247867 5.83196 0 0 0 155 137 128 255
-0.113015 -0.170509 4.26673 0 0 0 77 87 76 255
-1.77686 -0.247406 5.77745 0 0 0 153 102 79 255
-1.66804 -0.25024 5.82124 0 0 0 146 102 80 255
0.448025 -0.155731 4.32263 0 0 0 86 94 78 255
-0.118715 -0.132364 4.26765 0 0 0 130 142 110 255
-0.171409 -0.111747 4.28515 0 0 0 87 99 86 255
-0.112098 -0.113531 4.27436 0 0 0 144 159 123 255
-0.0355735 -0.105596 4.29759 0 0 0 95 105 83 255
0.270757 -0.103652 4.30696 0 0 0 96 106 96 255
0.484802 -0.095869 4.31389 0 0 0 153 163 116 255
0.587256 -0.0944799 4.33725 0 0 0 46 55 52 255
-1.58065 -0.117637 5.82808 0 0 0 89 85 78 255
-1.47868 -0.130303 5.87364 0 0 0 139 127 111 255
-1.29572 -0.13336 5.79835 0 0 0 140 132 123 255
0.0342048 -0.0816972 4.30868 0 0 0 81 88 56 255
0.282282 -0.0774414 4.30931 0 0 0 96 106 85 255
0.636132 -0.0821256 4.34748 0 0 0 88 97 89 255
-1.6248 -0.109815 5.85702 0 0 0 101 95 90 255
-2.01764 -0.0927823 5.85886 0 0 0 123 118 111 255
-1.69051 -0.0908558 5.80908 0 0 0 93 86 85 255
-1.55176 -0.107435 5.85527 0 0 0 142 131 126 255
-0.101383 -0.0452954 4.28177 0 0 0 134 144 109 255
-0.870308 -0.0734653 6.05131 0 0 0 180 162 146 255
0.0335062 -0.0400474 4.29698 0 0 0 118 128 107 255
0.515493 -0.0456364 4.34629 0 0 0 119 127 102 255
0.818237 -0.0311248 4.3825 0 0 0 150 163 121 255
-0.430315 -0.0338094 4.30005 0 0 0 163 178 143 255
-0.183741 -0.0272 4.29528 0 0 0 134 144 109 255
0.279194 -0.0421779 4.29851 0 0 0 142 152 116 255
-0.353548 0.00111335 4.26472 0 0 0 105 108 92 255
0.57038 -0.0066356 4.33812 0 0 0 116 127 113 255
0.281377 0.0109119 4.34411 0 0 0 154 164 117 255
0.755838 0.0243262 4.37151 0 0 0 105 114 101 255
-1.44468 0.0444742 5.85401 0 0 0 129 88 67 255
0.80495 0.0488656 4.36857 0 0 0 151 162 117 255
-0.416924 0.0581664 4.27342 0 0 0 157 177 139 255
-0.345256 0.0631328 4.28577 0 0 0 156 174 131 255
0.251007 0.0786958 4.31522 0 0 0 148 159 118 255
0.363629 0.0818734 4.31195 0 0 0 155 168 113 255
0.144107 0.111676 4.31907 0 0 0 122 134 117 255
0.000977297 0.119467 4.31188 0 0 0 167 177 144 255
0.214935 0.113182 4.33268 0 0 0 137 141 101 255
-2.08206 0.157256 5.82764 0 0 0 108 88 78 255
0.6484 0.126037 4.36635 0 0 0 77 87 84 255
-0.294364 0.160668 4.30593 0 0 0 165 184 137 255
0.480256 0.16122 4.35517 0 0 0 54 62 59 255
-2.01195 0.222238 5.92285 0 0 0 65 56 52 255
0.555028 0.178628 4.34848 0 0 0 142 152 123 255
-0.403764 0.18675 4.26642 0 0 0 150 163 138 255
-0.297129 0.19503 4.30717 0 0 0 82 90 79 255
0.283368 0.199165 4.34611 0 0 0 90 99 86 255
-1.98945 0.283524 5.9449 0 0 0 46 35 32 255
0.300105 0.232104 4.37124 0 0 0 159 173 129 255
-0.12851 0.229989 4.33662 0 0 0 161 177 130 255
0.650566 0.235373 4.37788 0 0 0 131 140 112 255
0.0269864 0.257931 4.31773 0 0 0 124 136 104 255
-0.332389 0.280143 4.32471 0 0 0 59 64 63 255
0.60641 0.260918 4.38012 0 0 0 52 56 49 255
-2.03304 0.351197 5.89766 0 0 0 66 42 40 255
-0.158537 0.283541 4.33899 0 0 0 143 154 116 255
0.466051 0.281003 4.35499 0 0 0 149 161 133 255
0.765095 0.289153 4.42541 0 0 0 123 132 91 255
0.367649 0.296624 4.35445 0 0 0 144 156 111 255
-0.402866 0.306143 4.32631 0 0 0 135 148 124 255
0.259391 0.311399 4.35982 0 0 0 137 148 119 255
0.638125 0.308398 4.41425 0 0 0 144 157 109 255
0.716318 0.311354 4.40893 0 0 0 155 168 118 255
-0.193788 0.319614 4.31763 0 0 0 53 62 59 255
0.30705 0.318056 4.35339 0 0 0 120 121 92 255
0.366209 0.330405 4.37655 0 0 0 144 157 118 255
-0.371771 0.329638 4.30485 0 0 0 49 52 47 255
-1.5509 0.458161 5.97819 0 0 0 42 33 27 255
-0.0978065 0.350093 4.34618 0 0 0 141 160 115 255
-0.354551 0.375085 4.33926 0 0 0 127 142 121 255
-0.186527 0.376737 4.34347 0 0 0 145 156 117 255
0.790836 0.366995 4.40554 0 0 0 99 99 97 255
-2.13766 0.496527 6.04829 0 0 0 64 50 37 255
0.656621 0.378948 4.39885 0 0 0 100 110 116 255
-1.51608 0.517552 5.975 0 0 0 118 92 77 255
0.324507 0.391984 4.36553 0 0 0 108 117 116 255
0.401302 0.397003 4.37284 0 0 0 138 142 142 255
0.0351893 0.403558 4.35839 0 0 0 116 123 123 255
0.352184 0.404807 4.37128 0 0 0 81 84 86 255
0.500713 0.399402 4.38942 0 0 0 158 158 158 255
-1.59504 0.571147 5.96083 0 0 0 35 32 33 255
0.105001 0.419618 4.36661 0 0 0 133 137 140 255
0.124967 0.424204 4.34428 0 0 0 72 78 79 255
-0.300693 0.438856 4.32452 0 0 0 135 136 136 255
-1.19076 0.605667 5.95469 0 0 0 59 43 37 255
-0.266045 0.442946 4.34341 0 0 0 135 137 143 255
-0.221262 0.449376 4.3276 0 0 0 126 130 130 255
0.576416 0.471815 4.40906 0 0 0 85 102 110 255
0.350334 0.478143 4.38943 0 0 0 101 112 120 255
-1.79471 0.688595 5.93992 0 0 0 149 117 91 255
0.604145 0.535182 4.41185 0 0 0 190 199 198 255
0.377485 0.540661 4.3815 0 0 0 168 177 176 255
0.221874 0.555017 4.35853 0 0 0 190 197 197 255
0.246385 0.553099 4.36923 0 0 0 168 172 175 255
-1.14027 0.756144 6.00728 0 0 0 66 50 46 255
-0.178237 0.579872 4.35049 0 0 0 189 194 195 255
0.742345 0.613348 4.45874 0 0 0 170 179 181 255
-1.51799 0.88257 5.95848 0 0 0 130 103 85 255
0.179547 0.681651 4.41882 0 0 0 156 160 161 255
0.708785 0.672289 4.45608 0 0 0 144 151 155 255
0.222667 0.687688 4.41611 0 0 0 192 201 201 255
-1.23561 0.960254 6.04008 0 0 0 87 72 65 255
-1.87985 0.96125 6.00509 0 0 0 69 58 54 255
0.664892 0.727494 4.44788 0 0 0 118 121 121 255
0.59312 0.737503 4.43788 0 0 0 101 110 111 255
0.705025 0.756957 4.45932 0 0 0 189 195 194 255
-0.402023 0.757032 4.35972 0 0 0 68 75 75 255
-0.20076 0.750219 4.37298 0 0 0 115 123 125 255
-0.163109 0.76648 4.39272 0 0 0 189 198 197 255
0.629614 0.766154 4.44362 0 0 0 150 160 163 255
0.724439 0.755203 4.46603 0 0 0 149 153 151 255
-0.494125 0.776569 4.37677 0 0 0 156 173 149 255
-1.2731 1.08234 6.04438 0 0 0 63 55 51 255
-0.425779 0.806196 4.38409 0 0 0 163 186 158 255
-0.280057 0.807282 4.37331 0 0 0 182 188 188 255
0.0759265 0.811455 4.39811 0 0 0 195 202 202 255
-0.126959 0.822079 4.3866 0 0 0 120 129 130 255
-0.393709 0.837504 4.39012 0 0 0 77 88 79 255
-0.25416 0.840491 4.37918 0 0 0 115 122 122 255
-0.105199 0.829294 4.38789 0 0 0 124 132 136 255
0.041988 0.8299 4.39493 0 0 0 172 178 179 255
0.173514 0.863237 4.42723 0 0 0 188 197 196 255
-0.0315411 0.87358 4.41176 0 0 0 195 203 205 255
-0.392339 0.877101 4.37647 0 0 0 165 188 160 255
-0.0937814 0.887595 4.42293 0 0 0 194 205 203 255
-0.298729 0.878023 4.3665 0 0 0 196 204 204 255
-0.206707 0.894356 4.41403 0 0 0 116 122 122 255
0.261183 0.904365 4.44865 0 0 0 114 121 123 255
0.581427 0.91303 4.46596 0 0 0 187 200 200 255
0.630226 0.918282 4.46996 0 0 0 135 144 143 255
-0.627652 0.971151 4.77724 0 0 0 122 98 87 255
-0.368504 0.897609 4.3843 0 0 0 126 133 128 255
-0.257276 0.909402 4.41032 0 0 0 196 205 202 255
-0.529842 0.966916 4.48294 0 0 0 158 184 173 255
-0.311863 0.952295 4.40938 0 0 0 125 129 129 255
0.264618 0.950317 4.43461 0 0 0 186 193 193 255
-1.31985 1.3342 6.05348 0 0 0 128 107 94 255
-0.36175 0.99051 4.39675 0 0 0 183 190 188 255
0.23857 1.05384 4.46308 0 0 0 163 174 175 255
-0.390245 1.08386 4.41416 0 0 0 66 71 69 255
-1.29475 1.66942 6.80868 0 0 0 73 60 53 255
-0.753162 1.5563 6.15339 0 0 0 177 183 182 255
-1.56879 1.58837 6.13812 0 0 0 95 85 79 255
-2.05373 -0.646371 5.77702 0 0 0 136 112 94 255
-2.081 -0.614947 5.79335 0 0 0 150 123 107 255
-2.04512 -0.611784 5.76088 0 0 0 128 91 73 255
0.767571 -0.393479 4.25909 0 0 0 157 174 121 255
-1.52145 -0.482816 5.8091 0 0 0 138 102 84 255
-0.0170901 -0.266362 4.27678 0 0 0 138 151 111 255
-1.56265 -0.268427 5.85076 0 0 0 138 124 111 255
0.0624742 -0.127762 4.29341 0 0 0 127 137 104 255
-0.111807 -0.11304 4.27609 0 0 0 144 159 123 255
-1.43405 -0.12135 5.87735 0 0 0 169 161 150 255
0.575914 -0.078494 4.32781 0 0 0 47 57 54 255
-1.89049 -0.0928242 5.85521 0 0 0 110 104 97 255
-0.42678 -0.0405797 4.30079 0 0 0 162 177 142 255
0.791855 -0.0604758 4.29208 0 0 0 142 156 117 255
-2.01694 -0.0817133 5.86585 0 0 0 152 152 152 255
0.00888288 -0.0406943 4.30225 0 0 0 83 88 61 255
-0.353839 0.00864687 4.26427 0 0 0 91 99 85 255
0.290495 -0.00237051 4.34156 0 0 0 162 179 121 255
0.469575 -0.0176437 4.34648 0 0 0 70 77 68 255
-1.37591 0.0131837 5.89223 0 0 0 39 39 39 255
-0.418241 0.050036 4.27851 0 0 0 157 177 139 255
0.80821 0.0525859 4.36898 0 0 0 151 161 115 255
-2.11573 0.0591602 5.9176 0 0 0 38 38 38 255
-2.06017 0.0607304 5.87145 0 0 0 40 37 37 255
-0.369804 0.104141 4.27625 0 0 0 62 68 65 255
0.239948 0.104645 4.3331 0 0 0 156 173 126 255
0.363116 0.089472 4.30886 0 0 0 152 168 112 255
-0.360713 0.143003 4.27356 0 0 0 57 69 62 255
-0.297566 0.145615 4.3027 0 0 0 163 185 137 255
0.246593 0.163215 4.33377 0 0 0 76 86 77 255
-0.275808 0.186506 4.30941 0 0 0 53 66 56 255
-2.00282 0.269004 5.93611 0 0 0 99 84 73 255
-0.402956 0.197915 4.26715 0 0 0 147 166 132 255
0.348749 0.200873 4.36198 0 0 0 160 179 118 255
-0.195684 0.215439 4.3023 0 0 0 57 60 54 255
-1.97745 0.297692 5.93523 0 0 0 40 38 37 255
0.609693 0.245623 4.38264 0 0 0 56 61 59 255
-2.06391 0.337392 5.88983 0 0 0 67 39 37 255
-2.12676 0.342464 5.83049 0 0 0 114 82 67 255
-0.403548 0.288226 4.33715 0 0 0 145 159 133 255
0.652743 0.297904 4.42013 0 0 0 154 169 121 255
-0.107827 0.289093 4.33949 0 0 0 73 88 74 255
0.279688 0.301447 4.36532 0 0 0 136 146 113 255
0.371163 0.325583 4.37599 0 0 0 146 160 116 255
-0.295141 0.331796 4.31561 0 0 0 130 145 107 255
-0.179472 0.352643 4.34059 0 0 0 168 178 140 255
-0.144303 0.343842 4.34716 0 0 0 163 178 130 255
-1.79809 0.489755 5.97674 0 0 0 129 101 77 255
-2.10275 0.508615 5.98917 0 0 0 53 50 42 255
-0.348254 0.435065 4.31556 0 0 0 170 172 171 255
-0.148639 0.428718 4.34615 0 0 0 136 138 140 255
-0.0880142 0.406415 4.33372 0 0 0 45 55 52 255
-0.44504 0.438471 4.33143 0 0 0 90 99 93 255
-2.14705 0.579682 5.79989 0 0 0 78 44 37 255
-1.83224 0.677506 5.9645 0 0 0 142 106 86 255
0.603639 0.541726 4.40892 0 0 0 192 199 199 255
-1.2924 0.720185 5.97834 0 0 0 109 88 79 255
0.748831 0.604999 4.45268 0 0 0 183 192 193 255
0.801471 0.599316 4.43435 0 0 0 138 141 141 255
-1.66801 0.832992 6.03285 0 0 0 147 121 98 255
-1.74086 0.867875 5.98047 0 0 0 146 114 92 255
0.236246 0.671338 4.40996 0 0 0 194 200 200 255
-1.86432 0.94282 5.99792 0 0 0 57 52 51 255
-1.50869 0.913088 5.95158 0 0 0 136 102 82 255
0.173552 0.690919 4.41381 0 0 0 156 161 159 255
-0.0486122 0.711751 4.37923 0 0 0 131 138 141 255
0.62506 0.716876 4.44122 0 0 0 192 200 199 255
-0.408598 0.752234 4.36018 0 0 0 72 83 80 255
0.313906 0.739928 4.3964 0 0 0 193 200 201 255
-0.492309 0.78731 4.37246 0 0 0 159 179 154 255
-0.18465 0.815583 4.38944 0 0 0 179 184 182 255
-0.453446 0.838661 4.40505 0 0 0 100 113 104 255
-0.0586402 0.844735 4.39381 0 0 0 193 200 200 255
0.0467534 0.850527 4.41069 0 0 0 188 193 196 255
0.287 0.898593 4.45356 0 0 0 115 120 123 255
0.00697889 0.89554 4.41745 0 0 0 102 111 112 255
0.575994 0.917618 4.46431 0 0 0 187 200 200 255
-0.51917 0.970569 4.47682 0 0 0 159 188 174 255
0.544632 0.957956 4.52718 0 0 0 194 203 203 255
-0.402026 0.976395 4.38852 0 0 0 79 85 82 255
-0.334219 0.987715 4.40164 0 0 0 195 202 200 255
-0.762511 1.56471 6.15715 0 0 0 178 183 181 255
0.714541 -0.719284 4.56127 0 0 0 92 105 108 255
-0.599774 -0.506659 4.26429 0 0 0 48 55 55 255
-2.09361 -0.613352 5.80114 0 0 0 173 161 147 255
-1.75277 -0.591761 5.80699 0 0 0 156 124 110 255
-1.6688 -0.601885 5.80599 0 0 0 145 100 81 255
-1.52744 -0.613118 5.82779 0 0 0 148 103 80 255
-1.8896 -0.580793 5.82047 0 0 0 135 92 75 255
0.770874 -0.391733 4.27185 0 0 0 161 179 124 255
-2.04231 -0.521141 5.81641 0 0 0 154 108 85 255
-1.49086 -0.472506 5.80377 0 0 0 168 142 128 255
-0.424435 -0.321589 4.21113 0 0 0 161 186 146 255
-0.24407 -0.254739 4.2524 0 0 0 102 110 89 255
-0.0393319 -0.264563 4.28182 0 0 0 85 89 70 255
0.0134773 -0.263038 4.27131 0 0 0 85 94 84 255
-1.85564 -0.375586 5.82387 0 0 0 146 99 78 255
0.571992 -0.228325 4.31985 0 0 0 85 93 78 255
-1.77895 -0.259777 5.79463 0 0 0 146 99 75 255
-1.44045 -0.306914 5.8427 0 0 0 138 106 91 255
-0.12927 -0.198505 4.28865 0 0 0 100 110 90 255
0.261381 -0.184601 4.29297 0 0 0 122 131 100 255
0.721108 -0.201717 4.33304 0 0 0 55 64 56 255
-0.0576849 -0.116506 4.28137 0 0 0 159 174 121 255
0.626183 -0.139401 4.33984 0 0 0 117 126 103 255
0.268078 -0.0783125 4.30598 0 0 0 63 73 67 255
0.0123423 -0.0111518 4.30954 0 0 0 72 74 46 255
0.303605 -0.0317811 4.31461 0 0 0 163 181 125 255
-1.33948 0.0147499 5.89558 0 0 0 39 38 38 255
-0.227861 0.00351406 4.29886 0 0 0 168 186 132 255
-1.51326 0.0544182 5.85758 0 0 0 37 37 37 255
0.248641 0.0471942 4.32321 0 0 0 61 68 66 255
0.387809 0.0478404 4.33637 0 0 0 59 67 55 255
-0.41701 0.0525914 4.27673 0 0 0 157 177 139 255
0.245287 0.119735 4.33196 0 0 0 157 170 120 255
0.354983 0.132005 4.3269 0 0 0 153 168 115 255
-2.04133 0.193873 5.8286 0 0 0 154 124 97 255
-0.283791 0.146401 4.29983 0 0 0 160 180 130 255
-0.115967 0.14594 4.29168 0 0 0 166 182 126 255
-0.386899 0.200989 4.27731 0 0 0 154 168 126 255
0.356668 0.185398 4.60846 0 0 0 162 181 122 255
0.552568 0.18936 4.34803 0 0 0 142 156 111 255
-0.202514 0.23115 4.29854 0 0 0 58 70 66 255
0.48991 0.205634 4.3798 0 0 0 154 166 122 255
0.611638 0.190638 4.3843 0 0 0 50 55 53 255
-0.413814 0.253544 4.46853 0 0 0 155 174 140 255
-0.155963 0.235548 4.33354 0 0 0 153 170 121 255
-0.199829 0.250912 4.29482 0 0 0 61 69 64 255
0.0166641 0.282632 4.32612 0 0 0 167 182 133 255
0.679941 0.28793 4.46415 0 0 0 159 174 119 255
-1.71157 0.409057 5.91599 0 0 0 40 34 32 255
-0.322662 0.361436 4.33471 0 0 0 111 123 100 255
-1.81171 0.48718 5.9736 0 0 0 130 102 80 255
0.498164 0.389889 4.3856 0 0 0 178 180 182 255
-2.06326 0.539909 5.94687 0 0 0 47 37 32 255
-0.0147301 0.419697 4.33899 0 0 0 183 188 186 255
-1.9911 0.619229 5.98332 0 0 0 48 43 41 255
0.615056 0.541618 4.41509 0 0 0 192 201 201 255
0.198065 0.560973 4.35195 0 0 0 191 199 198 255
-0.162157 0.59512 4.34692 0 0 0 190 199 199 255
0.386412 0.555835 4.38444 0 0 0 171 178 178 255
-1.66765 0.812684 6.01857 0 0 0 138 112 92 255
-0.372784 0.610148 4.3308 0 0 0 133 139 138 255
0.795515 0.631256 4.444 0 0 0 115 122 124 255
-1.62841 0.884993 6.00904 0 0 0 92 70 57 255
0.6093 0.727569 4.44075 0 0 0 149 155 158 255
-1.84228 0.935088 5.99069 0 0 0 54 51 52 255
-0.429529 0.697972 4.35754 0 0 0 61 64 63 255
-0.204447 0.739213 4.3777 0 0 0 125 134 136 255
0.703501 0.756239 4.45912 0 0 0 189 197 197 255
0.284238 0.753332 4.39856 0 0 0 194 201 204 255
-0.490341 0.831339 4.38136 0 0 0 166 193 162 255
-0.376937 0.831062 4.39091 0 0 0 101 106 101 255
0.0858146 0.82847 4.40415 0 0 0 194 204 203 255
-0.256504 0.878701 4.38382 0 0 0 191 201 199 255
-0.156776 0.857779 4.39963 0 0 0 113 115 116 255
-0.0686305 0.87828 4.42088 0 0 0 196 203 203 255
0.285564 0.923828 4.44924 0 0 0 114 123 126 255
0.55447 0.938281 4.4727 0 0 0 192 202 200 255
-0.53486 0.96419 4.5828 0 0 0 161 191 174 255
-0.322502 0.998918 4.41855 0 0 0 195 202 200 255
-0.153817 1.00599 4.43039 0 0 0 193 203 202 255
-1.30113 1.67206 6.80435 0 0 0 99 84 77 255
-1.67838 1.67887 6.62453 0 0 0 67 69 68 255
0.217751 -0.184361 4.2843 0 0 0 56 62 53 255
0.536505 -0.223602 4.33394 0 0 0 121 134 93 255
0.653418 -0.191974 4.32206 0 0 0 73 80 73 255
0.463759 -0.18453 4.33158 0 0 0 113 125 86 255
-0.0181109 -0.13366 4.28731 0 0 0 155 170 120 255
0.227352 -0.154222 4.30087 0 0 0 58 66 56 255
-0.174515 -0.112748 4.28573 0 0 0 91 102 89 255
0.78134 -0.108258 4.37734 0 0 0 64 76 67 255
-0.0246315 -0.0734107 4.30807 0 0 0 137 148 108 255
0.298503 -0.0729341 4.30935 0 0 0 141 152 128 255
-0.406408 -0.0263725 4.28965 0 0 0 161 182 136 255
-0.267576 -0.0295174 4.26448 0 0 0 168 186 132 255
0.774187 0.0025636 4.38345 0 0 0 70 77 73 255
-0.109038 0.0423869 4.30774 0 0 0 62 71 68 255
0.234195 0.113764 4.33188 0 0 0 150 167 120 255
0.457472 0.0885253 4.34958 0 0 0 53 60 57 255
-1.92603 0.209349 5.84117 0 0 0 142 111 87 255
-0.40395 0.243694 4.45981 0 0 0 161 181 144 255
0.301856 0.21156 4.37821 0 0 0 159 170 130 255
