ply
format ascii 1.0
comment VCGLIB generated
element vertex 1007
property float x
property float y
property float z
property float nx
property float ny
property float nz
property uchar red
property uchar green
property uchar blue
property uchar alpha
element face 0
property list uchar int vertex_indices
end_header
0.757702 0.892273 4.46268 0 0 0 136 146 145 255
0.170367 0.927119 4.42655 0 0 0 204 218 218 255
0.560892 0.918939 4.45366 0 0 0 200 216 220 255
0.828791 0.920451 4.46472 0 0 0 173 182 183 255
-0.603276 1.01491 4.63543 0 0 0 132 112 101 255
-0.115639 1.00095 4.41611 0 0 0 183 190 193 255
-0.649139 1.14516 5.08531 0 0 0 52 57 57 255
-2.7252 1.44857 6.08214 0 0 0 35 41 46 255
-2.54543 1.57981 6.07671 0 0 0 151 134 126 255
-2.65116 1.59279 6.01644 0 0 0 153 164 164 255
-2.35643 -0.764583 5.61631 0 0 0 81 49 53 255
-0.447922 -0.330856 4.28429 0 0 0 171 199 165 255
-1.23569 -0.643371 5.74277 0 0 0 154 120 107 255
-2.04638 -0.57233 5.70775 0 0 0 162 141 128 255
-1.43595 -0.605421 5.75398 0 0 0 157 121 106 255
-1.164 -0.602623 5.76331 0 0 0 147 113 101 255
-1.87076 -0.541028 5.74941 0 0 0 158 117 103 255
-1.16866 -0.573049 5.77504 0 0 0 153 119 111 255
-2.02005 -0.511895 5.72117 0 0 0 163 114 90 255
-1.17696 -0.346165 5.70235 0 0 0 152 120 109 255
0.018251 -0.139399 4.30094 0 0 0 173 194 140 255
-1.79493 -0.266335 5.77063 0 0 0 171 137 118 255
-1.48923 -0.305381 5.7831 0 0 0 173 155 143 255
-1.25653 -0.292385 5.78343 0 0 0 147 115 100 255
-1.31546 -0.279388 5.77559 0 0 0 148 112 95 255
-0.426772 -0.0685138 4.30966 0 0 0 169 196 155 255
-0.197483 -0.0406545 4.30356 0 0 0 128 143 114 255
-0.0236095 -0.0532235 4.31275 0 0 0 133 148 114 255
0.3125 -0.0289492 4.34514 0 0 0 173 196 138 255
0.458978 -0.0189264 4.34634 0 0 0 81 93 89 255
-0.277089 0.0183968 4.32968 0 0 0 174 201 149 255
-0.236898 0.00955057 4.29993 0 0 0 175 202 148 255
-0.21174 0.0136902 4.30341 0 0 0 176 198 145 255
-1.43592 -0.133518 5.79939 0 0 0 193 181 169 255
0.786941 0.0360728 4.37036 0 0 0 130 145 118 255
-0.963904 -0.0119745 5.85763 0 0 0 48 48 50 255
-0.752831 0.0648465 4.95342 0 0 0 46 46 46 255
0.361009 0.109332 4.34381 0 0 0 161 181 130 255
-1.94929 0.0548539 5.78513 0 0 0 46 46 46 255
-2.33461 0.0749594 6.03482 0 0 0 33 33 33 255
-1.68638 0.0899693 5.81601 0 0 0 40 40 40 255
-2.29952 0.169673 5.70922 0 0 0 134 98 75 255
-0.39104 0.221563 4.34642 0 0 0 169 195 159 255
0.360798 0.196504 4.35264 0 0 0 168 187 134 255
-0.143107 0.244948 4.34562 0 0 0 152 171 135 255
-0.396913 0.268621 4.34882 0 0 0 161 184 154 255
-0.0937058 0.270938 4.35114 0 0 0 85 97 93 255
0.295532 0.29667 4.37866 0 0 0 140 154 125 255
-0.168633 0.340584 4.36878 0 0 0 171 195 144 255
-0.128025 0.34618 4.34065 0 0 0 172 197 145 255
-2.11608 0.379544 5.8077 0 0 0 144 118 95 255
-2.64057 0.430297 6.08497 0 0 0 132 104 83 255
-1.82838 0.407769 5.8336 0 0 0 75 65 60 255
-0.439239 0.452173 4.34203 0 0 0 103 117 112 255
-1.43919 0.472799 5.8722 0 0 0 124 100 87 255
-0.162849 0.443733 4.3664 0 0 0 94 109 113 255
-0.0300966 0.432474 4.36823 0 0 0 70 84 90 255
-1.97728 0.571912 5.80674 0 0 0 57 45 41 255
-2.1749 0.635725 5.79087 0 0 0 123 62 46 255
0.617441 0.503441 4.41393 0 0 0 57 69 74 255
-1.50912 0.83487 5.86456 0 0 0 45 41 38 255
0.255132 0.656782 4.4014 0 0 0 206 219 224 255
0.330824 0.68032 4.41433 0 0 0 103 113 120 255
-0.571569 0.759758 4.67864 0 0 0 80 86 89 255
-0.418133 0.729061 4.38242 0 0 0 78 92 92 255
-1.51147 0.947311 5.88935 0 0 0 141 116 94 255
-1.38915 0.942197 5.88297 0 0 0 47 44 48 255
0.239428 0.775584 4.42251 0 0 0 191 205 212 255
0.861961 0.739166 4.45131 0 0 0 204 213 215 255
0.223005 0.831474 4.42772 0 0 0 190 207 214 255
-0.362728 0.871497 4.3997 0 0 0 120 125 130 255
-0.290719 0.892055 4.41376 0 0 0 204 221 222 255
-0.713338 1.00123 5.1205 0 0 0 88 72 72 255
0.824985 0.865555 4.46356 0 0 0 173 177 181 255
0.0359367 0.899707 4.41812 0 0 0 118 130 137 255
0.331944 0.906522 4.43822 0 0 0 110 127 135 255
-1.00524 1.17506 5.92317 0 0 0 142 116 101 255
-0.402315 0.996319 4.40515 0 0 0 92 106 106 255
0.122939 0.948386 4.43135 0 0 0 194 205 208 255
-2.70489 1.40875 6.14121 0 0 0 141 149 159 255
-1.29816 1.31715 5.9014 0 0 0 155 130 114 255
0.242618 1.03602 4.44767 0 0 0 171 186 188 255
-1.18526 1.54217 6.11669 0 0 0 134 119 113 255
-2.54361 1.59081 6.08487 0 0 0 146 137 135 255
0.166377 1.21811 4.46024 0 0 0 99 113 111 255
-1.0311 -0.590925 5.59758 0 0 0 171 157 151 255
0.144013 -0.240241 4.29483 0 0 0 77 87 83 255
0.209004 -0.218361 4.30232 0 0 0 85 99 92 255
0.532902 -0.20588 4.33132 0 0 0 95 108 99 255
0.136631 -0.199306 4.29921 0 0 0 89 102 93 255
-0.00573377 -0.144492 4.30574 0 0 0 174 197 137 255
0.242682 -0.16903 4.31037 0 0 0 71 82 77 255
-1.25872 -0.326917 5.77766 0 0 0 157 116 103 255
0.587528 -0.138535 4.33921 0 0 0 140 153 119 255
-0.0626199 -0.0691021 4.30749 0 0 0 153 173 132 255
0.245286 -0.097303 4.31434 0 0 0 60 73 68 255
-0.257258 -0.0197434 4.30643 0 0 0 175 202 148 255
-0.0299056 -0.0511059 4.31354 0 0 0 89 101 85 255
0.537135 0.0123372 4.34547 0 0 0 91 110 104 255
-2.31485 -0.023946 5.96144 0 0 0 206 191 172 255
-0.418836 0.15125 4.32839 0 0 0 85 100 95 255
-2.19834 0.100909 5.8757 0 0 0 33 33 33 255
-2.06133 0.102218 5.77396 0 0 0 36 35 38 255
0.31444 0.155684 4.36309 0 0 0 169 189 134 255
0.497634 0.194703 4.37107 0 0 0 152 165 131 255
-0.404355 0.237627 4.34439 0 0 0 158 181 152 255
0.22888 0.215828 4.34753 0 0 0 73 87 85 255
-2.09995 0.293186 5.79378 0 0 0 56 41 44 255
0.00450681 0.283738 4.35576 0 0 0 170 195 150 255
-0.32822 0.392001 4.35987 0 0 0 41 42 41 255
-2.11443 0.415688 5.81092 0 0 0 141 114 96 255
-1.81172 0.516088 5.82506 0 0 0 133 112 95 255
-1.67372 0.454143 5.83343 0 0 0 46 38 38 255
-1.22571 0.453989 5.85025 0 0 0 54 42 43 255
-2.20729 0.541318 5.79408 0 0 0 91 49 41 255
0.622747 0.497539 4.41396 0 0 0 55 65 69 255
0.196652 0.584495 4.38204 0 0 0 206 219 224 255
0.200417 0.63443 4.39254 0 0 0 206 219 224 255
-1.79279 0.893082 5.8414 0 0 0 58 49 44 255
0.598893 0.717648 4.43106 0 0 0 114 125 128 255
-1.51335 1.01437 5.88235 0 0 0 162 140 124 255
0.271729 0.780481 4.42423 0 0 0 206 221 225 255
0.341121 0.847135 4.43218 0 0 0 143 149 153 255
0.287748 0.87347 4.43258 0 0 0 112 122 126 255
-1.05711 1.1522 5.93785 0 0 0 138 120 108 255
-0.299345 1.02301 4.43722 0 0 0 166 175 176 255
-0.176109 1.01231 4.42532 0 0 0 186 199 201 255
2.5696 -2.68817 8.77415 0 0 0 87 87 87 255
-3.23696 -2.56025 8.63538 0 0 0 32 33 37 255
2.58773 -2.58428 8.83019 0 0 0 92 89 90 255
2.58539 -2.40678 8.78871 0 0 0 111 113 112 255
2.60329 -2.28901 8.85223 0 0 0 100 93 96 255
1.24 -0.652848 4.33256 0 0 0 106 108 108 255
-1.1489 -0.649579 5.74606 0 0 0 187 177 163 255
-1.14029 -0.653742 5.76218 0 0 0 175 168 154 255
-1.35973 -0.624048 5.71606 0 0 0 148 134 121 255
-1.31462 -0.609527 5.74652 0 0 0 183 166 157 255
-1.44421 -0.585504 5.76207 0 0 0 202 189 175 255
-1.31686 -0.55723 5.75641 0 0 0 201 189 175 255
-1.38081 -0.533483 5.76736 0 0 0 159 146 130 255
1.68067 -0.492409 5.51082 0 0 0 205 170 146 255
1.36512 -0.301211 4.6393 0 0 0 165 165 165 255
0.560911 -0.231912 4.32492 0 0 0 116 129 107 255
1.73054 -0.457125 5.53878 0 0 0 211 170 137 255
1.69542 -0.452749 5.54376 0 0 0 211 176 154 255
1.93713 -0.531817 6.09466 0 0 0 173 138 113 255
-0.0688504 -0.160147 4.30309 0 0 0 168 189 144 255
0.447934 -0.180178 4.32519 0 0 0 152 167 125 255
1.69607 -0.410791 5.54549 0 0 0 209 176 157 255
-0.116491 -0.157523 4.30623 0 0 0 105 118 107 255
0.433932 -0.172841 4.3217 0 0 0 149 160 122 255
1.92555 -0.455894 6.12395 0 0 0 188 174 168 255
0.0381278 -0.11224 4.31303 0 0 0 164 183 133 255
2.31292 -0.525898 7.20177 0 0 0 205 165 138 255
1.69661 -0.294224 5.58814 0 0 0 170 137 116 255
0.0304334 -0.0695487 4.31796 0 0 0 79 90 59 255
2.33099 -0.426392 7.24598 0 0 0 202 204 203 255
0.949033 -0.0498455 4.36011 0 0 0 81 88 84 255
-1.29137 -0.113349 5.79255 0 0 0 107 96 88 255
-1.29432 -0.0996219 5.70819 0 0 0 143 138 132 255
-1.12718 -0.104077 5.80361 0 0 0 131 123 111 255
-0.633025 0.0493556 4.50808 0 0 0 190 175 157 255
-0.370791 0.0657076 4.3124 0 0 0 154 175 129 255
0.562217 0.0320158 4.35153 0 0 0 69 81 66 255
0.550927 0.0435186 4.3533 0 0 0 103 115 104 255
0.759519 0.0452369 4.36979 0 0 0 52 59 50 255
0.770943 0.0566334 4.37027 0 0 0 68 80 74 255
-1.21647 0.03967 5.76642 0 0 0 111 105 99 255
0.782482 0.0663346 4.37123 0 0 0 63 73 65 255
-1.92192 0.0726942 5.76906 0 0 0 135 127 127 255
0.792459 0.0771239 4.36698 0 0 0 65 80 75 255
-0.120993 0.205271 4.34163 0 0 0 161 181 129 255
-0.320204 0.246395 4.34167 0 0 0 135 150 113 255
-0.23236 0.254461 4.34111 0 0 0 82 96 91 255
2.00893 0.151424 6.15796 0 0 0 128 155 160 255
0.000999059 0.305379 4.35955 0 0 0 143 157 131 255
-0.00898052 0.319669 4.35996 0 0 0 84 95 82 255
1.92066 0.2266 6.15364 0 0 0 143 160 161 255
-0.287868 0.342718 4.35442 0 0 0 139 152 127 255
-0.079831 0.360647 4.36038 0 0 0 130 140 118 255
-0.223363 0.373817 4.35948 0 0 0 72 84 80 255
1.92269 0.289371 6.15577 0 0 0 133 150 152 255
1.19573 0.333129 4.43035 0 0 0 90 95 101 255
1.95087 0.318026 6.1572 0 0 0 177 169 137 255
0.267239 0.37818 4.38075 0 0 0 56 67 70 255
1.10492 0.343927 4.42558 0 0 0 145 158 162 255
1.12902 0.354399 4.42763 0 0 0 49 57 61 255
0.116768 0.392997 4.37909 0 0 0 90 96 97 255
0.844651 0.367172 4.40674 0 0 0 128 128 130 255
0.0500703 0.40395 4.37096 0 0 0 42 50 56 255
1.12921 0.355512 4.42802 0 0 0 49 58 62 255
1.14108 0.358556 4.42861 0 0 0 132 146 148 255
0.289131 0.404806 4.38213 0 0 0 52 57 62 255
1.17435 0.36695 4.42951 0 0 0 73 73 75 255
1.19337 0.36247 4.43401 0 0 0 152 155 156 255
1.16262 0.37238 4.42837 0 0 0 94 100 104 255
0.856283 0.385353 4.4116 0 0 0 75 84 90 255
1.05469 0.373876 4.41973 0 0 0 116 130 130 255
1.13485 0.380361 4.427 0 0 0 92 100 105 255
0.300661 0.41763 4.38407 0 0 0 111 130 138 255
-0.594322 0.469062 4.57877 0 0 0 68 65 61 255
-0.638411 0.485048 4.72448 0 0 0 117 94 78 255
1.9288 0.412887 6.17002 0 0 0 176 185 191 255
-0.957848 0.54201 5.71081 0 0 0 106 98 92 255
0.994926 0.435768 4.42598 0 0 0 66 70 75 255
1.14752 0.430963 4.43929 0 0 0 106 114 122 255
1.19539 0.425887 4.43895 0 0 0 104 110 114 255
-2.06781 0.603385 5.66294 0 0 0 86 51 42 255
0.783874 0.448209 4.41542 0 0 0 80 88 91 255
1.1592 0.437867 4.43792 0 0 0 120 119 126 255
1.19973 0.440758 4.43803 0 0 0 91 91 95 255
1.14475 0.440615 4.43726 0 0 0 91 92 93 255
0.896721 0.455971 4.42036 0 0 0 89 103 101 255
0.514556 0.478846 4.4005 0 0 0 107 113 118 255
1.16792 0.491597 4.44254 0 0 0 199 199 199 255
1.19962 0.490372 4.44516 0 0 0 115 122 127 255
0.490281 0.529915 4.40531 0 0 0 140 153 157 255
1.03973 0.505108 4.43654 0 0 0 161 174 176 255
1.07235 0.502737 4.44354 0 0 0 180 183 186 255
-1.49393 0.748075 5.86176 0 0 0 76 57 48 255
-1.10882 0.743328 5.79932 0 0 0 76 59 47 255
0.717238 0.595773 4.42728 0 0 0 204 215 218 255
0.269104 0.623085 4.40428 0 0 0 164 168 169 255
1.01485 0.621625 4.44751 0 0 0 196 208 209 255
0.6588 0.667707 4.42931 0 0 0 151 162 165 255
-0.00254817 0.710833 4.40313 0 0 0 156 163 163 255
0.695478 0.719858 4.43872 0 0 0 195 209 209 255
-0.0624744 0.757343 4.40573 0 0 0 171 182 183 255
0.0165582 0.755255 4.41251 0 0 0 168 177 176 255
1.18599 0.715346 4.46727 0 0 0 195 201 201 255
2.0043 0.855758 6.20367 0 0 0 171 180 184 255
0.0295507 0.779297 4.41273 0 0 0 105 118 121 255
1.16003 0.736393 4.46672 0 0 0 162 162 162 255
0.842442 0.748603 4.44875 0 0 0 157 167 167 255
-0.428342 0.822254 4.40447 0 0 0 172 195 164 255
-1.84916 1.07534 5.77383 0 0 0 144 105 83 255
0.957699 0.778639 4.46156 0 0 0 184 191 193 255
1.94557 0.931378 6.19613 0 0 0 193 152 136 255
1.99337 0.92929 6.18323 0 0 0 203 162 148 255
1.3745 0.774501 4.58902 0 0 0 144 131 126 255
0.957284 0.787624 4.46194 0 0 0 170 181 184 255
-2.02092 1.10642 5.78681 0 0 0 120 84 74 255
1.36547 0.782557 4.5599 0 0 0 151 139 135 255
1.98797 0.950767 6.18394 0 0 0 202 185 185 255
0.433287 0.864612 4.44211 0 0 0 195 197 199 255
1.13522 0.835072 4.48013 0 0 0 145 152 154 255
0.996002 0.85352 4.47294 0 0 0 148 149 149 255
1.15367 0.876944 4.48607 0 0 0 170 189 196 255
0.806247 0.899035 4.46476 0 0 0 133 136 137 255
1.09974 0.900171 4.48421 0 0 0 105 108 110 255
1.15443 0.896229 4.48713 0 0 0 153 161 164 255
1.17626 0.989781 4.49573 0 0 0 137 134 135 255
1.22559 1.01627 4.49843 0 0 0 124 131 132 255
-0.544473 1.19764 4.50758 0 0 0 181 183 183 255
-1.45256 1.53454 5.83341 0 0 0 79 81 83 255
1.25867 -0.675836 4.42183 0 0 0 180 181 181 255
1.28398 -0.633404 4.43131 0 0 0 154 177 180 255
-1.18439 -0.572264 5.77172 0 0 0 157 133 121 255
-0.254237 -0.27652 4.28736 0 0 0 124 138 117 255
-0.068118 -0.267289 4.28702 0 0 0 176 200 137 255
0.912667 -0.285804 4.34595 0 0 0 134 143 122 255
0.582425 -0.254574 4.32243 0 0 0 173 192 136 255
1.36263 -0.301242 4.63396 0 0 0 165 165 165 255
0.276041 -0.197864 4.31857 0 0 0 140 151 119 255
-1.60693 -0.319614 5.79046 0 0 0 140 124 111 255
1.92589 -0.460298 6.12044 0 0 0 208 192 185 255
0.0723814 -0.150044 4.30801 0 0 0 94 104 95 255
-1.38984 -0.252178 5.7907 0 0 0 157 129 118 255
-1.34602 -0.254431 5.76705 0 0 0 188 171 156 255
1.40586 -0.187475 4.7393 0 0 0 200 171 149 255
1.52322 -0.213584 5.08508 0 0 0 165 140 124 255
-0.428085 -0.0238817 4.31809 0 0 0 147 162 138 255
2.3245 -0.430987 7.23479 0 0 0 203 164 133 255
0.951229 -0.0456798 4.36153 0 0 0 84 92 81 255
-0.419004 0.0369229 4.32514 0 0 0 173 200 157 255
-0.123937 0.325816 4.34709 0 0 0 168 172 148 255
-0.0811076 0.358543 4.35984 0 0 0 130 140 118 255
1.19419 0.432152 4.43801 0 0 0 101 108 111 255
1.14942 0.434788 4.43915 0 0 0 94 101 110 255
-0.630853 0.533714 4.68772 0 0 0 118 98 87 255
-1.19875 0.635736 5.84479 0 0 0 146 119 98 255
1.04702 0.502985 4.43811 0 0 0 163 173 176 255
0.717232 0.59577 4.42722 0 0 0 204 215 218 255
-1.99113 1.05759 5.79287 0 0 0 124 75 66 255
1.36602 0.77147 4.55956 0 0 0 194 167 166 255
1.36727 0.767195 4.55921 0 0 0 182 151 148 255
1.15164 0.880441 4.48621 0 0 0 170 189 196 255
0.612211 0.914147 4.45216 0 0 0 152 158 157 255
0.498214 0.956527 4.45563 0 0 0 162 176 179 255
1.07108 0.941004 4.48606 0 0 0 115 116 122 255
-0.994355 1.3188 5.87827 0 0 0 58 59 60 255
1.22214 1.01824 4.49641 0 0 0 123 132 131 255
1.35683 1.02188 4.50135 0 0 0 211 204 205 255
2.59 -2.39451 8.80984 0 0 0 93 91 92 255
2.63306 -2.34458 8.95476 0 0 0 100 91 94 255
1.25797 -0.660756 4.4237 0 0 0 79 81 83 255
-1.14047 -0.657362 5.76386 0 0 0 175 168 154 255
-0.850805 -0.483612 5.01578 0 0 0 203 182 173 255
-0.464707 -0.339156 4.28306 0 0 0 132 146 129 255
-1.32321 -0.584027 5.70363 0 0 0 203 192 178 255
-1.1979 -0.580102 5.71583 0 0 0 203 189 179 255
-0.867218 -0.468405 5.09665 0 0 0 201 191 177 255
-1.78859 -0.503036 5.75018 0 0 0 160 140 124 255
-0.0645818 -0.266138 4.28853 0 0 0 175 198 138 255
0.732998 -0.222735 4.33525 0 0 0 135 149 119 255
1.36691 -0.298311 4.64509 0 0 0 172 174 175 255
0.535465 -0.125787 4.33354 0 0 0 90 97 73 255
1.86709 -0.382006 6.08968 0 0 0 200 182 171 255
1.38495 -0.176338 4.69535 0 0 0 186 175 166 255
1.6825 -0.267116 5.55036 0 0 0 185 130 87 255
2.33733 -0.438951 7.25828 0 0 0 200 203 203 255
-1.74457 -0.112015 5.78438 0 0 0 120 111 97 255
-1.7104 -0.110541 5.78995 0 0 0 124 117 104 255
0.0246092 0.00261184 4.3265 0 0 0 101 114 101 255
-0.422392 0.0336874 4.3241 0 0 0 172 193 165 255
-0.0148437 0.0215432 4.31993 0 0 0 52 69 63 255
-0.636453 0.0368771 4.44582 0 0 0 194 179 159 255
-2.23331 0.0342896 5.72164 0 0 0 204 188 169 255
-2.22902 0.104689 5.72631 0 0 0 33 32 33 255
-0.0794925 0.133652 4.33196 0 0 0 141 155 125 255
0.471707 0.164291 4.36786 0 0 0 68 79 75 255
0.841505 0.178672 4.38517 0 0 0 105 116 104 255
-0.339388 0.23275 4.33574 0 0 0 168 188 149 255
-1.95856 0.285751 5.77136 0 0 0 145 118 94 255
0.7697 0.277009 4.39955 0 0 0 124 136 108 255
-2.04483 0.462564 5.8017 0 0 0 60 45 41 255
1.17656 0.346946 4.42871 0 0 0 130 133 132 255
1.19512 0.357371 4.4516 0 0 0 135 132 133 255
0.845864 0.385028 4.40747 0 0 0 54 63 70 255
-1.66791 0.599201 5.82983 0 0 0 109 84 68 255
1.15478 0.437925 4.4395 0 0 0 119 124 132 255
0.784102 0.448587 4.41546 0 0 0 83 90 94 255
1.06425 0.504914 4.43832 0 0 0 180 181 185 255
1.19277 0.494047 4.44551 0 0 0 114 122 130 255
0.612131 0.603819 4.42338 0 0 0 203 216 219 255
1.0158 0.608492 4.44629 0 0 0 202 211 212 255
-1.71112 0.865422 5.79243 0 0 0 144 119 95 255
-1.68444 0.940421 5.83442 0 0 0 62 58 60 255
-0.0356625 0.754007 4.40778 0 0 0 188 201 203 255
0.247527 0.759393 4.42213 0 0 0 141 154 156 255
-1.98883 1.06042 5.79305 0 0 0 124 75 66 255
-0.218905 0.825834 4.41317 0 0 0 187 194 196 255
1.37518 0.780617 4.57455 0 0 0 186 170 173 255
0.0997851 0.848251 4.42159 0 0 0 205 220 222 255
0.934513 0.817171 4.46372 0 0 0 92 108 109 255
-0.137876 0.940398 4.41836 0 0 0 125 133 134 255
-0.128953 0.980754 4.4167 0 0 0 194 210 214 255
-1.07531 1.28684 5.87729 0 0 0 116 102 93 255
-0.992786 1.32116 5.88096 0 0 0 61 61 61 255
1.21874 1.00793 4.49573 0 0 0 126 133 134 255
-0.778274 1.34074 5.33172 0 0 0 98 79 81 255
0.849034 1.08271 4.48799 0 0 0 127 144 134 255
-1.11511 1.47549 5.90574 0 0 0 79 70 66 255
-0.542198 1.19431 4.48091 0 0 0 190 197 197 255
-0.610934 -0.490448 4.30991 0 0 0 45 49 50 255
0.725351 -0.220245 4.33361 0 0 0 116 126 107 255
-1.15535 -0.278915 5.66866 0 0 0 151 122 106 255
0.0436424 -0.126272 4.30927 0 0 0 163 181 130 255
-0.021073 -0.0237161 4.31859 0 0 0 105 117 99 255
0.537842 0.0318017 4.35032 0 0 0 99 112 105 255
0.953599 0.0539634 4.37482 0 0 0 121 135 116 255
-0.308602 0.135563 4.32913 0 0 0 163 185 139 255
0.97198 0.14935 4.39037 0 0 0 100 112 103 255
0.353518 0.185665 4.3522 0 0 0 171 190 131 255
-0.153166 0.256652 4.34914 0 0 0 150 165 128 255
-2.04316 0.471355 5.80553 0 0 0 68 53 46 255
-1.56547 0.428338 5.82849 0 0 0 125 99 76 255
1.17156 0.347192 4.4286 0 0 0 91 97 96 255
0.970902 0.525601 4.43435 0 0 0 203 215 215 255
1.1611 0.507451 4.4434 0 0 0 202 203 203 255
0.906884 0.578713 4.43739 0 0 0 168 169 169 255
-1.39404 0.913074 5.85456 0 0 0 60 53 47 255
1.16192 0.704754 4.46417 0 0 0 202 211 211 255
-0.197666 0.824666 4.40848 0 0 0 187 193 195 255
0.963815 0.775454 4.46187 0 0 0 204 214 214 255
-0.298268 0.83606 4.40486 0 0 0 119 132 136 255
-0.133462 0.835309 4.40725 0 0 0 126 137 140 255
0.915768 0.800664 4.45795 0 0 0 105 114 117 255
-0.0754565 0.863802 4.42112 0 0 0 206 220 221 255
0.611771 0.929636 4.45328 0 0 0 202 213 215 255
0.888435 1.01544 4.4837 0 0 0 158 165 163 255
-1.71342 1.39065 5.67599 0 0 0 102 82 77 255
-0.402247 1.07838 4.41858 0 0 0 66 76 81 255
-0.442156 -0.345766 4.29116 0 0 0 173 197 160 255
-1.29799 -0.286831 5.70913 0 0 0 146 118 100 255
-0.0841697 -0.112523 4.31441 0 0 0 155 176 122 255
0.588314 -0.0526296 4.34375 0 0 0 54 63 60 255
-1.38294 -0.11667 5.77404 0 0 0 164 154 142 255
0.45536 -0.00319879 4.34709 0 0 0 66 76 70 255
-0.653256 0.0471781 4.55722 0 0 0 191 176 159 255
-0.398557 0.0553678 4.33066 0 0 0 173 198 153 255
-1.37852 0.0211844 5.80758 0 0 0 45 45 45 255
0.155848 0.1207 4.34138 0 0 0 91 101 82 255
-1.74218 0.0920627 5.80405 0 0 0 45 42 41 255
0.260431 0.159399 4.35147 0 0 0 108 119 98 255
0.97309 0.151636 4.39049 0 0 0 99 111 102 255
-0.15614 0.221719 4.34483 0 0 0 168 189 141 255
0.26658 0.203703 4.35613 0 0 0 68 80 76 255
0.468125 0.202034 4.37593 0 0 0 163 175 139 255
-2.06941 0.311745 5.77744 0 0 0 60 44 42 255
0.623891 0.238854 4.38151 0 0 0 50 65 60 255
0.887013 0.247837 4.38956 0 0 0 162 178 131 255
-0.241144 0.437369 4.36559 0 0 0 144 142 143 255
-2.11896 0.592518 5.65909 0 0 0 120 64 46 255
-0.291841 0.438185 4.36182 0 0 0 79 90 93 255
-1.90867 0.588602 5.79513 0 0 0 56 46 40 255
-1.7954 0.674121 5.79736 0 0 0 143 113 89 255
-1.72303 0.696825 5.82192 0 0 0 83 68 52 255
0.408282 0.593908 4.41429 0 0 0 176 186 186 255
-1.61926 0.781365 5.83835 0 0 0 154 132 114 255
-1.66421 0.825986 5.83975 0 0 0 177 144 114 255
0.96859 0.624772 4.44358 0 0 0 109 112 115 255
-1.51386 0.879506 5.85316 0 0 0 83 76 76 255
0.718587 0.626487 4.42896 0 0 0 187 190 190 255
1.17405 0.696225 4.46502 0 0 0 205 212 212 255
0.307985 0.765852 4.41552 0 0 0 205 220 222 255
-0.512005 0.819968 4.41483 0 0 0 170 204 186 255
1.09166 0.737678 4.46688 0 0 0 110 117 118 255
-0.14641 0.867996 4.41223 0 0 0 121 134 136 255
0.920645 0.803274 4.45939 0 0 0 98 108 111 255
-0.289721 0.880825 4.41104 0 0 0 205 221 220 255
-0.0591095 0.88449 4.41752 0 0 0 207 220 220 255
-0.941985 1.13945 5.77359 0 0 0 142 117 101 255
-1.09849 1.41889 5.90841 0 0 0 63 61 60 255
-0.55202 1.2066 4.46923 0 0 0 188 195 193 255
-0.591103 -0.491729 4.3191 0 0 0 45 48 50 255
-0.432702 -0.310154 4.29197 0 0 0 174 202 160 255
0.144522 -0.255138 4.29773 0 0 0 80 91 82 255
0.49933 -0.191232 4.32468 0 0 0 77 88 71 255
0.689494 -0.186348 4.32882 0 0 0 66 76 73 255
0.15486 -0.174967 4.30137 0 0 0 64 77 73 255
0.452837 -0.175372 4.32568 0 0 0 143 158 116 255
-0.433109 -0.109156 4.30849 0 0 0 175 200 155 255
0.608232 -0.139736 4.33407 0 0 0 121 133 112 255
-0.0537021 -0.0911333 4.31478 0 0 0 173 198 141 255
0.799241 -0.0936884 4.3526 0 0 0 144 158 121 255
-0.696328 0.0185053 4.59001 0 0 0 194 178 161 255
-0.153006 0.015791 4.32137 0 0 0 86 102 90 255
0.932584 0.0302134 4.38207 0 0 0 114 126 111 255
-0.149284 0.164009 4.33425 0 0 0 163 186 131 255
0.273127 0.156466 4.35484 0 0 0 162 180 135 255
-1.926 0.220623 5.79596 0 0 0 157 132 108 255
0.238832 0.200842 4.35192 0 0 0 51 61 58 255
0.843202 0.239678 4.39429 0 0 0 171 192 136 255
-1.77801 0.426706 5.81149 0 0 0 130 111 95 255
-1.6721 0.425379 5.83476 0 0 0 70 59 51 255
-1.21219 0.629662 5.78302 0 0 0 144 117 97 255
-1.6562 0.753158 5.84402 0 0 0 154 125 100 255
0.183817 0.588843 4.38774 0 0 0 205 220 222 255
0.628972 0.575032 4.42448 0 0 0 206 220 222 255
0.384374 0.610933 4.41063 0 0 0 178 188 188 255
0.7666 0.636146 4.43286 0 0 0 139 147 150 255
0.952685 0.643767 4.44643 0 0 0 128 123 125 255
-0.514739 0.863929 4.42917 0 0 0 173 211 189 255
-0.707624 0.935048 4.88867 0 0 0 124 110 98 255
-0.0926122 0.837427 4.41595 0 0 0 165 174 175 255
0.299093 0.892912 4.43804 0 0 0 123 136 138 255
-0.673384 -0.413951 4.4626 0 0 0 200 188 172 255
-0.721977 -0.421338 4.5843 0 0 0 144 119 105 255
-0.651639 -0.383018 4.4613 0 0 0 49 49 49 255
-0.708065 -0.40222 4.59937 0 0 0 146 101 79 255
-1.27517 -0.551685 5.7495 0 0 0 193 177 162 255
-0.698606 -0.360507 4.58419 0 0 0 178 170 165 255
-0.727981 -0.3503 4.61406 0 0 0 159 140 128 255
-1.65616 -0.506093 5.76437 0 0 0 153 129 119 255
-0.652281 -0.306493 4.43059 0 0 0 194 183 169 255
-1.50219 -0.458774 5.78258 0 0 0 148 111 93 255
3.14672 -1.06552 8.81739 0 0 0 216 166 140 255
1.8684 -0.589472 6.07028 0 0 0 216 173 146 255
2.00342 -0.597915 6.08854 0 0 0 213 170 140 255
1.76459 -0.577057 6.05481 0 0 0 210 171 143 255
2.75121 -0.910013 8.03801 0 0 0 206 182 173 255
1.81148 -0.556664 6.05942 0 0 0 213 178 162 255
1.91806 -0.356532 4.78513 0 0 0 205 164 133 255
1.91091 -0.550758 6.07553 0 0 0 219 185 167 255
1.95629 -0.555705 6.08685 0 0 0 214 172 146 255
3.26545 -1.04891 9.17755 0 0 0 215 161 127 255
1.44354 -0.367059 5.01282 0 0 0 190 158 138 255
1.72236 -0.533673 6.05173 0 0 0 203 162 140 255
2.09378 -0.550157 6.10093 0 0 0 186 170 167 255
0.0903745 -0.212563 4.29306 0 0 0 73 85 67 255
0.94886 -0.241538 4.3332 0 0 0 162 167 140 255
3.35831 -1.0032 9.17296 0 0 0 170 154 147 255
1.69634 -0.494946 6.05376 0 0 0 183 134 100 255
1.93771 -0.512622 6.08277 0 0 0 189 139 102 255
2.06758 -0.524634 6.09558 0 0 0 180 145 124 255
1.87582 -0.493393 6.07785 0 0 0 198 174 159 255
1.76812 -0.310834 4.7405 0 0 0 205 200 202 255
1.4382 -0.100494 3.30349 0 0 0 207 200 200 255
0.554855 -0.212161 4.32091 0 0 0 70 78 68 255
1.77088 -0.482147 6.05774 0 0 0 203 200 201 255
2.00866 -0.496057 6.09209 0 0 0 202 195 195 255
2.08094 -0.496643 6.09553 0 0 0 219 180 159 255
1.97953 -0.350877 5.0494 0 0 0 200 189 186 255
-1.24137 -0.335931 5.76697 0 0 0 191 167 152 255
1.7251 -0.471433 6.05157 0 0 0 202 188 183 255
1.82694 -0.479137 6.06832 0 0 0 202 196 196 255
0.0255224 -0.152944 4.30326 0 0 0 134 149 110 255
2.83063 -0.621856 7.82644 0 0 0 203 193 190 255
1.46204 -0.0528275 3.43216 0 0 0 221 199 191 255
2.07568 -0.403966 6.11938 0 0 0 210 172 149 255
2.24683 -0.410782 6.13996 0 0 0 210 190 183 255
1.77421 -0.37449 6.07636 0 0 0 193 180 175 255
1.94599 -0.382871 6.09898 0 0 0 204 175 157 255
4.33638 -1.27262 13.1736 0 0 0 185 150 130 255
1.8617 -0.357519 6.08736 0 0 0 174 140 114 255
1.98829 -0.36651 6.10768 0 0 0 179 143 115 255
2.05102 -0.369121 6.11594 0 0 0 179 142 118 255
2.00732 -0.255399 5.13097 0 0 0 182 161 153 255
1.69574 -0.119056 4.03801 0 0 0 188 141 111 255
0.52371 -0.108342 4.32941 0 0 0 156 172 128 255
1.36652 -0.173308 4.7231 0 0 0 194 190 189 255
1.77669 -0.338452 6.0759 0 0 0 212 206 206 255
3.0367 -0.673606 9.00227 0 0 0 187 141 113 255
1.73574 -0.306919 6.06873 0 0 0 181 138 109 255
1.8602 -0.305671 6.08554 0 0 0 188 136 99 255
2.08538 -0.308941 6.12142 0 0 0 206 170 147 255
2.27291 -0.309335 6.14806 0 0 0 199 195 194 255
-0.694282 -0.0512399 4.6155 0 0 0 197 183 164 255
1.95121 -0.297066 6.10238 0 0 0 202 186 175 255
1.34855 -0.137029 4.63262 0 0 0 187 188 190 255
1.7709 -0.275388 6.07758 0 0 0 204 203 206 255
-1.22816 -0.116645 5.73558 0 0 0 97 91 84 255
1.77074 -0.0795356 4.31315 0 0 0 217 195 190 255
-0.693589 -0.0174763 4.61995 0 0 0 194 180 167 255
0.412395 -0.0423778 4.33278 0 0 0 167 181 131 255
0.502417 -0.0348397 4.33426 0 0 0 77 85 75 255
0.399946 -0.0264136 4.32945 0 0 0 138 157 110 255
0.423383 -0.0254526 4.33479 0 0 0 82 93 62 255
-0.6663 -0.00217713 4.57022 0 0 0 181 170 154 255
0.518661 -0.0217116 4.33648 0 0 0 117 124 110 255
0.565674 -0.0238979 4.34043 0 0 0 59 66 57 255
-1.97754 -0.0441638 5.76398 0 0 0 166 158 147 255
0.595168 -0.00660139 4.34628 0 0 0 100 109 94 255
2.23335 -0.161472 6.15603 0 0 0 201 169 134 255
0.525548 0.0649584 4.35557 0 0 0 93 103 100 255
-0.172813 0.270702 4.35309 0 0 0 99 108 97 255
2.15052 0.302524 6.17691 0 0 0 170 164 159 255
1.1643 0.335404 4.41908 0 0 0 145 149 149 255
1.17444 0.328689 4.41847 0 0 0 43 45 47 255
1.13896 0.343207 4.41871 0 0 0 150 159 158 255
0.827164 0.366664 4.40475 0 0 0 105 115 119 255
2.10677 0.349342 6.17896 0 0 0 170 166 160 255
0.805349 0.371719 4.40133 0 0 0 43 53 52 255
-0.60136 0.425469 4.46954 0 0 0 141 113 94 255
0.686119 0.389123 4.39818 0 0 0 103 107 107 255
0.714489 0.386324 4.39771 0 0 0 80 84 84 255
0.756744 0.391449 4.39987 0 0 0 93 101 108 255
0.0787727 0.434579 4.37628 0 0 0 126 126 127 255
0.180299 0.430793 4.37749 0 0 0 112 113 113 255
0.515889 0.411537 4.39299 0 0 0 159 162 164 255
2.19883 0.396959 6.19779 0 0 0 125 137 130 255
1.15775 0.422187 4.42849 0 0 0 59 62 68 255
-0.705751 0.519742 4.86612 0 0 0 87 66 55 255
-0.662803 0.526759 4.74869 0 0 0 136 113 100 255
0.483873 0.485153 4.4003 0 0 0 88 94 97 255
-0.661733 0.808605 4.75443 0 0 0 93 72 59 255
2.26831 0.908501 6.23497 0 0 0 204 161 143 255
2.09481 0.915518 6.22271 0 0 0 195 154 139 255
2.21467 0.937016 6.25489 0 0 0 199 180 181 255
1.80339 0.959277 6.19049 0 0 0 199 166 161 255
2.26502 0.944471 6.23641 0 0 0 209 176 168 255
1.852 0.967018 6.19093 0 0 0 200 154 144 255
1.79646 0.985895 6.1906 0 0 0 174 150 150 255
-0.00259091 0.912854 4.42776 0 0 0 111 119 120 255
2.14542 1.49731 5.72475 0 0 0 200 201 201 255
1.03775 1.34814 4.52955 0 0 0 118 119 125 255
0.431055 1.37668 4.49824 0 0 0 155 158 157 255
0.794275 1.36472 4.5132 0 0 0 173 175 177 255
0.823794 1.36406 4.52515 0 0 0 97 107 109 255
0.894917 1.36077 4.52109 0 0 0 159 161 165 255
0.93935 1.36013 4.53191 0 0 0 157 158 162 255
0.956274 1.35739 4.52488 0 0 0 136 139 143 255
0.990473 1.35482 4.51988 0 0 0 126 137 142 255
1.02405 1.35393 4.52703 0 0 0 148 163 166 255
0.459795 1.38326 4.50567 0 0 0 163 170 175 255
0.499381 1.37963 4.50179 0 0 0 128 138 146 255
0.522611 1.37882 4.50579 0 0 0 121 135 140 255
0.594163 1.37758 4.5062 0 0 0 160 169 174 255
0.638789 1.3723 4.50219 0 0 0 154 164 165 255
0.65445 1.37814 4.51791 0 0 0 135 142 145 255
0.724438 1.37361 4.50633 0 0 0 146 154 159 255
0.763548 1.3688 4.50649 0 0 0 168 179 182 255
0.407349 1.39172 4.50671 0 0 0 83 82 85 255
0.418905 1.38621 4.50465 0 0 0 84 82 87 255
0.811129 1.3746 4.51494 0 0 0 90 90 92 255
0.855729 1.37257 4.51682 0 0 0 83 84 88 255
0.971213 1.3714 4.52533 0 0 0 91 92 94 255
0.727608 1.37626 4.50868 0 0 0 149 151 152 255
0.840225 1.37237 4.49497 0 0 0 135 139 138 255
0.895024 1.37968 4.52038 0 0 0 153 158 158 255
0.936118 1.37437 4.52308 0 0 0 144 143 145 255
0.954945 1.37484 4.51788 0 0 0 166 180 182 255
1.0406 1.37499 4.53472 0 0 0 184 184 184 255
0.407198 1.40056 4.50576 0 0 0 83 82 85 255
0.41354 1.3949 4.4821 0 0 0 81 85 88 255
0.476081 1.39661 4.50026 0 0 0 82 86 85 255
0.516547 1.395 4.50379 0 0 0 99 99 99 255
0.793878 1.37986 4.51196 0 0 0 179 178 178 255
0.869159 1.38282 4.51687 0 0 0 134 136 140 255
1.00313 1.37948 4.53279 0 0 0 176 178 182 255
0.535515 1.40144 4.50254 0 0 0 157 157 158 255
0.569871 1.40411 4.50903 0 0 0 160 159 160 255
0.590338 1.40565 4.50642 0 0 0 145 148 151 255
0.655756 1.39708 4.50923 0 0 0 171 177 177 255
0.706844 1.3929 4.50607 0 0 0 186 193 193 255
0.750002 1.39481 4.51249 0 0 0 130 141 145 255
0.773046 1.39067 4.51095 0 0 0 179 179 179 255
0.843372 1.38506 4.51288 0 0 0 163 170 170 255
0.388669 1.41104 4.50363 0 0 0 160 160 160 255
0.432253 1.41092 4.48958 0 0 0 156 167 170 255
0.463308 1.41412 4.50594 0 0 0 160 162 163 255
0.502068 1.40849 4.49891 0 0 0 166 170 171 255
1.26083 -0.631328 4.33474 0 0 0 194 196 196 255
-0.665506 -0.421138 4.41877 0 0 0 203 189 173 255
-0.653767 -0.383083 4.46334 0 0 0 49 49 49 255
-1.09625 -0.545545 5.48438 0 0 0 171 143 128 255
-0.712766 -0.385833 4.62877 0 0 0 174 169 169 255
-1.83723 -0.489144 5.75114 0 0 0 165 129 111 255
1.76053 -0.572166 6.05407 0 0 0 210 171 143 255
1.9975 -0.589072 6.08858 0 0 0 208 174 155 255
2.76355 -0.91375 8.07471 0 0 0 206 182 173 255
1.93537 -0.557368 6.08293 0 0 0 203 161 132 255
2.09448 -0.543283 6.1009 0 0 0 205 194 191 255
1.44556 -0.37093 5.02128 0 0 0 207 182 168 255
4.80621 -1.76493 14.4874 0 0 0 205 200 202 255
0.554203 -0.211896 4.32103 0 0 0 70 78 68 255
2.06761 -0.496416 6.09701 0 0 0 205 194 190 255
1.95625 -0.35369 5.03463 0 0 0 213 195 191 255
2.0625 -0.397806 6.11704 0 0 0 210 176 156 255
1.75341 -0.378318 6.07219 0 0 0 205 192 186 255
1.86325 -0.359281 6.08694 0 0 0 184 135 104 255
-0.181931 -0.0666996 4.30802 0 0 0 164 176 130 255
1.35621 -0.160961 4.68633 0 0 0 186 188 189 255
1.85613 -0.32696 6.08641 0 0 0 189 133 93 255
-0.674767 -0.0612742 4.57302 0 0 0 199 182 160 255
1.81766 -0.295581 6.07761 0 0 0 185 172 167 255
2.08477 -0.316888 6.12213 0 0 0 206 170 150 255
2.17235 -0.309086 6.12581 0 0 0 209 187 174 255
2.26448 -0.315068 6.14701 0 0 0 217 199 192 255
1.8308 -0.289482 6.08212 0 0 0 208 210 211 255
-0.685847 -0.00630459 4.6042 0 0 0 193 180 164 255
0.811374 0.0287231 4.36027 0 0 0 142 151 120 255
-0.341703 0.119358 4.3359 0 0 0 156 171 135 255
0.504523 0.132659 4.3549 0 0 0 83 92 93 255
-2.05214 0.173295 5.8091 0 0 0 127 96 74 255
1.32721 0.111487 4.46978 0 0 0 187 189 188 255
0.567894 0.164921 4.36087 0 0 0 50 62 58 255
2.32409 0.111135 6.20287 0 0 0 190 203 212 255
2.25686 0.339191 6.19305 0 0 0 153 181 193 255
-0.593741 0.4163 4.42311 0 0 0 137 109 89 255
-0.371928 0.437922 4.36191 0 0 0 49 51 53 255
0.704281 0.399509 4.3975 0 0 0 58 62 65 255
2.03581 0.5709 6.19707 0 0 0 181 181 130 255
-1.19575 0.737392 5.87399 0 0 0 142 120 105 255
0.399454 0.566079 4.41117 0 0 0 129 131 132 255
1.96924 0.720124 6.18505 0 0 0 144 158 142 255
2.26901 0.907603 6.24111 0 0 0 204 161 143 255
1.75462 0.943285 6.09819 0 0 0 208 179 173 255
0.56614 1.37835 4.50516 0 0 0 159 167 168 255
0.408964 1.39049 4.50085 0 0 0 83 82 85 255
0.430111 1.38385 4.50021 0 0 0 125 127 127 255
0.841734 1.37775 4.51202 0 0 0 176 184 183 255
1.03486 1.37133 4.53311 0 0 0 151 151 151 255
0.383137 1.39325 4.50269 0 0 0 120 128 137 255
0.708427 1.39368 4.51047 0 0 0 186 193 193 255
0.769992 1.38111 4.51268 0 0 0 188 189 190 255
0.418307 1.41752 4.50216 0 0 0 93 108 117 255
0.500171 1.40805 4.50062 0 0 0 166 170 171 255
1.21628 -0.637309 4.31523 0 0 0 81 86 88 255
-1.96047 -0.671054 5.71754 0 0 0 198 181 164 255
-0.668201 -0.421415 4.42361 0 0 0 203 189 173 255
-1.72769 -0.614996 5.75341 0 0 0 159 135 115 255
-1.23315 -0.532845 5.752 0 0 0 159 138 127 255
-1.78624 -0.521881 5.75042 0 0 0 191 175 162 255
1.7628 -0.571658 6.05457 0 0 0 210 171 143 255
2.00195 -0.586725 6.08952 0 0 0 208 174 155 255
2.80787 -0.900353 8.2033 0 0 0 217 189 171 255
-1.36025 -0.362841 5.76682 0 0 0 147 133 116 255
1.62042 -0.419178 5.71556 0 0 0 203 190 185 255
3.07992 -0.794784 9.13089 0 0 0 210 174 156 255
0.772124 -0.140512 4.34319 0 0 0 84 93 84 255
1.74581 -0.372983 6.07123 0 0 0 203 187 179 255
1.86747 -0.323165 6.0854 0 0 0 191 134 90 255
-0.669285 -0.0665308 4.55576 0 0 0 196 182 161 255
2.08362 -0.315544 6.12197 0 0 0 206 170 150 255
1.34822 -0.154924 4.66356 0 0 0 98 100 99 255
1.7437 -0.276742 6.06854 0 0 0 216 185 164 255
1.85981 -0.28211 6.08562 0 0 0 212 174 156 255
-0.66807 -0.0308571 4.56549 0 0 0 101 95 88 255
-1.74509 -0.0828524 5.78305 0 0 0 130 110 98 255
0.814926 -0.0520588 4.35314 0 0 0 167 183 136 255
-0.33089 0.121328 4.33803 0 0 0 166 182 138 255
2.08363 -0.00651259 6.15339 0 0 0 196 183 178 255
1.32836 0.118091 4.47433 0 0 0 181 194 194 255
-0.363194 0.194301 4.33383 0 0 0 174 193 149 255
-0.275597 0.246269 4.34778 0 0 0 48 60 58 255
2.31749 0.114674 6.20126 0 0 0 190 204 213 255
2.10476 0.256412 6.17746 0 0 0 79 77 77 255
1.99586 0.257281 6.14963 0 0 0 80 78 79 255
2.16945 0.259874 6.17575 0 0 0 178 162 144 255
2.01456 0.282152 6.15474 0 0 0 80 76 77 255
2.15616 0.286594 6.17641 0 0 0 179 161 139 255
2.00553 0.337951 6.1639 0 0 0 180 156 130 255
2.10682 0.348402 6.17886 0 0 0 170 166 160 255
-0.589619 0.408319 4.41922 0 0 0 134 108 91 255
-0.0690446 0.409845 4.3662 0 0 0 190 190 191 255
1.90657 0.418692 6.16618 0 0 0 202 208 211 255
-0.680965 0.5301 4.78864 0 0 0 142 118 105 255
2.09584 0.534786 6.19336 0 0 0 168 157 112 255
0.545661 0.544433 4.41032 0 0 0 148 156 157 255
0.829622 0.593794 4.43201 0 0 0 136 141 141 255
1.97928 0.720498 6.1863 0 0 0 158 174 148 255
1.97463 0.841333 6.2088 0 0 0 177 186 189 255
0.750144 0.718287 4.43911 0 0 0 161 167 169 255
0.851286 0.722859 4.44617 0 0 0 177 183 181 255
2.19807 0.942433 6.263 0 0 0 192 179 179 255
-0.314461 0.836364 4.40482 0 0 0 100 106 112 255
0.502964 1.38837 4.50374 0 0 0 173 175 177 255
0.935805 1.368 4.52235 0 0 0 144 144 146 255
1.03602 1.3618 4.52664 0 0 0 161 161 161 255
1.21887 -0.626068 4.31041 0 0 0 76 78 78 255
-1.69368 -0.617129 5.75264 0 0 0 195 177 163 255
0.777397 -0.404498 4.30132 0 0 0 170 188 132 255
-1.96125 -0.555612 5.73356 0 0 0 208 191 172 255
2.05273 -0.52719 6.09127 0 0 0 214 197 192 255
3.25216 -0.955846 8.94601 0 0 0 203 200 201 255
-0.103522 -0.113136 4.31465 0 0 0 182 194 147 255
0.564891 -0.0756601 4.33431 0 0 0 56 66 60 255
4.06117 -1.05842 12.469 0 0 0 208 205 207 255
1.70203 -0.289669 6.03232 0 0 0 211 195 188 255
1.33478 0.119552 4.47726 0 0 0 184 198 198 255
2.08637 0.0189733 6.15159 0 0 0 192 202 208 255
-1.94774 0.247149 5.78381 0 0 0 88 78 70 255
2.30592 0.123252 6.19744 0 0 0 193 205 212 255
2.23154 0.209052 6.19389 0 0 0 98 101 109 255
-1.83312 0.386453 5.81187 0 0 0 47 36 34 255
2.02954 0.233045 6.14807 0 0 0 77 77 77 255
2.15158 0.256051 6.17722 0 0 0 180 161 138 255
2.23812 0.232107 6.19577 0 0 0 96 95 100 255
-0.135939 0.331429 4.35217 0 0 0 169 181 150 255
1.86954 0.309706 6.13695 0 0 0 103 110 112 255
2.26882 0.330152 6.19148 0 0 0 183 207 214 255
-0.281287 0.444412 4.36911 0 0 0 81 86 85 255
-0.656747 0.542717 4.68147 0 0 0 147 120 102 255
2.10785 0.59665 6.19327 0 0 0 91 83 77 255
-0.183307 0.594741 4.38804 0 0 0 204 211 211 255
0.812518 0.590536 4.42878 0 0 0 150 150 151 255
2.154 0.649357 6.20671 0 0 0 83 78 80 255
0.855951 0.600622 4.43417 0 0 0 208 218 219 255
-0.504989 0.768262 4.41991 0 0 0 147 165 152 255
1.02243 0.737924 4.45633 0 0 0 190 198 195 255
1.12634 0.734297 4.46559 0 0 0 209 211 212 255
-0.00272166 0.806905 4.41653 0 0 0 127 137 139 255
1.5478 0.845151 5.23482 0 0 0 204 178 173 255
1.00714 0.811236 4.46547 0 0 0 205 210 208 255
-0.289599 0.845969 4.40789 0 0 0 206 214 214 255
-0.18492 0.929648 4.41983 0 0 0 208 217 218 255
-0.366258 1.00651 4.42959 0 0 0 149 149 149 255
1.20693 0.994242 4.49742 0 0 0 149 154 153 255
1.37317 1.04766 4.53707 0 0 0 226 220 220 255
1.48966 -0.851215 5.17122 0 0 0 204 205 202 255
-0.651475 -0.441604 4.31825 0 0 0 206 192 176 255
-0.134594 -0.180003 4.30571 0 0 0 97 108 96 255
-0.0315223 -0.141371 4.3103 0 0 0 167 183 127 255
1.70309 -0.300606 6.03669 0 0 0 213 200 193 255
-0.00678137 -0.0512762 4.31576 0 0 0 176 194 138 255
0.810564 -0.0657321 4.35147 0 0 0 160 172 128 255
-0.240777 -0.00406496 4.30542 0 0 0 178 202 142 255
-0.414233 0.0553989 4.3322 0 0 0 176 197 151 255
-0.292019 0.0581678 4.32735 0 0 0 101 113 100 255
-1.23934 0.0165704 5.80362 0 0 0 49 48 46 255
-1.80973 0.0776888 5.80204 0 0 0 48 39 39 255
-1.75881 0.0805127 5.8062 0 0 0 42 41 38 255
0.000838058 0.131271 4.33755 0 0 0 168 176 136 255
0.96902 0.130674 4.38151 0 0 0 83 90 88 255
1.33498 0.132066 4.44121 0 0 0 184 198 199 255
-0.218445 0.205005 4.33952 0 0 0 60 68 58 255
0.336385 0.19264 4.35739 0 0 0 175 194 133 255
1.33832 0.140702 4.4297 0 0 0 184 198 200 255
1.98012 0.115763 6.14492 0 0 0 102 114 121 255
1.88142 0.191259 6.13354 0 0 0 119 132 139 255
0.346052 0.300333 4.36507 0 0 0 163 177 131 255
-1.80633 0.396406 5.82218 0 0 0 42 37 39 255
-0.398325 0.341057 4.35654 0 0 0 59 64 63 255
-0.171272 0.353562 4.37403 0 0 0 173 193 141 255
-0.249647 0.380753 4.36323 0 0 0 48 55 55 255
-1.73664 0.519409 5.82024 0 0 0 73 53 38 255
0.647417 0.371111 4.394 0 0 0 61 66 66 255
1.16024 0.350144 4.42085 0 0 0 76 78 79 255
1.88309 0.426904 6.16699 0 0 0 201 210 212 255
-0.651529 0.543625 4.66625 0 0 0 149 123 101 255
0.615532 0.55789 4.41871 0 0 0 208 217 219 255
1.85671 0.615566 6.16766 0 0 0 122 135 135 255
-1.62469 0.806169 5.83674 0 0 0 150 128 108 255
-1.41807 0.878534 5.86834 0 0 0 57 45 46 255
-1.56685 0.942608 5.86027 0 0 0 163 139 120 255
-0.424997 0.713338 4.38292 0 0 0 70 79 78 255
0.986411 0.666605 4.44576 0 0 0 109 116 120 255
1.92189 0.817502 6.20118 0 0 0 197 206 208 255
-1.37323 0.954703 5.86025 0 0 0 76 68 62 255
-0.20185 0.718356 4.39924 0 0 0 134 143 143 255
1.16175 0.687493 4.45841 0 0 0 188 190 189 255
0.31232 0.754945 4.41698 0 0 0 210 219 218 255
0.632651 0.747323 4.43645 0 0 0 154 152 153 255
-6.67688e-05 0.802051 4.4154 0 0 0 128 136 138 255
0.698708 0.899736 4.45561 0 0 0 184 191 191 255
0.264506 0.971941 4.44333 0 0 0 187 193 193 255
-1.39044 1.32025 5.88336 0 0 0 68 67 67 255
1.20446 1.00054 4.4969 0 0 0 138 145 145 255
1.37083 1.01307 4.53647 0 0 0 203 176 174 255
-1.46072 1.49354 5.83548 0 0 0 80 76 77 255
1.20222 -0.624191 4.38791 0 0 0 66 67 69 255
0.738941 -0.373847 4.31006 0 0 0 177 194 131 255
-0.759398 -0.289334 4.5832 0 0 0 204 186 169 255
-0.44216 -0.264042 4.29953 0 0 0 165 184 148 255
0.127331 -0.231622 4.29722 0 0 0 90 100 90 255
0.210488 -0.201541 4.3031 0 0 0 59 70 65 255
0.638255 -0.191079 4.32383 0 0 0 98 105 94 255
0.631867 -0.225729 4.32156 0 0 0 85 92 79 255
0.142657 -0.182972 4.29819 0 0 0 68 77 74 255
-0.0100594 -0.12687 4.30878 0 0 0 173 189 129 255
0.243663 -0.123749 4.31609 0 0 0 66 73 68 255
-0.683032 -0.058954 4.52247 0 0 0 204 184 164 255
0.323544 -0.0708605 4.33751 0 0 0 174 189 127 255
-0.710951 0.0123706 4.59684 0 0 0 197 180 163 255
0.772562 -0.0334555 4.35392 0 0 0 86 94 87 255
-0.129371 0.0406949 4.32112 0 0 0 75 83 76 255
0.417794 0.0250909 4.34152 0 0 0 88 103 82 255
0.468261 0.0971957 4.35242 0 0 0 56 66 62 255
1.34195 0.14055 4.43226 0 0 0 185 199 201 255
0.646093 0.200972 4.38079 0 0 0 52 59 57 255
1.83478 0.416477 6.14171 0 0 0 199 210 213 255
0.201275 0.612956 4.39506 0 0 0 210 219 219 255
0.607138 0.569108 4.41837 0 0 0 207 217 216 255
1.09442 0.50854 4.43674 0 0 0 166 166 166 255
-1.56215 0.847834 5.85203 0 0 0 101 80 64 255
-0.224074 0.700486 4.38765 0 0 0 136 148 148 255
1.79697 0.777973 6.1725 0 0 0 180 193 197 255
1.14367 0.681574 4.45782 0 0 0 184 184 184 255
0.279951 0.826344 4.42598 0 0 0 185 193 193 255
1.07591 0.76879 4.46395 0 0 0 121 126 128 255
-0.164319 0.872542 4.4156 0 0 0 120 129 128 255
2.60724 -2.7717 8.95785 0 0 0 129 127 128 255
2.05216 -2.6412 8.81863 0 0 0 146 159 159 255
-1.58193 -0.601681 5.78981 0 0 0 154 111 89 255
-1.43407 -0.582639 5.80003 0 0 0 150 117 99 255
2.27159 -0.623944 6.1311 0 0 0 198 175 170 255
2.16055 -0.604452 6.11188 0 0 0 200 169 153 255
1.51307 -0.529817 5.84253 0 0 0 217 167 123 255
1.62866 -0.554209 6.03558 0 0 0 206 185 172 255
2.48005 -0.592633 6.1566 0 0 0 194 172 166 255
2.39093 -0.589699 6.15463 0 0 0 205 175 164 255
2.43321 -0.590953 6.15501 0 0 0 197 174 163 255
1.87223 -0.541218 6.07234 0 0 0 206 186 181 255
1.67597 -0.528688 6.0405 0 0 0 212 189 176 255
1.58621 -0.502885 6.03072 0 0 0 209 199 195 255
2.33515 -0.54143 6.14025 0 0 0 188 153 129 255
2.19708 -0.51862 6.12201 0 0 0 201 190 188 255
2.31968 -0.515578 6.13415 0 0 0 196 194 195 255
2.45497 -0.532292 6.15494 0 0 0 213 201 198 255
2.3519 -0.518533 6.14049 0 0 0 211 175 155 255
1.63404 -0.470308 6.03849 0 0 0 214 196 188 255
1.53315 -0.458528 5.97815 0 0 0 197 154 123 255
2.25756 -0.437279 6.14148 0 0 0 199 167 152 255
1.652 -0.400901 6.04875 0 0 0 208 210 211 255
0.530808 -0.148414 4.32829 0 0 0 102 117 94 255
2.33416 -0.409636 6.15183 0 0 0 220 196 190 255
2.42064 -0.421563 6.17043 0 0 0 225 182 154 255
2.48702 -0.42483 6.1725 0 0 0 211 176 159 255
2.17006 -0.384195 6.12901 0 0 0 179 144 119 255
2.20399 -0.380535 6.1363 0 0 0 210 205 205 255
-0.690521 -0.0999039 4.5523 0 0 0 196 182 166 255
1.74695 -0.352726 6.0673 0 0 0 180 151 132 255
2.45656 -0.384596 6.17152 0 0 0 188 157 141 255
1.63608 -0.330975 6.05365 0 0 0 200 176 169 255
1.66065 -0.335564 6.05845 0 0 0 201 188 183 255
2.16187 -0.339064 6.12995 0 0 0 172 148 132 255
1.63792 -0.293325 6.05565 0 0 0 185 138 102 255
2.01876 -0.303393 6.11418 0 0 0 213 211 212 255
2.20114 -0.312577 6.14122 0 0 0 217 192 178 255
2.43301 -0.314085 6.17654 0 0 0 192 138 92 255
1.66621 -0.271914 6.0607 0 0 0 202 202 204 255
0.524129 -0.0559827 4.33384 0 0 0 130 142 117 255
-1.76854 -0.118055 5.78484 0 0 0 184 171 161 255
0.537502 -0.048915 4.33647 0 0 0 86 100 83 255
2.42074 -0.278499 6.17459 0 0 0 215 197 190 255
-1.77426 -0.0999605 5.78811 0 0 0 111 106 97 255
0.547831 -0.0362061 4.33872 0 0 0 88 102 97 255
-0.682463 0.00530742 4.55835 0 0 0 192 179 165 255
0.273158 -0.00828847 4.33481 0 0 0 116 130 105 255
-1.84529 -0.0568288 5.79068 0 0 0 133 140 128 255
-1.70513 -0.0636475 5.81029 0 0 0 163 152 143 255
0.550671 -0.00260756 4.34352 0 0 0 63 71 66 255
0.585897 0.00656911 4.34772 0 0 0 54 67 58 255
2.0558 -0.193687 6.12896 0 0 0 211 158 110 255
2.0641 -0.140354 6.13034 0 0 0 204 174 140 255
0.43057 0.0654929 4.34199 0 0 0 110 123 114 255
0.542007 0.0605124 4.35197 0 0 0 49 65 62 255
0.805004 0.086139 4.36108 0 0 0 36 49 48 255
0.455699 0.164612 4.3685 0 0 0 69 83 71 255
0.585304 0.239657 4.37355 0 0 0 107 119 104 255
0.784792 0.295721 4.39591 0 0 0 109 122 99 255
0.766957 0.307862 4.39526 0 0 0 125 142 122 255
1.11857 0.331728 4.41749 0 0 0 96 102 106 255
1.11604 0.378972 4.4071 0 0 0 118 119 120 255
0.1605 0.425842 4.37737 0 0 0 54 56 60 255
-1.72233 0.548726 5.81477 0 0 0 89 78 72 255
-0.732689 0.4836 4.79449 0 0 0 85 67 53 255
-0.766853 0.511645 4.9304 0 0 0 123 106 96 255
-0.696853 0.538473 4.75406 0 0 0 87 75 62 255
-0.412364 0.609892 4.37334 0 0 0 53 62 65 255
1.33127 0.573957 4.48526 0 0 0 109 117 119 255
0.913475 0.622186 4.43703 0 0 0 188 190 191 255
2.12465 0.712994 6.20649 0 0 0 164 157 128 255
-0.544119 0.783319 4.4827 0 0 0 150 166 159 255
2.57607 0.909612 6.24744 0 0 0 188 175 172 255
1.52348 0.868621 5.28962 0 0 0 194 183 186 255
2.14906 0.951249 6.20627 0 0 0 203 176 171 255
0.952223 0.844819 4.46519 0 0 0 186 195 196 255
-0.348571 1.10598 4.43122 0 0 0 123 136 139 255
-0.269009 1.12499 4.4332 0 0 0 122 134 130 255
1.96688 1.38535 5.17878 0 0 0 196 200 201 255
2.57524 -2.71403 8.81574 0 0 0 129 127 128 255
2.27101 -2.68151 8.84662 0 0 0 138 159 159 255
-0.687766 -0.420852 4.43227 0 0 0 201 189 175 255
2.76363 -1.02297 8.58371 0 0 0 200 169 153 255
2.22714 -0.606159 6.12223 0 0 0 195 144 108 255
1.58159 -0.552048 6.02627 0 0 0 188 135 92 255
1.62333 -0.550667 6.03139 0 0 0 206 185 172 255
2.47181 -0.588726 6.1571 0 0 0 196 149 116 255
2.19808 -0.516906 6.12211 0 0 0 211 203 200 255
2.33101 -0.518005 6.14356 0 0 0 203 196 195 255
-1.60226 -0.365044 5.81857 0 0 0 186 172 159 255
1.64227 -0.403793 6.04788 0 0 0 205 209 210 255
-1.2851 -0.257239 5.65018 0 0 0 185 172 157 255
2.13956 -0.397844 6.12395 0 0 0 196 149 117 255
2.41654 -0.4259 6.1667 0 0 0 225 182 154 255
2.47796 -0.418078 6.17128 0 0 0 200 156 126 255
2.32474 -0.392496 6.15087 0 0 0 185 166 160 255
-0.675296 -0.0911039 4.51664 0 0 0 193 182 165 255
1.63608 -0.330975 6.05365 0 0 0 200 176 169 255
1.6103 -0.304368 6.04933 0 0 0 186 135 89 255
2.01877 -0.297897 6.11423 0 0 0 210 206 207 255
2.14164 -0.306194 6.12686 0 0 0 200 177 166 255
1.58573 -0.266904 6.04499 0 0 0 198 198 196 255
1.66087 -0.27229 6.05936 0 0 0 206 205 206 255
2.42051 -0.281017 6.17441 0 0 0 215 197 190 255
0.37951 0.291094 4.37176 0 0 0 155 170 129 255
0.0888406 0.416169 4.37869 0 0 0 52 54 58 255
-0.214557 0.430755 4.37445 0 0 0 41 43 45 255
-0.0716185 0.429209 4.36711 0 0 0 177 176 177 255
-0.337804 0.445554 4.36896 0 0 0 32 56 64 255
-0.114117 0.433415 4.365 0 0 0 86 100 102 255
-0.787568 0.521802 4.97587 0 0 0 130 109 96 255
-0.41362 0.608265 4.37293 0 0 0 50 62 66 255
2.49018 0.594711 6.23443 0 0 0 162 190 201 255
1.33585 0.586987 4.49034 0 0 0 181 195 197 255
-0.707448 0.738262 4.81511 0 0 0 149 131 117 255
-0.307653 0.907287 4.4148 0 0 0 208 221 223 255
-0.332429 0.949999 4.42333 0 0 0 146 164 169 255
0.0746707 0.953693 4.44066 0 0 0 186 194 197 255
-0.81787 1.31642 5.09534 0 0 0 63 69 70 255
1.2721 -0.629147 4.36821 0 0 0 190 192 189 255
-1.92858 -0.660488 5.71224 0 0 0 158 145 133 255
-0.683283 -0.422142 4.42319 0 0 0 201 189 175 255
-1.43735 -0.5706 5.79771 0 0 0 147 117 99 255
0.0872875 -0.291328 4.29695 0 0 0 154 171 124 255
2.58193 -0.850136 7.80821 0 0 0 217 190 179 255
1.54471 -0.537848 6.02087 0 0 0 206 205 208 255
2.19763 -0.528093 6.12149 0 0 0 203 191 189 255
1.59617 -0.406489 6.04176 0 0 0 207 162 135 255
1.56166 -0.385921 6.0428 0 0 0 197 152 124 255
2.27157 -0.409605 6.14339 0 0 0 206 205 208 255
2.16239 -0.405395 6.13057 0 0 0 201 193 192 255
2.34388 -0.409389 6.15128 0 0 0 210 204 202 255
1.5399 -0.352622 5.99605 0 0 0 188 164 153 255
2.48193 -0.397498 6.17017 0 0 0 210 203 201 255
-0.116797 -0.0991587 4.31084 0 0 0 103 112 100 255
-0.663574 -0.0759581 4.47374 0 0 0 198 183 166 255
1.64937 -0.329307 6.05669 0 0 0 213 201 196 255
1.8219 -0.338007 6.07717 0 0 0 226 196 185 255
2.01992 -0.315003 6.11413 0 0 0 208 211 212 255
1.63756 -0.262437 6.05538 0 0 0 211 198 193 255
0.806494 -0.0179094 4.35438 0 0 0 155 168 129 255
-0.203958 0.0185982 4.31426 0 0 0 174 197 145 255
-0.697567 0.0475526 4.62033 0 0 0 190 176 158 255
-0.361183 0.131168 4.33209 0 0 0 108 115 102 255
1.32209 0.134027 4.51723 0 0 0 169 185 187 255
0.576292 0.185198 4.36205 0 0 0 108 117 100 255
-0.116142 0.243251 4.34852 0 0 0 97 106 94 255
1.33807 0.231205 4.53123 0 0 0 191 151 110 255
2.10341 0.229131 6.16996 0 0 0 85 83 84 255
2.08065 0.300882 6.16966 0 0 0 85 87 88 255
-0.626101 0.412158 4.4795 0 0 0 112 92 78 255
0.949259 0.353057 4.40649 0 0 0 123 131 131 255
-1.13032 0.504072 5.54558 0 0 0 109 91 78 255
-0.196162 0.434882 4.36787 0 0 0 160 162 164 255
-1.56751 0.621557 5.84527 0 0 0 119 95 77 255
2.09643 0.55799 6.19113 0 0 0 107 102 94 255
0.743625 0.592362 4.42194 0 0 0 203 216 216 255
-1.33392 0.814233 5.87942 0 0 0 86 73 66 255
1.33898 0.585625 4.49239 0 0 0 181 195 197 255
-0.706899 0.738418 4.81441 0 0 0 149 131 117 255
0.91207 0.660623 4.44233 0 0 0 121 128 132 255
0.127501 0.723716 4.40725 0 0 0 132 141 141 255
0.949697 0.696359 4.44854 0 0 0 131 142 145 255
