ply
format ascii 1.0
comment VCGLIB generated
element vertex 1009
property float x
property float y
property float z
property float nx
property float ny
property float nz
property uchar red
property uchar green
property uchar blue
property uchar alpha
element face 0
property list uchar int vertex_indices
end_header
-1.20441 -0.0911458 5.75019 0 0 0 114 108 101 255
-1.14536 -0.0991219 5.78916 0 0 0 195 184 172 255
-1.08064 -0.104927 5.79277 0 0 0 132 123 112 255
0.825238 0.0177368 4.37191 0 0 0 135 142 119 255
0.972353 0.0100558 4.37606 0 0 0 127 138 128 255
-1.53953 -0.0758509 5.76346 0 0 0 194 186 177 255
-1.58538 -0.0717218 5.77468 0 0 0 143 136 129 255
-1.77604 -0.0644436 5.78106 0 0 0 157 148 134 255
-0.204818 0.105916 4.33849 0 0 0 153 165 147 255
-0.123325 0.0967395 4.33302 0 0 0 93 103 99 255
0.808621 0.0673136 4.37093 0 0 0 98 110 91 255
-0.299406 0.107238 4.32977 0 0 0 157 171 155 255
-0.275685 0.105379 4.32357 0 0 0 133 144 133 255
0.820309 0.070704 4.37453 0 0 0 133 148 124 255
-2.27003 0.0553401 5.682 0 0 0 88 47 43 255
-2.25079 0.0459485 5.69672 0 0 0 200 169 161 255
-0.99895 0.0129528 5.73907 0 0 0 117 117 117 255
-1.19123 0.0225927 5.78031 0 0 0 151 148 146 255
-1.25817 0.0336713 5.74888 0 0 0 151 142 132 255
-1.20875 0.0215929 5.776 0 0 0 136 131 131 255
-1.13863 0.0306639 5.76013 0 0 0 162 157 150 255
-1.07625 0.0208015 5.7975 0 0 0 143 139 138 255
-1.00969 0.0268599 5.79875 0 0 0 122 120 121 255
-2.25112 0.0735348 5.70881 0 0 0 43 36 35 255
-1.18871 0.0425844 5.78483 0 0 0 146 139 125 255
-1.27179 0.0446061 5.76718 0 0 0 162 158 155 255
-1.11434 0.0395828 5.76873 0 0 0 168 160 154 255
-1.07164 0.031146 5.80171 0 0 0 150 145 136 255
-1.00884 0.033187 5.80364 0 0 0 164 159 147 255
-0.420818 0.160835 4.3331 0 0 0 102 113 105 255
-0.088104 0.148808 4.33487 0 0 0 172 192 141 255
-1.83245 0.0827948 5.76679 0 0 0 182 168 146 255
-1.84709 0.0857213 5.75791 0 0 0 180 169 159 255
-0.633625 0.144077 4.63917 0 0 0 43 46 45 255
-0.374015 0.171594 4.32722 0 0 0 94 112 99 255
-0.225105 0.174017 4.33466 0 0 0 96 109 97 255
-0.099012 0.163576 4.33626 0 0 0 127 145 103 255
-0.213519 0.181701 4.33419 0 0 0 119 141 118 255
-0.314346 0.190072 4.34186 0 0 0 128 142 126 255
-0.270338 0.200664 4.34544 0 0 0 88 102 97 255
-2.26009 0.1728 5.70751 0 0 0 121 90 71 255
-1.29137 0.142827 5.79941 0 0 0 99 73 57 255
-0.278461 0.221082 4.3428 0 0 0 47 60 51 255
-0.279321 0.234445 4.3437 0 0 0 47 61 57 255
0.902165 0.194489 4.39294 0 0 0 88 95 89 255
-0.24303 0.24282 4.34752 0 0 0 52 62 57 255
0.915793 0.207948 4.39583 0 0 0 79 80 77 255
-0.36091 0.264687 4.33948 0 0 0 169 194 154 255
-0.290996 0.257303 4.34352 0 0 0 102 120 110 255
0.639847 0.237238 4.38544 0 0 0 86 101 94 255
0.928667 0.223043 4.4002 0 0 0 122 131 112 255
-0.37201 0.270146 4.3476 0 0 0 137 161 125 255
-0.356231 0.302391 4.34347 0 0 0 129 148 128 255
-0.355198 0.308167 4.34431 0 0 0 128 145 126 255
0.622182 0.279216 4.39115 0 0 0 109 122 114 255
0.907065 0.273587 4.40015 0 0 0 161 177 133 255
-0.367243 0.344218 4.3469 0 0 0 100 110 107 255
0.55615 0.320174 4.38798 0 0 0 88 106 102 255
-0.336936 0.364243 4.35774 0 0 0 153 171 158 255
-0.282799 0.370119 4.36387 0 0 0 100 112 106 255
-0.0561133 0.36306 4.36977 0 0 0 67 82 74 255
0.986495 0.3279 4.41952 0 0 0 130 145 151 255
0.942399 0.336534 4.41439 0 0 0 170 176 178 255
1.39719 0.304396 5.27609 0 0 0 46 55 59 255
0.498935 0.36297 4.39409 0 0 0 148 159 166 255
0.844618 0.349732 4.4094 0 0 0 100 106 109 255
1.05695 0.340172 4.4391 0 0 0 126 127 127 255
1.07887 0.337656 4.42871 0 0 0 130 138 143 255
0.562428 0.360624 4.39359 0 0 0 48 61 68 255
0.874435 0.350675 4.41355 0 0 0 125 130 134 255
0.963433 0.345036 4.41726 0 0 0 80 78 79 255
1.01607 0.342998 4.42224 0 0 0 153 155 158 255
0.494693 0.369252 4.39363 0 0 0 135 156 169 255
0.63663 0.36541 4.39891 0 0 0 57 59 59 255
0.824309 0.354556 4.41174 0 0 0 140 159 161 255
0.897231 0.356956 4.41625 0 0 0 134 141 150 255
1.03634 0.350282 4.42377 0 0 0 159 159 159 255
1.26731 0.337978 4.91696 0 0 0 92 106 117 255
0.241186 0.385213 4.38021 0 0 0 136 145 148 255
1.11674 0.359816 4.42821 0 0 0 60 57 61 255
-1.50176 0.419009 5.81459 0 0 0 91 68 51 255
0.708115 0.374004 4.40579 0 0 0 142 152 152 255
0.860829 0.369484 4.41489 0 0 0 57 61 63 255
1.05206 0.362871 4.41929 0 0 0 172 173 176 255
1.10064 0.360691 4.42711 0 0 0 111 128 135 255
-0.236475 0.41502 4.36697 0 0 0 111 116 123 255
-0.177506 0.414692 4.36946 0 0 0 124 134 140 255
-0.0198785 0.405833 4.37289 0 0 0 194 203 204 255
0.165811 0.395283 4.37951 0 0 0 47 61 66 255
1.04323 0.368365 4.42562 0 0 0 50 52 54 255
-0.336609 0.424903 4.36256 0 0 0 53 58 61 255
-0.157473 0.412045 4.36791 0 0 0 125 129 134 255
0.964251 0.373684 4.41831 0 0 0 186 197 198 255
1.01089 0.375112 4.42365 0 0 0 84 104 109 255
-0.0343407 0.416789 4.3737 0 0 0 52 62 68 255
0.519442 0.396954 4.40018 0 0 0 56 59 61 255
0.636086 0.393153 4.40008 0 0 0 129 134 135 255
0.827304 0.38708 4.41388 0 0 0 138 154 159 255
0.875614 0.388296 4.41624 0 0 0 136 156 160 255
0.900523 0.385926 4.41923 0 0 0 106 113 115 255
1.03386 0.379528 4.42513 0 0 0 126 128 130 255
1.08051 0.376463 4.43045 0 0 0 114 128 132 255
1.10706 0.372214 4.42795 0 0 0 144 141 144 255
-0.18342 0.424374 4.36924 0 0 0 70 76 80 255
-0.131606 0.42858 4.37292 0 0 0 134 145 152 255
0.218108 0.413111 4.38388 0 0 0 131 137 138 255
0.337778 0.409803 4.38868 0 0 0 53 54 54 255
0.390553 0.409994 4.38781 0 0 0 75 81 88 255
0.662296 0.398132 4.40293 0 0 0 128 144 148 255
0.894466 0.38594 4.41897 0 0 0 64 64 67 255
-2.61484 0.507675 5.98501 0 0 0 123 96 80 255
-0.0508481 0.4289 4.37198 0 0 0 57 56 59 255
0.0482458 0.427813 4.37535 0 0 0 160 160 160 255
0.531482 0.409568 4.40184 0 0 0 143 151 156 255
0.552856 0.406301 4.39632 0 0 0 67 70 77 255
0.592812 0.403923 4.40099 0 0 0 104 116 123 255
0.61674 0.405461 4.40066 0 0 0 118 133 140 255
0.378682 0.417057 4.38819 0 0 0 106 124 129 255
-0.413944 0.449947 4.35481 0 0 0 92 106 104 255
-0.0254862 0.437724 4.37438 0 0 0 158 167 173 255
0.210873 0.429649 4.37557 0 0 0 68 72 80 255
0.283926 0.427118 4.38773 0 0 0 102 106 109 255
-0.292464 0.453352 4.36549 0 0 0 46 51 49 255
-0.243515 0.458148 4.3697 0 0 0 156 158 162 255
-0.030273 0.441245 4.3754 0 0 0 143 156 167 255
0.0290647 0.440777 4.37938 0 0 0 117 130 135 255
-0.578883 0.463266 4.52583 0 0 0 65 66 66 255
-0.177108 0.453313 4.37323 0 0 0 90 95 100 255
0.844106 0.441122 4.42026 0 0 0 126 130 133 255
0.86663 0.436382 4.42206 0 0 0 85 102 107 255
0.435179 0.458432 4.40095 0 0 0 84 95 100 255
0.896303 0.44684 4.42394 0 0 0 76 84 93 255
0.927949 0.441753 4.42859 0 0 0 83 92 101 255
0.972687 0.443045 4.42838 0 0 0 112 121 126 255
1.03299 0.43773 4.43115 0 0 0 95 101 106 255
0.707762 0.458065 4.41305 0 0 0 101 111 117 255
1.06163 0.441591 4.43241 0 0 0 115 131 145 255
1.08353 0.441481 4.43362 0 0 0 121 130 132 255
1.10889 0.443056 4.43562 0 0 0 100 103 109 255
-1.03597 0.537557 5.83618 0 0 0 128 114 104 255
0.428061 0.469934 4.40094 0 0 0 55 56 59 255
0.771509 0.457573 4.42115 0 0 0 110 117 123 255
0.853116 0.454567 4.42212 0 0 0 123 133 139 255
1.02253 0.446168 4.42989 0 0 0 90 100 108 255
-1.07126 0.54299 5.8452 0 0 0 61 49 53 255
0.412864 0.47546 4.39716 0 0 0 83 95 108 255
0.666286 0.468512 4.41375 0 0 0 116 122 129 255
0.740886 0.461838 4.4149 0 0 0 114 124 126 255
0.928387 0.451898 4.42968 0 0 0 98 100 105 255
0.559968 0.479342 4.40727 0 0 0 93 111 119 255
0.627193 0.470234 4.40972 0 0 0 81 89 91 255
-1.01192 0.554507 5.84194 0 0 0 67 52 46 255
0.355989 0.486818 4.40005 0 0 0 115 137 147 255
-1.81026 0.59683 5.73411 0 0 0 111 97 83 255
-0.975145 0.576195 5.92531 0 0 0 64 56 52 255
-0.958053 0.580335 5.93003 0 0 0 61 53 51 255
-1.59626 0.606267 5.78037 0 0 0 62 49 44 255
-1.47711 0.595023 5.82847 0 0 0 59 47 45 255
-1.09444 0.603652 5.86982 0 0 0 74 55 45 255
1.00776 0.502302 4.43444 0 0 0 192 192 193 255
0.546123 0.527261 4.40912 0 0 0 127 137 146 255
-1.41594 0.65425 5.84146 0 0 0 120 90 78 255
-1.15127 0.653331 5.84808 0 0 0 86 66 59 255
-1.29649 0.662465 5.84091 0 0 0 60 44 45 255
0.779117 0.550942 4.43112 0 0 0 141 141 143 255
0.937683 0.559499 4.43826 0 0 0 175 181 186 255
-1.04494 0.702662 5.87835 0 0 0 92 73 64 255
0.986221 0.566497 4.43835 0 0 0 140 144 146 255
-0.970434 0.698686 5.78598 0 0 0 82 64 56 255
-1.3145 0.729584 5.84031 0 0 0 50 38 37 255
-0.971181 0.733233 5.9821 0 0 0 92 76 69 255
0.693155 0.599383 4.42971 0 0 0 161 163 167 255
-0.923054 0.740524 5.98834 0 0 0 78 62 54 255
0.900934 0.59076 4.44224 0 0 0 154 155 157 255
-1.51036 0.772143 5.83751 0 0 0 63 53 45 255
0.944113 0.604907 4.44406 0 0 0 134 133 136 255
0.956791 0.604421 4.44193 0 0 0 168 179 182 255
-1.08613 0.761585 5.87532 0 0 0 115 103 99 255
-0.961441 0.762367 5.98135 0 0 0 90 75 65 255
-1.32348 0.77111 5.84352 0 0 0 70 53 45 255
0.239265 0.636144 4.40253 0 0 0 169 175 178 255
-0.186268 0.658671 4.39452 0 0 0 188 194 199 255
-1.34212 0.790136 5.83965 0 0 0 85 59 50 255
0.625259 0.635915 4.43417 0 0 0 178 188 191 255
-0.180001 0.672568 4.39894 0 0 0 168 172 175 255
0.839176 0.636063 4.44231 0 0 0 187 198 201 255
0.913339 0.634673 4.44621 0 0 0 92 97 99 255
0.936911 0.635667 4.44763 0 0 0 177 179 183 255
1.02237 0.636736 4.45409 0 0 0 192 194 196 255
1.00224 0.647514 4.45131 0 0 0 170 186 188 255
-2.00849 0.86592 5.79736 0 0 0 118 85 64 255
-0.0396741 0.694117 4.40191 0 0 0 203 213 214 255
0.156328 0.686854 4.40965 0 0 0 141 141 142 255
0.82644 0.666252 4.44429 0 0 0 181 194 199 255
1.01669 0.654039 4.45428 0 0 0 202 209 210 255
0.869155 0.668337 4.44995 0 0 0 203 210 212 255
-1.0156 0.844353 5.89074 0 0 0 95 67 58 255
0.823738 0.672667 4.44512 0 0 0 157 170 175 255
0.902264 0.672555 4.44986 0 0 0 117 120 122 255
-0.983969 0.872905 5.99 0 0 0 118 90 79 255
0.963292 0.681586 4.4547 0 0 0 141 161 168 255
0.828036 0.690776 4.44677 0 0 0 117 121 123 255
1.07426 0.684808 4.46093 0 0 0 167 179 177 255
-1.07653 0.892755 5.81383 0 0 0 70 62 61 255
-0.178355 0.740933 4.40672 0 0 0 198 211 213 255
-0.00588475 0.734887 4.40666 0 0 0 158 160 162 255
0.684317 0.711989 4.44032 0 0 0 130 146 147 255
0.899263 0.70618 4.45357 0 0 0 197 210 212 255
0.932135 0.698333 4.45484 0 0 0 199 202 202 255
-0.104849 0.743932 4.40744 0 0 0 202 210 212 255
0.190215 0.737458 4.41955 0 0 0 126 126 126 255
0.294874 0.726266 4.41974 0 0 0 128 128 130 255
0.637902 0.717105 4.44021 0 0 0 205 213 214 255
0.848657 0.708669 4.44913 0 0 0 199 216 222 255
0.858727 0.707778 4.4507 0 0 0 205 219 221 255
-0.176553 0.7568 4.40968 0 0 0 199 213 214 255
0.918646 0.719785 4.45443 0 0 0 144 147 149 255
0.969709 0.716673 4.4608 0 0 0 162 172 174 255
1.04728 0.716305 4.4604 0 0 0 204 208 209 255
-1.75875 0.93904 5.7482 0 0 0 136 114 108 255
-1.71966 0.944787 5.81121 0 0 0 116 101 95 255
-0.397961 0.769296 4.39725 0 0 0 73 87 85 255
-0.189687 0.763934 4.40685 0 0 0 117 129 137 255
-3.03742 1.08778 6.7252 0 0 0 78 95 93 255
0.113502 0.756207 4.41029 0 0 0 180 194 199 255
0.899131 0.73265 4.45383 0 0 0 188 197 199 255
0.618208 0.745304 4.43954 0 0 0 126 130 133 255
0.83625 0.737301 4.44808 0 0 0 188 201 206 255
-0.184332 0.778915 4.4067 0 0 0 181 191 192 255
1.11046 0.73763 4.47062 0 0 0 196 210 210 255
0.864987 0.751736 4.45392 0 0 0 198 213 215 255
1.01897 0.759136 4.46151 0 0 0 201 212 215 255
1.03931 0.750318 4.46395 0 0 0 137 139 141 255
0.728981 0.768728 4.44852 0 0 0 190 193 194 255
-0.155048 0.806982 4.40826 0 0 0 198 211 215 255
-0.0590177 0.800227 4.41322 0 0 0 152 159 161 255
0.654364 0.777038 4.44516 0 0 0 147 150 151 255
0.867736 0.769864 4.45541 0 0 0 101 101 101 255
-1.03594 0.992452 5.91576 0 0 0 94 75 66 255
-0.113755 0.810033 4.4145 0 0 0 170 177 180 255
0.158722 0.799358 4.42347 0 0 0 185 194 195 255
-0.107371 0.819086 4.41486 0 0 0 176 182 184 255
0.999944 0.782984 4.46425 0 0 0 161 167 169 255
0.142977 0.82569 4.42472 0 0 0 186 196 200 255
0.190069 0.817087 4.42554 0 0 0 168 170 172 255
0.857429 0.796649 4.45913 0 0 0 119 140 149 255
0.872867 0.801602 4.45885 0 0 0 97 100 105 255
-1.03947 1.04375 5.90095 0 0 0 101 82 73 255
-1.22013 1.05578 5.88822 0 0 0 68 58 57 255
-0.372735 0.856558 4.40439 0 0 0 133 145 152 255
0.488628 0.824515 4.44155 0 0 0 170 179 181 255
0.941473 0.80456 4.46334 0 0 0 86 100 105 255
0.194333 0.838647 4.43155 0 0 0 135 142 151 255
0.98011 0.815049 4.4708 0 0 0 205 207 209 255
-1.24925 1.06336 5.84631 0 0 0 77 60 54 255
-1.93735 1.09867 5.82438 0 0 0 135 98 88 255
0.814713 0.83044 4.46106 0 0 0 148 157 163 255
0.788536 0.835712 4.45986 0 0 0 155 159 160 255
0.0538799 0.863189 4.42576 0 0 0 202 215 218 255
0.476616 0.853004 4.44269 0 0 0 175 186 190 255
-2.09939 1.127 5.76573 0 0 0 110 79 71 255
-1.06202 1.09331 5.90036 0 0 0 99 84 77 255
0.733186 0.845444 4.4561 0 0 0 144 159 163 255
0.987039 0.833704 4.47312 0 0 0 196 209 212 255
0.768021 0.852959 4.4626 0 0 0 180 184 188 255
0.834371 0.84825 4.46246 0 0 0 104 108 111 255
0.936376 0.858125 4.47058 0 0 0 142 144 145 255
0.347564 0.879495 4.43415 0 0 0 145 161 166 255
0.969314 0.856522 4.47224 0 0 0 187 191 194 255
0.829805 0.868069 4.46528 0 0 0 201 207 207 255
-2.59005 1.2337 6.08158 0 0 0 134 111 99 255
-1.37369 1.14247 5.85789 0 0 0 146 122 103 255
-0.215975 0.90644 4.42095 0 0 0 145 154 158 255
0.928012 0.869991 4.47325 0 0 0 204 218 220 255
0.901924 0.875287 4.47327 0 0 0 167 178 182 255
0.57955 0.893431 4.45303 0 0 0 196 203 205 255
0.880843 0.881075 4.47312 0 0 0 113 118 116 255
0.831881 0.889171 4.4668 0 0 0 144 144 147 255
0.20479 0.916364 4.43287 0 0 0 204 213 217 255
0.602833 0.900118 4.45464 0 0 0 196 208 213 255
0.655868 0.908038 4.4632 0 0 0 141 142 144 255
0.997737 0.893104 4.47665 0 0 0 149 164 168 255
1.10979 0.886971 4.47971 0 0 0 172 185 187 255
0.592758 0.914542 4.45312 0 0 0 162 169 172 255
0.830664 0.906534 4.46751 0 0 0 181 189 189 255
0.255024 0.927513 4.44016 0 0 0 167 174 174 255
0.850838 0.910723 4.4688 0 0 0 115 117 121 255
0.889434 0.912567 4.47592 0 0 0 106 111 111 255
0.90668 0.907908 4.47626 0 0 0 173 180 182 255
1.03199 0.905382 4.48146 0 0 0 150 165 171 255
-1.11045 1.20061 5.8925 0 0 0 112 102 92 255
-1.08942 1.20731 5.91665 0 0 0 71 65 62 255
0.0421598 0.95018 4.43478 0 0 0 195 205 207 255
0.381128 0.941721 4.44605 0 0 0 168 182 188 255
0.458278 0.946637 4.45875 0 0 0 115 120 125 255
-0.966359 1.2214 5.88843 0 0 0 125 105 91 255
1.12548 0.924414 4.48525 0 0 0 164 172 176 255
-2.10493 1.25556 5.71753 0 0 0 118 106 97 255
1.10575 0.93067 4.48421 0 0 0 153 165 169 255
-2.20117 1.3408 6.18914 0 0 0 133 118 111 255
0.982204 0.949246 4.47872 0 0 0 144 155 159 255
1.04718 0.945963 4.4858 0 0 0 146 157 158 255
0.273561 1.01419 4.45258 0 0 0 146 151 153 255
-2.71522 1.44477 6.15651 0 0 0 137 132 136 255
-0.36676 1.05177 4.42931 0 0 0 124 140 141 255
-1.05169 1.35661 5.94405 0 0 0 97 92 89 255
-2.67256 1.52338 6.0702 0 0 0 58 58 58 255
-2.65683 1.55087 6.04162 0 0 0 49 55 62 255
-0.227346 1.12685 4.44229 0 0 0 126 141 136 255
0.178317 1.23791 4.49041 0 0 0 102 119 114 255
0.703214 1.35498 4.50241 0 0 0 142 153 161 255
0.737624 1.35474 4.5114 0 0 0 124 132 142 255
0.721099 1.36161 4.50495 0 0 0 93 94 91 255
0.720856 1.36328 4.5053 0 0 0 93 94 91 255
0.598465 1.19342 3.81573 0 0 0 170 183 185 255
-0.620572 -0.517039 4.29588 0 0 0 91 100 99 255
-2.89221 -1.01585 6.39628 0 0 0 132 137 138 255
-2.34864 -0.80508 5.65484 0 0 0 90 76 77 255
0.948148 -0.441421 4.34451 0 0 0 114 122 112 255
-2.64811 -0.70994 5.74948 0 0 0 129 106 91 255
0.912294 -0.377738 4.34603 0 0 0 147 165 138 255
-2.65458 -0.595587 5.69214 0 0 0 98 67 62 255
-1.23851 -0.642593 5.72852 0 0 0 157 137 127 255
-1.14008 -0.633355 5.74598 0 0 0 178 157 150 255
-1.05953 -0.641724 5.75304 0 0 0 148 127 112 255
-1.821 -0.608306 5.70558 0 0 0 177 168 155 255
-1.30269 -0.623669 5.72347 0 0 0 151 128 119 255
-1.11282 -0.607114 5.7381 0 0 0 150 136 125 255
-1.78975 -0.556207 5.65717 0 0 0 204 190 177 255
-1.33789 -0.541704 5.71792 0 0 0 199 191 184 255
-1.13786 -0.565188 5.76017 0 0 0 201 191 181 255
-1.29191 -0.527433 5.73135 0 0 0 157 117 100 255
-1.1032 -0.542735 5.74997 0 0 0 144 119 107 255
-1.7083 -0.495299 5.72525 0 0 0 151 108 93 255
-1.34734 -0.515068 5.7178 0 0 0 160 119 101 255
0.916772 -0.236859 4.35633 0 0 0 132 147 128 255
0.961367 -0.193206 4.36596 0 0 0 122 139 119 255
0.505209 -0.170852 4.32909 0 0 0 113 126 112 255
-1.55329 -0.34803 5.75596 0 0 0 129 115 102 255
-1.2676 -0.356735 5.75785 0 0 0 146 122 109 255
-1.37109 -0.325849 5.75902 0 0 0 203 190 179 255
-1.30179 -0.31549 5.69203 0 0 0 159 116 97 255
-1.21893 -0.322214 5.7534 0 0 0 202 188 173 255
0.599995 -0.100185 4.34463 0 0 0 53 64 60 255
-1.367 -0.274898 5.76663 0 0 0 202 189 172 255
-1.25924 -0.267156 5.76534 0 0 0 167 141 128 255
-1.57065 -0.229842 5.75323 0 0 0 150 121 106 255
0.966661 -0.0779652 4.37637 0 0 0 123 136 117 255
0.902617 -0.0511833 4.36969 0 0 0 118 134 115 255
0.969304 -0.0290773 4.37228 0 0 0 128 143 124 255
-1.20948 -0.147966 5.77454 0 0 0 120 115 104 255
-1.14647 -0.116926 5.79013 0 0 0 158 147 141 255
0.822871 0.0230569 4.37211 0 0 0 134 143 118 255
0.967706 0.0150783 4.37511 0 0 0 122 136 117 255
-0.335157 0.0716097 4.32249 0 0 0 156 178 139 255
-0.351591 0.0762618 4.31756 0 0 0 162 181 150 255
-2.31373 0.040087 5.74685 0 0 0 84 44 39 255
-2.24872 0.038916 5.70148 0 0 0 200 187 171 255
-2.59742 0.072286 5.87641 0 0 0 143 87 75 255
-2.23393 0.062658 5.71794 0 0 0 112 107 99 255
0.975499 0.17611 4.39748 0 0 0 88 99 94 255
0.896926 0.195933 4.39106 0 0 0 118 119 110 255
-0.289675 0.258029 4.34385 0 0 0 102 120 110 255
-2.10562 0.358857 5.76821 0 0 0 142 111 97 255
-2.08268 0.345207 5.78542 0 0 0 107 81 76 255
0.534009 0.312842 4.388 0 0 0 55 62 62 255
-0.367965 0.371294 4.35204 0 0 0 124 131 129 255
0.940837 0.336181 4.41406 0 0 0 170 176 178 255
1.26975 0.320933 4.87366 0 0 0 45 54 58 255
0.584901 0.365159 4.39877 0 0 0 105 105 105 255
0.722391 0.361698 4.40471 0 0 0 119 125 131 255
0.193997 0.388734 4.37782 0 0 0 82 90 97 255
1.03683 0.356055 4.42423 0 0 0 144 146 147 255
0.965724 0.372683 4.41856 0 0 0 186 197 198 255
-2.61669 0.505303 5.99813 0 0 0 121 95 78 255
-0.42398 0.426222 4.34515 0 0 0 88 102 99 255
-0.338227 0.432605 4.36347 0 0 0 54 59 62 255
0.00580042 0.419043 4.37652 0 0 0 158 160 162 255
-0.419588 0.447068 4.35008 0 0 0 92 107 102 255
0.279153 0.425204 4.38707 0 0 0 129 130 134 255
-1.1839 0.51701 5.83153 0 0 0 52 43 44 255
0.929284 0.448436 4.42868 0 0 0 98 102 109 255
0.974505 0.446147 4.42758 0 0 0 112 121 126 255
1.02258 0.451296 4.43083 0 0 0 90 101 108 255
1.10959 0.443335 4.435 0 0 0 100 103 109 255
-1.57724 0.561367 5.81791 0 0 0 46 36 37 255
-1.04507 0.539469 5.83513 0 0 0 121 104 97 255
-1.67671 0.582318 5.80766 0 0 0 119 95 80 255
0.430534 0.483386 4.40239 0 0 0 66 70 72 255
-1.5668 0.579251 5.82209 0 0 0 44 41 42 255
-1.4502 0.593895 5.83552 0 0 0 108 87 74 255
-0.965191 0.57967 5.92529 0 0 0 63 54 51 255
-1.61043 0.60895 5.81234 0 0 0 62 49 44 255
-1.09555 0.604951 5.87004 0 0 0 74 55 45 255
-1.04427 0.70629 5.87868 0 0 0 76 62 55 255
0.982891 0.569476 4.43931 0 0 0 138 143 143 255
-1.51112 0.758837 5.83989 0 0 0 70 56 48 255
-0.184092 0.64303 4.39457 0 0 0 185 192 200 255
0.831767 0.609558 4.43799 0 0 0 143 150 154 255
0.741039 0.627098 4.4354 0 0 0 170 179 179 255
0.667626 0.636943 4.42929 0 0 0 206 219 224 255
0.897796 0.6393 4.44554 0 0 0 163 165 166 255
-1.46395 0.824311 5.83773 0 0 0 55 44 43 255
-1.55956 0.826532 5.82172 0 0 0 140 119 105 255
1.0038 0.648955 4.45163 0 0 0 170 186 188 255
-1.05093 0.849444 5.88151 0 0 0 88 71 66 255
0.825754 0.674113 4.4449 0 0 0 195 211 215 255
0.900295 0.67189 4.44949 0 0 0 144 148 151 255
0.900481 0.705158 4.45347 0 0 0 197 210 212 255
0.922831 0.701399 4.45223 0 0 0 188 191 192 255
-0.176444 0.751006 4.40922 0 0 0 199 213 215 255
0.949847 0.709449 4.45698 0 0 0 125 127 127 255
-3.02788 1.09804 6.71503 0 0 0 77 87 86 255
-0.534067 0.801659 4.43774 0 0 0 112 122 121 255
-0.515513 0.800515 4.41015 0 0 0 135 150 143 255
0.16962 0.773207 4.42164 0 0 0 132 142 143 255
1.10624 0.733171 4.46998 0 0 0 191 202 203 255
1.04027 0.75236 4.46423 0 0 0 137 139 141 255
-1.03756 0.989591 5.91992 0 0 0 94 75 66 255
0.0682677 0.804085 4.42174 0 0 0 199 217 223 255
1.01798 0.768211 4.4623 0 0 0 204 217 220 255
-1.07968 1.01466 5.86096 0 0 0 141 116 102 255
-2.60959 1.13631 6.11594 0 0 0 150 117 97 255
0.110064 0.83383 4.42284 0 0 0 202 219 224 255
0.186077 0.825653 4.42654 0 0 0 150 155 161 255
-2.04942 1.09548 5.79327 0 0 0 115 80 60 255
-1.05511 1.07023 5.88313 0 0 0 89 76 73 255
0.863116 0.817144 4.46321 0 0 0 88 91 95 255
-1.21523 1.09427 5.89711 0 0 0 116 97 87 255
-1.05863 1.08694 5.89502 0 0 0 68 60 62 255
0.814777 0.829387 4.46114 0 0 0 148 157 163 255
0.835069 0.839814 4.46181 0 0 0 101 104 106 255
0.90607 0.83162 4.46533 0 0 0 94 98 102 255
0.984268 0.821839 4.47163 0 0 0 202 214 217 255
-0.99606 1.095 5.91326 0 0 0 95 77 74 255
0.862207 0.851383 4.46562 0 0 0 183 200 205 255
-0.0333714 0.887367 4.41775 0 0 0 204 219 221 255
0.953762 0.855882 4.47105 0 0 0 194 210 213 255
0.814944 0.869279 4.46532 0 0 0 198 205 207 255
0.937258 0.862807 4.4713 0 0 0 144 145 147 255
-0.353628 0.924797 4.41253 0 0 0 163 172 173 255
0.57348 0.895211 4.45204 0 0 0 185 191 195 255
-1.0343 1.19553 5.91435 0 0 0 87 74 68 255
-1.00404 1.22871 5.91632 0 0 0 122 107 99 255
1.11404 0.928401 4.48489 0 0 0 164 172 176 255
0.971745 0.947872 4.47713 0 0 0 145 156 160 255
-2.71913 1.42322 6.09854 0 0 0 42 44 49 255
-1.05089 1.3625 5.94281 0 0 0 114 104 98 255
-0.227014 1.12636 4.44042 0 0 0 126 141 136 255
-2.65331 1.58884 6.03883 0 0 0 153 163 163 255
-2.56658 1.68969 6.04889 0 0 0 107 92 97 255
-2.62562 -0.779493 5.62026 0 0 0 148 119 118 255
-2.2587 -0.777805 5.55808 0 0 0 206 198 192 255
0.947541 -0.432714 4.34455 0 0 0 126 134 122 255
-2.6638 -0.689039 5.71753 0 0 0 125 101 89 255
0.869972 -0.394477 4.32505 0 0 0 134 147 124 255
-1.23334 -0.643025 5.72445 0 0 0 154 120 107 255
-1.01533 -0.646703 5.76565 0 0 0 153 119 105 255
-1.49758 -0.617159 5.73593 0 0 0 153 115 94 255
-1.86715 -0.550759 5.70392 0 0 0 185 175 164 255
-1.5972 -0.559636 5.72505 0 0 0 206 192 179 255
-1.32344 -0.565895 5.70609 0 0 0 202 194 182 255
-1.13021 -0.580749 5.75578 0 0 0 204 190 176 255
-1.34026 -0.516839 5.71264 0 0 0 157 123 105 255
-1.20667 -0.520798 5.71192 0 0 0 155 119 100 255
-1.13187 -0.534086 5.76096 0 0 0 149 119 105 255
-2.65094 -0.453884 5.72255 0 0 0 105 84 79 255
-1.93422 -0.467891 5.69348 0 0 0 122 100 90 255
-0.0195994 -0.203211 4.30343 0 0 0 176 196 146 255
-2.64507 -0.409066 5.71853 0 0 0 49 41 42 255
0.940024 -0.234571 4.34878 0 0 0 155 168 136 255
0.58264 -0.190607 4.33691 0 0 0 147 159 128 255
0.595395 -0.206004 4.32874 0 0 0 91 95 88 255
0.959436 -0.204117 4.36805 0 0 0 128 141 118 255
0.576765 -0.163448 4.33962 0 0 0 90 100 89 255
0.769297 -0.161956 4.35235 0 0 0 103 118 99 255
-1.40305 -0.36846 5.75944 0 0 0 202 191 177 255
-1.25646 -0.356845 5.75588 0 0 0 146 117 100 255
-1.17162 -0.349464 5.67824 0 0 0 152 120 109 255
-1.33095 -0.346646 5.71761 0 0 0 147 129 118 255
-1.30898 -0.299738 5.70215 0 0 0 174 149 135 255
-1.22028 -0.314068 5.75406 0 0 0 200 187 171 255
0.956749 -0.132698 4.35748 0 0 0 124 137 115 255
0.773737 -0.120496 4.35712 0 0 0 60 77 70 255
0.601053 -0.096347 4.34512 0 0 0 52 63 60 255
-1.18232 -0.271321 5.78189 0 0 0 151 113 96 255
-2.66915 -0.182613 5.84208 0 0 0 156 93 57 255
-0.370866 -0.0131137 4.30423 0 0 0 164 185 143 255
0.904715 -0.0526204 4.36916 0 0 0 132 144 124 255
-1.35813 -0.12944 5.7531 0 0 0 151 132 125 255
-1.10597 -0.146735 5.79551 0 0 0 156 149 143 255
-0.295241 0.0217003 4.3294 0 0 0 158 182 139 255
-1.61715 -0.0950137 5.7744 0 0 0 126 119 110 255
-1.43646 -0.102203 5.77037 0 0 0 169 165 160 255
-1.13842 -0.117396 5.80078 0 0 0 120 115 112 255
-1.10109 -0.112374 5.79016 0 0 0 141 138 131 255
-0.189557 0.0426552 4.31708 0 0 0 149 169 134 255
-1.07463 -0.0992378 5.79338 0 0 0 126 121 118 255
-0.422173 0.0684189 4.32596 0 0 0 158 181 148 255
0.824012 0.0349345 4.37262 0 0 0 137 147 119 255
0.96955 0.0198042 4.37622 0 0 0 134 149 127 255
-0.30543 0.114756 4.33032 0 0 0 177 196 149 255
0.817343 0.0671307 4.37314 0 0 0 135 149 123 255
-2.2853 0.0240804 5.68554 0 0 0 82 46 42 255
-2.24775 0.0288219 5.71067 0 0 0 199 188 171 255
-1.27288 0.0363677 5.75432 0 0 0 98 94 92 255
-1.1957 0.0501269 5.73908 0 0 0 140 129 126 255
-1.19823 0.0397194 5.77999 0 0 0 67 60 49 255
-1.00342 0.0249017 5.78795 0 0 0 169 164 154 255
-2.58846 0.0874429 5.87163 0 0 0 157 96 60 255
-2.22741 0.0763598 5.71852 0 0 0 40 38 38 255
-0.365683 0.163124 4.32151 0 0 0 95 107 103 255
-0.231902 0.175854 4.33169 0 0 0 96 106 100 255
-2.26286 0.171805 5.69551 0 0 0 125 93 72 255
0.979866 0.174641 4.39794 0 0 0 93 104 96 255
-1.94806 0.21216 5.75769 0 0 0 77 65 57 255
0.373659 0.225714 4.36327 0 0 0 159 176 130 255
-2.01711 0.222312 5.74612 0 0 0 151 125 100 255
-0.377613 0.299861 4.35396 0 0 0 147 170 142 255
-0.166949 0.338865 4.37207 0 0 0 171 195 144 255
-0.165247 0.333317 4.36975 0 0 0 173 191 151 255
-2.10583 0.364264 5.76801 0 0 0 144 117 97 255
0.35678 0.323401 4.3704 0 0 0 152 171 134 255
0.873938 0.353673 4.41376 0 0 0 147 156 160 255
1.03643 0.34763 4.424 0 0 0 159 159 159 255
0.681627 0.369273 4.40439 0 0 0 105 122 128 255
0.706625 0.368014 4.40519 0 0 0 146 156 156 255
0.886293 0.371507 4.41653 0 0 0 131 126 130 255
-0.0270768 0.405101 4.37124 0 0 0 173 181 182 255
0.339305 0.391085 4.38754 0 0 0 122 125 127 255
0.96175 0.371587 4.41851 0 0 0 145 162 166 255
-2.6233 0.482712 6.01799 0 0 0 119 96 79 255
0.636539 0.387729 4.3993 0 0 0 148 155 156 255
0.660873 0.391464 4.40219 0 0 0 132 147 153 255
0.893062 0.378012 4.418 0 0 0 141 144 146 255
0.21904 0.419335 4.38212 0 0 0 87 94 95 255
0.614847 0.400666 4.39961 0 0 0 86 91 95 255
-1.70652 0.477568 5.78574 0 0 0 128 104 88 255
-0.421727 0.444479 4.34555 0 0 0 93 108 103 255
0.0263792 0.435252 4.37883 0 0 0 57 64 69 255
0.0523568 0.428525 4.37674 0 0 0 160 160 160 255
-0.172426 0.450047 4.37301 0 0 0 120 124 130 255
-0.154263 0.448175 4.37235 0 0 0 95 104 106 255
-0.570339 0.470464 4.51923 0 0 0 43 48 46 255
0.97958 0.448166 4.42783 0 0 0 109 111 115 255
1.02923 0.438241 4.43251 0 0 0 100 110 115 255
-1.90003 0.562024 5.78379 0 0 0 132 106 85 255
-1.09673 0.539069 5.86049 0 0 0 58 47 45 255
-1.04006 0.538398 5.83436 0 0 0 128 114 104 255
0.428057 0.464074 4.40027 0 0 0 96 106 110 255
0.774067 0.456588 4.42258 0 0 0 110 117 123 255
0.433754 0.479512 4.40307 0 0 0 64 70 74 255
-1.66988 0.581608 5.80883 0 0 0 122 98 81 255
-1.4423 0.609542 5.83403 0 0 0 125 100 86 255
-1.05149 0.619195 5.86741 0 0 0 73 58 53 255
0.998538 0.510711 4.43276 0 0 0 203 211 215 255
-1.15986 0.652789 5.84884 0 0 0 95 74 68 255
-1.56786 0.68911 5.83258 0 0 0 98 80 74 255
0.729956 0.549931 4.42358 0 0 0 175 184 185 255
0.798542 0.553685 4.43105 0 0 0 143 149 152 255
-1.68345 0.723915 5.82514 0 0 0 148 120 100 255
0.965751 0.566859 4.43928 0 0 0 144 142 142 255
0.953552 0.59223 4.44286 0 0 0 182 189 193 255
1.00421 0.606176 4.44698 0 0 0 129 144 144 255
0.841272 0.609265 4.43919 0 0 0 147 164 167 255
-1.46214 0.826348 5.8388 0 0 0 55 44 43 255
0.190067 0.654595 4.40872 0 0 0 201 215 217 255
0.819856 0.641443 4.4412 0 0 0 100 105 117 255
0.930516 0.642574 4.44841 0 0 0 172 177 182 255
-0.176965 0.69142 4.40222 0 0 0 187 196 200 255
1.01311 0.64731 4.45302 0 0 0 187 193 193 255
-0.0922937 0.697209 4.39906 0 0 0 205 217 221 255
-1.03748 0.848398 5.88705 0 0 0 88 71 67 255
0.90485 0.67124 4.45022 0 0 0 117 120 122 255
0.849942 0.692982 4.44794 0 0 0 204 219 223 255
1.07707 0.681966 4.46153 0 0 0 178 179 183 255
0.83432 0.70382 4.44713 0 0 0 110 122 127 255
-0.486354 0.770059 4.39814 0 0 0 151 169 155 255
0.334936 0.746586 4.41955 0 0 0 204 219 223 255
1.03969 0.722014 4.46011 0 0 0 203 214 217 255
-0.936676 0.926314 5.74058 0 0 0 71 59 55 255
-0.428587 0.78138 4.39607 0 0 0 121 134 134 255
0.861985 0.744735 4.45346 0 0 0 194 205 207 255
1.10903 0.736772 4.47013 0 0 0 196 210 210 255
0.0853794 0.777266 4.41998 0 0 0 112 124 132 255
0.729023 0.762862 4.44891 0 0 0 173 175 177 255
-0.538166 0.831464 4.44665 0 0 0 155 183 178 255
0.91854 0.779314 4.4583 0 0 0 111 118 120 255
0.957214 0.757793 4.46347 0 0 0 188 197 201 255
-0.331065 0.811997 4.40057 0 0 0 92 93 93 255
-0.28475 0.832422 4.40634 0 0 0 196 214 217 255
1.02318 0.777153 4.46397 0 0 0 204 217 222 255
-2.61342 1.13083 6.12397 0 0 0 150 117 97 255
0.312028 0.838536 4.42813 0 0 0 112 119 121 255
-2.03363 1.09198 5.74594 0 0 0 116 80 66 255
-1.04818 1.06277 5.89347 0 0 0 83 68 64 255
0.988821 0.821855 4.47233 0 0 0 203 216 219 255
-2.4188 1.17612 6.19548 0 0 0 126 105 94 255
0.807252 0.845625 4.46289 0 0 0 135 142 146 255
0.840532 0.834065 4.46287 0 0 0 94 98 105 255
0.864212 0.845156 4.46519 0 0 0 159 177 186 255
0.986557 0.837807 4.47295 0 0 0 182 195 198 255
0.913119 0.858529 4.47181 0 0 0 203 216 217 255
-0.311634 0.923183 4.42407 0 0 0 203 218 220 255
0.820266 0.88227 4.4675 0 0 0 185 189 191 255
0.884862 0.890333 4.47378 0 0 0 102 105 113 255
0.195684 0.926719 4.43319 0 0 0 205 220 222 255
0.627591 0.900637 4.46096 0 0 0 124 135 138 255
0.996057 0.897445 4.47842 0 0 0 180 190 193 255
-2.30846 1.30528 6.21163 0 0 0 147 131 118 255
-0.988735 1.20867 5.91304 0 0 0 133 112 98 255
0.0247188 0.972728 4.43392 0 0 0 202 217 219 255
-0.62763 1.12993 5.01472 0 0 0 58 56 59 255
0.310375 0.990565 4.45075 0 0 0 173 186 191 255
-2.70189 1.41246 6.1427 0 0 0 141 149 159 255
-1.29129 1.30942 5.86842 0 0 0 155 130 114 255
-2.71785 1.45365 6.10588 0 0 0 37 42 46 255
-1.41945 1.47386 5.9261 0 0 0 152 127 114 255
-2.64967 1.59108 6.02464 0 0 0 153 164 165 255
-0.678313 1.31638 5.18865 0 0 0 88 70 72 255
-0.0350748 1.23968 4.45894 0 0 0 101 115 113 255
0.168319 1.22428 4.46744 0 0 0 100 115 112 255
0.411506 1.362 4.50038 0 0 0 70 83 90 255
0.733573 1.34665 4.49319 0 0 0 125 132 143 255
0.706128 1.36097 4.49813 0 0 0 195 207 214 255
-2.89351 -1.03496 6.42171 0 0 0 135 139 140 255
-2.33999 -0.763357 5.63123 0 0 0 83 51 53 255
-2.67898 -0.731076 5.74528 0 0 0 141 113 93 255
0.876338 -0.400417 4.35924 0 0 0 134 147 124 255
-1.99506 -0.640556 5.67607 0 0 0 152 133 118 255
-0.453571 -0.350441 4.28664 0 0 0 165 184 164 255
-1.04836 -0.639606 5.7545 0 0 0 149 109 93 255
-2.02673 -0.540052 5.6797 0 0 0 145 119 105 255
-1.05191 -0.54965 5.76816 0 0 0 154 114 102 255
0.572454 -0.242447 4.32468 0 0 0 94 108 76 255
-2.61955 -0.421094 5.77296 0 0 0 132 111 98 255
0.949608 -0.217346 4.35698 0 0 0 129 141 117 255
-1.308 -0.299031 5.70137 0 0 0 174 149 135 255
-1.18143 -0.276098 5.78385 0 0 0 151 113 96 255
0.628182 -0.0931949 4.34422 0 0 0 86 108 100 255
-0.434292 -0.0536791 4.31035 0 0 0 171 185 168 255
0.50474 -0.0566051 4.34173 0 0 0 127 140 115 255
0.568519 -0.0505465 4.34767 0 0 0 54 67 64 255
0.469125 -0.00398971 4.34986 0 0 0 54 62 61 255
0.493266 0.00354827 4.34732 0 0 0 46 58 56 255
-1.54074 -0.0960666 5.76123 0 0 0 136 130 126 255
-0.372514 0.0536384 4.31088 0 0 0 175 201 156 255
-2.24439 0.00817319 5.72055 0 0 0 204 190 172 255
-2.59181 0.0754186 5.87492 0 0 0 144 89 76 255
-0.103068 0.136202 4.33136 0 0 0 168 191 141 255
-2.22287 0.085883 5.72003 0 0 0 38 36 37 255
0.663877 0.231733 4.39334 0 0 0 136 147 124 255
-2.09273 0.370605 5.77799 0 0 0 142 118 98 255
-1.9853 0.352002 5.7387 0 0 0 81 46 45 255
-1.89184 0.336687 5.78235 0 0 0 53 38 37 255
0.356604 0.312943 4.36911 0 0 0 162 180 138 255
-0.118604 0.348638 4.34946 0 0 0 173 200 147 255
-2.62355 0.481364 6.01848 0 0 0 119 96 79 255
-0.119713 0.397809 4.35959 0 0 0 50 61 60 255
0.638983 0.390169 4.40112 0 0 0 148 155 156 255
0.874198 0.372146 4.41498 0 0 0 132 153 163 255
-0.00206771 0.418427 4.37463 0 0 0 50 52 53 255
-1.74077 0.466534 5.76439 0 0 0 139 116 94 255
-0.441106 0.457644 4.34464 0 0 0 78 86 84 255
-1.46489 0.493312 5.83682 0 0 0 129 105 91 255
-1.88002 0.552926 5.78577 0 0 0 141 113 90 255
0.812482 0.572423 4.43094 0 0 0 153 156 162 255
0.951616 0.560878 4.43882 0 0 0 175 180 183 255
0.265034 0.611065 4.40784 0 0 0 155 162 166 255
0.917181 0.589611 4.44262 0 0 0 175 181 183 255
0.813028 0.605092 4.43348 0 0 0 131 132 136 255
-1.50339 0.828491 5.83118 0 0 0 53 41 33 255
0.711282 0.645357 4.43423 0 0 0 137 143 150 255
-1.6011 0.834817 5.81628 0 0 0 166 140 121 255
-1.70629 0.872127 5.83031 0 0 0 147 122 102 255
0.855577 0.696112 4.44944 0 0 0 205 218 223 255
1.03299 0.731416 4.46079 0 0 0 204 216 218 255
0.246203 0.773264 4.42833 0 0 0 193 208 217 255
-0.987808 0.991729 5.90079 0 0 0 107 98 95 255
0.710994 0.747487 4.44926 0 0 0 191 197 202 255
0.967055 0.752174 4.46447 0 0 0 200 217 218 255
-1.24725 1.01191 5.83961 0 0 0 146 122 103 255
-0.083804 0.826748 4.42001 0 0 0 204 220 223 255
0.203294 0.816543 4.42747 0 0 0 144 155 160 255
0.995813 0.798388 4.46961 0 0 0 179 196 200 255
0.0916663 0.83807 4.42751 0 0 0 203 221 224 255
0.5022 0.842167 4.44724 0 0 0 116 118 120 255
-0.404969 0.888727 4.39962 0 0 0 179 207 175 255
-0.0884009 0.875336 4.42584 0 0 0 203 220 226 255
0.98946 0.824893 4.47259 0 0 0 202 217 221 255
-0.893713 1.12195 6.01081 0 0 0 90 66 67 255
-0.353888 0.892376 4.40532 0 0 0 137 149 153 255
-0.298264 0.894768 4.41738 0 0 0 205 220 222 255
-0.271561 0.899234 4.41378 0 0 0 203 221 224 255
-0.581836 0.943387 4.55286 0 0 0 75 68 70 255
0.758256 0.892566 4.46543 0 0 0 136 146 145 255
0.170386 0.927768 4.43247 0 0 0 204 218 218 255
0.561344 0.919095 4.45634 0 0 0 200 216 220 255
0.829404 0.920854 4.46772 0 0 0 173 182 183 255
-0.603024 1.01477 4.63388 0 0 0 132 112 101 255
-0.115871 1.00145 4.4201 0 0 0 183 190 193 255
-0.649139 1.14516 5.08531 0 0 0 52 57 57 255
-2.7252 1.44857 6.08214 0 0 0 35 41 46 255
-2.54543 1.57981 6.07671 0 0 0 151 134 126 255
-2.65116 1.59279 6.01644 0 0 0 153 164 164 255
-2.35643 -0.764583 5.61631 0 0 0 81 49 53 255
-0.449051 -0.330803 4.29098 0 0 0 171 199 165 255
-1.23064 -0.639196 5.72223 0 0 0 154 120 107 255
-2.03215 -0.566109 5.6734 0 0 0 162 141 128 255
-1.4281 -0.600231 5.72689 0 0 0 157 121 106 255
-1.16084 -0.599815 5.74932 0 0 0 147 113 101 255
-1.85845 -0.535288 5.7167 0 0 0 158 117 103 255
-1.16542 -0.570268 5.76074 0 0 0 153 119 111 255
-2.00599 -0.506052 5.68673 0 0 0 163 114 90 255
-1.17218 -0.343195 5.68223 0 0 0 152 120 109 255
0.0181898 -0.140237 4.30714 0 0 0 173 194 140 255
-1.78307 -0.26225 5.73776 0 0 0 171 137 118 255
-1.48055 -0.301506 5.75411 0 0 0 173 155 143 255
-1.25095 -0.28936 5.761 0 0 0 147 115 100 255
-1.30948 -0.276364 5.75271 0 0 0 148 112 95 255
-0.427285 -0.0692349 4.31365 0 0 0 169 196 155 255
-0.197769 -0.0410339 4.30853 0 0 0 128 143 114 255
-0.0237301 -0.0540139 4.3185 0 0 0 133 148 114 255
0.312887 -0.0297766 4.3516 0 0 0 173 196 138 255
0.459583 -0.0192664 4.35076 0 0 0 81 93 89 255
-0.277683 0.0178461 4.33532 0 0 0 174 201 149 255
-0.237098 0.00905223 4.30389 0 0 0 175 202 148 255
-0.212051 0.0131978 4.30828 0 0 0 176 198 145 255
-1.42753 -0.130563 5.7703 0 0 0 193 181 169 255
0.787465 0.0360088 4.37154 0 0 0 130 145 118 255
-0.963904 -0.0119745 5.85763 0 0 0 48 48 50 255
-0.752831 0.0648465 4.95342 0 0 0 46 46 46 255
0.361536 0.109675 4.34851 0 0 0 161 181 130 255
-1.93507 0.0571686 5.74873 0 0 0 46 46 46 255
-2.33461 0.0749594 6.03482 0 0 0 33 33 33 255
-1.67521 0.0919011 5.78282 0 0 0 40 40 40 255
-2.28547 0.171071 5.67877 0 0 0 134 98 75 255
-0.391768 0.221509 4.35154 0 0 0 169 195 159 255
0.361251 0.195929 4.35677 0 0 0 168 187 134 255
-0.1435 0.244557 4.35131 0 0 0 152 171 135 255
-0.397413 0.267669 4.35244 0 0 0 161 184 154 255
-0.0940674 0.270948 4.35745 0 0 0 85 97 93 255
0.295918 0.296626 4.38204 0 0 0 140 154 125 255
-0.168912 0.340387 4.37321 0 0 0 171 195 144 255
-0.128561 0.346004 4.34761 0 0 0 172 197 145 255
-2.10065 0.379689 5.77093 0 0 0 144 118 95 255
-2.64057 0.430297 6.08497 0 0 0 132 104 83 255
-1.81511 0.407733 5.79714 0 0 0 75 65 60 255
-0.4394 0.452071 4.34407 0 0 0 103 117 112 255
-1.43007 0.472436 5.84026 0 0 0 124 100 87 255
-0.163338 0.443795 4.37233 0 0 0 94 109 113 255
-0.0304029 0.432488 4.37474 0 0 0 70 84 90 255
-1.96197 0.570683 5.76804 0 0 0 57 45 41 255
-2.16045 0.634251 5.75735 0 0 0 123 62 46 255
0.618018 0.503528 4.41706 0 0 0 57 69 74 255
-1.49915 0.832274 5.83129 0 0 0 45 41 38 255
0.255369 0.657021 4.40653 0 0 0 206 219 224 255
0.33118 0.680516 4.41777 0 0 0 103 113 120 255
-0.571569 0.759758 4.67864 0 0 0 80 86 89 255
-0.418302 0.728759 4.38417 0 0 0 78 92 92 255
-1.50128 0.943963 5.85526 0 0 0 141 116 94 255
-1.38026 0.93906 5.85068 0 0 0 47 44 48 255
0.239616 0.775961 4.4275 0 0 0 191 205 212 255
0.862452 0.739174 4.45316 0 0 0 204 213 215 255
0.223079 0.831539 4.43384 0 0 0 190 207 214 255
-0.363054 0.871669 4.40245 0 0 0 120 125 130 255
-0.291112 0.892639 4.41737 0 0 0 204 221 222 255
-0.713338 1.00123 5.1205 0 0 0 88 72 72 255
0.825542 0.865766 4.46612 0 0 0 173 177 181 255
0.0356013 0.900361 4.4253 0 0 0 118 130 137 255
0.33222 0.906778 4.44319 0 0 0 110 127 135 255
-1.00122 1.17215 5.90227 0 0 0 142 116 101 255
-0.402613 0.996736 4.40768 0 0 0 92 106 106 255
0.122874 0.949041 4.43719 0 0 0 194 205 208 255
-2.70489 1.40875 6.14121 0 0 0 141 149 159 255
-1.28984 1.31184 5.86914 0 0 0 155 130 114 255
0.242703 1.03652 4.45377 0 0 0 171 186 188 255
-1.18526 1.54217 6.11669 0 0 0 134 119 113 255
-2.54361 1.59081 6.08487 0 0 0 146 137 135 255
0.166362 1.21853 4.46527 0 0 0 99 113 111 255
-1.02875 -0.588595 5.58622 0 0 0 171 157 151 255
0.14422 -0.240972 4.30089 0 0 0 77 87 83 255
0.209326 -0.219087 4.30798 0 0 0 85 99 92 255
0.533543 -0.206118 4.33408 0 0 0 95 108 99 255
0.136788 -0.200065 4.30571 0 0 0 89 102 93 255
-0.00573162 -0.145083 4.31094 0 0 0 174 197 137 255
0.243039 -0.16967 4.31627 0 0 0 71 82 77 255
-1.25317 -0.323772 5.75544 0 0 0 157 116 103 255
0.588217 -0.138924 4.34261 0 0 0 140 153 119 255
-0.0628405 -0.0697471 4.31366 0 0 0 153 173 132 255
0.245642 -0.0978731 4.32008 0 0 0 60 73 68 255
-0.25732 -0.0208048 4.30913 0 0 0 175 202 148 255
-0.030028 -0.0518923 4.3192 0 0 0 89 101 85 255
0.537808 0.0119304 4.34971 0 0 0 91 110 104 255
-2.31485 -0.023946 5.96144 0 0 0 206 191 172 255
-0.419403 0.151391 4.33274 0 0 0 85 100 95 255
-2.19834 0.100909 5.8757 0 0 0 33 33 33 255
-2.0474 0.104123 5.74004 0 0 0 36 35 38 255
0.314823 0.15525 4.36836 0 0 0 169 189 134 255
0.49825 0.19454 4.37588 0 0 0 152 165 131 255
-0.404889 0.236646 4.34815 0 0 0 158 181 152 255
0.229172 0.215762 4.3529 0 0 0 73 87 85 255
-2.085 0.293908 5.75794 0 0 0 56 41 44 255
0.00444794 0.28372 4.3609 0 0 0 170 195 150 255
-0.328562 0.39206 4.36342 0 0 0 41 42 41 255
-2.09894 0.415584 5.77396 0 0 0 141 114 96 255
-1.79862 0.515333 5.78882 0 0 0 133 112 95 255
-1.66231 0.453838 5.79925 0 0 0 46 38 38 255
-1.2196 0.453831 5.82493 0 0 0 54 42 43 255
-2.19268 0.540453 5.76065 0 0 0 91 49 41 255
0.623317 0.497595 4.41693 0 0 0 55 65 69 255
0.196817 0.585126 4.38797 0 0 0 206 219 224 255
0.200527 0.634654 4.39875 0 0 0 206 219 224 255
-1.77956 0.889759 5.80431 0 0 0 58 49 44 255
0.599467 0.717854 4.43487 0 0 0 114 125 128 255
-1.50315 1.0106 5.84832 0 0 0 162 140 124 255
0.271959 0.780976 4.42939 0 0 0 206 221 225 255
0.341459 0.847589 4.43588 0 0 0 143 149 153 255
0.287987 0.873706 4.43714 0 0 0 112 122 126 255
-1.05274 1.14928 5.91623 0 0 0 138 120 108 255
-0.299562 1.02342 4.43971 0 0 0 166 175 176 255
-0.176748 1.01307 4.43132 0 0 0 186 199 201 255
2.53131 -2.63929 8.64661 0 0 0 87 87 87 255
-3.17685 -2.50828 8.49229 0 0 0 32 33 37 255
2.52434 -2.5014 8.60383 0 0 0 92 89 90 255
2.52925 -2.33682 8.59326 0 0 0 111 113 112 255
2.56027 -2.24099 8.70893 0 0 0 100 93 96 255
1.23938 -0.651026 4.32479 0 0 0 106 108 108 255
-1.14296 -0.644893 5.72234 0 0 0 187 177 163 255
-1.13434 -0.648993 5.73817 0 0 0 175 168 154 255
-1.35086 -0.618423 5.68629 0 0 0 148 134 121 255
-1.30684 -0.604426 5.71912 0 0 0 183 166 157 255
-1.43429 -0.579785 5.73019 0 0 0 202 189 175 255
-1.30898 -0.552341 5.72864 0 0 0 201 189 175 255
-1.37145 -0.528144 5.73602 0 0 0 159 146 130 255
1.67501 -0.489265 5.49322 0 0 0 205 170 146 255
1.36448 -0.300858 4.63722 0 0 0 165 165 165 255
0.561614 -0.232183 4.32834 0 0 0 116 129 107 255
1.72447 -0.453752 5.52024 0 0 0 211 170 137 255
1.68958 -0.449446 5.52551 0 0 0 211 176 154 255
1.92028 -0.522463 6.04007 0 0 0 173 138 113 255
-0.0690764 -0.160502 4.30866 0 0 0 168 189 144 255
0.448523 -0.180771 4.3292 0 0 0 152 167 125 255
1.69022 -0.407881 5.52738 0 0 0 209 176 157 255
-0.117035 -0.158181 4.31289 0 0 0 105 118 107 255
0.434538 -0.173333 4.32523 0 0 0 149 160 122 255
1.91331 -0.44968 6.08637 0 0 0 188 174 168 255
0.0380702 -0.112727 4.31852 0 0 0 164 183 133 255
2.2918 -0.516858 7.13855 0 0 0 205 165 138 255
1.69064 -0.291488 5.56937 0 0 0 170 137 116 255
0.0302477 -0.0700653 4.32411 0 0 0 79 90 59 255
2.30941 -0.418221 7.1815 0 0 0 202 204 203 255
0.94964 -0.0499531 4.36149 0 0 0 81 88 84 255
-1.28325 -0.11063 5.76324 0 0 0 107 96 88 255
-1.28595 -0.0969391 5.6788 0 0 0 143 138 132 255
-1.12047 -0.101551 5.77618 0 0 0 131 123 111 255
-0.633438 0.0491869 4.51013 0 0 0 190 175 157 255
-0.37086 0.0655113 4.31488 0 0 0 154 175 129 255
0.562834 0.0315464 4.35637 0 0 0 69 81 66 255
0.551533 0.0430942 4.35798 0 0 0 103 115 104 255
0.76026 0.0451992 4.37382 0 0 0 52 59 50 255
0.771699 0.0565845 4.37451 0 0 0 68 80 74 255
-1.20843 0.0416397 5.73626 0 0 0 111 105 99 255
0.783191 0.0660473 4.37458 0 0 0 63 73 65 255
-1.90583 0.0748801 5.72906 0 0 0 135 127 127 255
0.793122 0.0766807 4.3693 0 0 0 65 80 75 255
-0.121353 0.204886 4.34674 0 0 0 161 181 129 255
-0.32026 0.246529 4.34414 0 0 0 135 150 113 255
-0.232553 0.254423 4.34463 0 0 0 82 96 91 255
1.9877 0.154408 6.08858 0 0 0 128 155 160 255
0.000850001 0.30508 4.36441 0 0 0 143 157 131 255
-0.00923418 0.31932 4.36533 0 0 0 84 95 82 255
1.9013 0.228737 6.08711 0 0 0 143 160 161 255
-0.288212 0.342573 4.35804 0 0 0 139 152 127 255
-0.079865 0.360608 4.36393 0 0 0 130 140 118 255
-0.223577 0.373879 4.36296 0 0 0 72 84 80 255
1.90372 0.290882 6.09098 0 0 0 133 150 152 255
1.19534 0.33285 4.42668 0 0 0 90 95 101 255
1.93164 0.319088 6.0928 0 0 0 177 169 137 255
0.267573 0.378299 4.38434 0 0 0 56 67 70 255
1.105 0.343925 4.42422 0 0 0 145 158 162 255
1.1291 0.35439 4.42654 0 0 0 49 57 61 255
0.116847 0.393194 4.38344 0 0 0 90 96 97 255
0.845281 0.36728 4.40943 0 0 0 128 128 130 255
0.0498865 0.403916 4.37646 0 0 0 42 50 56 255
1.12926 0.355487 4.4267 0 0 0 49 58 62 255
1.1411 0.358606 4.42715 0 0 0 132 146 148 255
0.289365 0.404945 4.38709 0 0 0 52 57 62 255
1.1744 0.366897 4.42861 0 0 0 73 73 75 255
1.19319 0.361948 4.4319 0 0 0 152 155 156 255
1.16269 0.37229 4.42747 0 0 0 94 100 104 255
0.856893 0.385556 4.41402 0 0 0 75 84 90 255
1.05505 0.37384 4.42022 0 0 0 116 130 130 255
1.13492 0.380157 4.42586 0 0 0 92 100 105 255
0.300957 0.417896 4.3885 0 0 0 111 130 138 255
-0.59443 0.469079 4.57928 0 0 0 68 65 61 255
-0.638055 0.484997 4.72253 0 0 0 117 94 78 255
1.90938 0.412729 6.10353 0 0 0 176 185 191 255
-0.952302 0.541247 5.68516 0 0 0 106 98 92 255
0.995446 0.435661 4.42787 0 0 0 66 70 75 255
1.1474 0.430916 4.43704 0 0 0 106 114 122 255
1.19515 0.425536 4.4364 0 0 0 104 110 114 255
-2.04784 0.601284 5.61758 0 0 0 86 51 42 255
0.784489 0.448192 4.41858 0 0 0 80 88 91 255
1.15912 0.437828 4.436 0 0 0 120 119 126 255
1.19956 0.440427 4.43601 0 0 0 91 91 95 255
1.1449 0.440508 4.43689 0 0 0 91 92 93 255
0.897301 0.456001 4.42267 0 0 0 89 103 101 255
0.515031 0.478921 4.40509 0 0 0 107 113 118 255
1.16771 0.491375 4.43983 0 0 0 199 199 199 255
1.1994 0.490037 4.44283 0 0 0 115 122 127 255
0.490739 0.530058 4.4094 0 0 0 140 153 157 255
1.04006 0.505125 4.43692 0 0 0 161 174 176 255
1.07251 0.502702 4.44279 0 0 0 180 183 186 255
-1.4824 0.745684 5.82497 0 0 0 76 57 48 255
-1.10182 0.741456 5.77029 0 0 0 76 59 47 255
0.717805 0.595838 4.43046 0 0 0 204 215 218 255
0.269206 0.623348 4.40975 0 0 0 164 168 169 255
1.01527 0.621458 4.44885 0 0 0 196 208 209 255
0.659333 0.667746 4.43261 0 0 0 151 162 165 255
-0.00284894 0.711072 4.40827 0 0 0 156 163 163 255
0.696018 0.719992 4.44228 0 0 0 195 209 209 255
-0.0628035 0.757463 4.41036 0 0 0 171 182 183 255
0.0162069 0.755391 4.41798 0 0 0 168 177 176 255
1.18592 0.714957 4.46595 0 0 0 195 201 201 255
1.98677 0.850183 6.14881 0 0 0 171 180 184 255
0.0292067 0.779636 4.41835 0 0 0 105 118 121 255
1.16002 0.736123 4.46561 0 0 0 162 162 162 255
0.842963 0.748683 4.45102 0 0 0 157 167 167 255
-0.429294 0.822672 4.40899 0 0 0 172 195 164 255
-1.83351 1.07026 5.73339 0 0 0 144 105 83 255
0.958146 0.778653 4.46323 0 0 0 184 191 193 255
1.92711 0.925673 6.13438 0 0 0 193 152 136 255
1.97871 0.924509 6.13874 0 0 0 203 162 148 255
1.37397 0.774154 4.58719 0 0 0 144 131 126 255
0.957727 0.787602 4.4636 0 0 0 170 181 184 255
-2.00283 1.10063 5.74358 0 0 0 120 84 74 255
1.36568 0.782598 4.5606 0 0 0 151 139 135 255
1.97337 0.945805 6.13949 0 0 0 202 185 185 255
0.433489 0.864685 4.44811 0 0 0 195 197 199 255
1.13527 0.835015 4.47937 0 0 0 145 152 154 255
0.996405 0.853424 4.47448 0 0 0 148 149 149 255
1.15374 0.876789 4.48572 0 0 0 170 189 196 255
0.806748 0.899324 4.46719 0 0 0 133 136 137 255
1.09998 0.899466 4.48503 0 0 0 105 108 110 255
1.15456 0.896155 4.48719 0 0 0 153 161 164 255
1.17621 0.989166 4.49508 0 0 0 137 134 135 255
1.22546 1.01574 4.49732 0 0 0 124 131 132 255
-0.544473 1.19776 4.50756 0 0 0 181 183 183 255
-1.44144 1.52704 5.79704 0 0 0 79 81 83 255
1.25891 -0.675823 4.42246 0 0 0 180 181 181 255
1.28418 -0.633361 4.43183 0 0 0 154 177 180 255
-1.17797 -0.567711 5.74665 0 0 0 157 133 121 255
-0.254569 -0.276801 4.29203 0 0 0 124 138 117 255
-0.0681041 -0.267723 4.29144 0 0 0 176 200 137 255
0.913336 -0.28557 4.34751 0 0 0 134 143 122 255
0.583149 -0.254815 4.32504 0 0 0 173 192 136 255
1.362 -0.300897 4.63193 0 0 0 165 165 165 255
0.276244 -0.19865 4.32526 0 0 0 140 151 119 255
-1.59498 -0.31512 5.75535 0 0 0 140 124 111 255
1.91366 -0.454061 6.08294 0 0 0 208 192 185 255
0.0722979 -0.150719 4.31414 0 0 0 94 104 95 255
-1.38016 -0.248366 5.75829 0 0 0 157 129 118 255
-1.33689 -0.250713 5.73576 0 0 0 188 171 156 255
1.4049 -0.186937 4.73622 0 0 0 200 171 149 255
1.52047 -0.212439 5.07645 0 0 0 165 140 124 255
-0.428314 -0.0242655 4.32083 0 0 0 147 162 138 255
2.30307 -0.422802 7.17067 0 0 0 203 164 133 255
0.951866 -0.0457907 4.36328 0 0 0 84 92 81 255
-0.419424 0.0370246 4.32867 0 0 0 173 200 157 255
-0.123988 0.325545 4.35049 0 0 0 168 172 148 255
-0.0811608 0.358481 4.36349 0 0 0 130 140 118 255
1.19407 0.431975 4.43616 0 0 0 101 108 111 255
1.14933 0.434819 4.43706 0 0 0 94 101 110 255
-0.630599 0.533661 4.6863 0 0 0 118 98 87 255
-1.19082 0.634356 5.81385 0 0 0 146 119 98 255
1.04739 0.503027 4.43886 0 0 0 163 173 176 255
0.717799 0.595836 4.4304 0 0 0 204 215 218 255
-1.97357 1.05227 5.75023 0 0 0 124 75 66 255
1.36624 0.771511 4.56027 0 0 0 194 167 166 255
1.36748 0.767237 4.55993 0 0 0 182 151 148 255
1.15162 0.880191 4.48519 0 0 0 170 189 196 255
0.612671 0.914457 4.45603 0 0 0 152 158 157 255
0.498521 0.957115 4.46122 0 0 0 162 176 179 255
1.07135 0.94029 4.48703 0 0 0 115 116 122 255
-0.987277 1.31315 5.84558 0 0 0 58 59 60 255
1.22199 1.01752 4.4954 0 0 0 123 132 131 255
1.3566 1.02142 4.50052 0 0 0 211 204 205 255
2.54755 -2.34496 8.66836 0 0 0 93 91 92 255
2.59274 -2.30005 8.82104 0 0 0 100 91 94 255
1.25822 -0.660749 4.42436 0 0 0 79 81 83 255
-1.13452 -0.652593 5.73982 0 0 0 175 168 154 255
-0.849388 -0.482419 5.00939 0 0 0 203 182 173 255
-0.464842 -0.338841 4.28582 0 0 0 132 146 129 255
-1.31473 -0.578726 5.67454 0 0 0 203 192 178 255
-1.1912 -0.575445 5.69034 0 0 0 203 189 179 255
-0.865424 -0.466935 5.08858 0 0 0 201 191 177 255
-1.77482 -0.497182 5.71377 0 0 0 160 140 124 255
-0.0645755 -0.266588 4.293 0 0 0 175 198 138 255
0.733699 -0.22298 4.33681 0 0 0 135 149 119 255
1.36625 -0.297951 4.64296 0 0 0 172 174 175 255
0.536105 -0.126222 4.33821 0 0 0 90 97 73 255
1.84947 -0.373513 6.02818 0 0 0 200 182 171 255
1.38423 -0.175911 4.69301 0 0 0 186 175 166 255
1.67683 -0.264793 5.53262 0 0 0 185 130 87 255
2.31557 -0.43061 7.19332 0 0 0 200 203 203 255
-1.73089 -0.108693 5.74712 0 0 0 120 111 97 255
-1.69711 -0.107255 5.75305 0 0 0 124 117 104 255
0.0242028 0.00167688 4.33371 0 0 0 101 114 101 255
