ply
format ascii 1.0
comment VCGLIB generated
element vertex 1015
property float x
property float y
property float z
property float nx
property float ny
property float nz
property uchar red
property uchar green
property uchar blue
property uchar alpha
element face 0
property list uchar int vertex_indices
end_header
-0.000662342 -0.0426095 5.54793 0 0 0 168 189 141 255
0.301378 -0.0342816 5.57714 0 0 0 125 133 118 255
0.700053 -0.0687422 5.61314 0 0 0 156 175 138 255
1.27785 0.0125605 5.65529 0 0 0 80 94 87 255
-0.187058 0.0432276 5.53632 0 0 0 164 188 152 255
0.139007 0.0251424 5.56245 0 0 0 86 96 91 255
1.45599 0.0964874 5.6751 0 0 0 93 105 99 255
0.604154 0.16766 5.61935 0 0 0 133 148 117 255
0.855641 0.0980716 5.62734 0 0 0 70 85 80 255
0.66004 0.204316 5.6239 0 0 0 160 177 126 255
0.695069 0.282071 5.62757 0 0 0 158 177 138 255
0.889642 0.282754 5.64438 0 0 0 150 163 131 255
0.000445184 0.395054 5.57932 0 0 0 60 74 72 255
1.32107 0.332865 5.66776 0 0 0 161 178 129 255
1.12899 0.472877 5.66186 0 0 0 49 64 63 255
-0.452448 0.677344 5.56934 0 0 0 119 97 85 255
0.11637 0.747434 5.6078 0 0 0 190 207 210 255
0.512981 0.749707 5.62909 0 0 0 190 208 213 255
0.788609 0.770874 5.65545 0 0 0 163 176 180 255
1.06561 0.748886 5.67569 0 0 0 192 205 210 255
1.65604 0.73112 5.69443 0 0 0 151 166 171 255
-0.268936 0.863637 5.65495 0 0 0 53 66 70 255
1.46685 0.871504 5.73338 0 0 0 118 130 135 255
-0.330364 0.903949 5.59448 0 0 0 81 92 93 255
1.06975 0.887252 5.68053 0 0 0 140 151 157 255
1.67569 0.894659 5.72623 0 0 0 157 165 167 255
1.47142 0.959442 5.73626 0 0 0 168 180 189 255
0.688815 1.10356 5.66636 0 0 0 125 136 139 255
-0.306773 1.33101 5.70169 0 0 0 64 78 76 255
1.67252 1.26223 5.75599 0 0 0 136 152 154 255
-1.71501 -0.705696 4.371 0 0 0 167 146 144 255
-1.50235 -0.585398 4.76879 0 0 0 153 121 101 255
-1.60809 -0.588021 5.02536 0 0 0 146 114 98 255
-1.59505 -0.532088 4.70905 0 0 0 137 89 63 255
-1.32274 -0.554285 4.92873 0 0 0 180 163 152 255
-1.47924 -0.555354 5.14126 0 0 0 147 133 119 255
-1.04216 -0.631055 5.4082 0 0 0 165 143 130 255
-1.3119 -0.580832 5.28053 0 0 0 147 122 106 255
-1.42466 -0.542444 5.1657 0 0 0 195 181 168 255
-1.129 -0.575009 5.22791 0 0 0 154 125 111 255
-1.12113 -0.59957 5.38506 0 0 0 138 117 106 255
-1.06852 -0.586935 5.31357 0 0 0 144 115 102 255
-1.06415 -0.610662 5.41686 0 0 0 145 118 105 255
-0.377849 -0.671685 5.54599 0 0 0 163 158 160 255
-1.27125 -0.531849 4.96856 0 0 0 189 176 165 255
-1.24749 -0.539117 4.9851 0 0 0 148 105 81 255
-1.23477 -0.561747 5.26556 0 0 0 185 166 155 255
-1.00414 -0.609833 5.41797 0 0 0 135 121 105 255
-1.36269 -0.514408 4.92725 0 0 0 187 158 150 255
-1.17931 -0.522538 5.03129 0 0 0 184 163 150 255
-1.09429 -0.569012 5.33561 0 0 0 185 166 156 255
-1.02099 -0.583003 5.41209 0 0 0 178 156 143 255
-0.913402 -0.590981 5.39954 0 0 0 197 181 166 255
-0.414198 -0.633404 5.48492 0 0 0 118 116 111 255
-1.40377 -0.487245 4.8897 0 0 0 149 99 75 255
-1.02707 -0.564493 5.33687 0 0 0 195 181 166 255
-0.882957 -0.575519 5.42554 0 0 0 148 100 87 255
-1.6363 -0.447646 5.08792 0 0 0 156 137 119 255
-0.946296 -0.544222 5.42783 0 0 0 199 180 173 255
-1.68249 -0.444985 5.15338 0 0 0 137 98 84 255
-1.26839 -0.460409 4.99894 0 0 0 198 180 163 255
-1.426 -0.429858 4.90516 0 0 0 136 98 81 255
-1.27347 -0.481918 5.29622 0 0 0 191 175 164 255
-1.39493 -0.428826 4.93295 0 0 0 130 114 106 255
-1.37519 -0.43139 4.95029 0 0 0 143 97 83 255
-1.13944 -0.495743 5.3564 0 0 0 194 177 160 255
-1.03779 -0.487135 5.2903 0 0 0 178 157 144 255
-1.02114 -0.506811 5.42222 0 0 0 191 175 159 255
-1.40847 -0.442083 5.17877 0 0 0 139 117 103 255
-1.38507 -0.44243 5.1865 0 0 0 150 96 76 255
-1.26432 -0.438583 5.00745 0 0 0 160 132 116 255
-1.24574 -0.440769 5.01583 0 0 0 151 106 88 255
-0.912515 -0.502911 5.39108 0 0 0 199 182 168 255
-0.848146 -0.509728 5.43501 0 0 0 193 179 167 255
-0.890318 -0.501048 5.44015 0 0 0 144 125 110 255
-1.11033 -0.454125 5.26456 0 0 0 107 91 82 255
-1.04538 -0.467202 5.29507 0 0 0 157 108 90 255
-1.00224 -0.481053 5.41247 0 0 0 145 100 83 255
-0.994395 -0.460214 5.35476 0 0 0 146 105 86 255
-0.852314 -0.486349 5.45922 0 0 0 131 116 108 255
-1.24129 -0.423473 5.23148 0 0 0 191 179 169 255
-1.28848 -0.4031 5.23989 0 0 0 198 180 163 255
-1.24286 -0.407151 5.23362 0 0 0 192 180 168 255
-1.30764 -0.386949 5.27238 0 0 0 162 140 129 255
-1.19014 -0.382657 5.05914 0 0 0 169 129 105 255
-1.47927 -0.323469 4.89155 0 0 0 151 104 84 255
-1.47081 -0.334966 5.16908 0 0 0 153 121 107 255
-1.43134 -0.335153 5.19826 0 0 0 141 109 87 255
-1.47292 -0.304157 4.90215 0 0 0 153 128 116 255
-1.2516 -0.339387 5.23939 0 0 0 151 114 92 255
-1.34867 -0.26305 4.99673 0 0 0 167 142 122 255
-1.28754 -0.270583 5.0276 0 0 0 188 171 153 255
-1.25351 -0.269135 5.24825 0 0 0 150 107 83 255
-1.34365 -0.241548 5.22079 0 0 0 196 179 162 255
-1.31708 -0.256575 5.24283 0 0 0 165 119 105 255
-1.05458 -0.27434 5.36024 0 0 0 151 109 91 255
-1.00252 -0.286376 5.42961 0 0 0 159 111 86 255
-1.36444 -0.235781 5.20963 0 0 0 137 106 90 255
-1.4509 -0.202684 4.95514 0 0 0 202 173 153 255
-1.03946 -0.256639 5.38838 0 0 0 179 134 112 255
-1.0166 -0.262132 5.41698 0 0 0 191 184 173 255
-1.33894 -0.165134 5.02141 0 0 0 140 101 82 255
0.357041 -0.329062 5.60338 0 0 0 120 137 86 255
0.409393 -0.326979 5.59261 0 0 0 69 74 58 255
0.471854 -0.331153 5.60243 0 0 0 116 119 98 255
-1.37095 -0.160706 5.21638 0 0 0 158 144 131 255
-1.33721 -0.167987 5.23603 0 0 0 196 179 160 255
-1.30696 -0.167856 5.24959 0 0 0 154 103 79 255
0.386133 -0.322717 5.568 0 0 0 134 147 122 255
-1.45805 -0.141964 4.96958 0 0 0 150 111 92 255
-1.36516 -0.142993 5.02004 0 0 0 140 125 114 255
-1.41501 -0.137811 5.21593 0 0 0 146 112 88 255
-1.36665 -0.141176 5.21861 0 0 0 151 126 109 255
-1.30903 -0.143838 5.24759 0 0 0 143 109 96 255
-1.0325 -0.174155 5.37336 0 0 0 143 108 86 255
-1.26577 -0.143542 5.25674 0 0 0 166 148 133 255
-1.24119 -0.14817 5.26362 0 0 0 148 103 82 255
-1.03723 -0.157485 5.36853 0 0 0 142 100 79 255
0.431942 -0.29338 5.60356 0 0 0 102 111 98 255
-0.97858 -0.155635 5.38344 0 0 0 133 114 100 255
-0.95371 -0.155124 5.39395 0 0 0 135 108 95 255
0.549372 -0.290877 5.63442 0 0 0 122 131 105 255
0.589352 -0.277674 5.60366 0 0 0 119 132 94 255
0.438642 -0.242634 5.59851 0 0 0 96 104 83 255
0.621466 -0.252594 5.60824 0 0 0 111 118 75 255
0.197572 -0.202202 5.56418 0 0 0 76 89 78 255
0.637684 -0.236761 5.61264 0 0 0 170 189 137 255
0.242597 -0.186166 5.57232 0 0 0 165 176 136 255
-1.63236 -0.0112962 4.86684 0 0 0 131 124 110 255
-1.66462 -0.000184524 5.12335 0 0 0 124 117 103 255
-1.64926 -0.00625384 5.19626 0 0 0 124 117 103 255
-1.58839 -0.014626 5.19189 0 0 0 170 160 148 255
-1.48698 -0.0253712 4.97691 0 0 0 168 159 147 255
-1.45785 -0.0259112 4.99128 0 0 0 194 179 161 255
-1.4324 -0.0247995 4.99371 0 0 0 115 105 93 255
-1.37657 -0.0254618 5.03684 0 0 0 168 153 135 255
-1.33389 -0.0289165 5.05951 0 0 0 188 171 152 255
0.224866 -0.167959 5.57297 0 0 0 131 141 110 255
-1.41266 -0.0165855 5.01276 0 0 0 103 97 92 255
-1.34812 -0.0134171 5.25562 0 0 0 96 89 80 255
-1.58203 0.0158745 5.19076 0 0 0 195 178 163 255
-1.31826 -0.0125445 5.2764 0 0 0 132 120 109 255
-1.23686 -0.0183059 5.28696 0 0 0 134 124 114 255
-1.20721 -0.0277976 5.34763 0 0 0 161 148 130 255
-1.167 -0.0300797 5.40858 0 0 0 107 105 101 255
-1.65567 0.0272247 4.87444 0 0 0 149 144 135 255
-1.49678 0.0183083 5.18322 0 0 0 190 180 170 255
-1.06664 -0.02704 5.3556 0 0 0 137 130 119 255
-1.01639 -0.0326287 5.3943 0 0 0 151 137 124 255
1.01594 -0.197665 5.63291 0 0 0 127 136 113 255
-1.62649 0.0288356 4.89814 0 0 0 137 130 120 255
-1.39975 0.0154191 5.23451 0 0 0 56 63 52 255
-1.11523 -0.0139716 5.35862 0 0 0 110 104 95 255
-0.949421 -0.0304405 5.42594 0 0 0 148 135 121 255
-0.880583 -0.040531 5.44827 0 0 0 154 143 131 255
-0.843705 -0.0399416 5.46872 0 0 0 158 152 143 255
-1.67434 0.0422916 5.13529 0 0 0 87 81 71 255
-1.64641 0.0459886 5.14943 0 0 0 88 86 79 255
-1.34922 0.0165248 5.25279 0 0 0 106 98 92 255
-1.57299 0.051527 5.17285 0 0 0 99 94 91 255
-1.54287 0.0445943 5.13257 0 0 0 104 99 96 255
-1.19629 0.0136998 5.32971 0 0 0 76 71 64 255
-1.01187 -0.00185145 5.38931 0 0 0 193 180 165 255
-0.907878 -0.0194275 5.46386 0 0 0 110 102 94 255
-0.835408 -0.0223177 5.45731 0 0 0 140 135 124 255
-1.53524 0.0479863 5.17901 0 0 0 152 144 133 255
-1.50899 0.0477949 5.1883 0 0 0 133 126 121 255
-1.43465 0.0438255 5.19893 0 0 0 93 78 79 255
-1.40629 0.0367876 5.2306 0 0 0 95 95 95 255
-1.32 0.0291939 5.27299 0 0 0 110 96 96 255
-1.25581 0.0201459 5.28239 0 0 0 130 124 115 255
-1.21792 0.0191378 5.2858 0 0 0 116 108 97 255
0.369246 -0.11839 5.58093 0 0 0 157 175 121 255
-1.37145 0.0417548 5.23991 0 0 0 135 125 121 255
-1.17383 0.0234218 5.4021 0 0 0 130 121 117 255
-0.873729 -0.00603117 5.43852 0 0 0 194 178 165 255
-1.20651 0.0334848 5.28511 0 0 0 166 159 151 255
-1.22607 0.032741 5.37701 0 0 0 147 135 125 255
-1.09468 0.0240112 5.37348 0 0 0 106 97 83 255
-0.967711 0.0117927 5.43522 0 0 0 135 130 118 255
-0.831387 0.00115698 5.44668 0 0 0 128 123 111 255
0.423666 -0.102977 5.57547 0 0 0 60 68 60 255
1.26148 -0.170497 5.65393 0 0 0 142 150 122 255
-1.05924 0.0308922 5.37752 0 0 0 125 118 106 255
0.986781 -0.13869 5.63706 0 0 0 96 107 77 255
-1.00634 0.0282124 5.39104 0 0 0 129 121 110 255
-0.922881 0.0266899 5.42732 0 0 0 137 131 126 255
-0.871234 0.0258228 5.4364 0 0 0 121 113 104 255
0.140769 -0.0595187 5.56098 0 0 0 64 73 60 255
0.666123 -0.102568 5.61744 0 0 0 149 158 118 255
0.305857 -0.061471 5.57945 0 0 0 173 184 144 255
-1.84923 0.125692 4.70995 0 0 0 53 27 15 255
1.07081 -0.107539 5.63849 0 0 0 128 139 115 255
0.249922 -0.00357658 5.57187 0 0 0 119 129 110 255
-1.66582 0.16996 4.91318 0 0 0 162 158 155 255
-1.61632 0.166147 4.93948 0 0 0 101 90 89 255
-1.56083 0.151249 4.97748 0 0 0 70 58 58 255
-0.0524922 0.0405737 5.54326 0 0 0 149 159 129 255
-1.59424 0.177971 4.96461 0 0 0 170 137 124 255
-1.65411 0.184516 5.32535 0 0 0 162 152 142 255
-1.6673 0.180125 4.91437 0 0 0 171 166 159 255
-1.61769 0.187802 4.94808 0 0 0 150 146 141 255
-1.51394 0.184655 5.21248 0 0 0 150 139 135 255
-1.43722 0.168114 5.05356 0 0 0 136 129 125 255
-1.46243 0.177271 5.26273 0 0 0 163 157 157 255
-1.39474 0.18867 5.2575 0 0 0 168 147 142 255
0.637437 0.00867501 5.61659 0 0 0 79 92 83 255
-1.69711 0.207205 5.12166 0 0 0 150 146 141 255
-1.68017 0.207149 5.23709 0 0 0 170 149 140 255
-1.51819 0.198315 5.2284 0 0 0 168 160 152 255
-1.45949 0.193554 5.26581 0 0 0 156 146 138 255
-1.37776 0.186175 5.26712 0 0 0 161 153 149 255
-1.23312 0.182722 5.30195 0 0 0 132 97 85 255
0.843505 0.00284815 5.62825 0 0 0 79 85 69 255
-1.49723 0.19166 5.02923 0 0 0 141 132 125 255
-1.10768 0.173724 5.43729 0 0 0 156 150 145 255
-1.23314 0.18388 5.30104 0 0 0 142 93 73 255
-1.01806 0.170542 5.40235 0 0 0 123 116 115 255
-0.992111 0.17446 5.39637 0 0 0 141 137 131 255
-0.957069 0.170003 5.4497 0 0 0 171 161 156 255
-0.805968 0.161256 5.46983 0 0 0 153 146 140 255
-1.11197 0.191216 5.43335 0 0 0 168 149 145 255
-1.8627 0.234218 4.71373 0 0 0 119 80 57 255
-0.92993 0.184666 5.44463 0 0 0 145 140 135 255
-1.74956 0.241928 4.8755 0 0 0 121 98 84 255
-1.01564 0.193926 5.40044 0 0 0 150 142 134 255
-0.800231 0.188791 5.45772 0 0 0 145 134 129 255
0.223043 0.139314 5.58664 0 0 0 99 107 98 255
0.510696 0.13022 5.61444 0 0 0 79 86 84 255
-1.65759 0.293409 4.9503 0 0 0 109 84 66 255
0.634964 0.236911 5.62833 0 0 0 62 69 59 255
-1.68303 0.463973 4.99261 0 0 0 66 43 39 255
0.998644 0.283891 5.64709 0 0 0 145 158 117 255
1.42159 0.296374 5.67257 0 0 0 99 105 101 255
-1.75759 0.520789 4.91974 0 0 0 80 66 51 255
0.203145 0.419413 5.586 0 0 0 67 79 75 255
0.598988 0.407133 5.63114 0 0 0 88 98 93 255
0.0448253 0.46056 5.5783 0 0 0 72 80 77 255
0.213472 0.451312 5.59952 0 0 0 120 133 106 255
0.716929 0.424462 5.63532 0 0 0 137 145 117 255
1.0727 0.392303 5.65395 0 0 0 84 94 88 255
0.995011 0.436525 5.6521 0 0 0 88 100 95 255
-1.45777 0.637615 5.27397 0 0 0 104 87 79 255
1.25134 0.424475 5.67248 0 0 0 122 130 103 255
0.55533 0.500268 5.62636 0 0 0 97 109 116 255
0.598841 0.50831 5.63349 0 0 0 86 86 86 255
0.6774 0.515116 5.66076 0 0 0 127 130 138 255
0.906842 0.49721 5.64998 0 0 0 64 75 78 255
-1.39453 0.665468 5.16794 0 0 0 113 90 81 255
0.568071 0.551412 5.64891 0 0 0 66 70 73 255
0.601671 0.55438 5.63146 0 0 0 95 102 104 255
0.989649 0.517676 5.65157 0 0 0 130 138 143 255
-1.40653 0.691921 5.16966 0 0 0 40 41 38 255
1.03932 0.522044 5.65741 0 0 0 82 84 85 255
1.2208 0.507601 5.66077 0 0 0 57 57 58 255
1.25643 0.510802 5.66814 0 0 0 66 66 68 255
1.32458 0.506097 5.67193 0 0 0 115 112 114 255
1.62765 0.479241 5.67093 0 0 0 116 121 131 255
1.66233 0.478832 5.65311 0 0 0 96 102 111 255
1.17885 0.524311 5.65111 0 0 0 57 57 57 255
1.30022 0.513049 5.67159 0 0 0 51 54 56 255
-1.30366 0.728038 5.31624 0 0 0 123 94 82 255
1.59372 0.496735 5.68554 0 0 0 46 51 49 255
-1.3589 0.739442 5.30125 0 0 0 66 52 48 255
1.59635 0.50495 5.66253 0 0 0 146 148 149 255
-1.72322 0.799301 5.31045 0 0 0 90 78 71 255
-1.01308 0.744457 5.45174 0 0 0 53 46 45 255
-0.962301 0.743399 5.43515 0 0 0 94 84 78 255
1.62765 0.528305 5.66767 0 0 0 137 137 142 255
-0.935044 0.764322 5.43739 0 0 0 93 70 55 255
-1.43359 0.806061 5.28293 0 0 0 61 46 37 255
-1.05029 0.789919 5.41543 0 0 0 87 65 53 255
1.25369 0.599857 5.67302 0 0 0 72 82 90 255
-0.889474 0.787677 5.47729 0 0 0 70 54 53 255
-1.07634 0.801035 5.41032 0 0 0 76 52 38 255
-1.33969 0.831128 5.41232 0 0 0 53 39 33 255
-0.820582 0.798523 5.48075 0 0 0 80 48 36 255
-0.787097 0.798377 5.48005 0 0 0 106 93 90 255
1.40122 0.61157 5.6737 0 0 0 67 77 85 255
-1.39194 0.850518 5.40854 0 0 0 76 53 43 255
-1.13 0.822445 5.39554 0 0 0 72 52 52 255
1.629 0.600224 5.67976 0 0 0 77 83 87 255
1.66697 0.591731 5.68246 0 0 0 57 63 64 255
-1.47455 0.832076 5.15668 0 0 0 109 93 80 255
1.61879 0.615835 5.67848 0 0 0 69 87 90 255
-1.04432 0.837515 5.43241 0 0 0 59 45 47 255
-0.986999 0.839522 5.4283 0 0 0 84 65 55 255
-0.984653 0.827711 5.43999 0 0 0 88 64 54 255
-1.51641 0.845437 5.14386 0 0 0 124 106 88 255
-0.903595 0.849485 5.44674 0 0 0 84 61 51 255
-1.28559 0.875556 5.33449 0 0 0 54 42 44 255
-1.4592 0.905487 5.3974 0 0 0 58 48 40 255
-1.53301 0.935899 5.37137 0 0 0 68 55 48 255
-1.14108 0.907076 5.43004 0 0 0 76 55 53 255
-1.39293 0.944078 5.40301 0 0 0 68 52 42 255
-1.24395 0.912211 5.35077 0 0 0 84 59 44 255
-0.975059 0.906264 5.42876 0 0 0 78 62 57 255
-1.005 0.92541 5.44083 0 0 0 86 67 55 255
-1.47786 0.968179 5.38927 0 0 0 73 60 52 255
-1.05876 0.938975 5.43389 0 0 0 83 54 45 255
1.45473 0.738145 5.6708 0 0 0 154 151 152 255
-1.48588 0.942197 5.17121 0 0 0 102 78 62 255
-1.12806 0.955657 5.43316 0 0 0 63 49 43 255
-1.01973 0.979212 5.43095 0 0 0 111 89 75 255
-1.18227 0.986778 5.36714 0 0 0 66 50 42 255
-1.12041 0.993394 5.38532 0 0 0 62 54 53 255
-1.08478 0.991248 5.43408 0 0 0 63 48 41 255
-0.790687 0.97829 5.47826 0 0 0 90 70 57 255
-1.15217 1.02426 5.37616 0 0 0 78 56 45 255
-1.57239 1.07035 5.32011 0 0 0 112 89 74 255
-1.21747 1.03459 5.35546 0 0 0 64 56 53 255
-1.19181 1.05051 5.4231 0 0 0 100 76 69 255
-1.1326 1.05906 5.42292 0 0 0 70 55 48 255
0.441604 0.941851 5.63148 0 0 0 181 188 188 255
1.09922 0.903267 5.66888 0 0 0 147 147 147 255
1.35381 0.874655 5.67646 0 0 0 197 204 203 255
-0.968532 1.07942 5.44883 0 0 0 104 85 74 255
-1.31537 1.09867 5.35028 0 0 0 107 94 87 255
-1.17046 1.10494 5.43564 0 0 0 61 53 53 255
-1.08155 1.09376 5.38723 0 0 0 80 58 52 255
0.556125 0.981457 5.63514 0 0 0 155 163 167 255
-1.55924 1.12396 5.15409 0 0 0 140 122 104 255
1.53823 0.898838 5.5682 0 0 0 180 194 194 255
-0.972726 1.12677 5.42293 0 0 0 91 74 64 255
-0.823984 1.13903 5.47775 0 0 0 98 79 75 255
-1.6719 1.19594 5.29961 0 0 0 133 119 113 255
-1.13582 1.1598 5.37387 0 0 0 79 58 47 255
0.256447 1.06266 5.61819 0 0 0 193 204 205 255
-1.56726 1.18238 5.2583 0 0 0 124 105 97 255
-1.15006 1.1763 5.42909 0 0 0 89 63 56 255
0.533757 1.04337 5.63391 0 0 0 142 142 142 255
-0.767463 1.15936 5.48311 0 0 0 139 107 91 255
1.73629 0.932956 5.68014 0 0 0 164 169 170 255
-1.59335 1.20923 5.25107 0 0 0 115 98 93 255
-1.54844 1.2076 5.17422 0 0 0 96 71 68 255
1.44714 0.982846 5.55505 0 0 0 185 190 190 255
1.53552 0.974787 5.55837 0 0 0 193 199 199 255
-1.01083 1.22169 5.43401 0 0 0 95 79 71 255
-1.11396 1.23889 5.38387 0 0 0 83 69 64 255
-1.03791 1.23585 5.39563 0 0 0 112 98 91 255
-1.12751 1.24048 5.37874 0 0 0 100 81 68 255
-0.763738 1.24393 5.49744 0 0 0 111 87 75 255
-1.09248 1.26988 5.38212 0 0 0 84 77 76 255
0.330558 1.19204 5.59886 0 0 0 183 193 193 255
1.22714 1.13771 5.62898 0 0 0 127 133 133 255
1.26659 1.12667 5.58956 0 0 0 100 100 98 255
-0.88941 1.33345 5.45117 0 0 0 101 78 73 255
-1.05144 1.35621 5.4292 0 0 0 98 69 59 255
1.3908 1.13632 5.58127 0 0 0 150 158 159 255
-1.10505 1.37923 5.4388 0 0 0 88 62 52 255
-0.851931 1.36053 5.45411 0 0 0 92 78 69 255
-1.04049 1.38311 5.39129 0 0 0 119 104 91 255
-0.997802 1.39874 5.39532 0 0 0 85 69 59 255
-0.880742 1.41636 5.46226 0 0 0 92 78 69 255
-1.22837 1.44797 5.39753 0 0 0 159 131 107 255
-0.789054 1.41197 5.45092 0 0 0 108 84 76 255
-0.84211 1.52032 5.43812 0 0 0 120 95 86 255
-0.935008 1.53814 5.4436 0 0 0 127 108 96 255
-0.909435 1.54525 5.44559 0 0 0 107 89 79 255
-0.823972 1.53473 5.4428 0 0 0 104 85 80 255
-0.773951 1.56917 5.43923 0 0 0 148 122 101 255
-0.727464 1.57099 5.45863 0 0 0 143 109 98 255
0.250713 1.50251 5.57474 0 0 0 98 107 103 255
-0.772316 1.6803 5.4847 0 0 0 128 118 113 255
-0.855893 1.70355 5.43063 0 0 0 128 113 106 255
-1.81184 -0.775116 4.75289 0 0 0 64 64 64 255
-1.37416 -0.540353 4.9053 0 0 0 135 122 108 255
-1.27097 -0.549602 4.96282 0 0 0 140 105 91 255
-1.23767 -0.592213 5.28251 0 0 0 151 122 109 255
-0.947051 -0.598245 5.14507 0 0 0 133 103 90 255
-0.375462 -0.672076 5.55068 0 0 0 163 158 160 255
-1.44985 -0.509059 4.84345 0 0 0 196 180 165 255
-1.27525 -0.572573 5.22214 0 0 0 137 110 94 255
-1.16341 -0.587541 5.31418 0 0 0 145 107 95 255
-0.942813 -0.586628 5.15323 0 0 0 148 101 80 255
-1.42684 -0.526531 5.16409 0 0 0 195 180 166 255
-1.24655 -0.534353 4.98457 0 0 0 148 105 81 255
-1.28954 -0.511893 4.97222 0 0 0 194 180 166 255
-1.20733 -0.535756 5.15201 0 0 0 194 181 164 255
-0.909504 -0.574749 5.45962 0 0 0 118 91 79 255
-1.45925 -0.454477 4.86689 0 0 0 198 181 163 255
-1.1495 -0.513629 5.38306 0 0 0 199 182 166 255
-1.52052 -0.425037 4.82364 0 0 0 140 105 92 255
-0.992865 -0.498252 5.35706 0 0 0 191 175 159 255
-1.5375 -0.432155 5.11977 0 0 0 146 131 116 255
-1.38645 -0.435195 4.93404 0 0 0 144 121 116 255
-1.32106 -0.437978 4.9765 0 0 0 132 100 84 255
-1.25504 -0.44613 5.01243 0 0 0 144 112 96 255
-1.1399 -0.465683 5.06599 0 0 0 176 158 145 255
-0.899019 -0.511309 5.32338 0 0 0 199 180 165 255
-1.20839 -0.450698 5.23775 0 0 0 163 143 131 255
-0.996019 -0.467179 5.35219 0 0 0 152 107 88 255
-1.24028 -0.416402 5.23305 0 0 0 192 180 169 255
-1.20985 -0.387829 5.05045 0 0 0 154 122 110 255
-1.25421 -0.263576 5.04402 0 0 0 149 126 114 255
-1.14881 -0.281197 5.29313 0 0 0 138 101 91 255
-1.28524 -0.261596 5.02868 0 0 0 152 134 117 255
-1.19446 -0.261897 5.07705 0 0 0 149 115 94 255
-1.44959 -0.21833 4.95025 0 0 0 199 178 159 255
-1.05408 -0.274777 5.36039 0 0 0 151 109 91 255
-1.36396 -0.230271 5.20788 0 0 0 150 118 102 255
-1.14771 -0.245585 5.28991 0 0 0 197 182 165 255
-1.13005 -0.239237 5.29895 0 0 0 197 182 164 255
-1.10575 -0.235308 5.34506 0 0 0 153 106 86 255
-1.02685 -0.244645 5.41514 0 0 0 199 182 163 255
-1.08826 -0.211156 5.31244 0 0 0 151 106 82 255
-1.34981 -0.17276 5.23147 0 0 0 196 181 163 255
-1.45506 -0.136801 4.97731 0 0 0 146 108 89 255
-1.32142 -0.172176 5.24262 0 0 0 168 145 130 255
-1.15864 -0.182023 5.32785 0 0 0 199 181 162 255
-1.35714 -0.145883 5.22173 0 0 0 170 133 114 255
-1.32771 -0.137623 5.2381 0 0 0 160 133 116 255
-1.03944 -0.162635 5.36436 0 0 0 148 108 85 255
-0.964614 -0.159938 5.39243 0 0 0 150 107 82 255
0.209637 -0.267723 5.58268 0 0 0 111 124 88 255
-1.55588 -0.0155414 4.93889 0 0 0 192 180 165 255
-1.4469 -0.0125807 5.21323 0 0 0 91 81 73 255
-1.0276 -0.0341829 5.41626 0 0 0 151 137 124 255
-1.56887 0.0445573 5.17865 0 0 0 104 99 96 255
-1.25199 0.017283 5.27373 0 0 0 130 124 115 255
-1.20177 0.0264694 5.33451 0 0 0 150 139 124 255
-0.838004 -0.00817726 5.46769 0 0 0 106 99 90 255
1.02825 -0.16675 5.63705 0 0 0 87 94 83 255
-0.88239 0.0250618 5.43119 0 0 0 121 111 103 255
-1.63532 0.195206 5.17439 0 0 0 167 154 150 255
-1.38937 0.187745 5.25603 0 0 0 139 133 131 255
-0.93216 0.177295 5.41431 0 0 0 171 161 156 255
-0.797609 0.177338 5.45374 0 0 0 143 132 127 255
-1.74956 0.241928 4.8755 0 0 0 121 98 84 255
-1.70646 0.261552 4.90492 0 0 0 138 108 89 255
-0.0787659 0.151248 5.55551 0 0 0 160 173 134 255
-1.73479 0.277663 4.89582 0 0 0 75 42 38 255
0.0103201 0.221053 5.57144 0 0 0 68 71 49 255
0.885155 0.236005 5.64241 0 0 0 73 78 74 255
-1.75956 0.441144 4.89401 0 0 0 129 100 85 255
-1.78658 0.446904 4.87725 0 0 0 128 93 84 255
-1.69605 0.468833 4.98882 0 0 0 66 43 41 255
1.05267 0.365828 5.65573 0 0 0 52 58 50 255
-1.36289 0.636224 5.41135 0 0 0 47 41 39 255
1.1756 0.429314 5.66321 0 0 0 158 173 124 255
-1.47137 0.627015 5.12814 0 0 0 127 103 80 255
1.9203 0.366296 5.67764 0 0 0 67 94 107 255
0.422408 0.531677 5.58845 0 0 0 42 46 52 255
1.3189 0.499989 5.67302 0 0 0 113 110 114 255
-1.32917 0.731764 5.375 0 0 0 123 94 82 255
1.39566 0.512097 5.67039 0 0 0 127 128 135 255
-1.54194 0.786427 5.33572 0 0 0 117 93 79 255
1.57037 0.517233 5.67227 0 0 0 99 98 100 255
-0.971537 0.754055 5.45474 0 0 0 124 103 93 255
-0.937534 0.768617 5.45668 0 0 0 67 49 41 255
-0.163652 0.703229 5.57163 0 0 0 69 77 79 255
-1.44044 0.810936 5.30231 0 0 0 61 46 37 255
-1.04985 0.798855 5.4151 0 0 0 67 50 42 255
-0.856839 0.778782 5.47321 0 0 0 120 103 92 255
-1.06627 0.802705 5.41135 0 0 0 77 50 36 255
-1.14016 0.822037 5.39353 0 0 0 60 47 43 255
-1.05835 0.807928 5.41256 0 0 0 58 46 42 255
-0.978519 0.839087 5.42902 0 0 0 71 55 50 255
-1.40402 0.876851 5.30447 0 0 0 60 44 36 255
-1.29837 0.88125 5.32875 0 0 0 59 41 40 255
-1.13858 0.888802 5.38674 0 0 0 60 46 46 255
-1.4771 0.897147 5.16574 0 0 0 142 110 94 255
-1.27739 0.931159 5.42986 0 0 0 74 52 44 255
-1.35475 0.934398 5.3204 0 0 0 57 47 41 255
-0.850404 0.972351 5.46525 0 0 0 79 65 58 255
1.10814 0.811555 5.658 0 0 0 198 207 208 255
1.50131 0.77345 5.65655 0 0 0 126 134 138 255
-1.22274 1.03287 5.35292 0 0 0 71 56 45 255
1.29427 0.832685 5.67255 0 0 0 103 109 111 255
-1.55158 1.06422 5.1549 0 0 0 125 106 93 255
-1.14362 1.0798 5.36915 0 0 0 67 55 55 255
-1.34637 1.11954 5.39982 0 0 0 121 97 92 255
-1.09228 1.10004 5.41749 0 0 0 80 58 52 255
1.33447 0.892271 5.67589 0 0 0 196 205 204 255
0.388931 1.00247 5.62992 0 0 0 194 205 206 255
-1.57159 1.13579 5.14983 0 0 0 139 127 117 255
-0.985571 1.13491 5.42394 0 0 0 109 86 74 255
-0.860871 1.13542 5.4546 0 0 0 114 92 78 255
-1.1387 1.15696 5.3743 0 0 0 79 58 47 255
-0.912296 1.18814 5.44537 0 0 0 89 76 74 255
1.41134 0.991722 5.62441 0 0 0 95 100 98 255
-1.01626 1.22198 5.41017 0 0 0 101 82 74 255
-0.769612 1.23906 5.48145 0 0 0 122 95 80 255
0.148581 1.20435 5.5767 0 0 0 187 200 201 255
0.320106 1.1921 5.59682 0 0 0 187 196 196 255
-0.845794 1.29955 5.46652 0 0 0 109 86 71 255
-0.901549 1.33898 5.4492 0 0 0 128 108 93 255
-1.07889 1.36209 5.38227 0 0 0 88 62 52 255
-0.870278 1.38344 5.48284 0 0 0 92 75 63 255
-1.04442 1.38172 5.38935 0 0 0 119 104 91 255
-0.98984 1.39587 5.39561 0 0 0 75 64 61 255
-0.873517 1.39694 5.44002 0 0 0 104 87 79 255
-0.79999 1.41934 5.45983 0 0 0 108 87 78 255
-0.35286 1.44615 5.5369 0 0 0 131 110 95 255
-0.907167 1.5559 5.41226 0 0 0 73 66 64 255
-0.727734 1.55953 5.45378 0 0 0 144 110 99 255
-0.809687 1.57137 5.44708 0 0 0 143 120 107 255
-0.76631 1.68071 5.45332 0 0 0 138 117 101 255
-1.29799 1.68191 5.27699 0 0 0 180 140 122 255
-0.85245 1.7009 5.41044 0 0 0 128 113 106 255
-1.56531 -0.582765 4.69451 0 0 0 140 118 100 255
-1.50351 -0.576868 4.77302 0 0 0 153 107 84 255
-1.57064 -0.545664 5.06565 0 0 0 167 153 137 255
-1.44008 -0.539253 4.83506 0 0 0 115 98 89 255
-1.48488 -0.565082 5.17468 0 0 0 153 103 77 255
-1.36947 -0.578681 5.23415 0 0 0 145 107 90 255
-1.14074 -0.563764 5.02958 0 0 0 151 122 109 255
-1.02794 -0.612911 5.38588 0 0 0 150 108 89 255
-0.854467 -0.589204 5.19546 0 0 0 133 118 108 255
-0.367399 -0.676042 5.62619 0 0 0 162 165 162 255
-1.61988 -0.459682 4.72914 0 0 0 141 108 88 255
-1.55756 -0.504376 5.10126 0 0 0 195 180 162 255
-1.41372 -0.498586 4.88059 0 0 0 149 106 89 255
-1.33621 -0.499807 4.94783 0 0 0 196 181 163 255
-1.36184 -0.513013 5.18266 0 0 0 193 180 167 255
-1.60135 -0.468781 5.10045 0 0 0 151 104 80 255
-1.45555 -0.460532 4.86731 0 0 0 198 180 162 255
-1.37823 -0.455469 4.93036 0 0 0 131 111 98 255
-1.16126 -0.4942 5.04713 0 0 0 196 181 163 255
-1.1261 -0.483394 5.06393 0 0 0 151 116 106 255
-0.978154 -0.533494 5.34926 0 0 0 196 182 170 255
-1.53428 -0.415606 4.81938 0 0 0 123 98 79 255
-1.25963 -0.448044 5.00671 0 0 0 174 149 134 255
-0.887012 -0.524501 5.33526 0 0 0 200 182 168 255
-1.45641 -0.418332 4.8921 0 0 0 127 103 93 255
-1.31783 -0.420676 4.98402 0 0 0 168 161 157 255
-0.995301 -0.478106 5.35609 0 0 0 157 104 84 255
-1.11343 -0.457245 5.26322 0 0 0 154 106 88 255
-1.19612 -0.391851 5.0521 0 0 0 148 99 81 255
-1.58624 -0.31742 5.11748 0 0 0 152 106 86 255
-1.40089 -0.328917 4.93785 0 0 0 144 129 117 255
-1.25054 -0.339707 5.23916 0 0 0 151 114 92 255
-1.2832 -0.263633 5.02707 0 0 0 152 134 117 255
-1.15801 -0.257348 5.28581 0 0 0 170 151 141 255
-1.03966 -0.291276 5.31357 0 0 0 194 176 159 255
-1.19065 -0.227088 5.27068 0 0 0 146 115 98 255
-0.976869 -0.263912 5.39403 0 0 0 157 114 97 255
-1.45965 -0.1598 4.96579 0 0 0 151 104 83 255
-1.3221 -0.178948 5.24029 0 0 0 157 104 77 255
-1.13778 -0.209202 5.28817 0 0 0 199 181 162 255
-1.35415 -0.147761 5.02027 0 0 0 149 109 85 255
-1.24551 -0.143968 5.26245 0 0 0 147 107 87 255
-1.16332 -0.133118 5.32406 0 0 0 180 149 133 255
-1.12945 -0.15298 5.34062 0 0 0 139 111 95 255
-1.04242 -0.161426 5.36337 0 0 0 148 108 85 255
-0.9668 -0.168933 5.39368 0 0 0 148 107 86 255
-1.57522 -0.00348829 4.92737 0 0 0 86 79 75 255
-1.43067 -0.023273 4.99516 0 0 0 115 105 93 255
-1.37991 -0.00480433 5.24417 0 0 0 121 119 115 255
-1.53988 0.0147577 4.96692 0 0 0 150 146 138 255
-1.40734 0.00905699 5.23626 0 0 0 109 112 101 255
-0.877296 -0.0395507 5.45606 0 0 0 132 123 114 255
0.383188 -0.132235 5.58038 0 0 0 143 157 111 255
-1.62386 0.0336335 5.10367 0 0 0 159 143 133 255
-1.39482 0.00666672 5.26 0 0 0 141 127 116 255
-1.50516 0.0487508 5.19446 0 0 0 67 61 55 255
-1.43502 0.0434789 5.21329 0 0 0 102 93 79 255
-1.09407 0.0162237 5.37146 0 0 0 107 99 87 255
-0.964321 0.00124516 5.43999 0 0 0 125 117 107 255
-1.0297 0.0339408 5.42653 0 0 0 134 126 114 255
0.898036 -0.131006 5.62923 0 0 0 60 73 62 255
-1.66231 0.184824 4.92505 0 0 0 123 117 110 255
-1.66752 0.189913 5.09182 0 0 0 107 68 54 255
-0.429607 0.10194 5.54298 0 0 0 185 170 151 255
-1.23158 0.183891 5.31355 0 0 0 145 95 68 255
-1.00621 0.191569 5.40901 0 0 0 70 62 56 255
-0.92583 0.177605 5.42045 0 0 0 154 144 132 255
-0.0490222 0.158286 5.5574 0 0 0 168 187 140 255
0.797643 0.094496 5.63058 0 0 0 53 63 58 255
-1.71765 0.329442 4.91575 0 0 0 134 88 69 255
-0.00513443 0.228769 5.56317 0 0 0 69 73 53 255
-1.70489 0.462021 4.97718 0 0 0 74 42 37 255
-1.75591 0.527244 4.9272 0 0 0 69 46 31 255
1.06256 0.361652 5.65657 0 0 0 59 63 59 255
-1.56824 0.667742 5.32266 0 0 0 128 104 80 255
-1.32009 0.619579 5.31425 0 0 0 47 41 39 255
0.606991 0.531358 5.64415 0 0 0 87 88 88 255
-1.37835 0.685497 5.17548 0 0 0 114 90 73 255
-1.29474 0.713456 5.31885 0 0 0 127 97 83 255
1.38881 0.516573 5.66945 0 0 0 114 114 118 255
1.58466 0.514019 5.68097 0 0 0 34 36 38 255
-1.44766 0.771655 5.16321 0 0 0 111 85 69 255
-0.901929 0.782431 5.46251 0 0 0 69 55 51 255
-0.144038 0.729473 5.57137 0 0 0 143 149 152 255
-1.6168 0.844717 5.25552 0 0 0 127 108 89 255
-1.07955 0.815138 5.46306 0 0 0 58 46 42 255
1.63054 0.602338 5.68131 0 0 0 77 83 87 255
1.76834 0.593144 5.68173 0 0 0 80 83 89 255
-1.53533 0.845595 5.13999 0 0 0 143 116 94 255
-1.29834 0.870338 5.32841 0 0 0 66 46 40 255
-0.89944 0.856002 5.44683 0 0 0 68 50 49 255
-0.978735 0.907655 5.42834 0 0 0 78 62 57 255
-1.3901 0.928082 5.21365 0 0 0 64 52 49 255
1.31017 0.7574 5.67998 0 0 0 125 134 137 255
-1.52995 0.973661 5.27257 0 0 0 102 78 62 255
-1.01281 0.977947 5.41317 0 0 0 111 89 75 255
0.690501 0.867824 5.64764 0 0 0 111 115 121 255
1.53431 0.785761 5.64252 0 0 0 192 201 201 255
-1.22164 1.026 5.35563 0 0 0 72 52 45 255
-0.934865 1.00852 5.44122 0 0 0 78 62 57 255
-1.66527 1.17229 5.23096 0 0 0 75 63 64 255
-1.62211 1.17253 5.25856 0 0 0 146 129 115 255
-0.857408 1.13838 5.47434 0 0 0 107 82 78 255
1.43163 0.985486 5.60793 0 0 0 110 118 124 255
1.46978 0.971216 5.60886 0 0 0 194 204 203 255
-1.54749 1.19666 5.17404 0 0 0 112 91 78 255
-1.01928 1.22455 5.40957 0 0 0 96 80 74 255
-1.11178 1.25242 5.38221 0 0 0 69 62 62 255
-0.771225 1.25249 5.48576 0 0 0 99 72 58 255
-0.814983 1.28742 5.46232 0 0 0 102 77 66 255
-1.05345 1.35244 5.39357 0 0 0 72 64 60 255
-0.907581 1.34518 5.44771 0 0 0 94 76 62 255
-0.184093 1.3136 5.59987 0 0 0 60 66 68 255
-0.972293 1.38026 5.40063 0 0 0 89 77 72 255
-0.359448 1.43868 5.56232 0 0 0 132 110 96 255
-0.83626 1.53326 5.43849 0 0 0 87 73 69 255
-0.806135 1.55884 5.44075 0 0 0 142 120 110 255
0.248427 1.49759 5.57572 0 0 0 87 99 97 255
-0.813659 1.68996 5.44503 0 0 0 66 66 68 255
-0.440581 -0.873762 5.3301 0 0 0 203 196 190 255
-1.524 -0.586683 4.74624 0 0 0 195 176 166 255
1.85522 -0.955199 6.14902 0 0 0 96 120 133 255
-1.28991 -0.548003 4.95715 0 0 0 150 129 116 255
-1.16947 -0.562135 5.01929 0 0 0 182 166 153 255
-0.975229 -0.595247 5.2987 0 0 0 163 135 119 255
-0.355676 -0.672491 5.65056 0 0 0 160 162 160 255
-1.49527 -0.475324 4.82606 0 0 0 153 139 126 255
-1.59017 -0.416701 4.7719 0 0 0 159 117 90 255
1.78719 -0.797377 6.14842 0 0 0 167 167 165 255
-1.2627 -0.3831 5.23105 0 0 0 145 110 91 255
-0.982687 -0.264432 5.38874 0 0 0 167 151 139 255
-1.19532 -0.212706 5.26503 0 0 0 153 138 126 255
-1.35693 -0.142042 5.02107 0 0 0 149 109 85 255
0.319768 -0.304265 5.60121 0 0 0 100 102 89 255
-1.28977 -0.0130257 5.08777 0 0 0 90 85 84 255
1.04358 -0.0604625 5.6321 0 0 0 49 57 52 255
-0.444254 0.0859562 5.54337 0 0 0 198 180 163 255
0.928826 -0.0346822 5.62619 0 0 0 119 128 104 255
1.31289 -0.0365881 5.66143 0 0 0 141 153 116 255
-0.0425518 0.168363 5.55698 0 0 0 166 188 139 255
-1.66037 0.344251 4.97339 0 0 0 67 59 55 255
0.756696 0.163487 5.6296 0 0 0 160 176 120 255
0.620102 0.233617 5.6268 0 0 0 55 65 62 255
-0.168509 0.32964 5.54448 0 0 0 155 175 139 255
0.140594 0.295608 5.57898 0 0 0 162 179 125 255
1.50164 0.233703 5.6692 0 0 0 86 96 91 255
-1.44317 0.536248 5.12798 0 0 0 54 40 35 255
0.141842 0.45259 5.58944 0 0 0 158 176 130 255
-0.287116 0.526318 5.57088 0 0 0 87 95 92 255
2.0099 0.30309 5.70997 0 0 0 170 118 75 255
-1.49457 0.62772 5.11738 0 0 0 133 109 87 255
-1.31766 0.644697 5.31445 0 0 0 40 39 38 255
-1.65422 0.690648 5.04826 0 0 0 129 101 80 255
-1.2752 0.70436 5.32654 0 0 0 131 103 82 255
0.0903783 0.706012 5.59697 0 0 0 111 122 123 255
-1.55862 0.838958 5.13093 0 0 0 143 111 86 255
-0.887125 0.858617 5.45284 0 0 0 65 48 43 255
1.05436 0.672961 5.66277 0 0 0 73 80 86 255
1.48854 0.695786 5.67282 0 0 0 194 203 205 255
-0.78989 0.973622 5.46816 0 0 0 113 92 80 255
1.16768 0.83904 5.6653 0 0 0 133 142 143 255
1.33066 0.89796 5.67506 0 0 0 180 187 187 255
0.118676 1.0131 5.61136 0 0 0 150 157 157 255
0.287476 0.998794 5.61994 0 0 0 123 130 134 255
-1.3765 1.14456 5.23901 0 0 0 75 68 68 255
-1.33668 1.13761 5.33823 0 0 0 140 112 92 255
0.0639764 1.06585 5.60003 0 0 0 121 130 133 255
-0.783273 1.26199 5.49035 0 0 0 91 74 71 255
-1.09525 1.32052 5.37706 0 0 0 155 124 102 255
-0.400996 1.45919 5.51692 0 0 0 136 111 97 255
-0.804136 1.56528 5.44021 0 0 0 147 123 108 255
-0.730872 1.54637 5.4562 0 0 0 146 112 106 255
2.02155 1.19897 5.31074 0 0 0 124 95 91 255
-1.55159 -0.493745 4.76974 0 0 0 196 181 163 255
-1.47166 -0.517254 4.8259 0 0 0 129 94 71 255
-1.30709 -0.538587 4.94676 0 0 0 149 106 83 255
-1.23428 -0.577288 5.30261 0 0 0 155 111 95 255
-0.948168 -0.580265 5.15282 0 0 0 151 106 86 255
-0.321632 -0.665247 5.56761 0 0 0 162 163 162 255
-1.31513 -0.437236 4.9783 0 0 0 138 94 75 255
-0.913654 -0.497052 5.32114 0 0 0 153 104 86 255
-1.11024 -0.45653 5.26338 0 0 0 154 106 88 255
-1.20078 -0.399443 5.04779 0 0 0 139 110 99 255
-1.49479 -0.297084 4.89861 0 0 0 144 116 103 255
-1.4635 -0.204838 4.9393 0 0 0 156 105 75 255
-1.18148 -0.258398 5.27612 0 0 0 149 119 101 255
-1.26214 -0.198153 5.26196 0 0 0 163 153 143 255
-1.04553 -0.216332 5.36291 0 0 0 147 109 89 255
-0.973108 -0.251493 5.39326 0 0 0 146 110 98 255
-1.31176 -0.168318 5.24856 0 0 0 154 103 79 255
-1.14146 -0.192292 5.41252 0 0 0 148 108 82 255
0.468069 -0.304681 5.60708 0 0 0 90 99 89 255
0.162063 -0.209511 5.5558 0 0 0 98 102 78 255
-1.63222 0.0172667 4.88546 0 0 0 160 155 149 255
-1.53123 0.00749459 4.97545 0 0 0 109 99 89 255
-1.19418 0.00239894 5.3363 0 0 0 84 68 57 255
-1.11386 -0.00717154 5.35741 0 0 0 71 69 63 255
0.272547 -0.167742 5.57392 0 0 0 165 184 127 255
0.310163 -0.0727747 5.58034 0 0 0 157 168 128 255
1.11312 -0.0988671 5.64289 0 0 0 93 102 90 255
0.0426159 0.00575182 5.55948 0 0 0 168 188 136 255
0.247865 -0.0275153 5.57304 0 0 0 126 143 122 255
-1.57926 0.152844 4.96255 0 0 0 39 42 41 255
-1.52176 0.161998 5.00594 0 0 0 44 42 42 255
-1.4814 0.158157 5.0323 0 0 0 54 52 50 255
0.738597 -0.0161622 5.62044 0 0 0 169 186 128 255
-0.904211 0.202026 5.42245 0 0 0 67 64 60 255
1.00368 0.0474898 5.63834 0 0 0 91 102 92 255
0.79652 0.102241 5.63057 0 0 0 57 67 61 255
-0.460235 0.283044 5.53193 0 0 0 117 96 82 255
-0.148162 0.2505 5.54168 0 0 0 164 182 144 255
1.49188 0.108316 5.66417 0 0 0 115 125 103 255
0.629917 0.270492 5.62716 0 0 0 51 63 59 255
1.14033 0.407486 5.66017 0 0 0 160 176 123 255
-1.52441 0.619915 5.09826 0 0 0 136 105 88 255
-1.21508 0.668705 5.3455 0 0 0 139 110 90 255
-1.06397 0.677782 5.431 0 0 0 42 39 40 255
1.74703 0.460419 5.69112 0 0 0 45 47 53 255
1.92537 0.455369 5.70134 0 0 0 92 124 149 255
-0.410472 0.733298 5.56687 0 0 0 131 103 90 255
-1.56625 0.827592 5.12262 0 0 0 140 107 85 255
1.08218 0.731888 5.66752 0 0 0 194 205 206 255
-1.51207 0.903304 5.15053 0 0 0 57 49 45 255
-0.230606 0.868704 5.58176 0 0 0 76 84 81 255
-1.08891 0.961266 5.3989 0 0 0 77 59 58 255
0.222037 0.892628 5.60792 0 0 0 140 147 147 255
-1.47449 1.04181 5.18656 0 0 0 160 124 99 255
0.659443 0.984076 5.652 0 0 0 197 205 206 255
-1.59482 1.11721 5.13896 0 0 0 65 60 59 255
-0.263349 1.10527 5.55596 0 0 0 164 197 164 255
1.48352 0.949804 5.60889 0 0 0 195 202 202 255
0.706878 1.12167 5.61256 0 0 0 95 103 103 255
1.51208 1.01427 5.5635 0 0 0 192 197 196 255
-0.772976 1.30693 5.45633 0 0 0 155 132 115 255
-0.818983 1.49351 5.44934 0 0 0 164 133 112 255
-0.260755 -0.666077 5.44827 0 0 0 159 164 163 255
1.86804 -0.939112 6.1566 0 0 0 85 125 146 255
-0.36873 -0.578893 5.4488 0 0 0 43 46 45 255
1.83006 -0.689054 5.84711 0 0 0 53 53 53 255
-1.05276 -0.250213 5.35955 0 0 0 157 115 97 255
1.24315 -0.452631 5.91204 0 0 0 165 185 132 255
0.569294 -0.22329 5.60482 0 0 0 78 88 82 255
0.528735 -0.144379 5.59222 0 0 0 69 77 72 255
1.0984 -0.190326 5.63531 0 0 0 100 109 95 255
1.24146 -0.27312 5.67332 0 0 0 166 184 123 255
0.917473 -0.183998 5.63058 0 0 0 89 97 81 255
-0.00132047 -0.0612626 5.5605 0 0 0 172 192 138 255
1.16581 -0.0922401 5.63591 0 0 0 55 66 63 255
0.179242 0.051909 5.55933 0 0 0 64 76 72 255
0.581648 -3.9727e-06 5.62385 0 0 0 47 55 50 255
0.865696 0.138709 5.6337 0 0 0 88 96 89 255
1.43521 0.0953775 5.67174 0 0 0 91 100 93 255
-1.66612e-05 0.323386 5.55783 0 0 0 52 59 59 255
0.716143 0.40881 5.63653 0 0 0 151 162 120 255
-1.06354 0.675127 5.43105 0 0 0 51 41 37 255
-1.04707 0.876509 5.41706 0 0 0 152 119 96 255
-0.333577 0.880719 5.57475 0 0 0 58 61 60 255
0.510905 0.773042 5.64376 0 0 0 198 207 208 255
1.08182 0.764863 5.66382 0 0 0 196 205 208 255
1.37084 0.739944 5.67651 0 0 0 196 205 204 255
1.67466 0.723996 5.68463 0 0 0 160 168 172 255
0.0743156 1.05879 5.60152 0 0 0 132 139 140 255
-0.758754 -0.601623 5.40529 0 0 0 159 108 82 255
-1.48052 -0.456725 5.14252 0 0 0 187 175 164 255
-1.40624 -0.459972 5.17082 0 0 0 181 170 158 255
-1.37851 -0.460674 5.1834 0 0 0 177 163 149 255
-1.0075 -0.474164 5.33839 0 0 0 147 123 113 255
-1.6076 -0.325018 5.11126 0 0 0 143 115 98 255
-1.27017 -0.165855 5.26352 0 0 0 193 181 165 255
-1.32896 -0.0149166 5.27054 0 0 0 193 181 160 255
-1.54078 0.0114958 5.18513 0 0 0 78 72 60 255
0.103977 -0.114927 5.55533 0 0 0 130 140 109 255
-1.59101 0.0198611 5.16398 0 0 0 89 81 77 255
-1.47715 0.013495 5.2111 0 0 0 120 112 102 255
-1.16434 -0.00767912 5.33283 0 0 0 150 141 134 255
-0.977218 -0.0137611 5.39165 0 0 0 95 89 81 255
-1.02979 -0.00884238 5.37353 0 0 0 80 78 73 255
-0.780138 -0.0258806 5.43773 0 0 0 130 121 107 255
-0.978168 -0.00606144 5.39195 0 0 0 96 92 87 255
-1.34853 0.0426385 5.25302 0 0 0 128 121 111 255
-1.33056 0.040159 5.26227 0 0 0 187 179 167 255
-1.02838 0.0169477 5.37139 0 0 0 91 83 76 255
-1.23219 0.0368027 5.29011 0 0 0 154 147 139 255
-0.788196 0.0135612 5.4487 0 0 0 115 105 97 255
-0.953991 0.0312712 5.43958 0 0 0 195 179 164 255
-0.834114 0.0224163 5.45012 0 0 0 83 72 61 255
-0.860876 0.162107 5.43913 0 0 0 146 139 135 255
-0.960812 0.193776 5.44928 0 0 0 152 140 131 255
0.76234 0.074424 5.62661 0 0 0 128 138 110 255
-0.855736 0.194262 5.42618 0 0 0 163 157 151 255
1.27517 0.10596 5.66835 0 0 0 88 101 90 255
1.32457 0.165476 5.65751 0 0 0 72 89 77 255
-0.0451985 0.340893 5.55978 0 0 0 57 67 61 255
1.49287 0.277826 5.67087 0 0 0 78 90 86 255
1.43876 0.312202 5.67085 0 0 0 60 69 55 255
-0.0348694 0.457089 5.56709 0 0 0 96 108 95 255
1.27881 0.412053 5.66525 0 0 0 111 122 96 255
-0.126196 0.530336 5.56242 0 0 0 53 60 61 255
0.908994 0.476061 5.65269 0 0 0 52 59 59 255
0.988065 0.478714 5.65327 0 0 0 43 46 45 255
-0.0402892 0.563061 5.56637 0 0 0 48 54 57 255
-1.50706 0.661391 5.2653 0 0 0 120 95 79 255
0.401802 0.549145 5.60664 0 0 0 117 121 122 255
0.428989 0.550362 5.60066 0 0 0 90 89 90 255
0.851108 0.519895 5.64516 0 0 0 66 71 72 255
0.96099 0.515273 5.6513 0 0 0 50 59 61 255
1.38973 0.487133 5.67098 0 0 0 107 109 111 255
0.763486 0.54385 5.64165 0 0 0 77 79 81 255
1.69187 0.473451 5.64534 0 0 0 101 103 106 255
1.65746 0.508212 5.68621 0 0 0 120 138 149 255
1.7099 0.506017 5.68039 0 0 0 127 136 140 255
0.832171 0.588716 5.64336 0 0 0 72 85 87 255
0.717662 0.626233 5.64178 0 0 0 84 91 93 255
0.73793 0.626805 5.64634 0 0 0 110 119 121 255
1.36654 0.584146 5.66756 0 0 0 57 68 71 255
-0.121543 0.731517 5.56966 0 0 0 143 153 153 255
1.40958 0.593078 5.67314 0 0 0 78 76 88 255
0.905201 0.701545 5.65631 0 0 0 132 140 143 255
0.969938 0.697025 5.65974 0 0 0 121 137 138 255
-1.14103 0.870789 5.37744 0 0 0 63 46 39 255
-1.11876 0.875975 5.38417 0 0 0 96 70 57 255
-1.23748 0.884305 5.35506 0 0 0 124 96 76 255
1.73396 0.673717 5.68127 0 0 0 180 187 189 255
0.595876 0.801141 5.63246 0 0 0 159 161 160 255
-1.34143 0.996372 5.32435 0 0 0 74 59 56 255
-0.898901 1.03464 5.45976 0 0 0 117 100 88 255
0.661065 0.913673 5.64204 0 0 0 136 140 139 255
1.43692 0.907496 5.67083 0 0 0 189 198 200 255
1.61474 0.897653 5.67538 0 0 0 161 170 171 255
1.45831 0.928326 5.67423 0 0 0 119 121 122 255
1.48167 0.929118 5.67542 0 0 0 136 142 144 255
1.35232 0.966544 5.66833 0 0 0 169 173 174 255
1.57542 0.942898 5.67705 0 0 0 194 202 200 255
-0.153466 1.12502 5.58643 0 0 0 133 141 134 255
-0.0821114 1.12318 5.58379 0 0 0 194 197 197 255
0.260764 1.09637 5.61546 0 0 0 195 202 201 255
0.104221 1.12682 5.58608 0 0 0 189 197 196 255
1.194 1.07388 5.66684 0 0 0 145 153 154 255
1.2913 1.06162 5.66958 0 0 0 148 153 154 255
1.25262 1.10398 5.62323 0 0 0 149 161 161 255
1.29604 1.10025 5.62399 0 0 0 174 188 190 255
1.45604 1.07974 5.62271 0 0 0 187 199 197 255
1.41982 1.10439 5.65846 0 0 0 196 202 202 255
0.758059 1.17003 5.61217 0 0 0 144 155 158 255
1.36389 1.11556 5.62241 0 0 0 97 95 96 255
1.30334 1.14532 5.62274 0 0 0 169 177 183 255
1.50071 1.13315 5.62892 0 0 0 165 170 171 255
1.6897 1.11871 5.6211 0 0 0 154 166 171 255
1.64705 1.14021 5.67796 0 0 0 143 155 160 255
1.64594 1.17393 5.61311 0 0 0 163 169 171 255
1.47805 1.19423 5.61928 0 0 0 136 147 148 255
-1.3891 1.43819 5.32262 0 0 0 158 127 104 255
-0.915056 1.42765 5.42173 0 0 0 129 106 91 255
-0.619253 1.67156 5.45977 0 0 0 134 110 104 255
-0.761635 -0.602136 5.40333 0 0 0 159 108 82 255
-1.20996 -0.526506 5.24329 0 0 0 196 180 165 255
-1.23244 -0.486048 5.2364 0 0 0 196 180 165 255
-1.13787 -0.477841 5.28559 0 0 0 139 111 98 255
-0.907629 -0.460975 5.3663 0 0 0 173 149 137 255
-1.17642 -0.27121 5.30532 0 0 0 158 131 113 255
-1.44956 0.0132262 5.21463 0 0 0 80 74 68 255
1.50106 -0.194847 5.66251 0 0 0 124 135 107 255
-0.879226 0.00613839 5.41304 0 0 0 76 72 70 255
-0.793917 -0.0039232 5.45094 0 0 0 135 126 121 255
1.26544 -0.136903 5.66384 0 0 0 95 108 91 255
1.5039 -0.102221 5.65761 0 0 0 116 125 103 255
1.3128 0.0758423 5.66186 0 0 0 115 122 104 255
1.3564 0.271447 5.67741 0 0 0 91 102 91 255
0.462847 0.551146 5.60246 0 0 0 80 82 90 255
0.790967 0.524377 5.64171 0 0 0 101 112 116 255
1.11907 0.533807 5.63181 0 0 0 85 87 91 255
-1.24324 0.884925 5.35376 0 0 0 124 96 76 255
-0.849213 0.868302 5.44381 0 0 0 92 69 63 255
0.136477 1.00792 5.61138 0 0 0 132 137 138 255
1.61134 0.896886 5.67602 0 0 0 161 170 171 255
1.45803 0.931418 5.67412 0 0 0 120 123 124 255
1.35279 0.965085 5.66854 0 0 0 188 195 195 255
0.0375416 1.09376 5.59452 0 0 0 123 130 132 255
1.40551 1.06006 5.67369 0 0 0 87 95 96 255
1.45335 1.0812 5.62332 0 0 0 187 197 195 255
1.49318 1.13152 5.61626 0 0 0 133 138 139 255
1.46136 1.19387 5.60778 0 0 0 133 142 143 255
1.63342 1.17549 5.59997 0 0 0 146 154 156 255
-0.699024 1.673 5.45749 0 0 0 131 110 101 255
-1.13315 -0.548 5.28417 0 0 0 141 93 77 255
-1.56172 -0.426299 5.10237 0 0 0 177 151 132 255
-0.897125 -0.46781 5.3719 0 0 0 148 104 85 255
-1.25268 -0.354849 5.24303 0 0 0 174 161 147 255
-1.35214 -0.28737 5.22351 0 0 0 199 182 164 255
-1.18451 -0.277571 5.30215 0 0 0 193 178 160 255
-1.12415 -0.258685 5.33256 0 0 0 161 136 123 255
-1.19103 -0.19622 5.2996 0 0 0 142 96 75 255
0.298718 -0.206772 5.57599 0 0 0 167 182 129 255
-1.17195 -0.0215425 5.34231 0 0 0 112 104 94 255
-1.09336 -0.0223085 5.3616 0 0 0 139 130 110 255
-0.941977 0.00434492 5.44861 0 0 0 101 94 85 255
-0.883019 0.00547292 5.41278 0 0 0 76 72 70 255
0.192499 -0.0688168 5.5719 0 0 0 141 152 126 255
-0.861073 0.186952 5.43275 0 0 0 161 157 154 255
-1.73351 0.342439 5.13366 0 0 0 58 52 45 255
0.903814 0.235473 5.63776 0 0 0 59 70 66 255
0.975207 0.248308 5.64707 0 0 0 100 108 89 255
-0.187448 0.344646 5.54444 0 0 0 136 144 122 255
0.864914 0.293194 5.64292 0 0 0 123 133 112 255
1.36111 0.272273 5.68086 0 0 0 91 102 91 255
1.42642 0.34526 5.66822 0 0 0 151 163 116 255
-0.305212 0.535539 5.57016 0 0 0 90 94 94 255
0.361401 0.528957 5.57573 0 0 0 128 135 135 255
0.549248 0.543935 5.59813 0 0 0 103 108 115 255
1.18031 0.506858 5.65851 0 0 0 126 129 129 255
1.70402 0.479498 5.67458 0 0 0 101 103 106 255
-1.41505 0.732143 5.30082 0 0 0 92 76 63 255
-0.841196 0.799784 5.45395 0 0 0 143 117 96 255
-1.27033 0.827509 5.34807 0 0 0 124 96 81 255
0.769881 0.730485 5.64429 0 0 0 171 177 180 255
-1.0195 0.884917 5.4111 0 0 0 156 123 101 255
-0.862497 0.867604 5.46471 0 0 0 82 58 54 255
1.71602 0.656947 5.68055 0 0 0 65 67 69 255
1.49198 0.752043 5.67674 0 0 0 134 137 137 255
0.589527 0.962506 5.64042 0 0 0 130 139 143 255
0.548542 1.02603 5.63096 0 0 0 143 148 147 255
1.55646 0.942249 5.6776 0 0 0 195 202 200 255
-0.158053 1.09805 5.58537 0 0 0 131 141 135 255
0.353819 1.05198 5.62229 0 0 0 178 187 189 255
1.72271 0.959067 5.68159 0 0 0 160 158 159 255
-0.296863 1.14552 5.57674 0 0 0 165 192 169 255
-0.0757388 1.13672 5.55097 0 0 0 166 169 169 255
1.50729 1.03475 5.67073 0 0 0 192 201 203 255
1.63771 1.1308 5.6076 0 0 0 145 151 152 255
-0.551976 1.58049 5.48326 0 0 0 159 130 113 255
-1.13846 1.64879 5.41685 0 0 0 160 142 127 255
-1.10759 1.65421 5.43361 0 0 0 146 127 115 255
-0.897359 1.64757 5.40689 0 0 0 129 111 97 255
-1.59282 -0.510755 5.07735 0 0 0 153 129 115 255
-0.791519 -0.596588 5.39954 0 0 0 156 134 128 255
1.50103 -0.0921058 5.68264 0 0 0 114 122 101 255
-1.31689 0.16604 5.28364 0 0 0 41 38 39 255
-0.709019 0.148432 5.43295 0 0 0 50 48 48 255
0.0578338 0.286697 5.58399 0 0 0 64 79 74 255
0.730258 0.27451 5.62947 0 0 0 167 183 127 255
1.13352 0.388988 5.66049 0 0 0 159 177 123 255
0.154954 0.4885 5.59395 0 0 0 53 54 51 255
-1.44051 0.753625 5.29408 0 0 0 115 92 76 255
1.7219 0.687785 5.68068 0 0 0 179 184 185 255
1.29697 0.789843 5.67204 0 0 0 116 127 130 255
-1.41702 1.04563 5.30217 0 0 0 138 114 95 255
1.50772 0.875119 5.67302 0 0 0 99 106 110 255
-0.294758 1.08222 5.55683 0 0 0 163 191 171 255
-0.13917 1.2281 5.58191 0 0 0 134 135 135 255
0.429878 1.1695 5.59258 0 0 0 182 186 187 255
-1.07921 1.30707 5.38922 0 0 0 161 135 113 255
1.30173 1.16803 5.6182 0 0 0 178 180 182 255
1.63498 1.13099 5.60654 0 0 0 145 151 152 255
-0.362658 1.41867 5.5193 0 0 0 134 113 102 255
-0.546113 1.56783 5.48365 0 0 0 156 129 111 255
0.487275 1.48552 5.55871 0 0 0 87 99 97 255
-1.1184 1.64423 5.3941 0 0 0 158 140 125 255
-1.46719 -0.488912 5.14306 0 0 0 156 142 128 255
-1.52014 -0.458921 5.12688 0 0 0 160 130 114 255
-1.552 -0.183014 5.15781 0 0 0 146 128 111 255
-0.958398 -0.190133 5.38529 0 0 0 148 108 87 255
-1.25685 -0.167087 5.26669 0 0 0 162 131 113 255
-1.03288 -0.189047 5.35919 0 0 0 150 110 85 255
0.497587 -0.28814 5.59005 0 0 0 74 84 80 255
0.781286 -0.00794988 5.62583 0 0 0 167 185 125 255
0.156216 0.102621 5.56617 0 0 0 81 87 80 255
0.607503 0.083627 5.62503 0 0 0 55 63 60 255
0.00178541 0.262226 5.56129 0 0 0 89 99 89 255
0.718412 0.230602 5.64598 0 0 0 164 181 125 255
-1.70175 0.42749 5.14297 0 0 0 50 36 34 255
0.20877 0.310344 5.57944 0 0 0 62 69 64 255
0.640229 0.313118 5.62778 0 0 0 57 66 63 255
0.920383 0.280809 5.64211 0 0 0 157 168 121 255
-1.51516 0.566429 5.26319 0 0 0 49 40 38 255
1.13887 0.358173 5.66488 0 0 0 157 175 124 255
1.26654 0.811943 5.66931 0 0 0 109 113 114 255
-1.49511 1.05283 5.28462 0 0 0 172 140 114 255
-1.45195 1.04422 5.29101 0 0 0 162 136 113 255
-0.285543 1.08831 5.55285 0 0 0 167 197 169 255
0.648627 0.96362 5.64657 0 0 0 195 207 206 255
-1.32656 1.18923 5.33791 0 0 0 145 118 95 255
1.41477 1.03548 5.6754 0 0 0 98 100 102 255
1.62222 1.00968 5.67461 0 0 0 91 95 97 255
-0.319422 1.24047 5.52928 0 0 0 51 52 52 255
-0.0697935 1.20824 5.57485 0 0 0 197 204 203 255
0.590176 1.27464 5.59518 0 0 0 162 171 172 255
1.22646 -0.411957 5.66445 0 0 0 168 187 126 255
0.548004 -0.244672 5.59126 0 0 0 79 89 84 255
0.585989 -0.019188 5.62626 0 0 0 52 59 57 255
-1.15542 0.197557 5.32299 0 0 0 38 38 36 255
0.128059 0.205565 5.57784 0 0 0 153 173 125 255
-0.162996 0.311253 5.54458 0 0 0 156 176 148 255
1.34076 0.352432 5.67798 0 0 0 165 181 124 255
1.14676 0.454762 5.66785 0 0 0 57 56 51 255
-1.63149 0.646631 5.19798 0 0 0 139 111 90 255
0.783789 0.755189 5.64548 0 0 0 165 174 175 255
-1.15193 0.969632 5.37362 0 0 0 104 84 71 255
1.46532 0.873333 5.67138 0 0 0 102 105 104 255
1.42382 0.980403 5.67285 0 0 0 130 134 135 255
1.84931 -0.950976 5.9115 0 0 0 119 127 133 255
-0.451592 -0.913832 5.80569 0 0 0 73 64 64 255
1.88637 -0.905525 5.8302 0 0 0 107 113 114 255
-0.509489 -0.895019 5.83339 0 0 0 215 207 207 255
-0.501542 -0.882289 5.81826 0 0 0 210 211 208 255
1.80021 -0.817896 6.04536 0 0 0 162 166 167 255
1.84978 -0.7866 5.85234 0 0 0 147 125 105 255
-0.444132 -0.74045 5.87161 0 0 0 152 154 156 255
-0.478458 -0.713594 5.77814 0 0 0 165 170 169 255
-0.466779 -0.68441 5.6853 0 0 0 143 138 133 255
-1.02946 -0.63399 5.4304 0 0 0 186 153 148 255
-1.11762 -0.507352 5.38187 0 0 0 195 182 169 255
-0.834661 -0.516129 5.51706 0 0 0 198 179 166 255
-0.819995 -0.494168 5.48896 0 0 0 179 154 141 255
-2.6767 -0.75054 7.8692 0 0 0 156 117 103 255
2.79897 -0.403733 5.78172 0 0 0 189 146 114 255
