ply
format ascii 1.0
comment VCGLIB generated
element vertex 1005
property float x
property float y
property float z
property float nx
property float ny
property float nz
property uchar red
property uchar green
property uchar blue
property uchar alpha
element face 0
property list uchar int vertex_indices
end_header
0.61123 -0.102664 4.34043 0 0 0 53 60 46 255
-1.3604 -0.147401 5.83278 0 0 0 130 118 106 255
-1.16748 -0.157615 5.91596 0 0 0 148 131 117 255
-1.10561 -0.164829 5.90059 0 0 0 120 113 100 255
-0.174861 -0.0932874 4.29924 0 0 0 94 102 92 255
0.0804454 -0.0965682 4.31258 0 0 0 47 61 47 255
0.276976 -0.0989186 4.31361 0 0 0 147 154 115 255
0.0297672 -0.0856532 4.30934 0 0 0 81 88 56 255
0.468234 -0.0936293 4.33002 0 0 0 154 168 124 255
-1.47172 -0.131292 5.81536 0 0 0 139 127 111 255
-1.23146 -0.129934 5.8032 0 0 0 184 169 158 255
-0.167375 -0.0796801 4.30154 0 0 0 144 155 114 255
-1.76334 -0.127404 5.86973 0 0 0 121 116 106 255
-1.69118 -0.11806 5.81235 0 0 0 110 106 101 255
-1.63512 -0.122879 5.83218 0 0 0 149 137 119 255
-1.58036 -0.126267 5.84049 0 0 0 85 81 73 255
0.28348 -0.0810129 4.31837 0 0 0 97 107 87 255
-1.83049 -0.114125 5.84336 0 0 0 103 92 79 255
-1.54277 -0.124781 5.85088 0 0 0 135 126 111 255
-1.92479 -0.100824 5.81356 0 0 0 135 125 107 255
-1.86835 -0.107707 5.83844 0 0 0 168 155 137 255
-1.3499 -0.109124 5.81713 0 0 0 108 98 89 255
-1.3342 -0.0962708 5.78212 0 0 0 182 168 155 255
-0.0816144 -0.0619622 4.3054 0 0 0 106 118 89 255
-2.00181 -0.0992865 5.80968 0 0 0 134 125 109 255
-1.88931 -0.100386 5.80379 0 0 0 193 175 159 255
-1.62358 -0.0964761 5.83197 0 0 0 89 81 78 255
-1.62035 -0.0959812 5.82465 0 0 0 110 104 99 255
-1.39022 -0.098302 5.83253 0 0 0 184 171 158 255
-1.23396 -0.10061 5.77832 0 0 0 141 125 110 255
-0.153003 -0.0573359 4.29494 0 0 0 48 54 50 255
0.277871 -0.0629094 4.31581 0 0 0 131 142 118 255
-1.82038 -0.0889325 5.82525 0 0 0 183 176 165 255
-1.73741 -0.0975996 5.83923 0 0 0 186 174 160 255
-1.54247 -0.0940462 5.83828 0 0 0 124 115 109 255
-1.48341 -0.0908122 5.84414 0 0 0 110 101 101 255
-1.4168 -0.0923948 5.84013 0 0 0 133 124 114 255
-0.193134 -0.0553463 4.2965 0 0 0 121 137 93 255
0.00894117 -0.0439827 4.30972 0 0 0 134 149 103 255
0.039125 -0.0448213 4.31291 0 0 0 119 130 108 255
-1.68234 -0.0739723 5.81895 0 0 0 142 133 122 255
-0.17415 -0.035551 4.30999 0 0 0 71 82 60 255
-0.0284657 -0.0383969 4.30837 0 0 0 68 75 64 255
0.269826 -0.0372603 4.31727 0 0 0 59 69 63 255
0.797593 -0.0396675 4.36337 0 0 0 107 121 102 255
-2.01488 -0.0644371 5.81125 0 0 0 94 87 76 255
-1.98433 -0.0680945 5.8253 0 0 0 123 117 110 255
-1.92382 -0.0676576 5.81567 0 0 0 148 138 119 255
-1.88412 -0.0628062 5.81338 0 0 0 98 90 82 255
-1.81415 -0.0644612 5.81846 0 0 0 101 90 75 255
-1.81091 -0.0634907 5.82589 0 0 0 96 87 73 255
-1.74801 -0.0700735 5.84451 0 0 0 116 111 103 255
-0.856302 -0.0686672 6.0276 0 0 0 178 165 147 255
-0.100144 -0.0333168 4.30012 0 0 0 139 147 110 255
-0.102519 -0.0196176 4.30041 0 0 0 119 125 91 255
0.257833 -0.0164572 4.32234 0 0 0 77 86 74 255
0.79092 -0.0218433 4.36307 0 0 0 118 132 107 255
-0.429122 -0.0107196 4.29929 0 0 0 139 148 123 255
-0.0106018 -0.0148523 4.31186 0 0 0 148 162 121 255
-0.193341 -0.00179807 4.3091 0 0 0 111 123 82 255
-0.336447 0.0089634 4.29786 0 0 0 155 163 141 255
0.390027 0.0118081 4.33777 0 0 0 136 147 110 255
-0.181252 0.013614 4.31057 0 0 0 144 158 115 255
-0.370738 0.0207528 4.29522 0 0 0 159 167 135 255
-0.326943 0.0194287 4.30344 0 0 0 108 121 83 255
0.382786 0.023762 4.34228 0 0 0 131 140 96 255
0.574285 0.0173888 4.3465 0 0 0 107 119 97 255
-0.427107 0.0271598 4.29982 0 0 0 165 172 158 255
0.270918 0.0306724 4.33451 0 0 0 125 135 101 255
0.430144 0.0254935 4.34063 0 0 0 124 137 111 255
0.74651 0.0245745 4.36595 0 0 0 93 103 93 255
-0.210603 0.0343195 4.30308 0 0 0 143 160 111 255
-0.182069 0.033396 4.31018 0 0 0 147 164 115 255
-0.0512378 0.0352277 4.31595 0 0 0 80 90 85 255
0.370077 0.0353807 4.34245 0 0 0 126 137 95 255
0.286207 0.0404582 4.33575 0 0 0 153 165 131 255
-1.67266 0.0476384 5.84134 0 0 0 155 146 141 255
-1.62082 0.0491947 5.83891 0 0 0 150 139 136 255
-1.45019 0.0404687 5.84439 0 0 0 128 88 67 255
-0.344756 0.0447117 4.29999 0 0 0 156 167 138 255
-1.80642 0.0593564 5.83591 0 0 0 139 127 124 255
-1.60174 0.0497129 5.84153 0 0 0 108 105 102 255
-0.333054 0.0533054 4.30638 0 0 0 99 111 81 255
0.79634 0.0517607 4.36765 0 0 0 144 156 120 255
-1.87102 0.0659075 5.83205 0 0 0 150 144 136 255
-1.7376 0.0606799 5.83773 0 0 0 141 129 123 255
-1.67344 0.0545679 5.84376 0 0 0 144 132 123 255
-1.92863 0.0682462 5.82395 0 0 0 146 144 142 255
-0.321837 0.0708169 4.31263 0 0 0 144 153 125 255
-0.260217 0.0694358 4.30948 0 0 0 139 148 122 255
-0.211824 0.0681267 4.30652 0 0 0 143 154 116 255
0.37089 0.0702316 4.3397 0 0 0 157 169 116 255
-1.9417 0.0862733 5.82581 0 0 0 97 92 85 255
-1.8004 0.0710139 5.83115 0 0 0 149 143 138 255
0.243876 0.0729129 4.33333 0 0 0 128 139 109 255
-2.00893 0.0844127 5.82835 0 0 0 151 134 126 255
-1.92658 0.0875477 5.82734 0 0 0 75 68 61 255
-0.424813 0.0812458 4.30863 0 0 0 153 156 151 255
0.158596 0.0849076 4.3338 0 0 0 77 85 82 255
0.222688 0.0883986 4.33698 0 0 0 68 79 70 255
0.13935 0.0929485 4.33163 0 0 0 48 50 50 255
-0.373338 0.0974085 4.30331 0 0 0 66 73 59 255
-0.214193 0.100828 4.31302 0 0 0 140 150 117 255
-0.161638 0.0988428 4.3182 0 0 0 111 121 104 255
-0.0761583 0.102229 4.31801 0 0 0 96 104 87 255
0.199216 0.10545 4.33589 0 0 0 136 141 111 255
-0.235845 0.103723 4.31409 0 0 0 133 145 116 255
-0.140459 0.104516 4.31725 0 0 0 72 82 79 255
0.134432 0.112821 4.33042 0 0 0 120 125 119 255
-0.352615 0.117773 4.30727 0 0 0 135 139 119 255
-0.254798 0.111152 4.31229 0 0 0 59 71 56 255
-0.18359 0.109842 4.31487 0 0 0 108 119 92 255
0.165926 0.110372 4.33371 0 0 0 110 118 109 255
-0.418884 0.12124 4.31234 0 0 0 140 148 127 255
-0.39355 0.118012 4.31346 0 0 0 113 123 102 255
-0.111081 0.120992 4.32415 0 0 0 163 172 144 255
-0.0608468 0.120344 4.32608 0 0 0 127 130 112 255
-0.0272379 0.12241 4.32478 0 0 0 103 116 109 255
0.641847 0.123327 4.36627 0 0 0 75 89 87 255
-2.10393 0.154831 5.79982 0 0 0 116 99 94 255
-0.342724 0.137292 4.31469 0 0 0 70 79 51 255
0.198735 0.131425 4.33633 0 0 0 100 114 96 255
-0.06527 0.141768 4.32888 0 0 0 123 136 95 255
-2.08068 0.179047 5.81623 0 0 0 70 37 35 255
0.256591 0.145649 4.3433 0 0 0 101 112 87 255
-0.0650352 0.149231 4.33031 0 0 0 123 136 95 255
-1.9819 0.187744 5.82088 0 0 0 101 77 57 255
-0.0940686 0.176122 4.33324 0 0 0 79 86 50 255
0.140147 0.173619 4.33802 0 0 0 78 88 85 255
0.26485 0.174588 4.34695 0 0 0 49 62 52 255
0.57944 0.172219 4.36848 0 0 0 86 96 77 255
-0.299587 0.186839 4.32931 0 0 0 83 88 74 255
0.283345 0.194246 4.35322 0 0 0 90 101 63 255
-0.200302 0.195541 4.32117 0 0 0 54 62 55 255
-0.101545 0.197574 4.33594 0 0 0 161 170 132 255
0.456373 0.206409 4.36784 0 0 0 151 164 127 255
-0.185914 0.209259 4.32598 0 0 0 128 134 109 255
-0.340169 0.208916 4.32526 0 0 0 120 139 104 255
-0.115734 0.219969 4.33525 0 0 0 89 102 52 255
-0.219644 0.225192 4.32115 0 0 0 92 101 89 255
-0.176344 0.222734 4.32794 0 0 0 71 85 75 255
-0.0864902 0.216653 4.34111 0 0 0 114 119 104 255
-0.313291 0.230311 4.33037 0 0 0 147 158 136 255
-0.24833 0.232398 4.33177 0 0 0 93 98 85 255
0.378829 0.23896 4.35993 0 0 0 149 159 115 255
0.458608 0.235881 4.37084 0 0 0 140 153 115 255
0.296003 0.24332 4.36187 0 0 0 150 160 118 255
0.531315 0.248409 4.3746 0 0 0 62 69 52 255
-0.339086 0.249307 4.32826 0 0 0 125 135 101 255
-0.0273582 0.256627 4.33955 0 0 0 106 117 107 255
0.462765 0.272449 4.36873 0 0 0 136 149 127 255
0.491505 0.268764 4.37298 0 0 0 102 113 96 255
0.531651 0.269993 4.3714 0 0 0 134 149 131 255
0.629619 0.265651 4.38354 0 0 0 59 70 61 255
-1.98305 0.349041 5.83017 0 0 0 60 40 36 255
0.27493 0.282585 4.3651 0 0 0 100 112 101 255
0.377539 0.277117 4.36045 0 0 0 140 149 114 255
0.619713 0.28977 4.38987 0 0 0 98 112 94 255
0.26401 0.293019 4.3684 0 0 0 47 59 55 255
0.486028 0.289085 4.37381 0 0 0 69 72 64 255
0.579971 0.291479 4.38357 0 0 0 123 132 117 255
-0.182768 0.293484 4.34225 0 0 0 118 122 103 255
0.742302 0.305083 4.39987 0 0 0 107 116 81 255
0.469974 0.300739 4.37399 0 0 0 123 133 110 255
-0.412933 0.310088 4.33852 0 0 0 106 111 105 255
-0.0220351 0.310909 4.34741 0 0 0 97 102 86 255
0.0383002 0.306349 4.3532 0 0 0 133 145 107 255
0.237404 0.313343 4.3654 0 0 0 81 93 89 255
0.723508 0.317118 4.40176 0 0 0 154 170 117 255
-0.28848 0.32008 4.34003 0 0 0 126 138 111 255
0.579355 0.319814 4.38944 0 0 0 114 126 106 255
0.625867 0.321804 4.39703 0 0 0 142 159 126 255
-2.08961 0.413887 5.82772 0 0 0 65 48 40 255
-0.312609 0.320355 4.33525 0 0 0 140 154 127 255
0.317411 0.320875 4.36506 0 0 0 118 128 96 255
0.33115 0.323575 4.36846 0 0 0 118 128 96 255
-1.52517 0.435575 5.88624 0 0 0 77 53 38 255
-0.184104 0.336611 4.35087 0 0 0 140 152 128 255
-0.100108 0.32623 4.34824 0 0 0 111 119 107 255
0.383424 0.339475 4.3792 0 0 0 144 156 113 255
-0.0799595 0.340298 4.35345 0 0 0 57 65 58 255
0.356056 0.345045 4.3753 0 0 0 130 140 107 255
-1.66279 0.455614 5.87766 0 0 0 90 67 56 255
0.499145 0.350823 4.38617 0 0 0 45 54 55 255
0.52846 0.361647 4.3907 0 0 0 138 140 144 255
0.758559 0.354532 4.40378 0 0 0 94 101 103 255
0.791419 0.356387 4.40364 0 0 0 116 123 123 255
0.688152 0.358856 4.39794 0 0 0 112 122 124 255
0.730903 0.357323 4.40094 0 0 0 118 119 119 255
0.561206 0.374018 4.38756 0 0 0 126 134 134 255
0.593087 0.372185 4.39108 0 0 0 113 114 116 255
0.619796 0.364858 4.39177 0 0 0 94 102 106 255
0.654473 0.360733 4.39674 0 0 0 89 96 104 255
-1.70646 0.482839 5.87999 0 0 0 102 83 68 255
-0.311256 0.373219 4.34654 0 0 0 83 93 73 255
0.488546 0.378854 4.38762 0 0 0 100 107 111 255
0.517835 0.377457 4.39198 0 0 0 49 53 51 255
0.667211 0.373452 4.39704 0 0 0 40 42 45 255
0.742382 0.373812 4.40379 0 0 0 46 47 47 255
-0.360046 0.378131 4.34683 0 0 0 119 128 120 255
-0.335063 0.383873 4.34929 0 0 0 145 159 127 255
-0.288252 0.380123 4.35825 0 0 0 94 103 91 255
-0.227421 0.38438 4.36117 0 0 0 64 72 65 255
0.291072 0.388936 4.38023 0 0 0 71 81 84 255
0.35568 0.379929 4.37775 0 0 0 80 95 97 255
0.426324 0.380827 4.3859 0 0 0 110 121 120 255
0.50697 0.376843 4.39055 0 0 0 38 39 38 255
0.593561 0.379219 4.38963 0 0 0 125 129 132 255
0.773639 0.376962 4.40509 0 0 0 51 53 57 255
-1.63197 0.503597 5.87329 0 0 0 97 77 67 255
0.179063 0.3946 4.37797 0 0 0 64 75 78 255
0.209249 0.391998 4.35694 0 0 0 91 98 97 255
0.324221 0.384115 4.37378 0 0 0 111 113 115 255
0.390676 0.384647 4.37762 0 0 0 89 98 100 255
0.574354 0.385068 4.38934 0 0 0 47 51 52 255
0.792392 0.38536 4.40541 0 0 0 95 97 98 255
0.265976 0.394516 4.37916 0 0 0 86 93 97 255
0.445188 0.395627 4.38642 0 0 0 46 46 46 255
0.55754 0.390746 4.38816 0 0 0 135 136 136 255
0.734155 0.39224 4.40253 0 0 0 126 126 126 255
0.745035 0.398718 4.40242 0 0 0 88 91 91 255
-1.1675 0.51654 5.87407 0 0 0 112 94 78 255
-0.070297 0.397009 4.3543 0 0 0 173 175 176 255
-0.0299899 0.393537 4.35728 0 0 0 140 144 145 255
0.0374414 0.404046 4.35872 0 0 0 85 87 86 255
0.0963973 0.401792 4.36979 0 0 0 132 132 133 255
0.148078 0.397705 4.36778 0 0 0 127 133 136 255
0.244864 0.398093 4.38433 0 0 0 135 135 135 255
0.677605 0.399598 4.39646 0 0 0 124 124 127 255
-1.65284 0.524384 5.8793 0 0 0 41 36 34 255
-1.51101 0.532209 5.90512 0 0 0 97 79 71 255
-1.13229 0.527672 5.8349 0 0 0 74 55 46 255
-0.0470867 0.406624 4.35998 0 0 0 52 52 52 255
0.00157721 0.404349 4.35891 0 0 0 110 123 128 255
0.0337273 0.400493 4.36989 0 0 0 90 98 98 255
0.0634483 0.404506 4.36067 0 0 0 92 100 104 255
0.205957 0.405265 4.37902 0 0 0 136 141 144 255
0.266367 0.40589 4.38116 0 0 0 142 150 156 255
0.276517 0.404765 4.37288 0 0 0 47 49 51 255
0.304301 0.403809 4.37775 0 0 0 151 153 157 255
0.352528 0.408399 4.38153 0 0 0 144 146 147 255
0.500197 0.399948 4.38938 0 0 0 178 180 179 255
0.575403 0.40443 4.39026 0 0 0 65 65 69 255
-1.56099 0.543916 5.89774 0 0 0 71 61 57 255
-0.33259 0.410713 4.34816 0 0 0 133 132 132 255
-0.191463 0.405331 4.35054 0 0 0 44 51 49 255
-0.132493 0.407775 4.35164 0 0 0 74 81 79 255
0.406921 0.413417 4.38322 0 0 0 81 92 97 255
0.45278 0.411649 4.38498 0 0 0 59 68 72 255
-0.370033 0.414801 4.34444 0 0 0 79 84 85 255
0.172532 0.42114 4.36933 0 0 0 147 147 147 255
0.324338 0.416977 4.37527 0 0 0 123 123 123 255
0.398802 0.422715 4.3828 0 0 0 36 49 54 255
-1.24451 0.559594 5.90818 0 0 0 68 51 39 255
-0.353164 0.416005 4.34355 0 0 0 103 103 103 255
-0.249003 0.424882 4.34894 0 0 0 121 122 124 255
-0.198944 0.423285 4.35263 0 0 0 143 145 146 255
-0.164751 0.421483 4.35018 0 0 0 59 65 70 255
-0.0196233 0.426933 4.36016 0 0 0 149 153 154 255
0.244054 0.420738 4.37715 0 0 0 91 91 91 255
0.267633 0.417937 4.37505 0 0 0 120 129 131 255
-1.26304 0.567789 5.85701 0 0 0 66 41 32 255
-0.364399 0.425501 4.34479 0 0 0 83 87 94 255
-0.308423 0.43139 4.34925 0 0 0 65 65 67 255
-0.279872 0.425449 4.34762 0 0 0 101 104 109 255
-0.229751 0.423685 4.35728 0 0 0 84 85 85 255
-0.0981949 0.429963 4.3553 0 0 0 120 124 128 255
0.0692798 0.428903 4.35861 0 0 0 89 94 95 255
0.0946932 0.429403 4.36497 0 0 0 125 131 136 255
0.126149 0.4267 4.36304 0 0 0 72 78 79 255
0.146788 0.430216 4.36779 0 0 0 110 109 112 255
0.194849 0.423625 4.36073 0 0 0 93 99 103 255
-0.149001 0.438084 4.36391 0 0 0 40 41 45 255
-0.0703449 0.442163 4.35897 0 0 0 151 155 159 255
-0.018122 0.428666 4.35978 0 0 0 158 162 163 255
0.00760363 0.432013 4.36079 0 0 0 93 93 93 255
-0.253402 0.445263 4.34696 0 0 0 132 133 133 255
-1.32616 0.592364 5.89728 0 0 0 73 48 36 255
-1.24023 0.599899 5.9243 0 0 0 52 40 36 255
-1.18144 0.59823 5.9009 0 0 0 59 43 37 255
-0.405717 0.442866 4.34846 0 0 0 87 97 94 255
-0.217591 0.450259 4.36187 0 0 0 126 130 130 255
-0.198021 0.447022 4.35384 0 0 0 141 139 140 255
-0.12805 0.448932 4.35685 0 0 0 90 92 96 255
0.661604 0.458587 4.40931 0 0 0 103 108 114 255
0.739698 0.451298 4.41186 0 0 0 84 97 100 255
-0.347424 0.454654 4.34787 0 0 0 158 158 158 255
-0.305689 0.453335 4.35214 0 0 0 131 131 131 255
-0.265021 0.453241 4.35936 0 0 0 69 69 71 255
0.432918 0.447504 4.387 0 0 0 79 85 86 255
0.56459 0.467189 4.40018 0 0 0 86 107 114 255
0.581025 0.469149 4.40244 0 0 0 76 90 96 255
0.617435 0.463105 4.40692 0 0 0 77 94 98 255
0.700206 0.464235 4.41508 0 0 0 109 109 111 255
0.774871 0.469774 4.42389 0 0 0 88 99 100 255
0.344407 0.470394 4.38405 0 0 0 108 121 126 255
0.514466 0.4634 4.39544 0 0 0 65 76 77 255
-2.11622 0.594311 5.74857 0 0 0 70 42 28 255
-1.54126 0.623872 5.89249 0 0 0 59 41 31 255
0.417614 0.483544 4.39498 0 0 0 109 120 121 255
0.47418 0.474926 4.39706 0 0 0 102 107 115 255
0.530724 0.477075 4.40347 0 0 0 67 79 79 255
0.439065 0.490595 4.39982 0 0 0 62 71 80 255
-1.19797 0.639324 5.91185 0 0 0 130 105 88 255
0.342588 0.494105 4.39301 0 0 0 88 90 91 255
-1.59233 0.666505 5.91206 0 0 0 79 58 43 255
-1.48955 0.659435 5.90647 0 0 0 45 36 35 255
-1.32115 0.650547 5.90101 0 0 0 74 57 52 255
-1.50195 0.663615 5.90529 0 0 0 55 40 34 255
-1.19379 0.665962 5.91284 0 0 0 97 68 51 255
-1.75903 0.674157 5.87444 0 0 0 135 107 82 255
-1.59842 0.670366 5.89047 0 0 0 57 42 32 255
-1.43304 0.685599 5.901 0 0 0 68 45 37 255
-1.24774 0.691322 5.92183 0 0 0 65 46 37 255
0.595847 0.526259 4.411 0 0 0 174 183 183 255
-1.29919 0.706454 5.90261 0 0 0 55 36 28 255
-1.6792 0.706897 5.88769 0 0 0 68 52 46 255
-1.54544 0.71095 5.89752 0 0 0 68 51 37 255
0.380242 0.53778 4.39474 0 0 0 158 166 166 255
-1.21185 0.720755 5.9253 0 0 0 86 63 50 255
0.222838 0.547777 4.38273 0 0 0 185 191 192 255
-1.62087 0.730146 5.90042 0 0 0 59 44 35 255
-1.25448 0.726807 5.87251 0 0 0 50 36 34 255
0.251324 0.553225 4.39011 0 0 0 168 172 175 255
-1.37726 0.746789 5.91481 0 0 0 58 39 30 255
-1.31705 0.743384 5.91087 0 0 0 59 41 38 255
-1.1194 0.72911 5.85725 0 0 0 87 65 50 255
-1.71804 0.754232 5.88057 0 0 0 93 63 51 255
-1.09231 0.756381 5.95508 0 0 0 95 76 64 255
-0.3889 0.589 4.36525 0 0 0 108 114 117 255
-0.363802 0.589731 4.37002 0 0 0 129 137 140 255
-1.41239 0.797466 5.9217 0 0 0 53 38 29 255
-1.30861 0.793848 5.90728 0 0 0 69 49 35 255
-1.159 0.806327 5.93521 0 0 0 98 73 57 255
0.603203 0.618547 4.42396 0 0 0 193 203 202 255
-1.33674 0.837788 5.92131 0 0 0 62 50 41 255
-1.2764 0.831464 5.90279 0 0 0 62 47 44 255
-1.73545 0.84075 5.88925 0 0 0 125 95 73 255
-1.18264 0.86249 5.94279 0 0 0 66 50 40 255
0.281603 0.639569 4.40039 0 0 0 185 189 190 255
0.605208 0.654348 4.42665 0 0 0 191 197 197 255
-1.50131 0.860996 5.90098 0 0 0 114 94 80 255
-1.78499 0.880987 5.88844 0 0 0 123 100 90 255
0.191818 0.669043 4.40582 0 0 0 160 166 165 255
0.747731 0.676356 4.44585 0 0 0 158 167 169 255
0.794072 0.672503 4.4399 0 0 0 127 144 144 255
0.621092 0.681163 4.43137 0 0 0 141 151 154 255
0.708493 0.683109 4.43947 0 0 0 193 198 198 255
-1.3246 0.897835 5.91722 0 0 0 56 48 42 255
-1.10638 0.898384 5.87739 0 0 0 80 66 61 255
0.19846 0.687692 4.40679 0 0 0 190 192 193 255
0.6574 0.702713 4.43522 0 0 0 144 142 143 255
0.669703 0.70198 4.43777 0 0 0 135 135 135 255
0.225216 0.699123 4.40838 0 0 0 192 199 199 255
0.612704 0.704822 4.4317 0 0 0 167 173 175 255
-1.79028 0.934065 5.88446 0 0 0 129 114 99 255
-1.2038 0.936031 5.94714 0 0 0 90 71 64 255
-0.181501 0.702558 4.38712 0 0 0 194 197 197 255
0.173975 0.715607 4.40637 0 0 0 188 197 195 255
0.140036 0.717429 4.40154 0 0 0 123 133 134 255
0.616686 0.727039 4.43506 0 0 0 191 198 198 255
0.749539 0.73655 4.45291 0 0 0 184 193 194 255
-1.30987 0.971285 5.92527 0 0 0 66 57 54 255
0.352716 0.741484 4.41501 0 0 0 179 186 184 255
-1.29579 0.985956 5.9321 0 0 0 60 55 54 255
0.645159 0.746799 4.43985 0 0 0 182 184 185 255
0.68677 0.759444 4.44667 0 0 0 183 194 195 255
-1.76342 0.998768 5.89198 0 0 0 92 76 71 255
-0.47248 0.758734 4.39353 0 0 0 124 138 127 255
-0.235274 0.763096 4.39132 0 0 0 173 179 181 255
-0.524263 0.782728 4.44339 0 0 0 142 158 150 255
0.208893 0.785396 4.41189 0 0 0 133 142 144 255
-0.895921 0.902606 5.05785 0 0 0 75 59 51 255
-0.2428 0.786767 4.39216 0 0 0 125 127 129 255
-0.0798317 0.788437 4.40266 0 0 0 187 191 192 255
-0.425802 0.795301 4.39521 0 0 0 162 184 161 255
-0.270641 0.794634 4.39328 0 0 0 155 162 165 255
-0.216734 0.790283 4.39291 0 0 0 186 193 190 255
-0.192085 0.793787 4.39661 0 0 0 136 142 142 255
0.0830317 0.797533 4.40963 0 0 0 188 194 195 255
0.0233808 0.802459 4.40486 0 0 0 138 145 150 255
-0.128465 0.808669 4.40042 0 0 0 115 121 122 255
-0.948013 0.961431 5.22371 0 0 0 69 48 40 255
-0.581315 0.869958 4.70536 0 0 0 138 153 145 255
-0.0305231 0.810923 4.40751 0 0 0 191 200 200 255
0.334425 0.818007 4.42535 0 0 0 136 146 149 255
-1.19837 1.10648 5.96937 0 0 0 65 57 53 255
-0.244043 0.8204 4.40084 0 0 0 187 189 190 255
0.0563937 0.829438 4.40852 0 0 0 133 138 139 255
-0.324947 0.83414 4.39958 0 0 0 84 91 91 255
-0.269229 0.83784 4.39917 0 0 0 146 150 151 255
-0.102261 0.841806 4.40247 0 0 0 129 135 138 255
-0.0462133 0.836754 4.40599 0 0 0 162 167 166 255
0.012174 0.856217 4.41514 0 0 0 166 175 177 255
0.790737 0.876253 4.46802 0 0 0 148 152 156 255
0.63734 0.884902 4.45639 0 0 0 173 180 182 255
-0.389054 0.878271 4.40021 0 0 0 166 189 161 255
-0.110874 0.892749 4.41476 0 0 0 184 193 192 255
0.770348 0.900665 4.47072 0 0 0 128 134 135 255
-1.19121 1.30455 6.4484 0 0 0 64 57 54 255
-0.32094 0.926418 4.41074 0 0 0 200 202 201 255
-0.160262 0.921028 4.40773 0 0 0 189 198 197 255
-0.119362 0.932323 4.41704 0 0 0 183 185 186 255
-0.373966 0.934078 4.42 0 0 0 129 147 139 255
-0.211353 0.941785 4.42234 0 0 0 168 178 180 255
0.27671 0.952774 4.43849 0 0 0 196 202 201 255
0.0345765 0.967971 4.42482 0 0 0 183 192 192 255
-0.388163 0.972629 4.40582 0 0 0 72 78 67 255
-0.904814 1.22255 5.55322 0 0 0 91 80 77 255
-0.0994612 0.981697 4.41895 0 0 0 182 190 192 255
0.192254 0.986928 4.43641 0 0 0 169 176 176 255
-0.372388 0.987565 4.40964 0 0 0 194 195 195 255
-1.02402 1.2447 5.55949 0 0 0 102 89 82 255
-0.750133 1.54287 6.15171 0 0 0 170 175 176 255
-1.1455 1.52621 6.03099 0 0 0 74 69 71 255
-0.386777 1.13667 4.43053 0 0 0 110 123 116 255
-1.51848 1.55194 5.90114 0 0 0 82 80 80 255
-1.48186 -0.630143 5.80669 0 0 0 142 106 88 255
-1.61138 -0.624713 5.79694 0 0 0 158 133 117 255
-1.53523 -0.624927 5.80342 0 0 0 150 133 121 255
-1.86606 -0.605792 5.7795 0 0 0 135 116 101 255
-1.82287 -0.611174 5.77732 0 0 0 142 110 98 255
-1.74842 -0.608493 5.79462 0 0 0 145 110 90 255
-1.39839 -0.613928 5.80044 0 0 0 154 125 111 255
-1.87591 -0.604204 5.77833 0 0 0 161 146 130 255
-1.62634 -0.592047 5.7914 0 0 0 191 176 159 255
-1.48884 -0.588869 5.80042 0 0 0 189 174 158 255
0.795805 -0.427156 4.32394 0 0 0 154 167 126 255
-1.85083 -0.570056 5.78435 0 0 0 194 173 160 255
-1.78826 -0.571875 5.78007 0 0 0 144 104 86 255
-1.70122 -0.5749 5.7907 0 0 0 189 175 161 255
-1.48789 -0.568192 5.80061 0 0 0 190 174 157 255
-1.83044 -0.539543 5.78748 0 0 0 192 176 157 255
-1.45006 -0.534412 5.79384 0 0 0 120 90 82 255
-1.65969 -0.52834 5.79095 0 0 0 146 99 83 255
-1.57628 -0.531108 5.78809 0 0 0 133 101 86 255
-1.8942 -0.500263 5.77917 0 0 0 189 177 163 255
-1.82416 -0.501504 5.78437 0 0 0 150 137 124 255
-0.462434 -0.34868 4.2566 0 0 0 132 135 116 255
-1.52385 -0.481911 5.80464 0 0 0 157 130 112 255
0.00365599 -0.273698 4.28286 0 0 0 109 116 93 255
0.0488281 -0.275778 4.28621 0 0 0 133 144 106 255
0.0696815 -0.276114 4.28562 0 0 0 84 92 81 255
0.106619 -0.281114 4.28819 0 0 0 114 128 83 255
-0.0678049 -0.251142 4.28294 0 0 0 152 164 111 255
-1.60656 -0.348321 5.82028 0 0 0 119 100 87 255
-1.61896 -0.345195 5.81995 0 0 0 140 127 111 255
-1.5072 -0.349124 5.83029 0 0 0 146 113 90 255
-1.68168 -0.335615 5.81154 0 0 0 146 105 86 255
-1.44337 -0.33575 5.83177 0 0 0 132 116 101 255
-0.0214296 -0.213457 4.28399 0 0 0 155 167 133 255
-1.44148 -0.295435 5.82987 0 0 0 159 130 114 255
-1.38708 -0.29965 5.82906 0 0 0 190 172 155 255
-1.55607 -0.278168 5.82203 0 0 0 154 106 87 255
-1.41624 -0.263056 5.81642 0 0 0 156 120 105 255
-1.49242 -0.258332 5.81496 0 0 0 144 105 87 255
0.257436 -0.173562 4.3048 0 0 0 85 96 79 255
0.750902 -0.174761 4.34278 0 0 0 71 79 70 255
-1.5669 -0.245951 5.8262 0 0 0 133 109 97 255
0.0520551 -0.16493 4.29907 0 0 0 74 77 58 255
0.438079 -0.161059 4.32285 0 0 0 122 136 94 255
0.254268 -0.148412 4.3067 0 0 0 108 122 100 255
0.556507 -0.14602 4.33266 0 0 0 141 152 119 255
0.032241 -0.125854 4.30213 0 0 0 156 172 117 255
0.0789951 -0.131807 4.30623 0 0 0 123 133 100 255
-0.135817 -0.129108 4.29155 0 0 0 134 146 128 255
0.517491 -0.120214 4.32804 0 0 0 149 163 122 255
-0.170873 -0.111623 4.29868 0 0 0 87 99 86 255
0.58934 -0.105115 4.33737 0 0 0 52 59 57 255
-1.02573 -0.154689 5.9276 0 0 0 120 114 108 255
-0.172664 -0.0768904 4.30162 0 0 0 158 170 127 255
-0.0814555 -0.0554152 4.3042 0 0 0 72 74 60 255
-0.104482 -0.0428377 4.29939 0 0 0 130 138 115 255
-0.0348508 -0.0381072 4.30742 0 0 0 64 70 59 255
-1.89843 -0.0690785 5.83897 0 0 0 132 123 114 255
-0.874182 -0.07747 6.05175 0 0 0 180 163 146 255
0.26371 -0.0380032 4.31607 0 0 0 55 64 61 255
0.813944 -0.0348892 4.36612 0 0 0 152 168 125 255
-0.00765062 -0.0140317 4.31227 0 0 0 148 162 121 255
0.791828 -0.0219799 4.36308 0 0 0 118 132 107 255
-0.359819 -5.46205e-05 4.29045 0 0 0 101 110 94 255
0.522117 -0.00441989 4.33956 0 0 0 45 54 50 255
0.432044 0.0247825 4.3411 0 0 0 124 137 111 255
-0.368765 0.0225527 4.29489 0 0 0 159 167 135 255
-0.303925 0.028668 4.31159 0 0 0 146 159 117 255
-0.187527 0.0256096 4.30931 0 0 0 156 173 124 255
-0.222154 0.0457017 4.2975 0 0 0 102 104 81 255
-0.344135 0.0622335 4.30624 0 0 0 156 174 131 255
-0.260763 0.0663705 4.31056 0 0 0 137 146 121 255
0.369371 0.0681913 4.33962 0 0 0 160 158 124 255
-0.375577 0.0984147 4.3041 0 0 0 69 76 63 255
-0.259136 0.111423 4.3108 0 0 0 68 79 64 255
-0.229128 0.110748 4.31604 0 0 0 154 165 136 255
0.200515 0.111543 4.33605 0 0 0 139 144 113 255
0.6392 0.125818 4.36582 0 0 0 75 89 87 255
-0.347957 0.144856 4.31283 0 0 0 63 70 62 255
-0.291199 0.176653 4.33066 0 0 0 87 101 57 255
-0.242381 0.175959 4.32106 0 0 0 64 70 33 255
-0.348051 0.188725 4.32133 0 0 0 160 175 138 255
-0.0878875 0.185459 4.33777 0 0 0 77 87 76 255
-0.318432 0.20641 4.32946 0 0 0 66 82 62 255
0.292487 0.224058 4.36082 0 0 0 72 87 77 255
-0.0866824 0.22305 4.34108 0 0 0 113 123 104 255
0.381945 0.234654 4.36299 0 0 0 148 157 115 255
0.4563 0.228902 4.36955 0 0 0 139 152 113 255
-0.325324 0.231179 4.32802 0 0 0 152 165 131 255
-0.177895 0.236849 4.33024 0 0 0 68 76 67 255
0.521155 0.251656 4.37261 0 0 0 64 72 66 255
-0.176293 0.260605 4.33691 0 0 0 64 73 70 255
-1.98949 0.348879 5.82888 0 0 0 59 40 35 255
-0.342964 0.280634 4.3356 0 0 0 62 67 65 255
-0.185124 0.293091 4.34093 0 0 0 118 122 103 255
0.576873 0.29899 4.38283 0 0 0 125 136 120 255
0.624476 0.313277 4.39329 0 0 0 140 157 125 255
0.573257 0.321206 4.3895 0 0 0 97 109 94 255
-0.356508 0.326248 4.33141 0 0 0 55 62 44 255
-0.311438 0.324558 4.33499 0 0 0 157 170 141 255
-0.11281 0.336824 4.34401 0 0 0 157 171 126 255
0.370992 0.325622 4.37284 0 0 0 146 160 116 255
-2.09806 0.439093 5.87463 0 0 0 73 57 46 255
-1.52431 0.451778 5.88764 0 0 0 42 33 27 255
0.775015 0.359181 4.40156 0 0 0 108 117 118 255
0.701677 0.358498 4.39823 0 0 0 93 102 104 255
-1.72559 0.478045 5.87996 0 0 0 118 93 79 255
-0.363357 0.361085 4.33953 0 0 0 71 74 73 255
-0.202972 0.366358 4.35139 0 0 0 116 123 112 255
-0.198878 0.363092 4.35279 0 0 0 133 143 116 255
0.488298 0.382656 4.38752 0 0 0 114 120 125 255
0.513371 0.378828 4.39101 0 0 0 49 53 51 255
-1.62036 0.514295 5.87173 0 0 0 100 80 64 255
-1.50687 0.527767 5.90413 0 0 0 118 95 76 255
-0.801953 0.521407 5.89796 0 0 0 116 87 71 255
0.182648 0.400111 4.36346 0 0 0 56 68 64 255
0.402897 0.405528 4.38256 0 0 0 132 143 143 255
0.429849 0.411143 4.38706 0 0 0 115 127 132 255
-0.35242 0.418473 4.34352 0 0 0 103 103 103 255
-0.0474614 0.412387 4.35932 0 0 0 49 54 58 255
0.228325 0.41711 4.33692 0 0 0 114 117 120 255
-0.0244425 0.422062 4.36022 0 0 0 36 45 46 255
0.198187 0.426048 4.36142 0 0 0 120 125 128 255
-1.24415 0.571048 5.84409 0 0 0 62 38 30 255
-1.33449 0.598471 5.89641 0 0 0 54 37 30 255
-0.406193 0.442551 4.34942 0 0 0 87 97 94 255
-1.3364 0.665346 5.9048 0 0 0 56 47 45 255
-1.60018 0.669236 5.8884 0 0 0 57 42 32 255
-1.76525 0.679507 5.87241 0 0 0 145 115 88 255
0.214245 0.554399 4.37872 0 0 0 190 197 197 255
-0.188131 0.577684 4.37022 0 0 0 174 179 181 255
-1.41344 0.796944 5.91919 0 0 0 53 38 29 255
-0.386683 0.58927 4.36566 0 0 0 112 123 127 255
0.27715 0.64521 4.3999 0 0 0 191 197 198 255
0.605082 0.654278 4.4266 0 0 0 191 197 197 255
-1.11542 0.910111 5.88541 0 0 0 93 85 80 255
0.699359 0.696312 4.43941 0 0 0 193 200 200 255
-1.22179 0.947463 5.94936 0 0 0 87 72 65 255
0.666729 0.724662 4.43884 0 0 0 118 121 121 255
-1.84461 0.950246 5.88465 0 0 0 97 72 54 255
-1.79696 0.945893 5.88552 0 0 0 134 116 102 255
0.168054 0.719385 4.40512 0 0 0 191 199 197 255
0.747962 0.734644 4.45287 0 0 0 184 193 194 255
-1.30323 0.983805 5.9319 0 0 0 61 58 59 255
0.335324 0.733825 4.41178 0 0 0 188 192 193 255
0.590988 0.743277 4.43296 0 0 0 101 110 111 255
-1.76389 0.981556 5.88679 0 0 0 133 114 101 255
0.686603 0.757105 4.44634 0 0 0 183 194 195 255
0.167202 0.760683 4.4082 0 0 0 136 135 138 255
-0.235216 0.763371 4.39125 0 0 0 173 179 181 255
-1.25447 1.06632 5.95568 0 0 0 71 59 52 255
-0.165091 0.812276 4.40259 0 0 0 191 198 198 255
-0.326007 0.828146 4.39871 0 0 0 81 90 89 255
-0.236321 0.821153 4.40189 0 0 0 184 187 187 255
-0.586144 0.889488 4.7477 0 0 0 133 152 146 255
-0.466529 0.834125 4.40987 0 0 0 115 128 117 255
-0.758136 1.10066 5.84911 0 0 0 73 59 54 255
-0.397543 0.838559 4.39902 0 0 0 77 88 79 255
-0.262759 0.837635 4.40131 0 0 0 132 136 137 255
-0.0392254 0.83423 4.40752 0 0 0 150 154 154 255
0.0125675 0.851492 4.41461 0 0 0 151 161 166 255
0.166255 0.859781 4.42423 0 0 0 178 188 189 255
0.755968 0.875475 4.46573 0 0 0 119 125 126 255
0.797705 0.87403 4.46661 0 0 0 171 180 182 255
-0.107634 0.892299 4.41489 0 0 0 184 193 192 255
0.00149805 0.900502 4.41894 0 0 0 108 117 120 255
0.142433 0.90529 4.42161 0 0 0 129 140 141 255
0.628715 0.915346 4.45888 0 0 0 135 144 143 255
-0.371178 0.924868 4.40008 0 0 0 130 143 135 255
-0.171267 0.920989 4.40938 0 0 0 190 199 199 255
-0.559182 0.94411 4.38572 0 0 0 54 51 53 255
-0.393496 0.973097 4.40428 0 0 0 73 80 66 255
-0.112491 0.984385 4.41509 0 0 0 188 197 196 255
-0.368168 1.03096 4.4161 0 0 0 121 126 125 255
0.230307 1.05819 4.44528 0 0 0 181 186 187 255
-1.27156 1.66818 6.66808 0 0 0 61 59 62 255
-0.74855 1.55339 6.15369 0 0 0 179 184 183 255
-0.612238 -0.527084 4.29839 0 0 0 53 52 50 255
-1.91332 -0.644548 5.75538 0 0 0 131 110 97 255
-2.04888 -0.63826 5.758 0 0 0 142 115 97 255
-1.48746 -0.627497 5.80083 0 0 0 137 112 96 255
-1.8645 -0.599329 5.78257 0 0 0 126 99 83 255
-1.38528 -0.593758 5.79734 0 0 0 144 109 98 255
-1.87602 -0.588792 5.78397 0 0 0 136 102 82 255
-1.64176 -0.566534 5.79242 0 0 0 177 159 144 255
-1.47757 -0.572925 5.8 0 0 0 192 174 154 255
0.789624 -0.412681 4.28261 0 0 0 156 171 125 255
-1.83579 -0.558661 5.78594 0 0 0 193 176 157 255
-1.69903 -0.565987 5.7905 0 0 0 189 175 161 255
-1.58339 -0.560248 5.78591 0 0 0 150 116 96 255
-1.73489 -0.548232 5.77421 0 0 0 129 114 103 255
-1.6555 -0.544888 5.79218 0 0 0 142 99 86 255
-2.01635 -0.495693 5.78819 0 0 0 151 101 70 255
-1.94165 -0.492858 5.77944 0 0 0 135 112 100 255
-1.50142 -0.479912 5.80732 0 0 0 166 139 123 255
-1.68213 -0.406479 5.82829 0 0 0 149 126 100 255
-1.86116 -0.394727 5.80646 0 0 0 148 109 87 255
-1.73883 -0.406015 5.80917 0 0 0 144 113 92 255
0.00675285 -0.278745 4.28424 0 0 0 106 112 90 255
0.0853543 -0.276198 4.28696 0 0 0 85 92 77 255
-0.2516 -0.263362 4.27372 0 0 0 104 120 97 255
-0.0447956 -0.260762 4.28618 0 0 0 80 83 65 255
-1.40844 -0.359209 5.8242 0 0 0 120 105 92 255
-0.0665914 -0.245041 4.28222 0 0 0 140 150 99 255
0.583225 -0.241229 4.32655 0 0 0 88 97 69 255
-1.38094 -0.309936 5.82333 0 0 0 190 172 154 255
0.246672 -0.182265 4.30154 0 0 0 86 96 84 255
0.265097 -0.188503 4.30294 0 0 0 122 131 100 255
0.597325 -0.19235 4.32501 0 0 0 137 144 111 255
-1.37824 -0.247672 5.827 0 0 0 155 137 128 255
-0.113567 -0.172881 4.2861 0 0 0 77 87 76 255
-1.7858 -0.251027 5.8016 0 0 0 153 102 79 255
-1.66756 -0.249589 5.81834 0 0 0 146 102 80 255
0.448273 -0.156145 4.32429 0 0 0 86 94 78 255
-0.119477 -0.135101 4.29008 0 0 0 130 142 110 255
-0.171882 -0.113057 4.2977 0 0 0 87 99 86 255
-0.11257 -0.11531 4.29118 0 0 0 144 159 123 255
-0.0354942 -0.105872 4.30273 0 0 0 95 105 83 255
0.271197 -0.10457 4.31184 0 0 0 96 106 96 255
0.486458 -0.097764 4.32681 0 0 0 153 163 116 255
0.587249 -0.0947955 4.33722 0 0 0 46 55 52 255
-1.5784 -0.116526 5.81924 0 0 0 89 85 78 255
-1.46887 -0.127054 5.83771 0 0 0 139 127 111 255
-1.29144 -0.13122 5.7802 0 0 0 140 132 123 255
0.0343741 -0.0814792 4.31093 0 0 0 81 88 56 255
0.282998 -0.0785245 4.31778 0 0 0 96 106 85 255
0.635487 -0.0820488 4.34345 0 0 0 88 97 89 255
-1.61662 -0.106871 5.82946 0 0 0 101 95 90 255
-2.00142 -0.0888842 5.81623 0 0 0 123 118 111 255
-1.69062 -0.0901702 5.80788 0 0 0 93 86 85 255
-1.54734 -0.106115 5.83902 0 0 0 142 131 126 255
-0.101793 -0.0468994 4.29758 0 0 0 134 144 109 255
-0.870308 -0.0734653 6.05131 0 0 0 180 162 146 255
0.0336674 -0.0416186 4.31298 0 0 0 118 128 107 255
0.514839 -0.0454856 4.3408 0 0 0 119 127 102 255
0.814786 -0.0303613 4.36637 0 0 0 150 163 121 255
-0.431078 -0.0346902 4.3086 0 0 0 163 178 143 255
-0.184256 -0.0280694 4.30761 0 0 0 134 144 109 255
0.280671 -0.0445071 4.3183 0 0 0 142 152 116 255
-0.355935 -0.000767551 4.2889 0 0 0 105 108 92 255
0.571127 -0.00740142 4.34318 0 0 0 116 127 113 255
0.280839 0.0116058 4.3347 0 0 0 154 164 117 255
0.755062 0.0241324 4.36763 0 0 0 105 114 101 255
-1.44328 0.045433 5.84732 0 0 0 129 88 67 255
0.804992 0.0481627 4.36892 0 0 0 151 162 117 255
-0.420551 0.0561593 4.30424 0 0 0 157 177 139 255
-0.346972 0.0617273 4.3043 0 0 0 156 174 131 255
0.25214 0.0772632 4.33315 0 0 0 148 159 118 255
0.366111 0.0796865 4.33816 0 0 0 155 168 113 255
0.144649 0.110784 4.33255 0 0 0 122 134 117 255
0.00100052 0.118616 4.3269 0 0 0 167 177 144 255
0.215348 0.112804 4.33898 0 0 0 137 141 101 255
-2.0787 0.157553 5.81814 0 0 0 108 88 78 255
0.648516 0.125741 4.36728 0 0 0 77 87 84 255
-0.295682 0.159993 4.32223 0 0 0 165 184 137 255
0.481087 0.160504 4.36185 0 0 0 54 62 59 255
-1.98143 0.223927 5.84239 0 0 0 65 56 52 255
0.557099 0.177962 4.36239 0 0 0 142 152 123 255
-0.409773 0.184913 4.31641 0 0 0 150 163 138 255
-0.298914 0.194361 4.32853 0 0 0 82 90 79 255
0.28389 0.199352 4.35274 0 0 0 90 99 86 255
-1.95566 0.284218 5.85468 0 0 0 46 35 32 255
0.299511 0.232123 4.36198 0 0 0 159 173 129 255
-0.128471 0.229961 4.33902 0 0 0 161 177 130 255
0.651005 0.23514 4.38085 0 0 0 131 140 112 255
0.0270575 0.257479 4.34222 0 0 0 124 136 104 255
-0.333485 0.28 4.33724 0 0 0 59 64 63 255
0.606515 0.260527 4.38092 0 0 0 52 56 49 255
-2.00607 0.349969 5.82761 0 0 0 66 42 40 255
-0.158635 0.283109 4.34355 0 0 0 143 154 116 255
0.467744 0.280758 4.36943 0 0 0 149 161 133 255
0.761081 0.28946 4.40475 0 0 0 123 132 91 255
0.368468 0.296337 4.36279 0 0 0 144 156 111 255
-0.40438 0.305836 4.34023 0 0 0 135 148 124 255
0.259983 0.311119 4.36858 0 0 0 137 148 119 255
0.634825 0.30847 4.39373 0 0 0 144 157 109 255
0.714847 0.31142 4.40073 0 0 0 155 168 118 255
-0.195077 0.319531 4.34003 0 0 0 53 62 59 255
0.307906 0.317956 4.36523 0 0 0 120 121 92 255
0.365966 0.330438 4.37245 0 0 0 144 157 118 255
-0.375391 0.329508 4.3385 0 0 0 49 52 47 255
-1.52449 0.456378 5.88795 0 0 0 42 33 27 255
-0.0978632 0.349847 4.35215 0 0 0 141 160 115 255
-0.355046 0.375303 4.3455 0 0 0 127 142 121 255
-0.186893 0.376956 4.35172 0 0 0 145 156 117 255
0.790534 0.366888 4.40418 0 0 0 99 99 97 255
-2.12184 0.495677 6.00774 0 0 0 64 50 37 255
0.656557 0.378611 4.39864 0 0 0 100 110 116 255
-1.49552 0.513888 5.90222 0 0 0 118 92 77 255
0.324956 0.391765 4.37131 0 0 0 108 117 116 255
0.402182 0.397032 4.38186 0 0 0 138 142 142 255
0.035301 0.403916 4.36457 0 0 0 116 123 123 255
0.352932 0.404941 4.38008 0 0 0 81 84 86 255
0.500671 0.399411 4.38917 0 0 0 158 158 158 255
-1.5746 0.566644 5.89221 0 0 0 35 32 33 255
0.105284 0.419771 4.37609 0 0 0 133 137 140 255
0.125528 0.424731 4.36555 0 0 0 72 78 79 255
-0.303092 0.439061 4.35176 0 0 0 135 136 136 255
-1.17933 0.602527 5.90269 0 0 0 59 43 37 255
-0.267227 0.443348 4.35953 0 0 0 135 137 143 255
-0.223062 0.450093 4.35425 0 0 0 126 130 130 255
0.575448 0.471631 4.40243 0 0 0 85 102 110 255
0.350434 0.478276 4.39012 0 0 0 101 112 120 255
-1.77142 0.682543 5.87103 0 0 0 149 117 91 255
0.604054 0.535427 4.41178 0 0 0 190 199 198 255
0.378751 0.541572 4.39558 0 0 0 168 177 176 255
0.223098 0.556541 4.38246 0 0 0 190 197 197 255
0.247504 0.554419 4.38962 0 0 0 168 172 175 255
-1.13472 0.754019 5.97976 0 0 0 66 50 46 255
-0.179402 0.58135 4.37241 0 0 0 189 194 195 255
0.73822 0.612207 4.43644 0 0 0 170 179 181 255
-1.50239 0.87584 5.90329 0 0 0 130 103 85 255
0.179237 0.680741 4.40777 0 0 0 156 160 161 255
0.705982 0.671326 4.4402 0 0 0 144 151 155 255
0.222369 0.686978 4.40882 0 0 0 192 201 201 255
-1.21542 0.949078 5.95166 0 0 0 87 72 65 255
-1.85306 0.95116 5.92772 0 0 0 69 58 54 255
0.663411 0.727039 4.43906 0 0 0 118 121 121 255
0.592228 0.737213 4.43167 0 0 0 101 110 111 255
0.70267 0.755879 4.44601 0 0 0 189 195 194 255
-0.404619 0.758691 4.38211 0 0 0 68 75 75 255
-0.201721 0.751599 4.3891 0 0 0 115 123 125 255
-0.163354 0.766506 4.39896 0 0 0 189 198 197 255
0.629032 0.765953 4.43993 0 0 0 150 160 163 255
0.721124 0.75364 4.44772 0 0 0 149 153 151 255
-0.49817 0.779964 4.4056 0 0 0 156 173 149 255
-1.26597 1.07794 6.0128 0 0 0 63 55 51 255
-0.427456 0.807126 4.39819 0 0 0 163 186 158 255
-0.281574 0.80923 4.39167 0 0 0 182 188 188 255
0.0760617 0.812828 4.41016 0 0 0 195 202 202 255
-0.127451 0.823357 4.39962 0 0 0 120 129 130 255
-0.394847 0.837849 4.40076 0 0 0 77 88 79 255
-0.256002 0.843145 4.40269 0 0 0 115 122 122 255
-0.105739 0.830928 4.40315 0 0 0 124 132 136 255
0.0420269 0.830957 4.40502 0 0 0 172 178 179 255
0.173403 0.862641 4.42278 0 0 0 188 197 196 255
-0.0314568 0.873625 4.41288 0 0 0 195 203 205 255
-0.394811 0.879153 4.39981 0 0 0 165 188 160 255
-0.0933951 0.885921 4.41599 0 0 0 194 205 203 255
-0.301746 0.882235 4.39968 0 0 0 196 204 204 255
-0.206746 0.893728 4.41623 0 0 0 116 122 122 255
0.26056 0.902478 4.43658 0 0 0 114 121 123 255
0.580028 0.911822 4.45565 0 0 0 187 200 200 255
0.628567 0.91726 4.45896 0 0 0 135 144 143 255
-0.627652 0.971151 4.77724 0 0 0 122 98 87 255
-0.370471 0.899428 4.40325 0 0 0 126 133 128 255
-0.256884 0.908049 4.40686 0 0 0 196 205 202 255
-0.533818 0.970701 4.50948 0 0 0 158 184 173 255
-0.312675 0.952992 4.41877 0 0 0 125 129 129 255
0.264748 0.950389 4.43609 0 0 0 186 193 193 255
-1.31177 1.3278 6.01904 0 0 0 128 107 94 255
-0.363399 0.992313 4.41263 0 0 0 183 190 188 255
0.237904 1.05065 4.44832 0 0 0 163 174 175 255
-0.390722 1.08401 4.41945 0 0 0 66 71 69 255
-1.29475 1.66942 6.80868 0 0 0 73 60 53 255
-0.753162 1.5563 6.15339 0 0 0 177 183 182 255
-1.55522 1.57768 6.09007 0 0 0 95 85 79 255
-2.04271 -0.638977 5.7488 0 0 0 136 112 94 255
-2.06675 -0.606589 5.75741 0 0 0 150 123 107 255
-2.04395 -0.609623 5.7573 0 0 0 128 91 73 255
0.767571 -0.393479 4.25909 0 0 0 157 174 121 255
-1.52049 -0.481146 5.80431 0 0 0 138 102 84 255
-0.0170569 -0.267969 4.2881 0 0 0 138 151 111 255
-1.55489 -0.26532 5.82356 0 0 0 138 124 111 255
0.0627217 -0.129089 4.30464 0 0 0 127 137 104 255
-0.112227 -0.114679 4.29165 0 0 0 144 159 123 255
-1.42439 -0.117699 5.84087 0 0 0 169 161 150 255
0.577143 -0.0796598 4.33596 0 0 0 47 57 54 255
-1.88195 -0.0901452 5.83061 0 0 0 110 104 97 255
-0.427493 -0.0414373 4.30909 0 0 0 162 177 142 255
0.791855 -0.0604758 4.29208 0 0 0 142 156 117 255
-1.999 -0.0773859 5.81882 0 0 0 152 152 152 255
0.00900133 -0.0414334 4.31008 0 0 0 83 88 61 255
-0.356484 0.00668094 4.29096 0 0 0 91 99 85 255
0.290082 -0.00217109 4.33417 0 0 0 162 179 121 255
0.469334 -0.0174687 4.34432 0 0 0 70 77 68 255
-1.36495 0.0164939 5.84954 0 0 0 39 39 39 255
-0.421288 0.0484249 4.30467 0 0 0 157 177 139 255
0.808255 0.0518074 4.36931 0 0 0 151 161 115 255
-2.09052 0.063038 5.85492 0 0 0 38 38 38 255
-2.03793 0.0645691 5.81459 0 0 0 40 37 37 255
-0.372521 0.102849 4.30235 0 0 0 62 68 65 255
0.240448 0.104201 4.34099 0 0 0 156 173 126 255
0.363568 0.0920133 4.31532 0 0 0 152 168 112 255
-0.364062 0.141472 4.30593 0 0 0 57 69 62 255
-0.29897 0.144746 4.32 0 0 0 163 185 137 255
0.247284 0.163172 4.34339 0 0 0 76 86 77 255
-0.277103 0.186025 4.32631 0 0 0 53 66 56 255
-1.96916 0.269633 5.84691 0 0 0 99 84 73 255
-0.408818 0.196661 4.31694 0 0 0 147 166 132 255
0.348125 0.201232 4.35249 0 0 0 160 179 118 255
-0.196828 0.214903 4.32292 0 0 0 57 60 54 255
-1.94684 0.298016 5.85304 0 0 0 40 38 37 255
0.609197 0.245433 4.37957 0 0 0 56 61 59 255
-2.03398 0.336309 5.81354 0 0 0 67 39 37 255
-2.12314 0.342281 5.82051 0 0 0 114 82 67 255
-0.40381 0.287836 4.34059 0 0 0 145 159 133 255
0.648562 0.298013 4.39539 0 0 0 154 169 121 255
-0.107912 0.288781 4.34515 0 0 0 73 88 74 255
0.280172 0.301173 4.3716 0 0 0 136 146 113 255
0.370992 0.325622 4.37284 0 0 0 146 160 116 255
-0.297062 0.331755 4.3382 0 0 0 130 145 107 255
-0.180164 0.352336 4.35402 0 0 0 168 178 140 255
-0.144555 0.343515 4.35466 0 0 0 163 178 130 255
-1.76251 0.48596 5.87402 0 0 0 129 101 77 255
-2.07057 0.506174 5.90637 0 0 0 53 50 42 255
-0.351284 0.435703 4.34552 0 0 0 170 172 171 255
-0.149249 0.428579 4.36146 0 0 0 136 138 140 255
-0.0885849 0.406836 4.35422 0 0 0 45 55 52 255
-0.446219 0.438341 4.34114 0 0 0 90 99 93 255
-2.13883 0.578602 5.779 0 0 0 78 44 37 255
-1.80164 0.670777 5.87576 0 0 0 142 106 86 255
0.604039 0.542159 4.41215 0 0 0 192 199 199 255
-1.26771 0.711254 5.87857 0 0 0 109 88 79 255
0.745949 0.604156 4.43729 0 0 0 183 192 193 255
0.801098 0.599715 4.43274 0 0 0 138 141 141 255
-1.63813 0.823022 5.9356 0 0 0 147 121 98 255
-1.71104 0.857011 5.89081 0 0 0 146 114 92 255
0.235941 0.670741 4.40351 0 0 0 194 200 200 255
-1.82363 0.92826 5.88212 0 0 0 57 52 51 255
-1.49586 0.906953 5.90571 0 0 0 136 102 82 255
0.173401 0.690393 4.40696 0 0 0 156 161 159 255
-0.0488568 0.713076 4.39269 0 0 0 131 138 141 255
0.624107 0.716771 4.43504 0 0 0 192 200 199 255
-0.411111 0.753748 4.38156 0 0 0 72 83 80 255
0.315039 0.741598 4.41139 0 0 0 193 200 201 255
-0.497365 0.791614 4.40813 0 0 0 159 179 154 255
-0.185144 0.816297 4.39916 0 0 0 179 184 182 255
-0.453949 0.838319 4.40985 0 0 0 100 113 104 255
-0.0589468 0.84631 4.40773 0 0 0 193 200 200 255
0.0468082 0.850139 4.40972 0 0 0 188 193 196 255
0.286104 0.896184 4.43843 0 0 0 115 120 123 255
0.00704148 0.895351 4.41857 0 0 0 102 111 112 255
0.57462 0.916593 4.45378 0 0 0 187 200 200 255
-0.521035 0.971811 4.48935 0 0 0 159 188 174 255
0.541017 0.95501 4.50171 0 0 0 194 203 203 255
-0.403629 0.977861 4.40287 0 0 0 79 85 82 255
-0.335817 0.98962 4.41803 0 0 0 195 202 200 255
-0.762511 1.56471 6.15715 0 0 0 178 183 181 255
0.714541 -0.719284 4.56127 0 0 0 92 105 108 255
-0.605843 -0.512774 4.30171 0 0 0 48 55 55 255
-2.07569 -0.603288 5.75629 0 0 0 173 161 147 255
-1.74611 -0.585934 5.7863 0 0 0 156 124 110 255
-1.66352 -0.596612 5.78853 0 0 0 145 100 81 255
-1.5206 -0.606756 5.8034 0 0 0 148 103 80 255
-1.87835 -0.572903 5.7888 0 0 0 135 92 75 255
0.775818 -0.394596 4.29535 0 0 0 161 179 124 255
-2.02937 -0.514546 5.78292 0 0 0 154 108 85 255
-1.49321 -0.472589 5.81022 0 0 0 168 142 128 255
-0.428578 -0.327468 4.24587 0 0 0 161 186 146 255
-0.245465 -0.257743 4.27423 0 0 0 102 110 89 255
-0.039214 -0.26496 4.28669 0 0 0 85 89 70 255
0.0136291 -0.264563 4.28247 0 0 0 85 94 84 255
-1.85033 -0.37135 5.80808 0 0 0 146 99 78 255
0.572777 -0.229601 4.32456 0 0 0 85 93 78 255
-1.78397 -0.261956 5.80769 0 0 0 146 99 75 255
-1.43705 -0.305148 5.82877 0 0 0 138 106 91 255
-0.129316 -0.198981 4.2939 0 0 0 100 110 90 255
0.262073 -0.185981 4.30245 0 0 0 122 131 100 255
0.721185 -0.202248 4.33345 0 0 0 55 64 56 255
-0.0578883 -0.118189 4.29684 0 0 0 159 174 121 255
0.625494 -0.139543 4.3354 0 0 0 117 126 103 255
0.268777 -0.079309 4.31425 0 0 0 63 73 67 255
0.0124776 -0.011592 4.31417 0 0 0 72 74 46 255
0.304594 -0.0334102 4.32788 0 0 0 163 181 125 255
-1.31914 0.0200657 5.8185 0 0 0 39 38 38 255
-0.227849 0.00326304 4.30265 0 0 0 168 186 132 255
-1.50845 0.0558018 5.83956 0 0 0 37 37 37 255
0.249207 0.0463485 4.33114 0 0 0 61 68 66 255
0.388388 0.0472144 4.34213 0 0 0 59 67 55 255
-0.420236 0.0508406 4.30435 0 0 0 157 177 139 255
0.245679 0.119364 4.33737 0 0 0 157 170 120 255
0.35664 0.130535 4.34376 0 0 0 153 168 115 255
-2.03477 0.194812 5.81132 0 0 0 154 124 97 255
-0.284895 0.145577 4.31432 0 0 0 160 180 130 255
-0.116906 0.144355 4.32241 0 0 0 166 182 126 255
-0.392374 0.199718 4.32404 0 0 0 154 168 126 255
0.356668 0.185398 4.60846 0 0 0 162 181 122 255
0.554668 0.188878 4.36241 0 0 0 142 156 111 255
-0.203925 0.230872 4.32305 0 0 0 58 70 66 255
0.489374 0.205596 4.37535 0 0 0 154 166 122 255
0.610604 0.190794 4.3776 0 0 0 50 55 53 255
-0.413814 0.253544 4.46853 0 0 0 155 174 140 255
-0.155975 0.235645 4.33674 0 0 0 153 170 121 255
-0.20156 0.250344 4.32405 0 0 0 61 69 64 255
0.0166647 0.28222 4.34634 0 0 0 167 182 133 255
0.674323 0.28779 4.43303 0 0 0 159 174 119 255
-1.69944 0.40824 5.87746 0 0 0 40 34 32 255
-0.323247 0.361245 4.34226 0 0 0 111 123 100 255
-1.77411 0.483457 5.86647 0 0 0 130 102 80 255
0.498588 0.389934 4.38916 0 0 0 178 180 182 255
-2.0266 0.536367 5.85319 0 0 0 47 37 32 255
-0.0149051 0.41993 4.35733 0 0 0 183 188 186 255
-1.95241 0.613174 5.88018 0 0 0 48 43 41 255
0.614933 0.541858 4.41469 0 0 0 192 201 201 255
0.199207 0.562708 4.37815 0 0 0 191 199 198 255
-0.16395 0.597212 4.37686 0 0 0 190 199 199 255
0.387766 0.557094 4.39944 0 0 0 171 178 178 255
-1.63133 0.800449 5.90257 0 0 0 138 112 92 255
-0.376853 0.612956 4.36779 0 0 0 133 139 138 255
0.794212 0.631324 4.43768 0 0 0 115 122 124 255
-1.59637 0.87298 5.90392 0 0 0 92 70 57 255
0.608376 0.727306 4.43458 0 0 0 149 155 158 255
-1.80531 0.921854 5.88422 0 0 0 54 51 52 255
-0.431261 0.69872 4.37221 0 0 0 61 64 63 255
-0.205008 0.739946 4.38773 0 0 0 125 134 136 255
0.701254 0.75521 4.44641 0 0 0 189 197 197 255
0.285388 0.754957 4.41489 0 0 0 194 201 204 255
-0.496102 0.836473 4.42209 0 0 0 166 193 162 255
-0.377599 0.830837 4.39758 0 0 0 101 106 101 255
0.0859494 0.82954 4.41421 0 0 0 194 204 203 255
-0.258206 0.881491 4.40581 0 0 0 191 201 199 255
-0.15688 0.857943 4.40392 0 0 0 113 115 116 255
-0.0683647 0.877268 4.41575 0 0 0 196 203 203 255
0.284999 0.922069 4.43966 0 0 0 114 123 126 255
0.552146 0.935864 4.45518 0 0 0 192 202 200 255
-0.53486 0.96419 4.5828 0 0 0 161 191 174 255
-0.322827 0.998759 4.42257 0 0 0 195 202 200 255
-0.15356 1.00476 4.42793 0 0 0 193 203 202 255
-1.30113 1.67206 6.80435 0 0 0 99 84 77 255
-1.67838 1.67887 6.62453 0 0 0 67 69 68 255
0.218582 -0.186216 4.29769 0 0 0 56 62 53 255
0.536786 -0.224494 4.33469 0 0 0 121 134 93 255
0.654355 -0.193362 4.3279 0 0 0 73 80 73 255
0.462902 -0.183669 4.32392 0 0 0 113 125 86 255
-0.0180905 -0.135197 4.29997 0 0 0 155 170 120 255
0.227586 -0.154673 4.30276 0 0 0 58 66 56 255
-0.17497 -0.114003 4.29785 0 0 0 91 102 89 255
0.777744 -0.106123 4.35954 0 0 0 64 76 67 255
-0.0244495 -0.0730567 4.30733 0 0 0 137 148 108 255
0.299377 -0.0743439 4.32068 0 0 0 141 152 128 255
-0.407892 -0.0275577 4.30338 0 0 0 161 182 136 255
-0.269939 -0.0324479 4.29281 0 0 0 168 186 132 255
0.771433 0.00314963 4.36982 0 0 0 70 77 73 255
-0.109147 0.0420046 4.31635 0 0 0 62 71 68 255
0.234701 0.113317 4.33974 0 0 0 150 167 120 255
0.457742 0.0879529 4.35188 0 0 0 53 60 57 255
-1.92406 0.208739 5.83476 0 0 0 142 111 87 255
-0.40395 0.243694 4.45981 0 0 0 161 181 144 255
0.300676 0.212019 4.36103 0 0 0 159 170 130 255
-0.258376 0.252051 4.3322 0 0 0 47 54 52 255
0.315799 0.291202 4.36593 0 0 0 150 162 117 255
0.671048 0.34 4.40488 0 0 0 53 63 55 255
0.395698 0.60158 4.40405 0 0 0 165 165 167 255
0.645217 0.606637 4.53673 0 0 0 193 202 202 255
-0.37577 0.619036 4.36793 0 0 0 134 140 143 255
-0.453857 0.706869 4.39473 0 0 0 57 61 62 255
-1.51161 1.0367 5.9226 0 0 0 160 134 113 255
0.265794 0.765764 4.41619 0 0 0 193 202 202 255
-0.17837 0.869383 4.40978 0 0 0 118 126 127 255
-0.560067 0.985041 4.82228 0 0 0 161 194 174 255
-2.6198 -0.802574 5.67807 0 0 0 141 135 135 255
-2.31122 -0.784237 5.58538 0 0 0 90 76 77 255
-2.28339 -0.792012 5.59167 0 0 0 188 184 183 255
-2.6388 -0.782894 5.62338 0 0 0 90 79 85 255
0.951231 -0.44114 4.34353 0 0 0 130 139 124 255
-2.66601 -0.662118 5.69831 0 0 0 125 102 89 255
-0.450984 -0.349343 4.27055 0 0 0 165 184 164 255
-1.24594 -0.664699 5.76377 0 0 0 169 153 145 255
0.917601 -0.375507 4.33369 0 0 0 155 173 140 255
-2.65641 -0.607221 5.6923 0 0 0 95 78 75 255
-1.64579 -0.629048 5.76783 0 0 0 202 189 175 255
-1.31825 -0.634093 5.76359 0 0 0 154 134 126 255
-1.30579 -0.633826 5.76274 0 0 0 155 127 112 255
-1.26043 -0.645563 5.76965 0 0 0 157 138 129 255
-1.18947 -0.623827 5.679 0 0 0 150 133 123 255
-1.01262 -0.649334 5.77251 0 0 0 153 119 105 255
-1.1411 -0.633702 5.77727 0 0 0 203 188 178 255
-1.21796 -0.615513 5.73793 0 0 0 188 167 158 255
-1.10565 -0.613506 5.77034 0 0 0 144 116 102 255
-1.02873 -0.608787 5.75512 0 0 0 201 186 178 255
-1.15654 -0.589762 5.77864 0 0 0 204 187 174 255
0.0290628 -0.279104 4.28378 0 0 0 92 103 93 255
-1.05002 -0.542689 5.66464 0 0 0 198 189 179 255
-1.34608 -0.547005 5.7607 0 0 0 197 189 183 255
-1.21207 -0.550579 5.75119 0 0 0 202 187 176 255
-1.14512 -0.559157 5.78878 0 0 0 195 185 177 255
-1.10418 -0.554953 5.77796 0 0 0 166 154 142 255
-1.19555 -0.524898 5.71946 0 0 0 135 124 114 255
-1.05748 -0.536615 5.76595 0 0 0 142 114 103 255
-1.03185 -0.547311 5.79066 0 0 0 177 163 151 255
-1.28484 -0.528321 5.76403 0 0 0 158 121 106 255
-1.22089 -0.516999 5.75687 0 0 0 187 158 148 255
-1.1241 -0.534974 5.77578 0 0 0 140 116 105 255
-2.6486 -0.482076 5.75813 0 0 0 87 69 55 255
-2.64217 -0.402084 5.73098 0 0 0 52 37 40 255
-2.64588 -0.384093 5.71552 0 0 0 104 89 88 255
0.552708 -0.198599 4.3379 0 0 0 121 133 113 255
