ply
format ascii 1.0
comment VCGLIB generated
element vertex 1012
property float x
property float y
property float z
property float nx
property float ny
property float nz
property uchar red
property uchar green
property uchar blue
property uchar alpha
element face 0
property list uchar int vertex_indices
end_header
2.41038 -0.365242 6.04168 0 0 0 188 157 141 255
1.61599 -0.319145 5.96381 0 0 0 200 176 169 255
1.6396 -0.321674 5.95954 0 0 0 201 188 183 255
2.1246 -0.322156 6.00238 0 0 0 172 148 132 255
1.61712 -0.28059 5.95568 0 0 0 185 138 102 255
1.98794 -0.289649 6.00374 0 0 0 213 211 212 255
2.16211 -0.295492 6.00881 0 0 0 217 192 178 255
2.38863 -0.297315 6.0516 0 0 0 192 138 92 255
1.64432 -0.260082 5.95784 0 0 0 202 202 204 255
0.525355 -0.0574385 4.3457 0 0 0 130 142 117 255
-1.73722 -0.111077 5.7045 0 0 0 184 171 161 255
0.538595 -0.0502126 4.34886 0 0 0 86 100 83 255
2.37454 -0.262637 6.03916 0 0 0 215 197 190 255
-1.74276 -0.0932081 5.70744 0 0 0 111 106 97 255
0.549099 -0.0373151 4.35017 0 0 0 88 102 97 255
-0.681711 0.00553839 4.55503 0 0 0 192 179 165 255
0.273288 -0.0101789 4.34703 0 0 0 116 130 105 255
-1.81177 -0.0505254 5.70762 0 0 0 133 140 128 255
-1.67524 -0.0574592 5.73076 0 0 0 163 152 143 255
0.552029 -0.0032566 4.35266 0 0 0 63 71 66 255
0.587312 0.00614387 4.35947 0 0 0 54 67 58 255
2.02176 -0.180369 6.00501 0 0 0 211 158 110 255
2.0317 -0.129358 6.01691 0 0 0 204 174 140 255
0.430863 0.0644585 4.35691 0 0 0 110 123 114 255
0.542785 0.0594485 4.36327 0 0 0 49 65 62 255
0.806472 0.0849639 4.37108 0 0 0 36 49 48 255
0.457194 0.164454 4.37987 0 0 0 69 83 71 255
0.586429 0.239623 4.38529 0 0 0 107 119 104 255
0.786768 0.295663 4.40579 0 0 0 109 122 99 255
0.768829 0.308099 4.40639 0 0 0 125 142 122 255
1.1215 0.331804 4.42484 0 0 0 96 102 106 255
1.11767 0.378541 4.41916 0 0 0 118 119 120 255
0.161244 0.426748 4.38518 0 0 0 54 56 60 255
-1.70728 0.548981 5.76233 0 0 0 89 78 72 255
-0.730019 0.483617 4.78262 0 0 0 85 67 53 255
-0.762835 0.511466 4.91294 0 0 0 123 106 96 255
-0.694745 0.538447 4.74425 0 0 0 87 75 62 255
-0.411655 0.610688 4.37223 0 0 0 53 62 65 255
1.33154 0.573319 4.48214 0 0 0 109 117 119 255
0.915086 0.622588 4.44616 0 0 0 188 190 191 255
2.08841 0.705484 6.07201 0 0 0 164 157 128 255
-0.544665 0.783948 4.48426 0 0 0 150 166 159 255
2.51664 0.888734 6.07693 0 0 0 188 175 172 255
1.51511 0.863662 5.25449 0 0 0 194 183 186 255
2.11902 0.940153 6.11453 0 0 0 203 176 171 255
0.953903 0.844883 4.47147 0 0 0 186 195 196 255
-0.349547 1.10747 4.43651 0 0 0 123 136 139 255
-0.269874 1.12653 4.43905 0 0 0 122 134 130 255
1.95439 1.37351 5.14471 0 0 0 196 200 201 255
2.47541 -2.56193 8.43419 0 0 0 129 127 128 255
2.20005 -2.56785 8.55647 0 0 0 138 159 159 255
-0.687758 -0.42128 4.43251 0 0 0 201 189 175 255
2.67686 -0.971641 8.30838 0 0 0 200 169 153 255
2.19005 -0.584729 6.00802 0 0 0 195 144 108 255
1.56305 -0.530952 5.92917 0 0 0 188 135 92 255
1.60197 -0.533287 5.927 0 0 0 206 185 172 255
2.42433 -0.563507 6.02379 0 0 0 196 149 116 255
2.16225 -0.496689 6.00844 0 0 0 211 203 200 255
2.29138 -0.497386 6.02884 0 0 0 203 196 195 255
-1.57469 -0.355009 5.74142 0 0 0 186 172 159 255
1.62201 -0.389156 5.95297 0 0 0 205 209 210 255
-1.26668 -0.250236 5.5902 0 0 0 185 172 157 255
2.10397 -0.37945 6.00332 0 0 0 196 149 117 255
2.37018 -0.40487 6.03029 0 0 0 225 182 154 255
2.4302 -0.396856 6.03733 0 0 0 200 156 126 255
2.28307 -0.373737 6.02471 0 0 0 185 166 160 255
-0.674945 -0.0910413 4.51491 0 0 0 193 182 165 255
1.61562 -0.317262 5.95523 0 0 0 200 176 169 255
1.59116 -0.292258 5.96175 0 0 0 186 135 89 255
1.98654 -0.286516 5.99993 0 0 0 210 206 207 255
2.10678 -0.290954 6.01056 0 0 0 200 177 166 255
1.56738 -0.255677 5.95883 0 0 0 198 198 196 255
1.63836 -0.257854 5.9439 0 0 0 206 205 206 255
2.37563 -0.265481 6.04534 0 0 0 215 197 190 255
0.380457 0.291522 4.38129 0 0 0 155 170 129 255
0.0908268 0.415627 4.38394 0 0 0 52 54 58 255
-0.212676 0.430447 4.37378 0 0 0 41 43 45 255
-0.0711834 0.429445 4.36992 0 0 0 177 176 177 255
-0.33562 0.446142 4.36722 0 0 0 32 56 64 255
-0.113704 0.433563 4.3668 0 0 0 86 100 102 255
-0.783012 0.521537 4.95633 0 0 0 130 109 96 255
-0.412878 0.608907 4.37169 0 0 0 50 62 66 255
2.44209 0.587977 6.09949 0 0 0 162 190 201 255
1.33605 0.586308 4.48697 0 0 0 181 195 197 255
-0.704872 0.737772 4.80306 0 0 0 149 131 117 255
-0.309042 0.908421 4.42222 0 0 0 208 221 223 255
-0.33433 0.951524 4.4316 0 0 0 146 164 169 255
0.0753546 0.954279 4.44634 0 0 0 186 194 197 255
-0.812151 1.31249 5.07052 0 0 0 63 69 70 255
1.2739 -0.627506 4.37601 0 0 0 190 192 189 255
-1.89339 -0.645711 5.63004 0 0 0 158 145 133 255
-0.68339 -0.422651 4.42383 0 0 0 201 189 175 255
-1.41383 -0.55859 5.72614 0 0 0 147 117 99 255
0.0890144 -0.292128 4.30411 0 0 0 154 171 124 255
2.51549 -0.813023 7.60306 0 0 0 217 190 179 255
1.52615 -0.520947 5.92561 0 0 0 206 205 208 255
2.16067 -0.507728 6.0019 0 0 0 203 191 189 255
1.57598 -0.386922 5.92914 0 0 0 207 162 135 255
1.54287 -0.37114 5.94517 0 0 0 197 152 124 255
2.23213 -0.390849 6.02103 0 0 0 206 205 208 255
2.12507 -0.387018 6.00377 0 0 0 201 193 192 255
2.30184 -0.390252 6.0259 0 0 0 210 204 202 255
1.52443 -0.343258 5.94259 0 0 0 188 164 153 255
2.43436 -0.377182 6.03748 0 0 0 210 203 201 255
-0.115419 -0.0990165 4.31499 0 0 0 103 112 100 255
-0.66353 -0.0760542 4.47339 0 0 0 198 183 166 255
1.62861 -0.315544 5.95818 0 0 0 213 201 196 255
1.7968 -0.323446 5.97403 0 0 0 226 196 185 255
1.98889 -0.300697 6.00258 0 0 0 208 211 212 255
1.61771 -0.250953 5.96408 0 0 0 211 198 193 255
0.808095 -0.018787 4.36405 0 0 0 155 168 129 255
-0.203434 0.017954 4.31604 0 0 0 174 197 145 255
-0.696327 0.0479541 4.61487 0 0 0 190 176 158 255
-0.357654 0.131621 4.32597 0 0 0 108 115 102 255
1.32206 0.13453 4.51321 0 0 0 169 185 187 255
0.577 0.185053 4.37602 0 0 0 108 117 100 255
-0.116584 0.243046 4.35611 0 0 0 97 106 94 255
1.33787 0.231397 4.52663 0 0 0 191 151 110 255
2.06992 0.232252 6.05263 0 0 0 85 83 84 255
2.04761 0.303389 6.05054 0 0 0 85 87 88 255
-0.626362 0.412377 4.47987 0 0 0 112 92 78 255
0.950158 0.352784 4.41794 0 0 0 123 131 131 255
-1.11622 0.503233 5.49489 0 0 0 109 91 78 255
-0.194365 0.434728 4.3691 0 0 0 160 162 164 255
-1.55503 0.621845 5.7955 0 0 0 119 95 77 255
2.05994 0.553076 6.05465 0 0 0 107 102 94 255
0.744692 0.592779 4.43522 0 0 0 203 216 216 255
-1.30843 0.808932 5.79843 0 0 0 86 73 66 255
1.33915 0.584941 4.48892 0 0 0 181 195 197 255
-0.70433 0.73793 4.80238 0 0 0 149 131 117 255
0.913524 0.661109 4.45307 0 0 0 121 128 132 255
0.128539 0.724668 4.41073 0 0 0 132 141 141 255
0.95137 0.696597 4.45694 0 0 0 131 142 145 255
-0.306133 0.907554 4.42294 0 0 0 208 221 223 255
-1.39319 1.48288 5.65088 0 0 0 79 81 87 255
0.94949 -0.414514 4.32362 0 0 0 137 151 124 255
1.97456 -0.373122 5.99502 0 0 0 215 201 196 255
0.959818 -0.11453 4.35852 0 0 0 118 130 112 255
1.54638 -0.280857 5.93529 0 0 0 206 204 202 255
-0.605514 -0.0454319 4.32145 0 0 0 200 184 167 255
2.10146 -0.30446 6.01011 0 0 0 207 206 209 255
1.55437 -0.282123 5.95497 0 0 0 199 199 198 255
0.958086 0.0342445 4.37184 0 0 0 120 132 113 255
-0.193328 0.227639 4.33871 0 0 0 63 73 69 255
0.312136 0.222985 4.37927 0 0 0 168 188 136 255
-1.91913 0.275806 5.65133 0 0 0 143 113 87 255
-0.261254 0.271265 4.35581 0 0 0 47 56 53 255
-0.156574 0.268207 4.35487 0 0 0 150 162 134 255
1.33445 0.239505 4.52227 0 0 0 198 151 107 255
0.703609 0.315503 4.39989 0 0 0 162 178 131 255
2.03439 0.256574 6.07022 0 0 0 78 78 78 255
-0.863374 0.524978 5.11485 0 0 0 139 113 92 255
2.06796 0.54792 6.05337 0 0 0 103 99 94 255
1.68095 0.626693 6.02471 0 0 0 192 207 211 255
-0.180616 0.610192 4.39798 0 0 0 202 211 215 255
0.743984 0.592187 4.43485 0 0 0 199 212 215 255
1.34482 0.589051 4.4936 0 0 0 185 199 199 255
2.11633 0.665332 6.0814 0 0 0 90 89 88 255
-0.711982 0.724572 4.80292 0 0 0 147 126 113 255
1.83096 0.775868 6.05464 0 0 0 200 213 216 255
-1.68078 0.973706 5.66745 0 0 0 92 72 65 255
-0.0345869 0.734979 4.41157 0 0 0 169 181 187 255
2.00377 0.9345 6.09504 0 0 0 199 169 165 255
0.190948 0.862341 4.44486 0 0 0 206 218 221 255
0.0470617 0.90692 4.43324 0 0 0 132 137 141 255
-0.150901 0.943369 4.42095 0 0 0 160 169 170 255
1.38177 1.0483 4.52444 0 0 0 222 220 221 255
-0.555626 1.22058 4.49945 0 0 0 192 198 197 255
1.29171 -0.640322 4.35862 0 0 0 191 194 193 255
0.787706 -0.414204 4.31589 0 0 0 167 188 140 255
-0.653424 -0.236304 4.34158 0 0 0 202 186 170 255
0.698699 -0.214555 4.34028 0 0 0 79 91 85 255
-1.82731 -0.347644 5.69065 0 0 0 203 188 174 255
-0.152949 -0.150564 4.31247 0 0 0 93 109 99 255
0.0719893 -0.119363 4.3238 0 0 0 127 140 115 255
-0.725632 -0.0621977 4.57668 0 0 0 201 184 165 255
1.55276 -0.270473 5.95666 0 0 0 198 202 200 255
0.00265298 -0.0207093 4.32799 0 0 0 137 155 115 255
0.303799 -0.0224623 4.35579 0 0 0 173 196 136 255
0.483281 0.00649491 4.35798 0 0 0 48 55 53 255
-0.696751 0.0361561 4.52875 0 0 0 196 181 161 255
-0.125976 0.080175 4.33567 0 0 0 76 86 80 255
-0.259887 0.224059 4.3467 0 0 0 70 80 78 255
0.619704 0.224856 4.38753 0 0 0 54 63 62 255
0.686436 0.289328 4.4035 0 0 0 168 185 134 255
0.888362 0.259917 4.39611 0 0 0 163 180 131 255
2.23881 0.317919 6.05679 0 0 0 187 206 217 255
0.166652 0.409093 4.38562 0 0 0 77 80 85 255
1.73867 0.455022 6.02662 0 0 0 104 92 94 255
1.84198 0.546416 6.03141 0 0 0 115 124 122 255
1.14785 0.52213 4.44563 0 0 0 182 194 197 255
1.35538 0.5955 4.50449 0 0 0 185 200 202 255
0.948197 0.627582 4.44916 0 0 0 140 151 152 255
0.244789 0.678782 4.41906 0 0 0 204 218 220 255
-0.0635943 0.733152 4.41133 0 0 0 152 167 171 255
0.989707 0.654226 4.44976 0 0 0 101 113 117 255
1.87289 0.796347 6.05725 0 0 0 196 209 212 255
1.00299 0.739408 4.46385 0 0 0 176 183 185 255
1.10028 0.758603 4.47286 0 0 0 106 115 114 255
0.325584 0.883617 4.44447 0 0 0 131 141 143 255
0.133818 0.941722 4.44013 0 0 0 196 209 211 255
0.563078 0.950763 4.46503 0 0 0 208 221 221 255
-1.24058 1.42586 5.79335 0 0 0 153 129 116 255
-0.533738 1.22184 4.48375 0 0 0 185 192 192 255
1.20247 -0.614188 4.3788 0 0 0 58 64 67 255
0.74935 -0.398702 4.31972 0 0 0 175 198 143 255
0.675163 -0.22742 4.3422 0 0 0 66 78 68 255
-0.40142 -0.0278175 4.33069 0 0 0 168 192 146 255
0.305596 -0.0530632 4.34956 0 0 0 166 188 133 255
-0.158999 0.00350172 4.3314 0 0 0 90 103 95 255
0.302875 0.162432 4.37329 0 0 0 169 192 136 255
0.277536 0.23596 4.36777 0 0 0 64 79 74 255
-1.16789 0.238677 5.47731 0 0 0 159 131 108 255
0.31262 0.248553 4.38271 0 0 0 163 176 130 255
1.78074 0.128872 6.01724 0 0 0 189 204 210 255
1.62338 0.207732 5.9958 0 0 0 116 96 92 255
-0.633144 0.342538 4.44759 0 0 0 128 104 87 255
0.67285 0.329012 4.39756 0 0 0 75 78 69 255
1.68606 0.444805 6.02898 0 0 0 109 90 92 255
0.217328 0.594816 4.39617 0 0 0 204 219 221 255
0.92917 0.530945 4.4296 0 0 0 204 217 219 255
1.13931 0.527206 4.44496 0 0 0 178 189 192 255
1.8315 0.692557 6.04716 0 0 0 168 176 178 255
0.77469 0.648767 4.44185 0 0 0 119 128 132 255
1.79433 0.780764 6.05579 0 0 0 195 213 218 255
-1.44602 1.02907 5.75567 0 0 0 170 146 130 255
-0.321752 0.798652 4.40577 0 0 0 100 110 111 255
0.987644 0.761278 4.47061 0 0 0 182 189 191 255
-0.542166 0.862981 4.50349 0 0 0 174 209 189 255
1.07568 0.787446 4.47608 0 0 0 119 125 129 255
-0.529181 0.920033 4.48703 0 0 0 174 208 189 255
2.45522 -2.67218 8.2809 0 0 0 97 88 90 255
1.90724 -2.59026 8.22308 0 0 0 87 97 112 255
-1.68127 -2.50032 8.28902 0 0 0 59 66 66 255
0.952563 -0.440142 4.32969 0 0 0 122 128 114 255
-1.01738 -0.454134 4.89623 0 0 0 205 186 170 255
-0.71784 -0.308604 4.52154 0 0 0 204 181 164 255
2.04434 -0.545079 5.95495 0 0 0 198 162 141 255
2.3645 -0.508673 6.01294 0 0 0 213 199 195 255
2.23098 -0.500441 5.9845 0 0 0 208 186 184 255
1.66133 -0.452147 5.93532 0 0 0 198 183 180 255
1.88724 -0.437247 5.96827 0 0 0 187 159 148 255
0.584113 -0.153618 4.34535 0 0 0 147 154 138 255
2.32801 -0.39895 6.01119 0 0 0 217 203 200 255
-0.708529 -0.131598 4.54448 0 0 0 185 162 144 255
2.31168 -0.366474 6.01182 0 0 0 184 166 157 255
1.94098 -0.345263 5.97462 0 0 0 171 153 144 255
0.947826 -0.0639827 4.36366 0 0 0 73 81 69 255
-0.635679 0.0152533 4.42258 0 0 0 108 106 93 255
-0.60846 0.0657218 4.3789 0 0 0 197 180 157 255
0.824573 0.0941711 4.37822 0 0 0 75 82 80 255
2.61145 -0.0342497 6.09476 0 0 0 117 95 86 255
0.96361 0.178755 4.39775 0 0 0 75 82 80 255
2.61586 0.0691046 6.09997 0 0 0 132 132 129 255
2.63091 0.252646 6.11551 0 0 0 92 91 92 255
0.33969 0.377719 4.39224 0 0 0 56 66 70 255
0.600135 0.392805 4.40665 0 0 0 134 134 134 255
2.64062 0.409396 6.12457 0 0 0 102 123 146 255
3.41614 0.631177 8.22626 0 0 0 107 94 92 255
3.44542 0.648533 8.19564 0 0 0 147 158 159 255
-0.653715 0.787289 4.64084 0 0 0 106 88 76 255
-0.543249 0.807596 4.44486 0 0 0 167 170 161 255
1.98769 0.913496 6.06498 0 0 0 182 123 104 255
1.37492 0.826238 5.06571 0 0 0 185 137 127 255
1.52777 0.943791 6.03587 0 0 0 191 160 155 255
1.56866 0.943125 6.03649 0 0 0 209 153 136 255
1.57992 0.953619 6.03461 0 0 0 205 194 192 255
1.91292 0.952697 6.07698 0 0 0 189 155 149 255
1.52892 0.977416 6.03723 0 0 0 187 168 167 255
1.63467 0.963987 6.02745 0 0 0 201 192 188 255
1.69445 0.965559 6.04611 0 0 0 190 173 167 255
1.35416 0.834568 4.8033 0 0 0 185 169 162 255
1.08757 0.904017 4.49096 0 0 0 92 93 98 255
2.6995 1.23018 6.18678 0 0 0 183 137 123 255
2.44529 -2.64594 8.21556 0 0 0 97 88 90 255
-2.92418 -2.32984 7.99706 0 0 0 30 37 37 255
2.48615 -2.14599 8.35833 0 0 0 142 139 138 255
2.59787 -1.72535 8.5191 0 0 0 209 207 206 255
-0.756841 -0.20438 4.60262 0 0 0 156 125 102 255
-0.980473 -0.182279 4.92479 0 0 0 158 109 87 255
-0.748579 -0.136953 4.60024 0 0 0 150 110 86 255
1.94887 -0.336184 5.97455 0 0 0 194 139 98 255
-0.183879 -0.079668 4.30883 0 0 0 171 191 137 255
1.52904 -0.296367 5.96422 0 0 0 200 182 171 255
2.13075 -0.275674 5.99886 0 0 0 193 157 130 255
-0.663951 0.0170827 4.453 0 0 0 201 185 161 255
-0.606384 0.0596701 4.36734 0 0 0 199 182 158 255
2.60119 -0.0388074 6.0965 0 0 0 140 105 88 255
1.33478 0.137969 4.83607 0 0 0 144 152 149 255
2.61319 0.0848881 6.10162 0 0 0 89 88 88 255
1.94441 0.267794 6.00909 0 0 0 123 94 79 255
3.41296 0.645526 8.22405 0 0 0 79 65 63 255
3.45365 0.648872 8.18573 0 0 0 158 162 161 255
-0.730274 0.657336 4.75652 0 0 0 142 118 101 255
0.926459 0.769203 4.46213 0 0 0 132 141 143 255
1.76129 0.947704 6.05017 0 0 0 185 165 160 255
1.91013 -2.66545 8.39361 0 0 0 87 97 112 255
2.4631 -2.40066 8.24579 0 0 0 90 88 91 255
2.47658 -2.15426 8.36042 0 0 0 200 198 197 255
1.23112 -0.646231 4.34675 0 0 0 68 68 68 255
0.948177 -0.433261 4.32616 0 0 0 128 137 119 255
-0.615003 -0.389626 4.33886 0 0 0 40 44 44 255
0.911218 -0.390371 4.33065 0 0 0 134 143 126 255
-0.234016 -0.240331 4.3029 0 0 0 140 153 118 255
2.40784 -0.527115 6.01016 0 0 0 192 180 177 255
-0.706474 -0.203569 4.52549 0 0 0 200 184 166 255
-0.720954 -0.192366 4.55571 0 0 0 178 150 130 255
1.95127 -0.376573 5.9729 0 0 0 210 172 144 255
-0.0973566 -0.0930988 4.31543 0 0 0 171 187 134 255
-0.705511 -0.111696 4.53331 0 0 0 202 185 166 255
1.91964 -0.301073 5.97969 0 0 0 206 189 185 255
2.29499 -0.310429 6.01128 0 0 0 215 201 198 255
0.282692 -0.0224767 4.3487 0 0 0 170 184 134 255
0.684992 0.00306369 4.36233 0 0 0 73 80 77 255
-0.617055 0.0493108 4.39529 0 0 0 201 181 160 255
2.61284 -0.00981518 6.09801 0 0 0 109 123 135 255
1.33241 0.140992 4.80563 0 0 0 121 131 128 255
2.61277 0.0901311 6.10244 0 0 0 87 85 86 255
1.43424 0.176624 5.96154 0 0 0 191 144 103 255
0.610847 0.274216 4.39336 0 0 0 55 64 61 255
1.97994 0.218381 6.0075 0 0 0 90 82 81 255
0.908007 0.291203 4.40685 0 0 0 121 126 99 255
2.6215 0.24509 6.11922 0 0 0 86 85 88 255
-0.35092 0.356146 4.35099 0 0 0 106 114 106 255
0.52538 0.349149 4.40132 0 0 0 70 75 76 255
2.63447 0.403871 6.12791 0 0 0 99 121 143 255
2.24462 0.480852 6.06455 0 0 0 153 169 139 255
1.19327 0.510796 4.4518 0 0 0 127 128 131 255
3.41149 0.644997 8.22345 0 0 0 79 65 63 255
2.64614 0.649259 6.10847 0 0 0 106 104 104 255
-0.53173 0.82771 4.42804 0 0 0 169 172 162 255
-0.176545 0.824784 4.40933 0 0 0 188 190 190 255
-0.593668 0.852237 4.49069 0 0 0 70 65 61 255
1.37802 0.843119 5.06992 0 0 0 192 166 159 255
1.50087 0.955115 6.04742 0 0 0 178 162 163 255
1.60258 0.951902 6.0379 0 0 0 201 186 184 255
0.659401 0.889219 4.47332 0 0 0 166 172 176 255
-0.506008 0.95919 4.42269 0 0 0 173 198 187 255
0.364947 1.09027 4.47031 0 0 0 79 81 83 255
0.788242 1.18608 4.51064 0 0 0 117 126 120 255
-2.94685 -2.38307 8.02045 0 0 0 26 33 33 255
1.23242 -0.64529 4.34877 0 0 0 70 70 70 255
-0.636996 -0.513251 4.25355 0 0 0 204 190 177 255
0.871178 -0.40472 4.33213 0 0 0 125 135 115 255
-0.69047 -0.253128 4.44622 0 0 0 206 188 169 255
2.39461 -0.53534 6.01086 0 0 0 209 200 199 255
2.33678 -0.32488 6.02207 0 0 0 192 135 93 255
-0.675994 -0.079763 4.45856 0 0 0 203 185 164 255
0.574386 -0.0672427 4.34926 0 0 0 52 62 59 255
1.58972 -0.248955 5.93794 0 0 0 210 196 192 255
2.59038 -0.0306553 6.10363 0 0 0 126 102 91 255
1.52084 0.0568313 5.9676 0 0 0 183 191 192 255
-0.151647 0.196478 4.34192 0 0 0 177 195 139 255
0.362654 0.20743 4.36284 0 0 0 172 188 129 255
2.09892 0.111539 6.02258 0 0 0 103 127 141 255
2.60222 0.108405 6.11131 0 0 0 83 82 82 255
0.273625 0.25089 4.36812 0 0 0 63 75 71 255
2.49412 0.175308 6.06399 0 0 0 108 88 80 255
-0.106712 0.299408 4.35991 0 0 0 82 95 86 255
1.8234 0.222597 5.99993 0 0 0 156 165 170 255
2.17981 0.188323 6.04681 0 0 0 95 110 121 255
1.82713 0.262901 6.00479 0 0 0 112 117 120 255
1.98075 0.250321 5.99982 0 0 0 80 80 80 255
0.0626579 0.416002 4.37803 0 0 0 103 103 103 255
0.60173 0.51445 4.42225 0 0 0 71 75 79 255
0.978524 0.515587 4.43446 0 0 0 204 212 214 255
0.212312 0.567515 4.39325 0 0 0 206 217 218 255
2.45219 0.570464 6.10113 0 0 0 178 201 213 255
0.319776 0.68116 4.42339 0 0 0 123 132 133 255
1.01411 0.67539 4.45581 0 0 0 97 99 103 255
2.46825 0.809484 6.10489 0 0 0 99 83 84 255
1.89629 0.824378 6.04776 0 0 0 174 184 187 255
2.49253 0.907481 6.13089 0 0 0 199 174 173 255
-0.0878597 0.906638 4.44006 0 0 0 208 213 210 255
-0.321049 0.985943 4.42325 0 0 0 210 217 215 255
1.22166 -0.641435 4.34769 0 0 0 67 70 69 255
-0.649915 -0.403533 4.29129 0 0 0 205 190 175 255
1.53615 -0.501988 5.91922 0 0 0 185 182 183 255
1.56229 -0.500835 5.92099 0 0 0 211 188 173 255
-0.672416 -0.234147 4.41767 0 0 0 205 187 168 255
2.16456 -0.380838 6.00007 0 0 0 219 196 184 255
0.382519 -0.0106023 4.34063 0 0 0 165 184 131 255
-0.665636 0.0429682 4.43272 0 0 0 206 184 162 255
0.40455 0.0364649 4.35282 0 0 0 73 81 75 255
-1.21114 0.0639839 5.26692 0 0 0 39 39 39 255
0.255909 0.11297 4.36688 0 0 0 170 186 128 255
0.377802 0.111464 4.35839 0 0 0 133 146 104 255
0.254645 0.213201 4.35842 0 0 0 51 63 59 255
2.44121 0.127119 6.07579 0 0 0 179 175 162 255
2.19945 0.181185 6.04403 0 0 0 104 126 137 255
1.53436 0.214262 5.97122 0 0 0 198 147 96 255
0.674102 0.28483 4.40839 0 0 0 170 188 134 255
2.01061 0.256994 6.01801 0 0 0 79 77 77 255
2.32996 0.244096 6.04523 0 0 0 112 124 135 255
2.45711 0.242651 6.08468 0 0 0 189 185 176 255
2.10268 0.490284 6.04791 0 0 0 168 189 163 255
-0.369277 0.611797 4.39145 0 0 0 156 160 163 255
2.0943 0.591816 6.03574 0 0 0 81 79 80 255
2.16816 0.605457 6.09972 0 0 0 78 77 77 255
2.45947 0.560955 6.09838 0 0 0 191 204 212 255
0.803892 0.613415 4.43833 0 0 0 111 117 122 255
1.84993 0.767692 6.04087 0 0 0 202 213 216 255
0.0105394 0.788931 4.42145 0 0 0 139 146 146 255
-0.275114 0.88748 4.42155 0 0 0 211 220 219 255
-0.0707707 0.901808 4.43024 0 0 0 211 218 216 255
-0.48081 0.933415 4.38954 0 0 0 177 206 184 255
1.21147 -0.597827 4.34369 0 0 0 58 61 60 255
0.142217 -0.225884 4.30455 0 0 0 71 84 77 255
0.5255 -0.214635 4.32666 0 0 0 110 112 100 255
0.662608 -0.220238 4.34272 0 0 0 64 71 66 255
-0.0185409 -0.119837 4.31194 0 0 0 152 161 117 255
0.795597 -0.11962 4.35247 0 0 0 152 161 119 255
-0.0823203 0.016303 4.32745 0 0 0 75 83 80 255
-0.624699 0.236521 4.38733 0 0 0 154 122 96 255
0.326865 0.22325 4.3788 0 0 0 169 185 129 255
0.512377 0.201365 4.37095 0 0 0 161 177 129 255
2.01855 0.121616 6.01082 0 0 0 98 106 112 255
1.87984 0.132063 5.9931 0 0 0 183 194 201 255
2.05791 0.12042 6.01804 0 0 0 98 105 113 255
1.32011 0.267375 4.5464 0 0 0 190 159 115 255
1.44349 0.378718 5.59622 0 0 0 65 63 64 255
0.191415 0.625845 4.39656 0 0 0 210 219 218 255
2.10711 0.60346 6.0385 0 0 0 81 79 80 255
1.42922 0.641741 6.02329 0 0 0 119 91 86 255
1.62764 0.634164 6.05195 0 0 0 154 158 158 255
1.81567 0.681235 6.03415 0 0 0 195 208 213 255
-0.437392 0.685252 4.36216 0 0 0 79 82 82 255
0.648176 0.698071 4.44074 0 0 0 173 179 179 255
0.845729 0.813486 4.46892 0 0 0 113 129 131 255
-0.474851 0.902633 4.38067 0 0 0 182 210 179 255
1.95577 -2.46443 8.30299 0 0 0 145 156 156 255
-3.61601 -2.19217 7.81699 0 0 0 99 100 106 255
2.66633 -1.78864 8.67135 0 0 0 134 134 138 255
1.24704 -0.63386 4.40681 0 0 0 162 164 163 255
1.25395 -0.63669 4.49324 0 0 0 69 67 68 255
0.909401 -0.442131 4.32742 0 0 0 109 111 103 255
0.917987 -0.41837 4.32111 0 0 0 91 100 90 255
-0.703491 -0.399696 4.41919 0 0 0 199 188 171 255
-0.99193 -0.442176 4.72423 0 0 0 192 169 147 255
-1.27554 -0.484899 5.05582 0 0 0 154 123 100 255
-0.90637 -0.403806 4.68759 0 0 0 206 188 173 255
-1.16292 -0.451702 4.966 0 0 0 207 186 172 255
-1.77772 -0.54392 5.58323 0 0 0 152 106 85 255
-1.65823 -0.483495 5.50966 0 0 0 199 184 167 255
-1.57264 -0.471212 5.4269 0 0 0 144 113 91 255
-1.02885 -0.358794 4.81744 0 0 0 150 109 93 255
-0.811939 -0.322781 4.58892 0 0 0 155 131 118 255
-1.32044 -0.400425 5.13578 0 0 0 155 111 87 255
2.28812 -0.557018 5.97498 0 0 0 229 183 155 255
2.23408 -0.55443 5.99988 0 0 0 215 192 179 255
-0.746169 -0.298682 4.50556 0 0 0 191 181 172 255
1.80401 -0.529864 5.94867 0 0 0 213 195 190 255
2.36696 -0.545884 6.00947 0 0 0 181 140 117 255
2.31111 -0.544308 6.02967 0 0 0 204 193 190 255
-1.77908 -0.371487 5.5779 0 0 0 159 136 121 255
-1.30235 -0.313665 5.12498 0 0 0 164 128 103 255
-1.74022 -0.353902 5.59917 0 0 0 204 186 171 255
-0.0335804 -0.187614 4.3062 0 0 0 141 136 110 255
-0.163918 -0.183463 4.3001 0 0 0 159 175 120 255
-1.64238 -0.269552 5.52681 0 0 0 212 178 153 255
0.949814 -0.150764 4.35677 0 0 0 123 132 115 255
-1.04426 -0.136589 4.84608 0 0 0 155 115 88 255
0.777145 -0.0653518 4.362 0 0 0 51 56 52 255
-0.877208 -0.0375503 4.65638 0 0 0 136 127 117 255
-0.74893 -0.0253296 4.52663 0 0 0 137 102 66 255
-0.704025 -0.0277116 4.48831 0 0 0 205 186 163 255
-1.74767 -0.104069 5.64762 0 0 0 179 172 158 255
-1.44027 -0.0812586 5.30977 0 0 0 166 152 136 255
-0.914466 -0.0190841 4.70509 0 0 0 117 103 96 255
2.17978 -0.178898 6.00335 0 0 0 214 173 135 255
-0.709973 0.0156035 4.49597 0 0 0 194 186 172 255
-1.45903 -0.0396685 5.33982 0 0 0 148 140 131 255
-1.74637 0.0665865 5.67054 0 0 0 170 136 136 255
-1.41086 0.0661021 5.38584 0 0 0 139 127 121 255
-1.15144 0.0782514 5.11176 0 0 0 161 144 141 255
-1.26201 0.0783366 5.24433 0 0 0 172 140 142 255
-1.48233 0.0763434 5.49232 0 0 0 123 95 91 255
-0.906216 0.146574 4.83069 0 0 0 135 110 92 255
1.29853 0.1017 4.66764 0 0 0 172 127 95 255
1.19023 0.0730337 5.64071 0 0 0 88 64 59 255
1.33596 0.0574534 5.88516 0 0 0 100 104 106 255
1.30791 0.166673 4.55088 0 0 0 72 71 74 255
1.2975 0.183206 4.51337 0 0 0 92 90 89 255
1.37438 0.194309 5.9639 0 0 0 151 105 82 255
1.97955 0.196064 5.99723 0 0 0 116 98 88 255
2.11853 0.233943 6.03871 0 0 0 172 164 157 255
1.04511 0.337415 4.42139 0 0 0 95 102 109 255
-1.46216 0.487282 5.54848 0 0 0 104 89 80 255
-1.42805 0.496363 5.51118 0 0 0 112 83 68 255
-1.50399 0.510934 5.57788 0 0 0 59 37 33 255
-0.913807 0.478738 4.90582 0 0 0 119 91 79 255
-1.18288 0.501652 5.24025 0 0 0 89 73 67 255
0.415908 0.45849 4.40235 0 0 0 47 53 58 255
-1.33415 0.631 5.42193 0 0 0 93 68 49 255
-0.941295 0.601002 4.96256 0 0 0 53 52 48 255
1.31623 0.457816 4.59812 0 0 0 126 134 116 255
-1.36453 0.650212 5.46098 0 0 0 59 44 32 255
1.31322 0.484458 4.77705 0 0 0 138 146 109 255
-1.58329 0.691205 5.6653 0 0 0 65 55 51 255
-1.39654 0.700294 5.47495 0 0 0 82 66 53 255
-1.06293 0.6944 5.11406 0 0 0 76 58 48 255
1.29463 0.659651 5.9725 0 0 0 126 132 135 255
-0.171651 0.72373 4.40975 0 0 0 146 149 149 255
0.175893 0.794489 4.42808 0 0 0 174 177 180 255
1.3068 0.953435 6.01891 0 0 0 181 135 121 255
1.9668 0.916981 6.04793 0 0 0 204 188 188 255
-0.0338718 0.852612 4.41936 0 0 0 200 210 211 255
1.31091 0.978259 6.0067 0 0 0 199 167 161 255
1.96096 0.936984 6.05703 0 0 0 205 176 169 255
2.11971 0.943011 6.09694 0 0 0 197 182 181 255
0.425269 0.899467 4.45905 0 0 0 135 142 146 255
1.33987 1.10153 4.93625 0 0 0 165 159 161 255
-0.961768 1.32686 4.95793 0 0 0 102 90 92 255
1.25156 -0.629588 4.38185 0 0 0 156 155 153 255
1.2526 -0.634979 4.49769 0 0 0 69 67 68 255
-0.670644 -0.401707 4.367 0 0 0 199 188 173 255
-1.23156 -0.456411 5.05828 0 0 0 206 188 172 255
-0.95048 -0.401639 4.75268 0 0 0 206 188 168 255
-1.03798 -0.35351 4.8217 0 0 0 164 146 132 255
-1.6519 -0.454344 5.50076 0 0 0 164 141 129 255
0.665253 -0.255639 4.35809 0 0 0 151 162 110 255
-1.37633 -0.320914 5.21483 0 0 0 155 129 110 255
1.68557 -0.457348 5.95069 0 0 0 198 146 111 255
-1.66336 -0.287723 5.5488 0 0 0 215 187 166 255
-1.6364 -0.214833 5.51933 0 0 0 152 113 91 255
-1.05483 -0.135278 4.85741 0 0 0 170 143 123 255
-0.676767 -0.0739406 4.4392 0 0 0 205 187 168 255
1.69721 -0.26218 5.95777 0 0 0 191 170 158 255
-0.695734 -0.0391542 4.47002 0 0 0 205 187 166 255
-0.848007 -0.0172353 4.62246 0 0 0 160 140 133 255
-1.15721 -0.0312261 4.98355 0 0 0 179 163 150 255
-1.13166 0.0778343 5.08555 0 0 0 158 161 150 255
1.32009 0.0708127 5.94137 0 0 0 97 103 108 255
1.35911 0.08696 5.95639 0 0 0 151 156 151 255
-0.292217 0.279837 4.35225 0 0 0 66 74 64 255
-0.174586 0.321613 4.36585 0 0 0 101 104 99 255
1.25628 0.292006 5.94474 0 0 0 175 131 105 255
-1.27033 0.542731 5.32975 0 0 0 45 43 41 255
-1.61048 0.575012 5.66216 0 0 0 117 88 71 255
-1.36249 0.648361 5.45889 0 0 0 67 50 38 255
-1.65441 0.707466 5.72039 0 0 0 153 118 100 255
1.33804 0.684582 4.58909 0 0 0 118 127 113 255
-0.59713 0.802885 4.49625 0 0 0 140 113 95 255
1.03085 0.703437 4.44299 0 0 0 180 191 192 255
1.95787 0.840288 6.00758 0 0 0 186 194 194 255
1.96076 0.933645 6.05542 0 0 0 205 176 169 255
1.00006 0.919738 4.47845 0 0 0 97 99 100 255
-0.613065 1.24193 4.5586 0 0 0 196 197 195 255
2.163 -2.49897 8.37117 0 0 0 142 160 157 255
-0.660999 -2.51579 8.23645 0 0 0 64 75 82 255
2.66704 -1.82995 8.67869 0 0 0 131 132 141 255
-0.620753 -0.522536 4.24402 0 0 0 197 194 194 255
-1.15139 -0.430887 4.98136 0 0 0 179 164 149 255
-1.00653 -0.399455 4.82788 0 0 0 206 187 166 255
-1.37648 -0.435063 5.21318 0 0 0 153 116 91 255
-1.02736 -0.363553 4.82092 0 0 0 150 109 93 255
-1.62379 -0.46979 5.47895 0 0 0 153 117 97 255
-1.70629 -0.464424 5.55433 0 0 0 185 166 149 255
0.0453932 -0.289888 4.29806 0 0 0 175 189 127 255
-1.33476 -0.317446 5.16369 0 0 0 164 128 103 255
2.30836 -0.413556 6.00479 0 0 0 194 139 95 255
2.38339 -0.37473 6.02662 0 0 0 209 208 207 255
-1.63286 -0.222362 5.5162 0 0 0 152 113 91 255
-1.09398 -0.136775 4.89879 0 0 0 167 150 140 255
-0.757977 -0.115272 4.55906 0 0 0 142 110 93 255
1.29658 0.0915337 4.68779 0 0 0 172 126 89 255
-0.841542 0.15886 4.72999 0 0 0 143 110 88 255
0.232519 0.142174 4.36153 0 0 0 102 106 84 255
1.3221 0.0627001 5.94571 0 0 0 97 108 113 255
1.22597 0.0943462 5.29758 0 0 0 80 60 58 255
1.36638 0.0817479 5.96705 0 0 0 163 162 153 255
0.444832 0.207196 4.38067 0 0 0 123 130 106 255
1.30119 0.185431 4.51547 0 0 0 119 124 113 255
2.4172 0.119134 6.05898 0 0 0 148 169 178 255
-0.0136552 0.282254 4.3647 0 0 0 140 151 122 255
1.31673 0.213567 5.94733 0 0 0 172 142 112 255
1.32721 0.23615 5.9544 0 0 0 196 144 88 255
1.31553 0.261971 4.49185 0 0 0 164 176 147 255
1.07709 0.347771 4.4227 0 0 0 117 124 126 255
1.0571 0.345215 4.40653 0 0 0 69 66 67 255
-1.42415 0.519058 5.4932 0 0 0 97 75 68 255
-1.27946 0.54422 5.34029 0 0 0 45 43 41 255
-1.58818 0.562414 5.63098 0 0 0 104 80 71 255
1.31822 0.470851 4.58846 0 0 0 154 164 138 255
1.00633 0.567064 4.44754 0 0 0 202 207 206 255
1.3081 0.684175 5.97662 0 0 0 181 191 196 255
0.665967 0.623286 4.43214 0 0 0 209 217 219 255
-0.0320533 0.714739 4.40878 0 0 0 162 166 165 255
1.20082 0.800561 5.94614 0 0 0 88 86 87 255
1.33742 0.688639 4.58835 0 0 0 124 134 117 255
0.969618 0.739569 4.46694 0 0 0 207 216 216 255
-0.546723 0.830927 4.44677 0 0 0 179 199 181 255
0.0573861 0.814267 4.42588 0 0 0 208 213 214 255
0.93647 0.78947 4.45398 0 0 0 100 107 111 255
1.31617 0.958861 6.00601 0 0 0 201 169 160 255
0.000238355 0.883366 4.43021 0 0 0 118 125 126 255
-0.587867 1.00384 4.55568 0 0 0 122 123 120 255
-0.779436 1.24058 4.83061 0 0 0 154 129 115 255
1.35187 1.11077 4.92846 0 0 0 222 218 218 255
-0.866507 1.29785 4.84081 0 0 0 82 82 84 255
2.55092 -1.77588 8.53176 0 0 0 208 208 208 255
1.21124 -0.655464 4.34851 0 0 0 70 72 74 255
1.24789 -0.620762 4.53791 0 0 0 65 63 64 255
-0.61478 -0.49114 4.24732 0 0 0 207 191 176 255
-0.619379 -0.415191 4.26545 0 0 0 208 192 175 255
-0.0216737 -0.176903 4.30978 0 0 0 175 191 132 255
2.4148 -0.33379 6.02953 0 0 0 206 201 200 255
1.30188 0.0835072 4.64038 0 0 0 173 124 87 255
-0.655394 0.178251 4.45044 0 0 0 144 111 89 255
1.18424 0.104151 5.61554 0 0 0 69 69 72 255
1.3148 0.0738001 5.9411 0 0 0 90 112 126 255
0.85383 0.213574 4.39277 0 0 0 163 179 126 255
2.587 0.119057 6.10651 0 0 0 83 80 81 255
0.260187 0.246681 4.34809 0 0 0 55 65 61 255
0.64812 0.261947 4.39676 0 0 0 160 175 131 255
2.49251 0.159946 6.04504 0 0 0 115 88 84 255
2.20752 0.248701 6.04622 0 0 0 95 100 108 255
2.59885 0.2206 6.12265 0 0 0 85 82 83 255
1.38736 0.302939 5.95227 0 0 0 121 74 56 255
-0.273695 0.392748 4.36525 0 0 0 43 50 50 255
1.34904 0.351029 5.95364 0 0 0 100 62 55 255
1.33032 0.408444 5.95793 0 0 0 98 62 59 255
-0.324885 0.458107 4.3707 0 0 0 40 50 53 255
2.61171 0.393908 6.11752 0 0 0 95 127 150 255
0.990028 0.522029 4.43974 0 0 0 205 212 212 255
-0.380252 0.59999 4.38434 0 0 0 151 154 157 255
0.344018 0.759358 4.40668 0 0 0 203 209 209 255
2.45497 0.797806 6.07991 0 0 0 101 82 82 255
2.58523 0.78821 6.13813 0 0 0 93 85 87 255
-0.0114943 0.796812 4.419 0 0 0 127 130 132 255
-0.466058 0.849116 4.43663 0 0 0 101 114 107 255
-0.140082 0.835462 4.39498 0 0 0 155 162 162 255
1.33464 0.960429 6.00857 0 0 0 178 168 169 255
2.5195 0.936119 6.11871 0 0 0 180 122 104 255
-0.0489561 0.860524 4.42211 0 0 0 205 216 215 255
0.269571 0.890391 4.44334 0 0 0 133 135 137 255
0.678831 0.891329 4.4701 0 0 0 178 186 187 255
0.716867 0.887729 4.44872 0 0 0 181 188 188 255
-0.410231 1.08404 4.42912 0 0 0 73 77 78 255
1.35427 1.11802 4.93088 0 0 0 222 218 218 255
2.53621 -1.79257 8.52225 0 0 0 206 209 208 255
1.22883 -0.61997 4.45099 0 0 0 58 57 60 255
-0.6105 -0.504199 4.25218 0 0 0 205 189 177 255
1.99872 -0.51959 5.96625 0 0 0 187 143 110 255
0.551838 -0.260631 4.32301 0 0 0 176 195 132 255
2.42296 -0.331621 6.025 0 0 0 204 200 197 255
-0.0616566 -0.102691 4.31845 0 0 0 176 192 134 255
1.30058 0.0603392 4.64738 0 0 0 175 123 79 255
2.05955 0.0593985 5.99704 0 0 0 191 204 210 255
1.32271 0.101965 5.95157 0 0 0 93 97 102 255
2.03389 0.112369 5.98454 0 0 0 103 116 126 255
-0.414625 0.24457 4.37612 0 0 0 171 190 149 255
2.20964 0.130943 6.01667 0 0 0 194 204 214 255
2.53131 0.174334 6.03284 0 0 0 83 81 82 255
0.483192 0.27732 4.38483 0 0 0 145 157 116 255
2.61235 0.211352 6.11687 0 0 0 84 84 86 255
-0.491477 0.441808 4.38375 0 0 0 99 103 98 255
0.958048 0.532184 4.43861 0 0 0 206 215 216 255
1.32077 0.503749 4.58978 0 0 0 143 156 137 255
1.98425 0.551701 6.04121 0 0 0 170 185 147 255
1.8447 0.600928 6.01541 0 0 0 115 118 112 255
2.62195 0.629358 6.11341 0 0 0 106 103 104 255
-0.408414 0.697853 4.38256 0 0 0 70 75 73 255
1.1661 0.662749 4.45101 0 0 0 197 202 202 255
1.23572 0.882253 5.67052 0 0 0 159 103 79 255
1.00788 0.765465 4.45425 0 0 0 179 186 186 255
0.018616 0.897666 4.43812 0 0 0 126 125 128 255
-0.407185 0.979844 4.40416 0 0 0 82 89 87 255
2.45222 -1.7612 8.38378 0 0 0 207 209 208 255
1.19145 -0.638482 4.35133 0 0 0 62 64 66 255
1.2504 -0.631468 4.50941 0 0 0 69 66 67 255
0.672753 -0.210191 4.35127 0 0 0 71 78 73 255
0.522177 0.188747 4.36627 0 0 0 128 137 110 255
1.88655 0.183079 5.98499 0 0 0 111 128 136 255
1.66042 0.182467 5.97484 0 0 0 98 96 96 255
2.07566 0.127346 5.99989 0 0 0 102 115 126 255
0.690261 0.265498 4.39433 0 0 0 169 186 128 255
1.31119 0.264441 4.4833 0 0 0 157 161 135 255
1.37848 0.381666 5.95757 0 0 0 71 62 64 255
0.908679 0.529359 4.40621 0 0 0 207 216 216 255
1.70362 0.65808 6.00279 0 0 0 199 208 210 255
0.410299 0.615121 4.42553 0 0 0 188 187 188 255
1.65341 0.630487 6.02695 0 0 0 185 193 197 255
1.83274 0.716082 6.03522 0 0 0 200 209 211 255
0.966795 0.652182 4.44235 0 0 0 115 124 125 255
-3.54519 -2.10689 7.58158 0 0 0 110 110 109 255
1.20437 -0.628224 4.5536 0 0 0 202 202 205 255
1.22521 -0.690655 4.89359 0 0 0 140 141 137 255
-1.81708 -0.836981 5.58777 0 0 0 66 95 107 255
1.19927 -0.651529 4.69643 0 0 0 233 233 233 255
-0.870082 -0.596506 4.56114 0 0 0 192 190 191 255
-1.87169 -0.635482 5.55476 0 0 0 187 174 156 255
-1.09917 -0.449836 4.7783 0 0 0 199 184 166 255
-1.02606 -0.364048 4.7278 0 0 0 208 191 170 255
1.53443 -0.490302 5.97026 0 0 0 169 141 125 255
1.20495 -0.237017 4.36794 0 0 0 74 81 79 255
-1.5387 -0.08004 5.32868 0 0 0 163 152 135 255
-1.91005 -0.0838477 5.60852 0 0 0 188 172 151 255
-1.87729 -0.049254 5.59745 0 0 0 127 113 103 255
-1.11851 -0.00969971 4.89122 0 0 0 157 148 137 255
-1.92978 0.0861188 5.63745 0 0 0 149 142 142 255
1.88525 -0.106253 6.02512 0 0 0 206 178 145 255
-2.00987 0.157971 5.6129 0 0 0 88 80 79 255
-1.97436 0.186685 5.60806 0 0 0 83 52 43 255
1.11531 0.0712057 5.64084 0 0 0 90 67 52 255
1.24643 0.116886 4.80444 0 0 0 143 149 151 255
0.566369 0.201223 4.37543 0 0 0 151 165 121 255
-1.93081 0.345842 5.6661 0 0 0 70 48 43 255
-1.1404 0.343758 5.06461 0 0 0 126 100 81 255
-2.05709 0.421809 5.71759 0 0 0 92 62 46 255
1.26959 0.222442 4.75179 0 0 0 84 84 86 255
2.07122 0.163045 6.01849 0 0 0 124 139 142 255
1.24958 0.250389 4.95189 0 0 0 136 149 129 255
1.08946 0.273748 5.80367 0 0 0 117 111 106 255
1.2702 0.338957 4.86671 0 0 0 108 118 97 255
1.26459 0.350017 4.82019 0 0 0 147 150 148 255
1.99465 0.344821 6.02224 0 0 0 154 136 113 255
2.04898 0.350228 6.01688 0 0 0 166 163 156 255
1.09118 0.460509 5.96566 0 0 0 180 187 187 255
1.07122 0.43263 4.43574 0 0 0 76 89 91 255
1.10975 0.429839 4.43755 0 0 0 67 70 75 255
1.29164 0.509734 4.76598 0 0 0 134 144 142 255
1.09401 0.633859 5.94286 0 0 0 75 65 56 255
1.28286 0.578372 4.82418 0 0 0 144 154 148 255
-1.3662 0.845283 5.39153 0 0 0 142 114 89 255
-0.971218 0.823445 4.94113 0 0 0 154 134 116 255
-0.457995 0.777691 4.41011 0 0 0 95 113 106 255
2.05163 0.67717 5.98161 0 0 0 177 145 104 255
1.83163 0.92916 6.02146 0 0 0 204 153 136 255
-0.643147 1.01304 4.59653 0 0 0 122 111 92 255
0.250326 0.896757 4.44181 0 0 0 134 143 142 255
1.78556 0.945658 6.01172 0 0 0 181 162 162 255
1.74261 0.957451 6.01111 0 0 0 184 177 179 255
1.77525 0.968413 6.01317 0 0 0 194 152 140 255
0.183783 0.948271 4.42201 0 0 0 181 186 184 255
1.18386 0.897158 4.47059 0 0 0 103 109 113 255
1.06379 0.913521 4.46937 0 0 0 104 109 108 255
-3.81029 -2.06298 7.49559 0 0 0 112 107 109 255
1.20865 -0.619342 4.53082 0 0 0 202 202 205 255
1.20711 -0.639989 4.62396 0 0 0 230 233 232 255
-1.92214 -0.632832 5.56873 0 0 0 174 160 144 255
-1.01194 -0.372653 4.71194 0 0 0 207 190 169 255
-1.87533 -0.458695 5.60449 0 0 0 148 127 116 255
1.68667 -0.352714 5.99162 0 0 0 200 171 152 255
-0.928272 -0.0747084 4.72438 0 0 0 204 190 170 255
-1.90436 -0.050812 5.59088 0 0 0 138 131 123 255
-1.05602 0.0304615 4.90702 0 0 0 202 186 165 255
0.141284 0.186422 4.35678 0 0 0 81 92 84 255
1.14843 0.0667641 5.90345 0 0 0 98 55 24 255
-1.90695 0.351445 5.64216 0 0 0 72 54 47 255
-1.19292 0.366276 5.11726 0 0 0 52 48 43 255
1.2523 0.234371 4.91122 0 0 0 128 136 124 255
1.09486 0.267974 5.77462 0 0 0 154 148 144 255
1.07453 0.324064 5.98305 0 0 0 177 188 190 255
1.26895 0.343432 4.86475 0 0 0 92 101 83 255
-1.67969 0.637527 5.6415 0 0 0 141 116 93 255
1.08803 0.454649 5.98998 0 0 0 166 174 174 255
1.1413 0.471718 5.64952 0 0 0 131 123 117 255
-1.1037 0.765563 5.10097 0 0 0 147 125 104 255
1.09005 0.645313 5.96714 0 0 0 72 61 52 255
1.27924 0.586494 4.84332 0 0 0 136 146 141 255
-0.381987 0.916741 4.42594 0 0 0 134 152 142 255
-0.638412 0.988372 4.59606 0 0 0 183 199 180 255
-0.0161501 0.941432 4.43652 0 0 0 206 213 213 255
-3.54756 -2.08063 7.5531 0 0 0 126 123 124 255
1.20401 -0.695084 4.77111 0 0 0 65 66 67 255
1.20623 -0.620024 4.54391 0 0 0 195 199 203 255
1.20539 -0.641458 4.65334 0 0 0 236 238 237 255
-1.79175 -0.617649 5.49183 0 0 0 150 128 113 255
-1.01734 -0.386255 4.71633 0 0 0 206 189 169 255
0.958736 -0.207095 4.35329 0 0 0 128 141 117 255
1.88332 -0.45977 5.99984 0 0 0 213 179 163 255
0.773556 -0.120695 4.35472 0 0 0 46 54 51 255
2.2931 -0.357769 6.01442 0 0 0 211 203 205 255
-1.75407 -0.0607738 5.55869 0 0 0 173 159 148 255
1.09218 0.0704374 5.78892 0 0 0 101 64 38 255
0.861534 0.188019 4.39122 0 0 0 116 129 106 255
1.25119 0.138581 4.8149 0 0 0 38 38 38 255
1.25554 0.139532 4.87289 0 0 0 68 77 76 255
1.26331 0.228057 4.79395 0 0 0 91 93 93 255
-1.38066 0.448987 5.30511 0 0 0 139 114 91 255
1.25676 0.310045 5.96386 0 0 0 178 135 94 255
1.04644 0.325335 4.40764 0 0 0 44 51 52 255
-2.06919 0.566135 5.93331 0 0 0 133 107 84 255
1.26857 0.343206 4.85941 0 0 0 92 101 83 255
1.08878 0.455831 5.97941 0 0 0 180 188 188 255
1.27372 0.452264 4.86497 0 0 0 85 90 89 255
-1.18704 0.779258 5.19316 0 0 0 150 115 88 255
0.905471 0.564603 4.43794 0 0 0 201 212 212 255
1.25791 0.618856 4.98336 0 0 0 128 138 119 255
-1.77592 0.924699 5.72139 0 0 0 68 59 54 255
0.860542 0.613335 4.44775 0 0 0 205 218 218 255
1.00696 0.625221 4.44332 0 0 0 113 122 124 255
-1.24666 0.878608 5.24896 0 0 0 151 140 124 255
1.95259 0.711408 6.02122 0 0 0 165 179 155 255
0.840202 0.686176 4.45231 0 0 0 201 210 212 255
1.26965 0.684811 4.93235 0 0 0 94 96 97 255
-0.433449 0.85216 4.42629 0 0 0 114 126 120 255
1.16717 0.889078 6.00342 0 0 0 169 180 180 255
-0.632178 0.976229 4.60383 0 0 0 179 206 178 255
-0.641325 1.02278 4.60357 0 0 0 100 102 97 255
0.541 1.04821 4.46185 0 0 0 157 167 169 255
1.2042 -0.602431 4.59581 0 0 0 189 197 199 255
-0.165114 0.0715444 4.3631 0 0 0 73 87 74 255
1.06756 0.0462168 5.94884 0 0 0 175 122 83 255
1.07406 0.321081 5.98386 0 0 0 177 188 190 255
1.26458 0.364928 4.85879 0 0 0 94 99 96 255
-1.72737 0.634895 5.66676 0 0 0 129 113 100 255
1.27493 0.441448 4.88278 0 0 0 74 78 77 255
0.806657 0.573279 4.41811 0 0 0 140 141 143 255
1.08061 0.681603 6.02413 0 0 0 83 73 67 255
-0.137169 0.847533 4.4023 0 0 0 128 137 139 255
0.109057 0.818765 4.41619 0 0 0 198 211 214 255
1.91621 0.824021 5.98836 0 0 0 165 179 181 255
0.270951 0.912287 4.44582 0 0 0 146 151 153 255
-0.639543 1.02731 4.60769 0 0 0 97 103 99 255
0.60638 0.935933 4.44734 0 0 0 209 222 222 255
0.892866 1.01602 4.47888 0 0 0 153 166 168 255
1.20851 -0.632491 4.34556 0 0 0 49 56 57 255
1.20329 -0.655907 4.74529 0 0 0 70 70 72 255
1.87526 -0.311592 5.99032 0 0 0 217 205 205 255
1.08664 0.0765428 5.99874 0 0 0 72 65 67 255
1.33419 0.108644 5.97099 0 0 0 95 96 96 255
0.617639 0.213169 4.4029 0 0 0 47 53 51 255
1.85425 0.309781 6.05247 0 0 0 106 118 123 255
1.75162 0.442105 6.00209 0 0 0 101 92 93 255
-0.16684 0.570742 4.40249 0 0 0 164 171 172 255
0.628427 0.513246 4.43085 0 0 0 56 59 62 255
0.241291 0.651001 4.41426 0 0 0 199 203 204 255
0.986748 0.627932 4.43618 0 0 0 117 123 127 255
1.14704 0.787207 6.00903 0 0 0 91 98 107 255
1.82142 0.757672 6.01465 0 0 0 201 212 213 255
-0.55025 0.921003 4.48205 0 0 0 177 206 183 255
-0.868594 1.3368 4.87584 0 0 0 202 209 207 255
0.728059 -0.364221 4.35136 0 0 0 176 195 128 255
0.156876 -0.238651 4.30884 0 0 0 63 73 68 255
0.620072 -0.211335 4.35426 0 0 0 57 65 60 255
0.779636 -0.209348 4.34914 0 0 0 161 179 123 255
-0.147639 -0.0699812 4.32047 0 0 0 89 99 89 255
0.318396 -0.0594652 4.35323 0 0 0 169 188 126 255
0.215974 -0.0171088 4.34647 0 0 0 37 47 44 255
1.74954 0.155012 6.0217 0 0 0 191 205 207 255
1.89571 0.15347 6.03809 0 0 0 107 125 132 255
2.10542 0.145935 6.0492 0 0 0 99 109 115 255
1.40541 0.225632 5.97745 0 0 0 193 142 93 255
0.88313 0.575706 4.4493 0 0 0 203 217 217 255
1.62098 0.669005 6.04732 0 0 0 191 205 207 255
0.972254 0.663025 4.43929 0 0 0 99 105 109 255
1.80974 0.736756 6.03786 0 0 0 199 213 213 255
1.80974 0.736756 6.03786 0 0 0 199 213 213 255
1.99202 -2.50143 8.30709 0 0 0 155 161 159 255
-3.66263 -2.68634 6.94689 0 0 0 15 25 27 255
-3.39108 -2.24163 6.55404 0 0 0 126 123 129 255
-3.47018 -2.22641 6.51732 0 0 0 141 135 136 255
-3.59117 -2.19301 6.436 0 0 0 124 114 120 255
-3.53576 -2.20053 6.47809 0 0 0 120 126 131 255
-3.5572 -2.14599 6.52739 0 0 0 123 130 140 255
-3.92644 -2.05119 6.1208 0 0 0 90 87 93 255
-3.8275 -1.90547 6.29851 0 0 0 79 88 90 255
-3.88037 -1.86388 6.21114 0 0 0 181 179 191 255
-3.65287 -1.87514 6.39068 0 0 0 103 100 104 255
-3.7609 -1.86143 6.35437 0 0 0 96 99 103 255
-3.83405 -1.81313 6.18233 0 0 0 180 180 196 255
-3.43225 -1.85477 6.4847 0 0 0 88 98 114 255
-3.61455 -1.77011 6.46323 0 0 0 121 125 133 255
-3.71694 -1.72856 6.35276 0 0 0 97 99 103 255
-3.79959 -1.71258 6.30674 0 0 0 97 101 115 255
-3.84444 -1.68735 6.24642 0 0 0 109 116 134 255
-3.70927 -1.63386 6.3673 0 0 0 88 87 94 255
-3.76769 -1.58424 6.379 0 0 0 106 109 117 255
-3.90703 -1.51557 6.3142 0 0 0 118 114 128 255
-3.88153 -1.51532 6.31944 0 0 0 133 119 135 255
-3.76992 -1.48325 6.35667 0 0 0 68 72 84 255
-3.6076 -1.45325 6.38859 0 0 0 61 67 77 255
-3.83996 -1.36324 6.30523 0 0 0 83 88 99 255
-3.67431 -1.33696 6.35754 0 0 0 104 102 114 255
-3.75827 -1.31954 6.30144 0 0 0 117 118 123 255
-3.76472 -1.26381 6.29072 0 0 0 97 98 100 255
-3.67042 -1.23633 6.33777 0 0 0 68 73 85 255
-3.75671 -1.22845 6.27644 0 0 0 58 62 65 255
-3.58826 -1.19606 6.36353 0 0 0 91 95 100 255
-3.73521 -1.15963 6.26136 0 0 0 109 110 114 255
-3.6395 -1.14188 6.38127 0 0 0 89 97 106 255
-3.50719 -1.01474 5.89107 0 0 0 113 116 125 255
-3.50398 -0.981699 5.88523 0 0 0 68 67 75 255
-3.70629 -1.07001 6.29035 0 0 0 106 107 112 255
-3.65215 -1.03519 6.33554 0 0 0 98 101 114 255
-3.72506 -1.01515 6.26304 0 0 0 103 109 115 255
-3.50162 -0.882972 5.88314 0 0 0 146 163 171 255
-3.71416 -0.963654 6.25303 0 0 0 109 109 119 255
-3.58498 -0.890452 6.02139 0 0 0 35 58 66 255
-2.25484 -0.775748 5.55303 0 0 0 186 180 174 255
-3.66021 -0.92325 6.28266 0 0 0 103 104 114 255
-3.74352 -0.901084 6.22729 0 0 0 95 93 95 255
-2.54348 -0.757274 5.53669 0 0 0 110 97 100 255
-2.28398 -0.748106 5.5479 0 0 0 81 51 53 255
-3.59263 -0.883662 6.32746 0 0 0 119 119 124 255
-3.69787 -0.866203 6.25274 0 0 0 86 90 99 255
-3.71134 -0.815979 6.2515 0 0 0 96 95 100 255
-3.63481 -0.821788 6.27274 0 0 0 105 104 107 255
-3.67331 -0.768144 6.05239 0 0 0 144 129 119 255
-3.58588 -0.782142 6.30533 0 0 0 120 119 123 255
-3.70423 -0.761849 6.23663 0 0 0 110 104 113 255
-3.72761 -0.753954 6.19449 0 0 0 71 65 76 255
1.96485 -0.580339 5.99245 0 0 0 197 171 151 255
-2.55307 -0.631553 5.54361 0 0 0 116 92 85 255
-0.773258 -0.463894 4.41324 0 0 0 158 132 120 255
-3.58675 -0.735478 6.31849 0 0 0 119 120 124 255
-3.70144 -0.71509 6.24368 0 0 0 112 110 117 255
-0.769856 -0.45016 4.45961 0 0 0 197 184 167 255
-3.54977 -0.688946 6.33723 0 0 0 92 93 102 255
-2.55235 -0.567576 5.543 0 0 0 97 76 78 255
-3.70151 -0.615757 6.24409 0 0 0 124 122 125 255
-3.60184 -0.622174 6.26097 0 0 0 96 96 100 255
1.90304 -0.496948 6.00626 0 0 0 172 143 121 255
-3.72204 -0.605156 6.19239 0 0 0 78 74 85 255
1.66923 -0.482989 5.98918 0 0 0 185 135 93 255
-3.56935 -0.588543 6.29918 0 0 0 54 57 67 255
1.73767 -0.471825 6.00238 0 0 0 201 166 140 255
-3.68726 -0.570048 6.23435 0 0 0 109 110 117 255
1.60628 -0.461055 5.97728 0 0 0 208 193 189 255
1.87958 -0.444417 6.01297 0 0 0 217 196 187 255
-3.58948 -0.519498 6.25318 0 0 0 131 130 137 255
0.961121 -0.285011 4.3481 0 0 0 131 142 115 255
-3.76432 -0.507369 6.14036 0 0 0 189 195 195 255
-3.70908 -0.508862 6.18189 0 0 0 63 64 76 255
-3.66682 -0.513583 6.21771 0 0 0 115 112 120 255
-3.58831 -0.476554 6.27048 0 0 0 120 121 130 255
-0.839608 -0.303385 4.56589 0 0 0 203 188 168 255
-3.70864 -0.461692 6.20633 0 0 0 106 103 111 255
-3.75294 -0.448848 6.1728 0 0 0 118 113 115 255
-2.54272 -0.379333 5.56113 0 0 0 63 47 42 255
-3.77567 -0.431575 6.1533 0 0 0 43 44 52 255
-3.72584 -0.438091 6.19274 0 0 0 77 75 81 255
0.657166 -0.24408 4.36251 0 0 0 143 157 109 255
0.712036 -0.234536 4.34029 0 0 0 105 117 72 255
2.02314 -0.363911 6.01847 0 0 0 186 137 99 255
-3.74629 -0.407238 6.18518 0 0 0 132 129 132 255
-3.62975 -0.418352 6.23333 0 0 0 108 110 113 255
1.94909 -0.356719 6.01872 0 0 0 175 142 118 255
-3.81881 -0.390005 6.106 0 0 0 91 90 101 255
-3.77457 -0.395207 6.14098 0 0 0 129 121 128 255
1.63504 -0.323464 5.97715 0 0 0 207 171 157 255
-2.49953 -0.145485 5.56922 0 0 0 154 97 66 255
2.03957 -0.169945 6.80913 0 0 0 214 175 137 255
-1.85538 -0.0814018 5.64496 0 0 0 134 127 116 255
1.24961 -0.0406815 4.75476 0 0 0 51 53 53 255
-1.05212 0.0150012 4.86277 0 0 0 199 185 163 255
-2.22519 0.0488138 5.64989 0 0 0 202 181 162 255
-2.19966 0.0795528 5.62152 0 0 0 51 41 28 255
-1.63973 0.133471 5.55038 0 0 0 120 108 98 255
-2.18677 0.175027 5.59551 0 0 0 134 94 66 255
1.26385 0.164243 4.77078 0 0 0 77 78 78 255
1.25645 0.163832 4.84648 0 0 0 82 84 83 255
-2.02358 0.349443 5.64039 0 0 0 128 103 86 255
1.5019 0.238783 6.00103 0 0 0 161 118 69 255
-2.39392 0.476027 5.60586 0 0 0 114 93 77 255
-3.1525 0.551687 6.16261 0 0 0 125 126 132 255
-3.32811 0.570084 6.131 0 0 0 132 140 152 255
-3.26289 0.562262 6.16221 0 0 0 112 117 128 255
-3.45832 0.579452 6.08314 0 0 0 102 114 129 255
-2.68988 0.562028 5.81033 0 0 0 12 111 157 255
-2.78392 0.603264 5.9125 0 0 0 1 137 187 255
-2.90251 0.653083 6.00813 0 0 0 14 58 87 255
0.204859 0.399615 4.37571 0 0 0 136 140 146 255
-3.21334 0.683866 6.12667 0 0 0 4 68 102 255
-3.16749 0.69305 6.13907 0 0 0 127 133 137 255
-3.07473 0.682774 6.12379 0 0 0 145 145 157 255
-3.33534 0.732943 6.05842 0 0 0 108 109 118 255
-3.25181 0.726292 6.10834 0 0 0 117 118 121 255
-3.40798 0.740358 6.01719 0 0 0 131 123 128 255
-3.28511 0.732358 6.1067 0 0 0 119 117 124 255
-3.06781 0.732253 6.15197 0 0 0 126 125 128 255
1.13469 0.465347 5.75088 0 0 0 122 119 119 255
-3.51281 0.750737 5.9209 0 0 0 161 163 167 255
-3.46881 0.749591 5.96843 0 0 0 126 125 132 255
-3.20312 0.745986 6.14762 0 0 0 89 97 110 255
-3.15009 0.744923 6.16092 0 0 0 132 144 154 255
1.25666 0.482343 4.96552 0 0 0 108 115 110 255
-1.50826 0.839262 5.52287 0 0 0 143 120 99 255
-1.69752 0.907356 5.67826 0 0 0 123 113 108 255
-1.54693 0.936263 5.54983 0 0 0 126 108 94 255
-1.9651 1.06795 5.6738 0 0 0 107 68 48 255
1.97929 0.835776 5.96831 0 0 0 170 183 185 255
-2.02743 1.21105 5.64565 0 0 0 123 103 85 255
1.40107 0.948686 6.03888 0 0 0 203 160 142 255
-2.3745 1.25578 5.60756 0 0 0 105 110 114 255
1.9302 0.90678 5.95991 0 0 0 192 151 139 255
1.3061 0.976016 6.02308 0 0 0 209 173 166 255
1.97506 0.9077 5.98084 0 0 0 196 179 176 255
1.96956 0.93494 5.98214 0 0 0 215 178 164 255
-2.38408 1.3057 5.62177 0 0 0 129 132 136 255
-1.9471 1.28871 5.6938 0 0 0 124 102 91 255
-2.37327 1.40517 5.62207 0 0 0 155 169 169 255
-2.36319 1.44266 5.61553 0 0 0 172 183 184 255
0.242074 1.00056 4.446 0 0 0 192 198 201 255
1.1308 0.926176 4.47321 0 0 0 167 176 177 255
-0.616212 1.18727 4.56878 0 0 0 212 220 217 255
-2.38608 1.5218 5.14355 0 0 0 190 185 187 255
-2.37436 1.55328 5.1147 0 0 0 117 121 125 255
-3.37898 -2.28633 6.53593 0 0 0 16 23 27 255
-3.5572 -2.14599 6.52739 0 0 0 123 130 140 255
-3.5859 -1.44159 6.36703 0 0 0 100 103 115 255
-3.66209 -1.31363 6.3468 0 0 0 88 92 100 255
-3.62476 -1.19068 6.37433 0 0 0 99 101 114 255
-3.64682 -1.13983 6.36534 0 0 0 102 103 109 255
-3.65576 -1.03252 6.32873 0 0 0 104 105 113 255
-3.51911 -0.876389 5.88828 0 0 0 152 168 174 255
-2.25795 -0.758593 5.56502 0 0 0 201 191 183 255
-3.67523 -0.76645 6.05945 0 0 0 144 129 119 255
-2.55057 -0.651221 5.54897 0 0 0 142 116 103 255
-3.68444 -0.616787 6.05515 0 0 0 189 174 175 255
