ply
format ascii 1.0
comment VCGLIB generated
element vertex 1008
property float x
property float y
property float z
property float nx
property float ny
property float nz
property uchar red
property uchar green
property uchar blue
property uchar alpha
element face 0
property list uchar int vertex_indices
end_header
-1.60989 -0.0929354 5.7521 0 0 0 126 119 110 255
-1.43053 -0.100255 5.74992 0 0 0 169 165 160 255
-1.13592 -0.116208 5.78947 0 0 0 120 115 112 255
-1.09873 -0.111223 5.77915 0 0 0 141 138 131 255
-0.18919 0.0429425 4.31613 0 0 0 149 169 134 255
-1.07235 -0.0981248 5.78247 0 0 0 126 121 118 255
-0.422036 0.0684275 4.32563 0 0 0 158 181 148 255
0.824798 0.0344799 4.37664 0 0 0 137 147 119 255
0.970273 0.0196863 4.3785 0 0 0 134 149 127 255
-0.305225 0.115218 4.33044 0 0 0 177 196 149 255
0.817833 0.0661551 4.37557 0 0 0 135 149 123 255
-2.27553 0.0256948 5.66434 0 0 0 82 46 42 255
-2.23826 0.0303999 5.68962 0 0 0 199 188 171 255
-1.26799 0.0377084 5.73543 0 0 0 98 94 92 255
-1.19129 0.0513719 5.72103 0 0 0 140 129 126 255
-1.1944 0.0408783 5.76398 0 0 0 67 60 49 255
-1.00134 0.0257437 5.77727 0 0 0 169 164 154 255
-2.58846 0.0874429 5.87163 0 0 0 157 96 60 255
-2.21569 0.0779972 5.69241 0 0 0 40 38 38 255
-0.366105 0.163362 4.32428 0 0 0 95 107 103 255
-0.231854 0.175981 4.33257 0 0 0 96 106 100 255
-2.25291 0.172837 5.67369 0 0 0 125 93 72 255
0.980497 0.173694 4.40067 0 0 0 93 104 96 255
-1.93775 0.213123 5.73148 0 0 0 77 65 57 255
0.373834 0.224867 4.36564 0 0 0 159 176 130 255
-2.00611 0.223247 5.71918 0 0 0 151 125 100 255
-0.378209 0.29915 4.35645 0 0 0 147 170 142 255
-0.167343 0.33849 4.37523 0 0 0 171 195 144 255
-0.16569 0.332876 4.37317 0 0 0 173 191 151 255
-2.09494 0.364502 5.74216 0 0 0 144 117 97 255
0.356988 0.322772 4.37176 0 0 0 152 171 134 255
0.874774 0.353741 4.41741 0 0 0 147 156 160 255
1.03721 0.347603 4.42655 0 0 0 159 159 159 255
0.682288 0.369486 4.40674 0 0 0 105 122 128 255
0.707146 0.368049 4.40714 0 0 0 146 156 156 255
0.886985 0.371704 4.41882 0 0 0 131 126 130 255
-0.0273133 0.405016 4.37494 0 0 0 173 181 182 255
0.339539 0.391018 4.39195 0 0 0 122 125 127 255
0.962286 0.371236 4.42002 0 0 0 145 162 166 255
-2.6233 0.482712 6.01799 0 0 0 119 96 79 255
0.637123 0.38788 4.40263 0 0 0 148 155 156 255
0.661425 0.391539 4.40483 0 0 0 132 147 153 255
0.893709 0.378386 4.41971 0 0 0 141 144 146 255
0.219146 0.419342 4.38626 0 0 0 87 94 95 255
0.615393 0.401042 4.40209 0 0 0 86 91 95 255
-1.69826 0.47732 5.76173 0 0 0 128 104 88 255
-0.421043 0.444043 4.34231 0 0 0 93 108 103 255
0.0265969 0.436012 4.38139 0 0 0 57 64 69 255
0.0521659 0.4289 4.38234 0 0 0 160 160 160 255
-0.172442 0.450345 4.3745 0 0 0 120 124 130 255
-0.154353 0.448484 4.37438 0 0 0 95 104 106 255
-0.570339 0.470464 4.51923 0 0 0 43 48 46 255
0.980272 0.447624 4.43057 0 0 0 109 111 115 255
1.03004 0.438279 4.43521 0 0 0 100 110 115 255
-1.88993 0.561332 5.75739 0 0 0 132 106 85 255
-1.09401 0.53883 5.84771 0 0 0 58 47 45 255
-1.0376 0.538175 5.82224 0 0 0 128 114 104 255
0.428446 0.464302 4.40391 0 0 0 96 106 110 255
0.774751 0.456317 4.42648 0 0 0 110 117 123 255
0.434048 0.479205 4.40682 0 0 0 64 70 74 255
-1.66182 0.580916 5.78481 0 0 0 122 98 81 255
-1.43595 0.608819 5.81208 0 0 0 125 100 86 255
-1.04892 0.618772 5.85477 0 0 0 73 58 53 255
0.999408 0.511006 4.43568 0 0 0 203 211 215 255
-1.15591 0.652106 5.83164 0 0 0 95 74 68 255
-1.56054 0.688003 5.80928 0 0 0 98 80 74 255
0.730776 0.550738 4.42757 0 0 0 175 184 185 255
0.799379 0.554472 4.43431 0 0 0 143 149 152 255
-1.67518 0.722587 5.80063 0 0 0 148 120 100 255
0.966614 0.567376 4.44201 0 0 0 144 142 142 255
0.954309 0.592883 4.44481 0 0 0 182 189 193 255
1.00502 0.606675 4.44939 0 0 0 129 144 144 255
0.841989 0.609292 4.4423 0 0 0 147 164 167 255
-1.45559 0.82475 5.81645 0 0 0 55 44 43 255
0.190084 0.654159 4.4115 0 0 0 201 215 217 255
0.820525 0.641631 4.44384 0 0 0 100 105 117 255
0.931313 0.642856 4.45134 0 0 0 172 177 182 255
-0.177149 0.691317 4.40399 0 0 0 187 196 200 255
1.01385 0.647357 4.45547 0 0 0 187 193 193 255
-0.0922309 0.69715 4.39983 0 0 0 205 217 221 255
-1.03487 0.847413 5.87405 0 0 0 88 71 67 255
0.905653 0.671642 4.45323 0 0 0 117 120 122 255
0.850702 0.6934 4.45094 0 0 0 204 219 223 255
1.07787 0.681789 4.4642 0 0 0 178 179 183 255
0.835056 0.704302 4.44989 0 0 0 110 122 127 255
-0.486904 0.769602 4.39963 0 0 0 151 169 155 255
0.335351 0.74721 4.42007 0 0 0 204 219 223 255
1.04054 0.722711 4.46253 0 0 0 203 214 217 255
-0.934562 0.925272 5.72927 0 0 0 71 59 55 255
-0.429069 0.780983 4.39768 0 0 0 121 134 134 255
0.862683 0.744929 4.4562 0 0 0 194 205 207 255
1.10992 0.737383 4.47269 0 0 0 196 210 210 255
0.0852795 0.777657 4.4239 0 0 0 112 124 132 255
0.729682 0.763234 4.45243 0 0 0 173 175 177 255
-0.538061 0.83145 4.44599 0 0 0 155 183 178 255
0.919383 0.780062 4.46106 0 0 0 111 118 120 255
0.958119 0.758252 4.46695 0 0 0 188 197 201 255
-0.331569 0.810583 4.40169 0 0 0 92 93 93 255
-0.284938 0.832886 4.40801 0 0 0 196 214 217 255
1.02397 0.777124 4.46697 0 0 0 204 217 222 255
-2.61342 1.13083 6.12397 0 0 0 150 117 97 255
0.312421 0.839216 4.4289 0 0 0 112 119 121 255
-2.02416 1.08896 5.72276 0 0 0 116 80 66 255
-1.04547 1.06122 5.88011 0 0 0 83 68 64 255
0.989604 0.82167 4.47548 0 0 0 203 216 219 255
-2.4188 1.17612 6.19548 0 0 0 126 105 94 255
0.807935 0.845953 4.46558 0 0 0 135 142 146 255
0.841263 0.834331 4.46585 0 0 0 94 98 105 255
0.865002 0.845563 4.46843 0 0 0 159 177 186 255
0.9873 0.837868 4.47557 0 0 0 182 195 198 255
0.913933 0.859144 4.47474 0 0 0 203 216 217 255
-0.31235 0.922847 4.42731 0 0 0 203 218 220 255
0.821007 0.882895 4.47039 0 0 0 185 189 191 255
0.885571 0.890955 4.47598 0 0 0 102 105 113 255
0.195901 0.926832 4.43415 0 0 0 205 220 222 255
0.628191 0.901205 4.46481 0 0 0 124 135 138 255
0.996923 0.897992 4.48142 0 0 0 180 190 193 255
-2.30846 1.30528 6.21163 0 0 0 147 131 118 255
-0.986224 1.20681 5.89987 0 0 0 133 112 98 255
0.0248412 0.9726 4.43446 0 0 0 202 217 219 255
-0.62763 1.12993 5.01472 0 0 0 58 56 59 255
0.310628 0.991148 4.45351 0 0 0 173 186 191 255
-2.70189 1.41246 6.1427 0 0 0 141 149 159 255
-1.28583 1.30618 5.84729 0 0 0 155 130 114 255
-2.71785 1.45365 6.10588 0 0 0 37 42 46 255
-1.41463 1.47048 5.90853 0 0 0 152 127 114 255
-2.64967 1.59108 6.02464 0 0 0 153 164 165 255
-0.678313 1.31638 5.18865 0 0 0 88 70 72 255
-0.0354309 1.23993 4.4626 0 0 0 101 115 113 255
0.168263 1.22412 4.47033 0 0 0 100 115 112 255
0.411506 1.362 4.50038 0 0 0 70 83 90 255
0.734071 1.34718 4.49554 0 0 0 125 132 143 255
0.706128 1.36097 4.49813 0 0 0 195 207 214 255
-2.89351 -1.03496 6.42171 0 0 0 135 139 140 255
-2.33999 -0.763357 5.63123 0 0 0 83 51 53 255
-2.67898 -0.731076 5.74528 0 0 0 141 113 93 255
0.876989 -0.400982 4.36179 0 0 0 134 147 124 255
-1.9852 -0.635854 5.65176 0 0 0 152 133 118 255
-0.454126 -0.350047 4.28969 0 0 0 165 184 164 255
-1.04836 -0.639606 5.7545 0 0 0 149 109 93 255
-2.01645 -0.535695 5.65477 0 0 0 145 119 105 255
-1.05191 -0.54965 5.76816 0 0 0 154 114 102 255
0.572939 -0.243359 4.32885 0 0 0 94 108 76 255
-2.61955 -0.421094 5.77296 0 0 0 132 111 98 255
0.950316 -0.217712 4.35952 0 0 0 129 141 117 255
-1.30313 -0.296611 5.68316 0 0 0 174 149 135 255
-1.17889 -0.274597 5.77277 0 0 0 151 113 96 255
0.628677 -0.0936888 4.3472 0 0 0 86 108 100 255
-0.434118 -0.0536795 4.31 0 0 0 171 185 168 255
0.505092 -0.0575804 4.34599 0 0 0 127 140 115 255
0.569045 -0.0512368 4.35225 0 0 0 54 67 64 255
0.469633 -0.00426091 4.35636 0 0 0 54 62 61 255
0.493753 0.00331991 4.352 0 0 0 46 58 56 255
-1.5341 -0.0940634 5.73989 0 0 0 136 130 126 255
-0.372856 0.0538664 4.31328 0 0 0 175 201 156 255
-2.23496 0.00982844 5.69957 0 0 0 204 190 172 255
-2.59181 0.0754186 5.87492 0 0 0 144 89 76 255
-0.102797 0.136513 4.33141 0 0 0 168 191 141 255
-2.21118 0.0874727 5.69394 0 0 0 38 36 37 255
0.664631 0.23172 4.39882 0 0 0 136 147 124 255
-2.08194 0.370813 5.75218 0 0 0 142 118 98 255
-1.97459 0.352305 5.7121 0 0 0 81 46 45 255
-1.88194 0.337061 5.75634 0 0 0 53 38 37 255
0.356863 0.312613 4.37075 0 0 0 162 180 138 255
-0.118357 0.348205 4.34835 0 0 0 173 200 147 255
-2.62355 0.481364 6.01848 0 0 0 119 96 79 255
-0.119276 0.398182 4.35844 0 0 0 50 61 60 255
0.639528 0.390365 4.40348 0 0 0 148 155 156 255
0.874929 0.372289 4.41777 0 0 0 132 153 163 255
-0.00203928 0.418529 4.37649 0 0 0 50 52 53 255
-1.73229 0.466329 5.7403 0 0 0 139 116 94 255
-0.440252 0.457291 4.34076 0 0 0 78 86 84 255
-1.45839 0.493041 5.81467 0 0 0 129 105 91 255
-1.87011 0.552285 5.7596 0 0 0 141 113 90 255
0.813258 0.572841 4.43422 0 0 0 153 156 162 255
0.952401 0.561357 4.44113 0 0 0 175 180 183 255
0.265123 0.611008 4.41177 0 0 0 155 162 166 255
0.917964 0.590063 4.44524 0 0 0 175 181 183 255
0.813729 0.605447 4.43612 0 0 0 131 132 136 255
-1.49655 0.826856 5.80851 0 0 0 53 41 33 255
0.711875 0.645346 4.4374 0 0 0 137 143 150 255
-1.59352 0.833082 5.79276 0 0 0 166 140 121 255
-1.69776 0.870116 5.80536 0 0 0 147 122 102 255
0.856363 0.696526 4.45271 0 0 0 205 218 223 255
1.03386 0.732296 4.46313 0 0 0 204 216 218 255
0.246328 0.773632 4.43217 0 0 0 193 208 217 255
-0.98534 0.990413 5.88786 0 0 0 107 98 95 255
0.711636 0.74781 4.45276 0 0 0 191 197 202 255
0.968097 0.752756 4.46881 0 0 0 200 217 218 255
-1.24209 1.00979 5.81916 0 0 0 146 122 103 255
-0.0837468 0.827126 4.42124 0 0 0 204 220 223 255
0.20329 0.816276 4.43067 0 0 0 144 155 160 255
0.996533 0.798188 4.47222 0 0 0 179 196 200 255
0.0916403 0.838478 4.43073 0 0 0 203 221 224 255
0.502633 0.842605 4.45119 0 0 0 116 118 120 255
-0.405117 0.888656 4.40029 0 0 0 179 207 175 255
-0.0885971 0.875376 4.42824 0 0 0 203 220 226 255
0.990239 0.8248 4.4756 0 0 0 202 217 221 255
-0.893713 1.12195 6.01081 0 0 0 90 66 67 255
-0.354003 0.89198 4.40569 0 0 0 137 149 153 255
-0.298373 0.895004 4.41841 0 0 0 205 220 222 255
-0.272062 0.899403 4.41668 0 0 0 203 221 224 255
-0.581836 0.943387 4.55286 0 0 0 75 68 70 255
0.758849 0.892984 4.46745 0 0 0 136 146 145 255
0.170562 0.927837 4.43357 0 0 0 204 218 218 255
0.561778 0.919288 4.45833 0 0 0 200 216 220 255
0.829954 0.921271 4.46872 0 0 0 173 182 183 255
-0.602716 1.01461 4.63197 0 0 0 132 112 101 255
-0.115402 1.0009 4.41759 0 0 0 183 190 193 255
-0.649139 1.14516 5.08531 0 0 0 52 57 57 255
-2.7252 1.44857 6.08214 0 0 0 35 41 46 255
-2.54543 1.57981 6.07671 0 0 0 151 134 126 255
-2.65116 1.59279 6.01644 0 0 0 153 164 164 255
-2.35643 -0.764583 5.61631 0 0 0 81 49 53 255
-0.44935 -0.329538 4.29353 0 0 0 171 199 165 255
-1.22706 -0.636284 5.70761 0 0 0 154 120 107 255
-2.02186 -0.561643 5.64856 0 0 0 162 141 128 255
-1.42254 -0.596635 5.70765 0 0 0 157 121 106 255
-1.1586 -0.597842 5.73936 0 0 0 147 113 101 255
-1.84962 -0.531212 5.6932 0 0 0 158 117 103 255
-1.16313 -0.568319 5.7506 0 0 0 153 119 111 255
-1.99586 -0.501868 5.66189 0 0 0 163 114 90 255
-1.16881 -0.341125 5.66796 0 0 0 152 120 109 255
0.0181534 -0.140917 4.30903 0 0 0 173 194 140 255
-1.77465 -0.259362 5.71439 0 0 0 171 137 118 255
-1.47444 -0.298819 5.73368 0 0 0 173 155 143 255
-1.24703 -0.287262 5.74525 0 0 0 147 115 100 255
-1.30527 -0.274255 5.73657 0 0 0 148 112 95 255
-0.427958 -0.0708263 4.3156 0 0 0 169 196 155 255
-0.197522 -0.0410873 4.30806 0 0 0 128 143 114 255
-0.0237821 -0.0548121 4.31994 0 0 0 133 148 114 255
0.312968 -0.0307737 4.35808 0 0 0 173 196 138 255
0.46008 -0.0195374 4.35741 0 0 0 81 93 89 255
-0.277747 0.0175002 4.33627 0 0 0 174 201 149 255
-0.236536 0.00860209 4.30074 0 0 0 175 202 148 255
-0.211607 0.012993 4.30616 0 0 0 176 198 145 255
-1.42167 -0.12852 5.74996 0 0 0 193 181 169 255
0.788065 0.0357388 4.37387 0 0 0 130 145 118 255
-0.963904 -0.0119745 5.85763 0 0 0 48 48 50 255
-0.752831 0.0648465 4.95342 0 0 0 46 46 46 255
0.362055 0.110884 4.34974 0 0 0 161 181 130 255
-1.92502 0.0588379 5.72302 0 0 0 46 46 46 255
-2.33461 0.0749594 6.03482 0 0 0 33 33 33 255
-1.66737 0.0932766 5.75958 0 0 0 40 40 40 255
-2.27533 0.172112 5.65684 0 0 0 134 98 75 255
-0.392423 0.221625 4.35516 0 0 0 169 195 159 255
0.361439 0.195148 4.35845 0 0 0 168 187 134 255
-0.143529 0.244445 4.35269 0 0 0 152 171 135 255
-0.397238 0.267689 4.35201 0 0 0 161 184 154 255
-0.094283 0.27107 4.36083 0 0 0 85 97 93 255
0.296122 0.296784 4.38665 0 0 0 140 154 125 255
-0.169288 0.340023 4.37626 0 0 0 171 195 144 255
-0.128795 0.345596 4.34983 0 0 0 172 197 145 255
-2.08979 0.379854 5.74508 0 0 0 144 118 95 255
-2.64057 0.430297 6.08497 0 0 0 132 104 83 255
-1.80586 0.407779 5.77177 0 0 0 75 65 60 255
-0.438677 0.451681 4.34073 0 0 0 103 117 112 255
-1.42381 0.472252 5.81842 0 0 0 124 100 87 255
-0.163409 0.444003 4.37409 0 0 0 94 109 113 255
-0.0305018 0.432617 4.37754 0 0 0 70 84 90 255
-1.95129 0.569927 5.74107 0 0 0 57 45 41 255
-2.15039 0.633273 5.73407 0 0 0 123 62 46 255
0.618603 0.50358 4.42124 0 0 0 57 69 74 255
-1.49234 0.830626 5.80866 0 0 0 45 41 38 255
0.255561 0.657038 4.40874 0 0 0 206 219 224 255
0.331459 0.680539 4.4193 0 0 0 103 113 120 255
-0.571569 0.759758 4.67864 0 0 0 80 86 89 255
-0.418204 0.72731 4.38265 0 0 0 78 92 92 255
-1.49436 0.941833 5.83219 0 0 0 141 116 94 255
-1.37424 0.937077 5.82894 0 0 0 47 44 48 255
0.239721 0.776224 4.43125 0 0 0 191 205 212 255
0.863134 0.739293 4.45585 0 0 0 204 213 215 255
0.223078 0.831074 4.43683 0 0 0 190 207 214 255
-0.363061 0.871251 4.40234 0 0 0 120 125 130 255
-0.2912 0.892983 4.41843 0 0 0 204 221 222 255
-0.713338 1.00123 5.1205 0 0 0 88 72 72 255
0.826258 0.866197 4.46887 0 0 0 173 177 181 255
0.0353885 0.900611 4.42904 0 0 0 118 130 137 255
0.332311 0.906614 4.4476 0 0 0 110 127 135 255
-0.998669 1.17037 5.88912 0 0 0 142 116 101 255
-0.402689 0.997016 4.40835 0 0 0 92 106 106 255
0.122924 0.949385 4.43963 0 0 0 194 205 208 255
-2.70489 1.40875 6.14121 0 0 0 141 149 159 255
-1.28441 1.30859 5.84805 0 0 0 155 130 114 255
0.242683 1.03631 4.4574 0 0 0 171 186 188 255
-1.18526 1.54217 6.11669 0 0 0 134 119 113 255
-2.54361 1.59081 6.08487 0 0 0 146 137 135 255
0.166319 1.21844 4.46806 0 0 0 99 113 111 255
-1.02708 -0.586947 5.57804 0 0 0 171 157 151 255
0.144522 -0.24067 4.30197 0 0 0 77 87 83 255
0.209585 -0.219105 4.30968 0 0 0 85 99 92 255
0.534021 -0.207061 4.33918 0 0 0 95 108 99 255
0.136653 -0.200731 4.31249 0 0 0 89 102 93 255
-0.00571021 -0.145459 4.31271 0 0 0 174 197 137 255
0.243283 -0.169864 4.31779 0 0 0 71 82 77 255
-1.24927 -0.321587 5.7398 0 0 0 157 116 103 255
0.588767 -0.139476 4.34686 0 0 0 140 153 119 255
-0.0629834 -0.070152 4.31646 0 0 0 153 173 132 255
0.245978 -0.0978092 4.3201 0 0 0 60 73 68 255
-0.25729 -0.0209263 4.30999 0 0 0 175 202 148 255
-0.0300407 -0.0525813 4.32042 0 0 0 89 101 85 255
0.538217 0.0116231 4.35169 0 0 0 91 110 104 255
-2.31485 -0.023946 5.96144 0 0 0 206 191 172 255
-0.419203 0.151963 4.33269 0 0 0 85 100 95 255
-2.19834 0.100909 5.8757 0 0 0 33 33 33 255
-2.03747 0.10552 5.71589 0 0 0 36 35 38 255
0.314957 0.15438 4.37405 0 0 0 169 189 134 255
0.498747 0.194177 4.38233 0 0 0 152 165 131 255
-0.405749 0.234998 4.35103 0 0 0 158 181 152 255
0.229602 0.216389 4.35267 0 0 0 73 87 85 255
-2.07443 0.294474 5.73265 0 0 0 56 41 44 255
0.00449667 0.283875 4.36298 0 0 0 170 195 150 255
-0.328927 0.392258 4.36594 0 0 0 41 42 41 255
-2.08805 0.415577 5.74802 0 0 0 141 114 96 255
-1.78951 0.514894 5.76365 0 0 0 133 112 95 255
-1.65439 0.453698 5.77557 0 0 0 46 38 38 255
-1.21543 0.453765 5.80771 0 0 0 54 42 43 255
-2.18246 0.539893 5.73732 0 0 0 91 49 41 255
0.62386 0.497575 4.42062 0 0 0 55 65 69 255
0.197356 0.586085 4.3871 0 0 0 206 219 224 255
0.200783 0.634578 4.39917 0 0 0 206 219 224 255
-1.77044 0.887611 5.77883 0 0 0 58 49 44 255
0.599944 0.717981 4.43725 0 0 0 114 125 128 255
-1.49623 1.00821 5.82532 0 0 0 162 140 124 255
0.272129 0.781588 4.43361 0 0 0 206 221 225 255
0.341911 0.848443 4.43622 0 0 0 143 149 153 255
0.288184 0.873892 4.43987 0 0 0 112 122 126 255
-1.04996 1.1475 5.90256 0 0 0 138 120 108 255
-0.29963 1.02372 4.44057 0 0 0 166 175 176 255
-0.176931 1.01314 4.43303 0 0 0 186 199 201 255
2.51177 -2.61457 8.58169 0 0 0 87 87 87 255
-3.13952 -2.47603 8.40341 0 0 0 32 33 37 255
2.49107 -2.45694 8.4864 0 0 0 92 89 90 255
2.49561 -2.29699 8.4755 0 0 0 111 113 112 255
2.53656 -2.21479 8.62983 0 0 0 100 93 96 255
1.24008 -0.652449 4.32706 0 0 0 106 108 108 255
-1.13877 -0.641617 5.70551 0 0 0 187 177 163 255
-1.13016 -0.645686 5.72121 0 0 0 175 168 154 255
-1.3446 -0.614567 5.66521 0 0 0 148 134 121 255
-1.30133 -0.600875 5.69965 0 0 0 183 166 157 255
-1.42731 -0.575859 5.70767 0 0 0 202 189 175 255
-1.30342 -0.548944 5.70896 0 0 0 201 189 175 255
-1.3649 -0.5245 5.71398 0 0 0 159 146 130 255
1.67305 -0.48818 5.48715 0 0 0 205 170 146 255
1.36499 -0.301133 4.63883 0 0 0 165 165 165 255
0.561966 -0.233076 4.33329 0 0 0 116 129 107 255
1.72232 -0.452606 5.51372 0 0 0 211 170 137 255
1.68751 -0.448325 5.5191 0 0 0 211 176 154 255
1.90787 -0.514956 5.99562 0 0 0 173 138 113 255
-0.0688669 -0.160459 4.30936 0 0 0 168 189 144 255
0.448584 -0.182187 4.33475 0 0 0 152 167 125 255
1.68819 -0.40687 5.52109 0 0 0 209 176 157 255
-0.117465 -0.158541 4.31652 0 0 0 105 118 107 255
0.434499 -0.175057 4.33111 0 0 0 149 160 122 255
1.90729 -0.44673 6.06777 0 0 0 188 174 168 255
0.0380251 -0.112945 4.32126 0 0 0 164 183 133 255
2.28198 -0.51271 7.10917 0 0 0 205 165 138 255
1.68853 -0.290553 5.56275 0 0 0 170 137 116 255
0.0299031 -0.0705057 4.32852 0 0 0 79 90 59 255
2.29939 -0.414474 7.15155 0 0 0 202 204 203 255
0.950314 -0.050635 4.36453 0 0 0 81 88 84 255
-1.27761 -0.108752 5.74286 0 0 0 107 96 88 255
-1.2801 -0.0950973 5.65826 0 0 0 143 138 132 255
-1.1159 -0.0998357 5.75747 0 0 0 131 123 111 255
-0.633238 0.0492783 4.50908 0 0 0 190 175 157 255
-0.370803 0.0655454 4.31512 0 0 0 154 175 129 255
0.563196 0.0309724 4.36001 0 0 0 69 81 66 255
0.551847 0.0423398 4.36156 0 0 0 103 115 104 255
0.760864 0.0450925 4.37716 0 0 0 52 59 50 255
0.772356 0.0566135 4.37841 0 0 0 68 80 74 255
-1.20289 0.0429844 5.71549 0 0 0 111 105 99 255
0.783682 0.0656289 4.37636 0 0 0 63 73 65 255
-1.89451 0.0764619 5.70092 0 0 0 135 127 127 255
0.793571 0.0760342 4.37019 0 0 0 65 80 75 255
-0.121807 0.204177 4.34984 0 0 0 161 181 129 255
-0.319951 0.247255 4.34417 0 0 0 135 150 113 255
-0.231847 0.254722 4.34273 0 0 0 82 96 91 255
1.97543 0.155847 6.04643 0 0 0 128 155 160 255
0.0010036 0.304712 4.36501 0 0 0 143 157 131 255
-0.00897643 0.318848 4.36515 0 0 0 84 95 82 255
1.8901 0.229727 6.04627 0 0 0 143 160 161 255
-0.288284 0.342484 4.35887 0 0 0 139 152 127 255
-0.0797744 0.360514 4.36497 0 0 0 130 140 118 255
-0.223472 0.373747 4.36326 0 0 0 72 84 80 255
1.89267 0.291792 6.0505 0 0 0 133 150 152 255
1.19646 0.332611 4.43161 0 0 0 90 95 101 255
1.92016 0.319638 6.05153 0 0 0 177 169 137 255
0.267146 0.378384 4.39357 0 0 0 56 67 70 255
1.10593 0.343864 4.42796 0 0 0 145 158 162 255
1.13002 0.35467 4.42962 0 0 0 49 57 61 255
0.115943 0.393617 4.39347 0 0 0 90 96 97 255
0.845989 0.367309 4.41299 0 0 0 128 128 130 255
0.0491298 0.403811 4.38365 0 0 0 42 50 56 255
1.13015 0.355752 4.42961 0 0 0 49 58 62 255
1.14194 0.358993 4.42942 0 0 0 132 146 148 255
0.289801 0.405271 4.38836 0 0 0 52 57 62 255
1.17515 0.367108 4.43048 0 0 0 73 73 75 255
1.19396 0.361606 4.43463 0 0 0 152 155 156 255
1.16336 0.372501 4.42865 0 0 0 94 100 104 255
0.857577 0.385902 4.41585 0 0 0 75 84 90 255
1.05538 0.3737 4.41928 0 0 0 116 130 130 255
1.1356 0.380257 4.42743 0 0 0 92 100 105 255
0.301334 0.418494 4.39003 0 0 0 111 130 138 255
-0.594117 0.46904 4.57755 0 0 0 68 65 61 255
-0.637463 0.484912 4.71935 0 0 0 117 94 78 255
1.89766 0.413113 6.05972 0 0 0 176 185 191 255
-0.948642 0.540781 5.66826 0 0 0 106 98 92 255
0.996289 0.435582 4.43168 0 0 0 66 70 75 255
1.14828 0.431101 4.43983 0 0 0 106 114 122 255
1.19601 0.425236 4.43967 0 0 0 104 110 114 255
-2.03392 0.599887 5.58599 0 0 0 86 51 42 255
0.785218 0.448374 4.42455 0 0 0 80 88 91 255
1.15985 0.437691 4.43792 0 0 0 120 119 126 255
1.20032 0.44001 4.4387 0 0 0 91 91 95 255
1.14573 0.440282 4.43968 0 0 0 91 92 93 255
0.897963 0.45555 4.42615 0 0 0 89 103 101 255
0.515284 0.478591 4.40938 0 0 0 107 113 118 255
1.1686 0.491484 4.44253 0 0 0 199 199 199 255
1.20058 0.490205 4.44775 0 0 0 115 122 127 255
0.491173 0.530315 4.4123 0 0 0 140 153 157 255
1.0411 0.505571 4.44184 0 0 0 161 174 176 255
1.07353 0.50314 4.447 0 0 0 180 183 186 255
-1.47455 0.744196 5.79999 0 0 0 76 57 48 255
-1.0971 0.740292 5.75084 0 0 0 76 59 47 255
0.718395 0.595938 4.43583 0 0 0 204 215 218 255
0.269299 0.623601 4.4132 0 0 0 164 168 169 255
1.01607 0.621393 4.45225 0 0 0 196 208 209 255
0.659854 0.66803 4.43707 0 0 0 151 162 165 255
-0.00260318 0.711046 4.40849 0 0 0 156 163 163 255
0.696618 0.720489 4.44706 0 0 0 195 209 209 255
-0.0632266 0.757634 4.41388 0 0 0 171 182 183 255
0.0156806 0.755296 4.4225 0 0 0 168 177 176 255
1.18656 0.714771 4.46726 0 0 0 195 201 201 255
1.97747 0.847033 6.11897 0 0 0 171 180 184 255
0.0287501 0.78 4.42306 0 0 0 105 118 121 255
1.16049 0.735982 4.46525 0 0 0 162 162 162 255
0.843613 0.748856 4.45303 0 0 0 157 167 167 255
-0.430748 0.822932 4.41392 0 0 0 172 195 164 255
-1.82274 1.06697 5.70564 0 0 0 144 105 83 255
0.958976 0.778886 4.46695 0 0 0 184 191 193 255
1.91778 0.921472 6.10293 0 0 0 193 152 136 255
1.97135 0.922021 6.11602 0 0 0 203 162 148 255
1.37451 0.77426 4.58876 0 0 0 144 131 126 255
0.958545 0.787829 4.46708 0 0 0 170 181 184 255
-1.99041 1.09682 5.71397 0 0 0 120 84 74 255
1.36684 0.782989 4.56424 0 0 0 151 139 135 255
1.96604 0.943228 6.1168 0 0 0 202 185 185 255
0.433452 0.864454 4.4541 0 0 0 195 197 199 255
1.13627 0.835706 4.48247 0 0 0 145 152 154 255
0.99718 0.853674 4.47738 0 0 0 148 149 149 255
1.15477 0.877492 4.48934 0 0 0 170 189 196 255
0.807474 0.900038 4.47052 0 0 0 133 136 137 255
1.10067 0.899488 4.48758 0 0 0 105 108 110 255
1.15515 0.896136 4.48781 0 0 0 153 161 164 255
1.17681 0.989264 4.49685 0 0 0 137 134 135 255
1.22658 1.01662 4.50097 0 0 0 124 131 132 255
-0.544193 1.19761 4.50604 0 0 0 181 183 183 255
-1.43398 1.52234 5.77286 0 0 0 79 81 83 255
1.25976 -0.676626 4.4253 0 0 0 180 181 181 255
1.28507 -0.634139 4.43471 0 0 0 154 177 180 255
-1.17346 -0.564541 5.72897 0 0 0 157 133 121 255
-0.254263 -0.276535 4.29199 0 0 0 124 138 117 255
-0.0676515 -0.267653 4.29077 0 0 0 176 200 137 255
0.914248 -0.286543 4.35306 0 0 0 134 143 122 255
0.583513 -0.255875 4.33082 0 0 0 173 192 136 255
1.36252 -0.301175 4.63356 0 0 0 165 165 165 255
0.276258 -0.198995 4.33028 0 0 0 140 151 119 255
-1.58659 -0.312009 5.73066 0 0 0 140 124 111 255
1.90765 -0.451102 6.06439 0 0 0 208 192 185 255
0.0718625 -0.151595 4.31922 0 0 0 94 104 95 255
-1.37342 -0.245766 5.73571 0 0 0 157 129 118 255
-1.33053 -0.248178 5.71393 0 0 0 188 171 156 255
1.4053 -0.187111 4.73748 0 0 0 200 171 149 255
1.52001 -0.212244 5.07499 0 0 0 165 140 124 255
-0.428363 -0.0248878 4.32082 0 0 0 147 162 138 255
2.29312 -0.41905 7.14089 0 0 0 203 164 133 255
0.952531 -0.046361 4.36599 0 0 0 84 92 81 255
-0.419415 0.0377751 4.32967 0 0 0 173 200 157 255
-0.124179 0.324806 4.35185 0 0 0 168 172 148 255
-0.0810737 0.358259 4.36438 0 0 0 130 140 118 255
1.19493 0.432041 4.43892 0 0 0 101 108 111 255
1.15025 0.435131 4.43998 0 0 0 94 101 110 255
-0.630066 0.533549 4.68343 0 0 0 118 98 87 255
-1.18546 0.633507 5.79305 0 0 0 146 119 98 255
1.04848 0.503508 4.44414 0 0 0 163 173 176 255
0.71839 0.595939 4.43576 0 0 0 204 215 218 255
-1.96149 1.04877 5.721 0 0 0 124 75 66 255
1.3674 0.771892 4.56391 0 0 0 194 167 166 255
1.36864 0.767613 4.56357 0 0 0 182 151 148 255
1.15261 0.880827 4.48845 0 0 0 170 189 196 255
0.613152 0.914641 4.4582 0 0 0 152 158 157 255
0.498854 0.957765 4.4657 0 0 0 162 176 179 255
1.07203 0.940336 4.48961 0 0 0 115 116 122 255
-0.982905 1.30978 5.82546 0 0 0 58 59 60 255
1.22257 1.01759 4.49703 0 0 0 123 132 131 255
1.35729 1.02165 4.5025 0 0 0 211 204 205 255
2.52413 -2.31791 8.59022 0 0 0 93 91 92 255
2.57229 -2.27766 8.75337 0 0 0 100 91 94 255
1.25908 -0.661545 4.42721 0 0 0 79 81 83 255
-1.13033 -0.649274 5.72286 0 0 0 175 168 154 255
-0.848001 -0.481277 5.00307 0 0 0 203 182 173 255
-0.464522 -0.337917 4.28572 0 0 0 132 146 129 255
-1.30876 -0.575097 5.65395 0 0 0 203 192 178 255
-1.18647 -0.572218 5.67224 0 0 0 203 189 179 255
-0.863813 -0.465643 5.08126 0 0 0 201 191 177 255
-1.76503 -0.493075 5.68784 0 0 0 160 140 124 255
-0.0641196 -0.266517 4.29227 0 0 0 175 198 138 255
0.734239 -0.223737 4.34072 0 0 0 135 149 119 255
1.36675 -0.298221 4.64456 0 0 0 172 174 175 255
0.536437 -0.126779 4.34244 0 0 0 90 97 73 255
1.84074 -0.369295 5.99803 0 0 0 200 182 171 255
1.38473 -0.176134 4.69463 0 0 0 186 175 166 255
1.67489 -0.263999 5.52658 0 0 0 185 130 87 255
2.30545 -0.426781 7.16311 0 0 0 200 203 203 255
-1.72128 -0.106359 5.72092 0 0 0 120 111 97 255
-1.68779 -0.104952 5.72715 0 0 0 124 117 104 255
0.0239771 0.00111687 4.33675 0 0 0 101 114 101 255
-0.422516 0.0347319 4.32762 0 0 0 172 193 165 255
-0.0149715 0.0206804 4.3267 0 0 0 52 69 63 255
-0.634772 0.037332 4.44083 0 0 0 194 179 159 255
-2.19957 0.0387891 5.64908 0 0 0 204 188 169 255
-2.19517 0.10827 5.65333 0 0 0 33 32 33 255
-0.0793352 0.134162 4.33719 0 0 0 141 155 125 255
0.472376 0.164056 4.37977 0 0 0 68 79 75 255
0.842767 0.178783 4.38928 0 0 0 105 116 104 255
-0.338399 0.23328 4.33496 0 0 0 168 188 149 255
-1.93002 0.286947 5.7016 0 0 0 145 118 94 255
0.770953 0.27648 4.40768 0 0 0 124 136 108 255
-2.01463 0.461461 5.73012 0 0 0 60 45 41 255
1.1774 0.346952 4.43019 0 0 0 130 133 132 255
1.19627 0.357333 4.45543 0 0 0 135 132 133 255
0.847197 0.385447 4.41305 0 0 0 54 63 70 255
-1.64536 0.596793 5.76521 0 0 0 109 84 68 255
1.15541 0.437818 4.43931 0 0 0 119 124 132 255
0.785441 0.448687 4.42462 0 0 0 83 90 94 255
1.06652 0.505894 4.45101 0 0 0 180 181 185 255
1.19364 0.493992 4.44728 0 0 0 114 122 130 255
0.613114 0.604491 4.43359 0 0 0 203 216 219 255
1.01707 0.608465 4.45098 0 0 0 202 211 212 255
-1.68297 0.858502 5.71624 0 0 0 144 119 95 255
-1.66132 0.934015 5.76865 0 0 0 62 58 60 255
-0.0361695 0.754059 4.41499 0 0 0 188 201 203 255
0.247528 0.760064 4.43174 0 0 0 141 154 156 255
-1.95924 1.05157 5.72124 0 0 0 124 75 66 255
-0.220915 0.8269 4.42471 0 0 0 187 194 196 255
1.37644 0.78101 4.57854 0 0 0 186 170 173 255
0.0994842 0.848035 4.42921 0 0 0 205 220 222 255
0.935679 0.817716 4.46703 0 0 0 92 108 109 255
-0.138053 0.94063 4.42223 0 0 0 125 133 134 255
-0.12876 0.980542 4.41866 0 0 0 194 210 214 255
-1.06334 1.27864 5.82559 0 0 0 116 102 93 255
-0.981344 1.31212 5.82809 0 0 0 61 61 61 255
1.22005 1.00878 4.50163 0 0 0 126 133 134 255
-0.772675 1.33531 5.30316 0 0 0 98 79 81 255
0.85001 1.08243 4.49281 0 0 0 127 144 134 255
-1.10229 1.46517 5.85182 0 0 0 79 70 66 255
-0.542101 1.19465 4.48039 0 0 0 190 197 197 255
-0.607469 -0.485402 4.30312 0 0 0 45 49 50 255
0.726601 -0.221285 4.33929 0 0 0 116 126 107 255
-1.14459 -0.273635 5.62671 0 0 0 151 122 106 255
0.0434404 -0.127199 4.31814 0 0 0 163 181 130 255
-0.0211949 -0.0249093 4.32505 0 0 0 105 117 99 255
0.538824 0.0307709 4.35624 0 0 0 99 112 105 255
0.954618 0.0523693 4.37755 0 0 0 121 135 116 255
-0.30854 0.135191 4.33181 0 0 0 163 185 139 255
0.97305 0.147787 4.3943 0 0 0 100 112 103 255
0.354487 0.185776 4.35631 0 0 0 171 190 131 255
-0.153391 0.255672 4.35398 0 0 0 150 165 128 255
-2.01296 0.470139 5.73383 0 0 0 68 53 46 255
-1.54514 0.427928 5.76681 0 0 0 125 99 76 255
1.17237 0.347225 4.42978 0 0 0 91 97 96 255
0.97186 0.525934 4.4347 0 0 0 203 215 215 255
1.1618 0.507672 4.44306 0 0 0 202 203 203 255
0.908078 0.579114 4.44083 0 0 0 168 169 169 255
-1.37655 0.907631 5.79526 0 0 0 60 53 47 255
1.16242 0.704134 4.46326 0 0 0 202 211 211 255
-0.198777 0.825055 4.41616 0 0 0 187 193 195 255
0.965108 0.77561 4.46754 0 0 0 204 214 214 255
-0.298468 0.836517 4.40774 0 0 0 119 132 136 255
-0.132969 0.83531 4.40835 0 0 0 126 137 140 255
0.916932 0.801082 4.46117 0 0 0 105 114 117 255
-0.0756318 0.863823 4.42572 0 0 0 206 220 221 255
0.612711 0.929967 4.45859 0 0 0 202 213 215 255
0.889447 1.01513 4.48846 0 0 0 158 165 163 255
-1.68752 1.37701 5.6059 0 0 0 102 82 77 255
-0.402774 1.0793 4.42205 0 0 0 66 76 81 255
-0.443818 -0.345502 4.30042 0 0 0 173 197 160 255
-1.28378 -0.280607 5.65934 0 0 0 146 118 100 255
-0.0846425 -0.113083 4.32277 0 0 0 155 176 122 255
0.589429 -0.0533085 4.35297 0 0 0 54 63 60 255
-1.36673 -0.111651 5.71967 0 0 0 164 154 142 255
0.456075 -0.00384244 4.35857 0 0 0 66 76 70 255
-0.653193 0.0472169 4.55684 0 0 0 191 176 159 255
-0.399231 0.0560423 4.33624 0 0 0 173 198 153 255
-1.36202 0.024931 5.75172 0 0 0 45 45 45 255
0.156302 0.12085 4.34741 0 0 0 91 101 82 255
-1.71858 0.0954538 5.73943 0 0 0 45 42 41 255
0.260841 0.158916 4.35977 0 0 0 108 119 98 255
0.974185 0.150043 4.39468 0 0 0 99 111 102 255
-0.156067 0.219877 4.34767 0 0 0 168 189 141 255
0.267213 0.20337 4.36161 0 0 0 68 80 76 255
0.46871 0.201591 4.38868 0 0 0 163 175 139 255
-2.03911 0.312578 5.70673 0 0 0 60 44 42 255
0.624928 0.238378 4.39047 0 0 0 50 65 60 255
0.888124 0.247153 4.39227 0 0 0 162 178 131 255
-0.241029 0.437259 4.36765 0 0 0 144 142 143 255
-2.08339 0.589083 5.58023 0 0 0 120 64 46 255
-0.292939 0.438301 4.36912 0 0 0 79 90 93 255
-1.88087 0.586056 5.72523 0 0 0 56 46 40 255
-1.77028 0.670698 5.73048 0 0 0 143 113 89 255
-1.69929 0.693216 5.75599 0 0 0 83 68 52 255
0.408974 0.596175 4.42502 0 0 0 176 186 186 255
-1.59757 0.776938 5.77439 0 0 0 154 132 114 255
-1.64154 0.82095 5.77449 0 0 0 177 144 114 255
0.969733 0.625346 4.44593 0 0 0 109 112 115 255
-1.49413 0.874162 5.7911 0 0 0 83 76 76 255
0.719714 0.626589 4.43765 0 0 0 187 190 190 255
1.17458 0.695722 4.46443 0 0 0 205 212 212 255
0.309125 0.767213 4.41671 0 0 0 205 220 222 255
-0.512233 0.820278 4.41628 0 0 0 170 204 186 255
1.09287 0.738472 4.47059 0 0 0 110 117 118 255
-0.146174 0.867355 4.41384 0 0 0 121 134 136 255
0.921819 0.803757 4.46273 0 0 0 98 108 111 255
-0.290165 0.88297 4.41591 0 0 0 205 221 220 255
-0.0592741 0.884794 4.42239 0 0 0 207 220 220 255
-0.931986 1.1328 5.72626 0 0 0 142 117 101 255
-1.08593 1.40918 5.85485 0 0 0 63 61 60 255
-0.551838 1.20669 4.46829 0 0 0 188 195 193 255
-0.589277 -0.487785 4.31707 0 0 0 45 48 50 255
-0.434054 -0.30917 4.30077 0 0 0 174 202 160 255
0.145083 -0.255454 4.30383 0 0 0 80 91 82 255
0.500317 -0.192055 4.33254 0 0 0 77 88 71 255
0.690929 -0.18764 4.34154 0 0 0 66 76 73 255
0.154421 -0.176709 4.31479 0 0 0 64 77 73 255
0.453492 -0.177314 4.33524 0 0 0 143 158 116 255
-0.433407 -0.110682 4.31142 0 0 0 175 200 155 255
0.609419 -0.140481 4.34269 0 0 0 121 133 112 255
-0.0537646 -0.0914788 4.3215 0 0 0 173 198 141 255
0.800422 -0.0955398 4.35824 0 0 0 144 158 121 255
-0.695603 0.0186284 4.58663 0 0 0 194 178 161 255
-0.154009 0.0156853 4.33147 0 0 0 86 102 90 255
0.933464 0.0300395 4.38183 0 0 0 114 126 111 255
-0.14911 0.162988 4.33739 0 0 0 163 186 131 255
0.273359 0.15604 4.36548 0 0 0 162 180 135 255
-1.89807 0.22263 5.72629 0 0 0 157 132 108 255
0.239779 0.201854 4.35579 0 0 0 51 61 58 255
0.84446 0.239716 4.39901 0 0 0 171 192 136 255
-1.75331 0.426228 5.74498 0 0 0 130 111 95 255
-1.6495 0.424958 5.77012 0 0 0 70 59 51 255
-1.19838 0.627483 5.7308 0 0 0 144 117 97 255
-1.63368 0.748971 5.77889 0 0 0 154 125 100 255
0.185575 0.589644 4.38353 0 0 0 205 220 222 255
0.629884 0.574546 4.43729 0 0 0 206 220 222 255
0.385148 0.612801 4.41874 0 0 0 178 188 188 255
0.767813 0.636355 4.44045 0 0 0 139 147 150 255
0.953842 0.643816 4.44997 0 0 0 128 123 125 255
-0.514901 0.864222 4.43022 0 0 0 173 211 189 255
-0.704694 0.933077 4.87403 0 0 0 124 110 98 255
-0.0932264 0.838242 4.42316 0 0 0 165 174 175 255
0.298972 0.893364 4.4492 0 0 0 123 136 138 255
-0.67306 -0.415443 4.46193 0 0 0 200 188 172 255
-0.720911 -0.422214 4.58024 0 0 0 144 119 105 255
-0.651526 -0.383187 4.46138 0 0 0 49 49 49 255
-0.70704 -0.401851 4.59524 0 0 0 146 101 79 255
-1.26196 -0.5436 5.7019 0 0 0 193 177 162 255
-0.697689 -0.36024 4.58053 0 0 0 178 170 165 255
-0.726806 -0.349854 4.6093 0 0 0 159 140 128 255
-1.63427 -0.496439 5.70283 0 0 0 153 129 119 255
-0.652211 -0.306958 4.43092 0 0 0 194 183 169 255
-1.48304 -0.449961 5.72376 0 0 0 148 111 93 255
3.05045 -1.01627 8.54717 0 0 0 216 166 140 255
1.84129 -0.571667 5.96734 0 0 0 216 173 146 255
1.97415 -0.578052 5.98724 0 0 0 213 170 140 255
1.73973 -0.558882 5.95131 0 0 0 210 171 143 255
2.6835 -0.874022 7.83902 0 0 0 206 182 173 255
1.78623 -0.535948 5.95592 0 0 0 213 178 162 255
1.911 -0.352195 4.76698 0 0 0 205 164 133 255
1.88264 -0.533642 5.97109 0 0 0 219 185 167 255
1.9241 -0.532714 5.96346 0 0 0 214 172 146 255
3.15756 -0.996592 8.87375 0 0 0 215 161 127 255
1.43924 -0.363656 4.99637 0 0 0 190 158 138 255
1.69912 -0.51758 5.95333 0 0 0 203 162 140 255
2.06046 -0.53153 5.99092 0 0 0 186 170 167 255
0.0893331 -0.213561 4.30747 0 0 0 73 85 67 255
0.95046 -0.242537 4.34127 0 0 0 162 167 140 255
3.24573 -0.951908 8.86531 0 0 0 170 154 147 255
1.6766 -0.480385 5.97349 0 0 0 183 134 100 255
1.91088 -0.496177 5.98699 0 0 0 189 139 102 255
2.03668 -0.506793 5.99296 0 0 0 180 145 124 255
1.8483 -0.476414 5.97177 0 0 0 198 174 159 255
1.76324 -0.307918 4.72649 0 0 0 205 200 202 255
1.44697 -0.103232 3.32205 0 0 0 207 200 200 255
0.55546 -0.213974 4.33466 0 0 0 70 78 68 255
1.74828 -0.467477 5.96751 0 0 0 203 200 201 255
1.97803 -0.479958 5.98619 0 0 0 202 195 195 255
2.05215 -0.482287 6.00608 0 0 0 219 180 159 255
1.96893 -0.34568 5.02172 0 0 0 200 189 186 255
-1.2285 -0.329655 5.71923 0 0 0 191 167 152 255
1.7031 -0.457764 5.96182 0 0 0 202 188 183 255
1.80074 -0.463931 5.965 0 0 0 202 196 196 255
0.0248672 -0.154536 4.31329 0 0 0 134 149 110 255
2.76273 -0.594586 7.63801 0 0 0 203 193 190 255
1.46984 -0.0549432 3.44895 0 0 0 221 199 191 255
2.04378 -0.38789 6.01278 0 0 0 210 172 149 255
2.21015 -0.394083 6.02922 0 0 0 210 190 183 255
1.75078 -0.360625 5.98136 0 0 0 193 180 175 255
1.91617 -0.367915 5.98952 0 0 0 204 175 157 255
4.08367 -1.16805 12.4029 0 0 0 185 150 130 255
1.83624 -0.343944 5.99066 0 0 0 174 140 114 255
1.9591 -0.352071 6.00505 0 0 0 179 143 115 255
2.02012 -0.354469 6.01152 0 0 0 179 142 118 255
1.99542 -0.2505 5.0998 0 0 0 182 161 153 255
1.69778 -0.118982 4.04177 0 0 0 188 141 111 255
0.524687 -0.108941 4.33865 0 0 0 156 172 128 255
1.36489 -0.171954 4.71598 0 0 0 194 190 189 255
1.75271 -0.328378 5.98205 0 0 0 212 206 206 255
2.94243 -0.637025 8.72092 0 0 0 187 141 113 255
1.71202 -0.294827 5.96861 0 0 0 181 138 109 255
1.83361 -0.291977 5.98212 0 0 0 188 136 99 255
2.05242 -0.294762 6.01052 0 0 0 206 170 147 255
2.24091 -0.298911 6.06125 0 0 0 199 195 194 255
-0.693238 -0.0509864 4.61099 0 0 0 197 183 164 255
1.92204 -0.282999 5.99455 0 0 0 202 186 175 255
1.34765 -0.135847 4.62813 0 0 0 187 188 190 255
1.74834 -0.266191 5.99028 0 0 0 204 203 206 255
-1.21572 -0.112326 5.68915 0 0 0 97 91 84 255
1.76973 -0.0788463 4.30959 0 0 0 217 195 190 255
-0.692527 -0.0172415 4.61532 0 0 0 194 180 167 255
0.413261 -0.0431574 4.34056 0 0 0 167 181 131 255
0.503344 -0.0363027 4.34197 0 0 0 77 85 75 255
0.400778 -0.0271131 4.33728 0 0 0 138 157 110 255
0.423869 -0.0261772 4.34612 0 0 0 82 93 62 255
-0.665563 -0.00207866 4.5671 0 0 0 181 170 154 255
0.519736 -0.0225724 4.34415 0 0 0 117 124 110 255
0.566616 -0.0246017 4.35087 0 0 0 59 66 57 255
-1.94868 -0.039011 5.69428 0 0 0 166 158 147 255
0.596061 -0.00714249 4.35871 0 0 0 100 109 94 255
2.19564 -0.149923 6.03853 0 0 0 201 169 134 255
0.526473 0.0638787 4.36378 0 0 0 93 103 100 255
-0.171359 0.269697 4.35183 0 0 0 99 108 97 255
2.1147 0.304233 6.05829 0 0 0 170 164 159 255
1.16562 0.335282 4.42374 0 0 0 145 149 149 255
1.17592 0.328794 4.42508 0 0 0 43 45 47 255
1.14038 0.343329 4.4246 0 0 0 150 159 158 255
0.828482 0.366655 4.41208 0 0 0 105 115 119 255
2.07238 0.350179 6.06126 0 0 0 170 166 160 255
0.806722 0.372176 4.41085 0 0 0 43 53 52 255
-0.601259 0.42645 4.4693 0 0 0 141 113 94 255
0.687142 0.389661 4.41049 0 0 0 103 107 107 255
0.715381 0.38655 4.4133 0 0 0 80 84 84 255
0.75803 0.39168 4.40889 0 0 0 93 101 108 255
0.078597 0.43475 4.38421 0 0 0 126 126 127 255
0.18028 0.431489 4.38684 0 0 0 112 113 113 255
0.51652 0.411334 4.403 0 0 0 159 162 164 255
2.16168 0.396297 6.07841 0 0 0 125 137 130 255
1.15902 0.422028 4.43315 0 0 0 59 62 68 255
-0.703458 0.519598 4.85481 0 0 0 87 66 55 255
-0.661263 0.526693 4.74099 0 0 0 136 113 100 255
0.484336 0.485014 4.41057 0 0 0 88 94 97 255
-0.660204 0.806697 4.74646 0 0 0 93 72 59 255
2.22908 0.896674 6.11318 0 0 0 204 161 143 255
2.06172 0.90715 6.10523 0 0 0 195 154 139 255
2.17945 0.926829 6.14553 0 0 0 199 180 181 255
1.78013 0.947836 6.09995 0 0 0 199 166 161 255
2.22609 0.931244 6.11643 0 0 0 209 176 168 255
1.82475 0.955984 6.07771 0 0 0 200 154 144 255
1.77335 0.973982 6.10021 0 0 0 174 150 150 255
-0.00242293 0.913023 4.43199 0 0 0 111 119 120 255
2.1245 1.4828 5.6666 0 0 0 200 201 201 255
1.03847 1.34786 4.5301 0 0 0 118 119 125 255
0.431716 1.37725 4.50218 0 0 0 155 158 157 255
0.795168 1.36421 4.51477 0 0 0 173 175 177 255
0.824629 1.36338 4.52618 0 0 0 97 107 109 255
0.895808 1.36097 4.52303 0 0 0 159 161 165 255
0.940165 1.36014 4.53324 0 0 0 157 158 162 255
0.956994 1.35622 4.52466 0 0 0 136 139 143 255
0.991169 1.35355 4.51943 0 0 0 126 137 142 255
1.02481 1.35371 4.52777 0 0 0 148 163 166 255
0.460452 1.38444 4.5098 0 0 0 163 170 175 255
0.500128 1.38004 4.5054 0 0 0 128 138 146 255
0.523379 1.37913 4.5092 0 0 0 121 135 140 255
0.594982 1.37855 4.51003 0 0 0 160 169 174 255
0.639665 1.37321 4.50596 0 0 0 154 164 165 255
0.655299 1.37803 4.5203 0 0 0 135 142 145 255
0.725366 1.37432 4.50964 0 0 0 146 154 159 255
0.76447 1.36843 4.50846 0 0 0 168 179 182 255
0.407962 1.3923 4.51051 0 0 0 83 82 85 255
0.419507 1.38744 4.50884 0 0 0 84 82 87 255
0.812056 1.37506 4.51757 0 0 0 90 90 92 255
0.856649 1.37291 4.51913 0 0 0 83 84 88 255
0.972035 1.37136 4.52657 0 0 0 91 92 94 255
0.72853 1.37696 4.51193 0 0 0 149 151 152 255
0.841182 1.37183 4.49671 0 0 0 135 139 138 255
0.895919 1.37989 4.52232 0 0 0 153 158 158 255
0.936978 1.37445 4.52465 0 0 0 144 143 145 255
0.955703 1.37368 4.51779 0 0 0 166 180 182 255
1.04112 1.37339 4.53331 0 0 0 184 184 184 255
0.407782 1.40182 4.50993 0 0 0 83 82 85 255
0.4142 1.39562 4.48649 0 0 0 81 85 88 255
0.47677 1.39782 4.50449 0 0 0 82 86 85 255
0.517282 1.39613 4.50787 0 0 0 99 99 99 255
0.794814 1.38038 4.51477 0 0 0 179 178 178 255
0.870077 1.38313 4.51908 0 0 0 134 136 140 255
1.00389 1.3793 4.53357 0 0 0 176 178 182 255
0.536277 1.40255 4.50661 0 0 0 157 157 158 255
0.570657 1.40513 4.51286 0 0 0 160 159 160 255
0.591153 1.40665 4.51025 0 0 0 145 148 151 255
0.656625 1.39794 4.51277 0 0 0 171 177 177 255
0.707762 1.39367 4.50947 0 0 0 186 193 193 255
0.750922 1.39545 4.51552 0 0 0 130 141 145 255
0.773981 1.39126 4.5139 0 0 0 179 179 179 255
0.84431 1.38546 4.51536 0 0 0 163 170 170 255
0.389229 1.41234 4.50786 0 0 0 160 160 160 255
0.432909 1.41166 4.49394 0 0 0 156 167 170 255
0.463969 1.41532 4.51006 0 0 0 160 162 163 255
0.502795 1.40968 4.50314 0 0 0 166 170 171 255
1.2619 -0.630266 4.33667 0 0 0 194 196 196 255
-0.665413 -0.422651 4.41917 0 0 0 203 189 173 255
-0.653643 -0.383242 4.46336 0 0 0 49 49 49 255
-1.08719 -0.539369 5.4492 0 0 0 171 143 128 255
-0.711581 -0.385326 4.62388 0 0 0 174 169 169 255
-1.81169 -0.479174 5.68573 0 0 0 165 129 111 255
1.73771 -0.554403 5.96117 0 0 0 210 171 143 255
1.96863 -0.56967 5.98865 0 0 0 208 174 155 255
2.69484 -0.877315 7.8728 0 0 0 206 182 173 255
1.90807 -0.539335 5.98447 0 0 0 203 161 132 255
2.06273 -0.524716 5.99704 0 0 0 205 194 191 255
1.44117 -0.367463 5.00454 0 0 0 207 182 168 255
4.48498 -1.61084 13.5166 0 0 0 205 200 202 255
0.554789 -0.213735 4.33499 0 0 0 70 78 68 255
2.03832 -0.481367 6.00289 0 0 0 205 194 190 255
1.94615 -0.348623 5.00795 0 0 0 213 195 191 255
2.03161 -0.383332 6.01477 0 0 0 210 176 156 255
1.7303 -0.36432 5.97661 0 0 0 205 192 186 255
1.83774 -0.345636 5.9901 0 0 0 184 135 104 255
-0.180981 -0.0664658 4.31022 0 0 0 164 176 130 255
1.35489 -0.159786 4.68033 0 0 0 186 188 189 255
1.82808 -0.312511 5.97453 0 0 0 189 133 93 255
-0.67399 -0.0611631 4.56976 0 0 0 199 182 160 255
1.79398 -0.283679 5.98614 0 0 0 185 172 167 255
2.05339 -0.303518 6.01881 0 0 0 206 170 150 255
2.14195 -0.297193 6.03663 0 0 0 209 187 174 255
2.22719 -0.301531 6.03544 0 0 0 217 199 192 255
1.80689 -0.277713 5.99077 0 0 0 208 210 211 255
-0.684887 -0.00610629 4.60004 0 0 0 193 180 164 255
0.812773 0.0280272 4.36887 0 0 0 142 151 120 255
-0.340196 0.11993 4.33486 0 0 0 156 171 135 255
0.50472 0.131308 4.36914 0 0 0 83 92 93 255
-2.02443 0.175743 5.74241 0 0 0 127 96 74 255
1.32717 0.111887 4.46734 0 0 0 187 189 188 255
0.568767 0.164525 4.37135 0 0 0 50 62 58 255
2.28206 0.117025 6.07648 0 0 0 190 203 212 255
2.21797 0.340093 6.07234 0 0 0 153 181 193 255
-0.593856 0.417406 4.42398 0 0 0 137 109 89 255
-0.368824 0.438357 4.35535 0 0 0 49 51 53 255
0.705146 0.399778 4.41274 0 0 0 58 62 65 255
2.00346 0.567918 6.07931 0 0 0 181 181 130 255
-1.18275 0.734541 5.82246 0 0 0 142 120 105 255
0.399986 0.567822 4.42157 0 0 0 129 131 132 255
1.94225 0.712774 6.09113 0 0 0 144 158 142 255
2.23783 0.898153 6.15223 0 0 0 204 161 143 255
1.73599 0.935301 6.02822 0 0 0 208 179 173 255
0.566932 1.37938 4.50909 0 0 0 159 167 168 255
0.409557 1.39176 4.50514 0 0 0 83 82 85 255
0.430736 1.38509 4.5045 0 0 0 125 127 127 255
0.842675 1.37816 4.51454 0 0 0 176 184 183 255
1.03557 1.37104 4.5336 0 0 0 151 151 151 255
0.38369 1.39453 4.50695 0 0 0 120 128 137 255
0.709332 1.39442 4.51375 0 0 0 186 193 193 255
0.770918 1.38169 4.5156 0 0 0 188 189 190 255
0.418912 1.41881 4.5064 0 0 0 93 108 117 255
0.500892 1.40923 4.5048 0 0 0 166 170 171 255
1.21801 -0.63799 4.32078 0 0 0 81 86 88 255
-1.93243 -0.65869 5.6503 0 0 0 198 181 164 255
-0.668077 -0.422945 4.42387 0 0 0 203 189 173 255
-1.70444 -0.603978 5.69063 0 0 0 159 135 115 255
-1.22049 -0.525005 5.70503 0 0 0 159 138 127 255
-1.76181 -0.511715 5.68634 0 0 0 191 175 162 255
1.74017 -0.554315 5.96318 0 0 0 210 171 143 255
1.97271 -0.567007 5.9882 0 0 0 208 174 155 255
2.73559 -0.863105 7.99095 0 0 0 217 189 171 255
-1.34369 -0.3554 5.71156 0 0 0 147 133 116 255
1.60848 -0.411527 5.67129 0 0 0 203 190 185 255
2.98167 -0.752355 8.83795 0 0 0 210 174 156 255
0.77343 -0.142224 4.35073 0 0 0 84 93 84 255
1.7228 -0.359024 5.97536 0 0 0 203 187 179 255
1.84235 -0.310407 5.99121 0 0 0 191 134 90 255
-0.668571 -0.0676927 4.55289 0 0 0 196 182 161 255
2.05237 -0.302253 6.01917 0 0 0 206 170 150 255
1.34711 -0.153857 4.65826 0 0 0 98 100 99 255
1.71948 -0.261739 5.96205 0 0 0 216 185 164 255
1.83539 -0.270328 5.99454 0 0 0 212 174 156 255
-0.66735 -0.030766 4.56247 0 0 0 101 95 88 255
-1.72129 -0.0775677 5.7186 0 0 0 130 110 98 255
0.816132 -0.0539527 4.36274 0 0 0 167 183 136 255
-0.329212 0.121855 4.33643 0 0 0 166 182 138 255
2.04968 0.001486 6.03696 0 0 0 196 183 178 255
1.32828 0.118483 4.47173 0 0 0 181 194 194 255
-0.362131 0.1945 4.33359 0 0 0 174 193 149 255
-0.275534 0.247136 4.35194 0 0 0 48 60 58 255
2.27588 0.120721 6.07588 0 0 0 190 204 213 255
2.07185 0.260027 6.06564 0 0 0 79 77 77 255
1.96342 0.260215 6.03007 0 0 0 80 78 79 255
2.13298 0.262264 6.0564 0 0 0 178 162 144 255
1.98168 0.2849 6.03468 0 0 0 80 76 77 255
2.12028 0.288585 6.05818 0 0 0 179 161 139 255
1.97374 0.33902 6.04791 0 0 0 180 156 130 255
2.07242 0.349273 6.06112 0 0 0 170 166 160 255
-0.589759 0.409449 4.42022 0 0 0 134 108 91 255
-0.0679653 0.410071 4.36757 0 0 0 190 190 191 255
1.87729 0.418657 6.0503 0 0 0 202 208 211 255
-0.679162 0.529996 4.77969 0 0 0 142 118 105 255
2.06068 0.532263 6.06965 0 0 0 168 157 112 255
0.547052 0.544966 4.41401 0 0 0 148 156 157 255
0.831026 0.594053 4.43802 0 0 0 136 141 141 255
1.95204 0.713113 6.09206 0 0 0 158 174 148 255
1.94679 0.835675 6.10437 0 0 0 177 186 189 255
0.751114 0.719013 4.45126 0 0 0 161 167 169 255
0.85257 0.722622 4.4504 0 0 0 177 183 181 255
2.1596 0.930737 6.13629 0 0 0 192 179 179 255
-0.313953 0.83571 4.40503 0 0 0 100 106 112 255
0.503682 1.38951 4.50785 0 0 0 173 175 177 255
0.936669 1.36808 4.52394 0 0 0 144 144 146 255
1.03676 1.36154 4.52728 0 0 0 161 161 161 255
1.22075 -0.62522 4.31763 0 0 0 76 78 78 255
-1.67115 -0.606217 5.69073 0 0 0 195 177 163 255
0.779083 -0.404611 4.30843 0 0 0 170 188 132 255
-1.93299 -0.544505 5.66555 0 0 0 208 191 172 255
2.02148 -0.511568 5.9891 0 0 0 214 197 192 255
3.14865 -0.90806 8.66109 0 0 0 203 200 201 255
-0.103039 -0.113332 4.31891 0 0 0 182 194 147 255
0.565546 -0.0768873 4.34774 0 0 0 56 66 60 255
3.84388 -0.974285 11.7986 0 0 0 208 205 207 255
1.68485 -0.280713 5.96709 0 0 0 211 195 188 255
1.33465 0.119951 4.47448 0 0 0 184 198 198 255
2.05234 0.0269187 6.03488 0 0 0 192 202 208 255
-1.91944 0.24882 5.71407 0 0 0 88 78 70 255
2.26483 0.129838 6.07283 0 0 0 193 205 212 255
2.19308 0.212543 6.07268 0 0 0 98 101 109 255
-1.80719 0.386504 5.74397 0 0 0 47 36 34 255
1.99565 0.235113 6.02669 0 0 0 77 77 77 255
2.11582 0.258571 6.05921 0 0 0 180 161 138 255
2.19956 0.235012 6.07465 0 0 0 96 95 100 255
-0.136887 0.330654 4.35997 0 0 0 169 181 150 255
1.84174 0.31071 6.02757 0 0 0 103 110 112 255
2.22947 0.331269 6.0701 0 0 0 183 207 214 255
-0.280689 0.444583 4.37055 0 0 0 81 86 85 255
-0.655547 0.542684 4.67554 0 0 0 147 120 102 255
2.07143 0.591443 6.06595 0 0 0 91 83 77 255
-0.184035 0.596566 4.39552 0 0 0 204 211 211 255
0.813957 0.590777 4.43328 0 0 0 150 150 151 255
2.12205 0.642946 6.10672 0 0 0 83 78 80 255
0.857186 0.600331 4.44264 0 0 0 208 218 219 255
-0.505586 0.768837 4.42282 0 0 0 147 165 152 255
1.02387 0.738733 4.45901 0 0 0 190 198 195 255
1.12774 0.73494 4.4714 0 0 0 209 211 212 255
-0.00268608 0.80684 4.42146 0 0 0 127 137 139 255
1.54071 0.842122 5.20807 0 0 0 204 178 173 255
1.00839 0.810949 4.47201 0 0 0 205 210 208 255
-0.28949 0.84762 4.41071 0 0 0 206 214 214 255
-0.186266 0.929553 4.42717 0 0 0 208 217 218 255
-0.366857 1.00747 4.43348 0 0 0 149 149 149 255
1.20722 0.992885 4.49533 0 0 0 149 154 153 255
1.37284 1.04648 4.53358 0 0 0 226 220 220 255
1.4838 -0.844296 5.1498 0 0 0 204 205 202 255
-0.651917 -0.442728 4.32103 0 0 0 206 192 176 255
-0.135607 -0.181298 4.31503 0 0 0 97 108 96 255
-0.0312504 -0.14137 4.31654 0 0 0 167 183 127 255
1.68585 -0.29148 5.97125 0 0 0 213 200 193 255
-0.00669486 -0.0522643 4.32216 0 0 0 176 194 138 255
0.811947 -0.0665883 4.36018 0 0 0 160 172 128 255
-0.238133 -0.00532587 4.29992 0 0 0 178 202 142 255
-0.413714 0.0562586 4.33402 0 0 0 176 197 151 255
-0.291587 0.0581452 4.32992 0 0 0 101 113 100 255
-1.22625 0.0199638 5.75439 0 0 0 49 48 46 255
-1.78436 0.0812829 5.73517 0 0 0 48 39 39 255
-1.7345 0.0840339 5.74044 0 0 0 42 41 38 255
0.000930946 0.13132 4.34419 0 0 0 168 176 136 255
0.970325 0.12885 4.38794 0 0 0 83 90 88 255
1.3355 0.132129 4.4414 0 0 0 184 198 199 255
-0.215866 0.205658 4.33558 0 0 0 60 68 58 255
0.337151 0.189856 4.36386 0 0 0 175 194 133 255
1.33891 0.140852 4.43012 0 0 0 184 198 200 255
1.94887 0.120779 6.03033 0 0 0 102 114 121 255
1.85315 0.194586 6.02341 0 0 0 119 132 139 255
0.347314 0.29982 4.36798 0 0 0 163 177 131 255
-1.7809 0.396351 5.75455 0 0 0 42 37 39 255
-0.396744 0.341141 4.35435 0 0 0 59 64 63 255
-0.172025 0.353511 4.38105 0 0 0 173 193 141 255
-0.248322 0.381174 4.3627 0 0 0 48 55 55 255
-1.71278 0.517998 5.75446 0 0 0 73 53 38 255
0.648327 0.371505 4.40722 0 0 0 61 66 66 255
1.16153 0.350148 4.4247 0 0 0 76 78 79 255
1.85482 0.426802 6.05353 0 0 0 201 210 212 255
-0.650418 0.543604 4.66075 0 0 0 149 123 101 255
0.61639 0.55973 4.4315 0 0 0 208 217 219 255
1.82844 0.611595 6.05088 0 0 0 122 135 135 255
-1.60302 0.801724 5.77295 0 0 0 150 128 108 255
-1.3999 0.873608 5.80776 0 0 0 57 45 46 255
-1.54608 0.936745 5.79681 0 0 0 163 139 120 255
-0.422382 0.710122 4.37539 0 0 0 70 79 78 255
0.987795 0.667027 4.45079 0 0 0 109 116 120 255
1.89581 0.808338 6.10737 0 0 0 197 206 208 255
-1.35594 0.949111 5.80095 0 0 0 76 68 62 255
-0.201525 0.71839 4.40155 0 0 0 134 143 143 255
1.1627 0.686652 4.45896 0 0 0 188 190 189 255
0.314146 0.755968 4.41664 0 0 0 210 219 218 255
0.633698 0.747521 4.44341 0 0 0 154 152 153 255
