ply
format ascii 1.0
comment VCGLIB generated
element vertex 1014
property float x
property float y
property float z
property float nx
property float ny
property float nz
property uchar red
property uchar green
property uchar blue
property uchar alpha
element face 0
property list uchar int vertex_indices
end_header
2.57886 0.222724 6.10222 0 0 0 85 82 83 255
1.37715 0.304595 5.93847 0 0 0 121 74 56 255
-0.273888 0.395383 4.36543 0 0 0 43 50 50 255
1.33895 0.352481 5.93949 0 0 0 100 62 55 255
1.32027 0.40965 5.94346 0 0 0 98 62 59 255
-0.32191 0.457574 4.36411 0 0 0 40 50 53 255
2.59171 0.394496 6.09684 0 0 0 95 127 150 255
0.993933 0.522248 4.45487 0 0 0 205 212 212 255
-0.376944 0.599539 4.37594 0 0 0 151 154 157 255
0.345384 0.760709 4.41456 0 0 0 203 209 209 255
2.4372 0.795251 6.06096 0 0 0 101 82 82 255
2.56528 0.785366 6.11624 0 0 0 93 85 87 255
-0.0105669 0.79887 4.42032 0 0 0 127 130 132 255
-0.462869 0.84989 4.42612 0 0 0 101 114 107 255
-0.138251 0.836689 4.39284 0 0 0 155 162 162 255
1.32423 0.959039 5.99167 0 0 0 178 168 169 255
2.50056 0.9322 6.09774 0 0 0 180 122 104 255
-0.0480454 0.862751 4.42253 0 0 0 205 216 215 255
0.27048 0.892884 4.44973 0 0 0 133 135 137 255
0.683301 0.892359 4.47553 0 0 0 178 186 187 255
0.718881 0.889476 4.46185 0 0 0 181 188 188 255
-0.408182 1.08567 4.42118 0 0 0 73 77 78 255
1.35417 1.11896 4.94262 0 0 0 222 218 218 255
2.47967 -1.74597 8.39498 0 0 0 206 209 208 255
1.2325 -0.622889 4.47305 0 0 0 58 57 60 255
-0.607531 -0.506383 4.24461 0 0 0 205 189 177 255
1.9855 -0.513233 5.9549 0 0 0 187 143 110 255
0.553158 -0.263293 4.33927 0 0 0 176 195 132 255
2.406 -0.325434 6.01 0 0 0 204 200 197 255
-0.0620769 -0.104234 4.32435 0 0 0 176 192 134 255
1.30271 0.0601773 4.66637 0 0 0 175 123 79 255
2.04573 0.0623993 5.98365 0 0 0 191 204 210 255
1.31268 0.104542 5.93772 0 0 0 93 97 102 255
2.02039 0.115004 5.97149 0 0 0 103 116 126 255
-0.412659 0.244315 4.37031 0 0 0 171 190 149 255
2.19459 0.133554 6.00214 0 0 0 194 204 214 255
2.51339 0.176684 6.01603 0 0 0 83 81 82 255
0.483315 0.277299 4.40006 0 0 0 145 157 116 255
2.5923 0.213545 6.09652 0 0 0 84 84 86 255
-0.488733 0.441965 4.37507 0 0 0 99 103 98 255
0.961798 0.532464 4.45351 0 0 0 206 215 216 255
1.32372 0.504161 4.60874 0 0 0 143 156 137 255
1.97042 0.551696 6.02569 0 0 0 170 185 147 255
1.83197 0.60078 6.00065 0 0 0 115 118 112 255
2.60196 0.627852 6.09234 0 0 0 106 103 104 255
-0.40856 0.699971 4.37905 0 0 0 70 75 73 255
1.16949 0.663579 4.47117 0 0 0 197 202 202 255
1.22869 0.882253 5.66332 0 0 0 159 103 79 255
1.01071 0.766717 4.47195 0 0 0 179 186 186 255
0.0178241 0.899616 4.44295 0 0 0 126 125 128 255
-0.409053 0.98254 4.4024 0 0 0 82 89 87 255
2.39947 -1.71726 8.2651 0 0 0 207 209 208 255
1.19593 -0.642176 4.37445 0 0 0 62 64 66 255
1.25361 -0.634452 4.53067 0 0 0 69 66 67 255
0.674824 -0.212491 4.36786 0 0 0 71 78 73 255
0.521328 0.188028 4.38505 0 0 0 128 137 110 255
1.87387 0.18529 5.9719 0 0 0 111 128 136 255
1.64891 0.184684 5.96168 0 0 0 98 96 96 255
2.06171 0.129927 5.98625 0 0 0 102 115 126 255
0.690783 0.265328 4.41384 0 0 0 169 186 128 255
1.31507 0.263983 4.50429 0 0 0 157 161 135 255
1.36827 0.38297 5.94342 0 0 0 71 62 64 255
0.911319 0.529874 4.42415 0 0 0 207 216 216 255
1.69172 0.657773 5.98811 0 0 0 199 208 210 255
0.41259 0.615897 4.43258 0 0 0 188 187 188 255
1.64146 0.630374 6.01141 0 0 0 185 193 197 255
1.81986 0.715269 6.01963 0 0 0 200 209 211 255
0.96947 0.653098 4.46011 0 0 0 115 124 125 255
-3.43108 -2.0414 7.35132 0 0 0 110 110 109 255
1.20794 -0.629865 4.57078 0 0 0 202 202 205 255
1.22469 -0.690765 4.90831 0 0 0 140 141 137 255
-1.79605 -0.827093 5.5195 0 0 0 66 95 107 255
1.20026 -0.653031 4.71535 0 0 0 233 233 233 255
-0.866276 -0.596699 4.54376 0 0 0 192 190 191 255
-1.84108 -0.625549 5.47625 0 0 0 187 174 156 255
-1.09098 -0.448117 4.7485 0 0 0 199 184 166 255
-1.019 -0.362874 4.70105 0 0 0 208 191 170 255
1.52365 -0.483948 5.95646 0 0 0 169 141 125 255
1.20947 -0.239016 4.39041 0 0 0 74 81 79 255
-1.51723 -0.0764124 5.26692 0 0 0 163 152 135 255
-1.87946 -0.0788983 5.52731 0 0 0 188 172 151 255
-1.84751 -0.0446936 5.51751 0 0 0 127 113 103 255
-1.10666 -0.00823145 4.85404 0 0 0 157 148 137 255
-1.89668 0.0902834 5.55226 0 0 0 149 142 142 255
1.87211 -0.102013 6.01166 0 0 0 206 178 145 255
-1.97743 0.160693 5.52861 0 0 0 88 80 79 255
-1.94301 0.189124 5.52518 0 0 0 83 52 43 255
1.10939 0.0734633 5.63169 0 0 0 90 67 52 255
1.24666 0.116827 4.8206 0 0 0 143 149 151 255
0.566775 0.200865 4.39213 0 0 0 151 165 121 255
-1.89973 0.346868 5.58185 0 0 0 70 48 43 255
-1.12492 0.344206 5.01863 0 0 0 126 100 81 255
-2.02195 0.421931 5.6265 0 0 0 92 62 46 255
1.27033 0.222392 4.76918 0 0 0 84 84 86 255
2.05724 0.165402 6.00477 0 0 0 124 139 142 255
1.24887 0.250719 4.96355 0 0 0 136 149 129 255
1.08292 0.275501 5.78678 0 0 0 117 111 106 255
1.27025 0.339181 4.88045 0 0 0 108 118 97 255
1.26492 0.350217 4.83527 0 0 0 147 150 148 255
1.98126 0.345936 6.00663 0 0 0 154 136 113 255
2.03531 0.351255 6.0018 0 0 0 166 163 156 255
1.08372 0.461382 5.942 0 0 0 180 187 187 255
1.07558 0.432472 4.45185 0 0 0 76 89 91 255
1.11431 0.429633 4.45384 0 0 0 67 70 75 255
1.29265 0.510015 4.78183 0 0 0 134 144 142 255
1.08715 0.633541 5.91813 0 0 0 75 65 56 255
1.28348 0.578699 4.8381 0 0 0 144 154 148 255
-1.33845 0.841197 5.32032 0 0 0 142 114 89 255
-0.955289 0.821351 4.89821 0 0 0 154 134 116 255
-0.455067 0.778404 4.40067 0 0 0 95 113 106 255
2.0387 0.675663 5.96485 0 0 0 177 145 104 255
1.81995 0.925847 5.99944 0 0 0 204 153 136 255
-0.632334 1.01164 4.57073 0 0 0 122 111 92 255
0.250645 0.899371 4.44902 0 0 0 134 143 142 255
1.77432 0.9423 5.98959 0 0 0 181 162 162 255
1.73166 0.954067 5.98859 0 0 0 184 177 179 255
1.76408 0.964882 5.99073 0 0 0 194 152 140 255
0.185508 0.94988 4.42537 0 0 0 181 186 184 255
1.18742 0.898385 4.48934 0 0 0 103 109 113 255
1.06697 0.914891 4.48652 0 0 0 104 109 108 255
-3.72014 -2.01022 7.29693 0 0 0 112 107 109 255
1.2124 -0.621131 4.54854 0 0 0 202 202 205 255
1.20862 -0.642022 4.64473 0 0 0 230 233 232 255
-1.89033 -0.622712 5.48829 0 0 0 174 160 144 255
-1.00534 -0.37161 4.68621 0 0 0 207 190 169 255
-1.84434 -0.450153 5.52387 0 0 0 148 127 116 255
1.67492 -0.347057 5.97825 0 0 0 200 171 152 255
-0.920358 -0.0738831 4.69751 0 0 0 204 190 170 255
-1.87389 -0.0462328 5.51023 0 0 0 138 131 123 255
-1.045 0.0317936 4.87112 0 0 0 202 186 165 255
0.142509 0.185853 4.36297 0 0 0 81 92 84 255
1.14063 0.0698037 5.88503 0 0 0 98 55 24 255
-1.87433 0.35246 5.55691 0 0 0 72 54 47 255
-1.17594 0.366634 5.06778 0 0 0 52 48 43 255
1.25189 0.234624 4.92403 0 0 0 128 136 124 255
1.08849 0.269708 5.75891 0 0 0 154 148 144 255
1.06697 0.325789 5.95893 0 0 0 177 188 190 255
1.26901 0.343658 4.87852 0 0 0 92 101 83 255
-1.65453 0.636116 5.56519 0 0 0 141 116 93 255
1.08042 0.455569 5.96536 0 0 0 166 174 174 255
1.13525 0.472383 5.63989 0 0 0 131 123 117 255
-1.08526 0.763445 5.05022 0 0 0 147 125 104 255
1.08306 0.644914 5.94142 0 0 0 72 61 52 255
1.27973 0.586815 4.85662 0 0 0 136 146 141 255
-0.379344 0.917776 4.41761 0 0 0 134 152 142 255
-0.628081 0.987138 4.57096 0 0 0 183 199 180 255
-0.0152175 0.94325 4.43699 0 0 0 206 213 213 255
-3.4338 -2.01618 7.32442 0 0 0 126 123 124 255
1.2045 -0.696049 4.78824 0 0 0 65 66 67 255
1.20987 -0.621728 4.56134 0 0 0 195 199 203 255
1.2067 -0.64327 4.67338 0 0 0 236 238 237 255
-1.76322 -0.608464 5.41761 0 0 0 150 128 113 255
-1.01063 -0.385162 4.69036 0 0 0 206 189 169 255
0.961324 -0.209446 4.3754 0 0 0 128 141 117 255
1.87028 -0.453404 5.98862 0 0 0 213 179 163 255
0.775576 -0.122623 4.37356 0 0 0 46 54 51 255
2.27741 -0.351398 6.00299 0 0 0 211 203 205 255
-1.72739 -0.0563508 5.48387 0 0 0 173 159 148 255
1.0854 0.0731573 5.77402 0 0 0 101 64 38 255
0.863947 0.187266 4.40992 0 0 0 116 129 106 255
1.2514 0.138569 4.83067 0 0 0 38 38 38 255
1.25535 0.139658 4.88714 0 0 0 68 77 76 255
1.26376 0.228092 4.81009 0 0 0 91 93 93 255
-1.35776 0.448734 5.24248 0 0 0 139 114 91 255
1.24819 0.311765 5.94334 0 0 0 178 135 94 255
1.04913 0.325088 4.4289 0 0 0 44 51 52 255
-2.01913 0.563761 5.81981 0 0 0 133 107 84 255
1.26867 0.343427 4.87333 0 0 0 92 101 83 255
1.08124 0.456739 5.95521 0 0 0 180 188 188 255
1.27394 0.45252 4.87813 0 0 0 85 90 89 255
-1.16605 0.776703 5.13641 0 0 0 150 115 88 255
0.909038 0.564977 4.45234 0 0 0 201 212 212 255
1.25746 0.619064 4.99211 0 0 0 128 138 119 255
-1.74849 0.920568 5.63929 0 0 0 68 59 54 255
0.863866 0.613883 4.46139 0 0 0 205 218 218 255
1.0096 0.625982 4.46203 0 0 0 113 122 124 255
-1.22213 0.87471 5.18596 0 0 0 151 140 124 255
1.93986 0.70974 6.00213 0 0 0 165 179 155 255
0.84347 0.686937 4.46539 0 0 0 201 210 212 255
1.26903 0.685203 4.94455 0 0 0 94 96 97 255
-0.430632 0.853021 4.41698 0 0 0 114 126 120 255
1.15972 0.886915 5.97602 0 0 0 169 180 180 255
-0.622082 0.975056 4.57896 0 0 0 179 206 178 255
-0.630315 1.02129 4.57739 0 0 0 100 102 97 255
0.543113 1.05005 4.4704 0 0 0 157 167 169 255
1.20755 -0.603484 4.61236 0 0 0 189 197 199 255
-0.163253 0.0707665 4.36257 0 0 0 73 87 74 255
1.0599 0.0495327 5.92756 0 0 0 175 122 83 255
1.0665 0.322826 5.95972 0 0 0 177 188 190 255
1.26468 0.365167 4.87264 0 0 0 94 99 96 255
-1.69977 0.632993 5.58672 0 0 0 129 113 100 255
1.27502 0.441702 4.89547 0 0 0 74 78 77 255
0.808753 0.573959 4.43446 0 0 0 140 141 143 255
1.07326 0.680954 5.9962 0 0 0 83 73 67 255
-0.135202 0.848699 4.39984 0 0 0 128 137 139 255
0.110574 0.820049 4.41881 0 0 0 198 211 214 255
1.9042 0.821556 5.96945 0 0 0 165 179 181 255
0.271911 0.914512 4.45199 0 0 0 146 151 153 255
-0.628475 1.02579 4.58137 0 0 0 97 103 99 255
0.608448 0.937583 4.45792 0 0 0 209 222 222 255
0.895672 1.01765 4.49275 0 0 0 153 166 168 255
1.21229 -0.636405 4.37156 0 0 0 49 56 57 255
1.20394 -0.657047 4.76306 0 0 0 70 70 72 255
1.86248 -0.306189 5.97869 0 0 0 217 205 205 255
1.07859 0.0798157 5.97564 0 0 0 72 65 67 255
1.3249 0.111557 5.95237 0 0 0 95 96 96 255
0.618997 0.212663 4.41767 0 0 0 47 53 51 255
1.84133 0.3113 6.03516 0 0 0 106 118 123 255
1.74007 0.442687 5.98441 0 0 0 101 92 93 255
-0.165179 0.571283 4.40047 0 0 0 164 171 172 255
0.629929 0.513773 4.44426 0 0 0 56 59 62 255
0.241514 0.652574 4.42232 0 0 0 199 203 204 255
0.989369 0.628713 4.45471 0 0 0 117 123 127 255
1.13953 0.785788 5.98187 0 0 0 91 98 107 255
1.80964 0.755841 5.99468 0 0 0 201 212 213 255
-0.546696 0.921699 4.4687 0 0 0 177 206 183 255
-0.851897 1.33217 4.8337 0 0 0 202 209 207 255
0.73013 -0.366989 4.36955 0 0 0 176 195 128 255
0.158604 -0.240709 4.31637 0 0 0 63 73 68 255
0.621804 -0.213495 4.37038 0 0 0 57 65 60 255
0.781734 -0.211628 4.36826 0 0 0 161 179 123 255
-0.145545 -0.0712586 4.32102 0 0 0 89 99 89 255
0.321341 -0.0616088 4.3594 0 0 0 169 188 126 255
0.217289 -0.0183894 4.35463 0 0 0 37 47 44 255
1.7375 0.157582 6.00527 0 0 0 191 205 207 255
1.88258 0.156024 6.02255 0 0 0 107 125 132 255
2.09049 0.148522 6.03728 0 0 0 99 109 115 255
1.3958 0.227822 5.95877 0 0 0 193 142 93 255
0.885256 0.576371 4.4663 0 0 0 203 217 217 255
1.61001 0.66805 6.02507 0 0 0 191 205 207 255
0.974848 0.663915 4.45739 0 0 0 99 105 109 255
1.79774 0.735095 6.01721 0 0 0 199 213 213 255
1.79774 0.735095 6.01721 0 0 0 199 213 213 255
1.9485 -2.4472 8.20523 0 0 0 155 161 159 255
-3.532 -2.6062 6.72889 0 0 0 15 25 27 255
-3.28179 -2.18226 6.36905 0 0 0 126 123 129 255
-3.35642 -2.16668 6.32991 0 0 0 141 135 136 255
-3.4704 -2.13318 6.24581 0 0 0 124 114 120 255
-3.41831 -2.14092 6.28905 0 0 0 120 126 131 255
-3.4389 -2.08713 6.3357 0 0 0 123 130 140 255
-3.78416 -1.99273 5.92532 0 0 0 90 87 93 255
-3.69385 -1.85125 6.10274 0 0 0 79 88 90 255
-3.74342 -1.81073 6.01601 0 0 0 181 179 191 255
-3.53079 -1.82328 6.20058 0 0 0 103 100 104 255
-3.63207 -1.80886 6.16021 0 0 0 96 99 103 255
-3.70065 -1.76216 5.99091 0 0 0 180 180 196 255
-3.32371 -1.80538 6.30232 0 0 0 88 98 114 255
-3.49568 -1.72089 6.27286 0 0 0 121 125 133 255
-3.59206 -1.68006 6.16156 0 0 0 97 99 103 255
-3.66952 -1.66387 6.11312 0 0 0 97 101 115 255
-3.71169 -1.63923 6.05291 0 0 0 109 116 134 255
-3.58575 -1.58783 6.17651 0 0 0 88 87 94 255
-3.641 -1.53882 6.18516 0 0 0 106 109 117 255
-3.77199 -1.47097 6.11613 0 0 0 118 114 128 255
-3.74817 -1.47094 6.12246 0 0 0 133 119 135 255
-3.6438 -1.44054 6.16392 0 0 0 68 72 84 255
-3.49171 -1.41265 6.20288 0 0 0 61 67 77 255
-3.71057 -1.32333 6.11159 0 0 0 83 88 99 255
-3.55549 -1.29887 6.17038 0 0 0 104 102 114 255
-3.63447 -1.28152 6.11229 0 0 0 117 118 123 255
-3.64097 -1.22719 6.1019 0 0 0 97 98 100 255
-3.55271 -1.20088 6.15205 0 0 0 68 73 85 255
-3.63384 -1.19287 6.08878 0 0 0 58 62 65 255
-3.47578 -1.16208 6.18111 0 0 0 91 95 100 255
-3.61429 -1.12601 6.07566 0 0 0 109 110 114 255
-3.52443 -1.1087 6.19597 0 0 0 89 97 106 255
-3.39861 -0.987601 5.7276 0 0 0 113 116 125 255
-3.39636 -0.955441 5.7227 0 0 0 68 67 75 255
-3.58792 -1.03862 6.1055 0 0 0 106 107 112 255
-3.53725 -1.00474 6.15182 0 0 0 98 101 114 255
-3.60607 -0.985106 6.07858 0 0 0 103 109 115 255
-3.39544 -0.859004 5.72168 0 0 0 146 163 171 255
-3.59626 -0.934964 6.0697 0 0 0 109 109 119 255
-3.47473 -0.865402 5.8521 0 0 0 35 58 66 255
-2.2088 -0.762433 5.45723 0 0 0 186 180 174 255
-3.54584 -0.895682 6.10106 0 0 0 103 104 114 255
-3.62438 -0.873829 6.04375 0 0 0 95 93 95 255
-2.48635 -0.742952 5.4296 0 0 0 110 97 100 255
-2.23706 -0.735048 5.45119 0 0 0 81 51 53 255
-3.48238 -0.857146 6.14758 0 0 0 119 119 124 255
-3.58174 -0.839898 6.07066 0 0 0 86 90 99 255
-3.5949 -0.790783 6.06912 0 0 0 96 95 100 255
-3.52276 -0.796758 6.09319 0 0 0 105 104 107 255
-3.55918 -0.745207 5.87866 0 0 0 144 129 119 255
-3.47694 -0.758098 6.12713 0 0 0 120 119 123 255
-3.58876 -0.738027 6.05545 0 0 0 110 104 113 255
-3.6108 -0.730402 6.01369 0 0 0 71 65 76 255
1.95126 -0.57329 5.984 0 0 0 197 171 151 255
-2.4963 -0.618932 5.43631 0 0 0 116 92 85 255
-0.765734 -0.464396 4.39613 0 0 0 158 132 120 255
-3.47813 -0.71241 6.14001 0 0 0 119 120 124 255
-3.58651 -0.692316 6.06259 0 0 0 112 110 117 255
-0.762557 -0.450444 4.44195 0 0 0 197 184 167 255
-3.44357 -0.66699 6.16003 0 0 0 92 93 102 255
-2.49613 -0.55587 5.43609 0 0 0 97 76 78 255
-3.58746 -0.595241 6.06351 0 0 0 124 122 125 255
-3.49344 -0.60185 6.08446 0 0 0 96 96 100 255
1.88968 -0.490341 5.99651 0 0 0 172 143 121 255
-3.60686 -0.58503 6.01268 0 0 0 78 74 85 255
1.65722 -0.476644 5.97846 0 0 0 185 135 93 255
-3.46302 -0.568908 6.123 0 0 0 54 57 67 255
1.7252 -0.465452 5.99167 0 0 0 201 166 140 255
-3.57454 -0.550671 6.05512 0 0 0 109 110 117 255
1.5947 -0.454912 5.96636 0 0 0 208 193 189 255
1.86631 -0.43809 6.0025 0 0 0 217 196 187 255
-3.48276 -0.501512 6.07815 0 0 0 131 130 137 255
0.963366 -0.287691 4.37149 0 0 0 131 142 115 255
-3.64775 -0.489532 5.96115 0 0 0 189 195 195 255
-3.59567 -0.491002 6.00379 0 0 0 63 64 76 255
-3.55575 -0.495606 6.04029 0 0 0 115 112 120 255
-3.482 -0.459421 6.0951 0 0 0 120 121 130 255
-0.831488 -0.302995 4.54389 0 0 0 203 188 168 255
-3.59567 -0.44477 6.02765 0 0 0 106 103 111 255
-3.63755 -0.432213 5.99329 0 0 0 118 113 115 255
-2.4881 -0.370138 5.45479 0 0 0 63 47 42 255
-3.65916 -0.415338 5.97354 0 0 0 43 44 52 255
-3.61212 -0.421695 6.01387 0 0 0 77 75 81 255
0.658507 -0.246341 4.38026 0 0 0 143 157 109 255
0.713608 -0.236905 4.35941 0 0 0 105 117 72 255
2.0091 -0.357997 6.0079 0 0 0 186 137 99 255
-3.6317 -0.391494 6.00581 0 0 0 132 129 132 255
-3.52167 -0.402506 6.05764 0 0 0 108 110 113 255
1.93547 -0.350872 6.00782 0 0 0 175 142 118 255
-3.70016 -0.37476 5.92607 0 0 0 91 90 101 255
-3.65849 -0.379832 5.96191 0 0 0 129 121 128 255
1.62348 -0.318064 5.96556 0 0 0 207 171 157 255
-2.44788 -0.13936 5.46503 0 0 0 154 97 66 255
2.01589 -0.16212 6.76424 0 0 0 214 175 137 255
-1.83282 -0.0744457 5.5738 0 0 0 134 127 116 255
1.25004 -0.0410747 4.77293 0 0 0 51 53 53 255
-1.04155 0.016104 4.82851 0 0 0 199 185 163 255
-2.1816 0.0539143 5.55202 0 0 0 202 181 162 255
-2.15969 0.0830205 5.52811 0 0 0 51 41 28 255
-1.61619 0.136182 5.47944 0 0 0 120 108 98 255
-2.14775 0.177419 5.5036 0 0 0 134 94 66 255
1.26443 0.164147 4.78761 0 0 0 77 78 78 255
1.25642 0.16392 4.86143 0 0 0 82 84 83 255
-1.99018 0.35031 5.55352 0 0 0 128 103 86 255
1.4914 0.241023 5.98366 0 0 0 161 118 69 255
-2.34961 0.475098 5.50668 0 0 0 114 93 77 255
-3.07652 0.549071 6.01526 0 0 0 125 126 132 255
-3.24421 0.566719 5.97733 0 0 0 132 140 152 255
-3.18189 0.559222 6.01021 0 0 0 112 117 128 255
-3.36831 0.57554 5.92555 0 0 0 102 114 129 255
-2.63476 0.559829 5.69381 0 0 0 12 111 157 255
-2.72498 0.60044 5.78907 0 0 0 1 137 187 255
-2.83865 0.649377 5.87687 0 0 0 14 58 87 255
0.206013 0.399748 4.38248 0 0 0 136 140 146 255
-3.13567 0.67895 5.97854 0 0 0 4 68 102 255
-3.0919 0.688134 5.99246 0 0 0 127 133 137 255
-3.00324 0.678267 5.98155 0 0 0 145 145 157 255
-3.25265 0.726814 5.9077 0 0 0 108 109 118 255
-3.17275 0.720574 5.9594 0 0 0 117 118 121 255
-3.32203 0.733835 5.86482 0 0 0 131 123 128 255
-3.20457 0.726438 5.95644 0 0 0 119 117 124 255
-2.9968 0.727038 6.00922 0 0 0 126 125 128 255
1.128 0.466351 5.73755 0 0 0 122 119 119 255
-3.42211 0.743597 5.76731 0 0 0 161 163 167 255
-3.38013 0.742668 5.81515 0 0 0 126 125 132 255
-3.12625 0.740139 5.99943 0 0 0 89 97 110 255
-3.07553 0.739269 6.01448 0 0 0 132 144 154 255
1.25612 0.482624 4.9756 0 0 0 108 115 110 255
-1.48961 0.837116 5.45749 0 0 0 143 120 99 255
-1.67432 0.904157 5.60214 0 0 0 123 113 108 255
-1.52758 0.933377 5.48242 0 0 0 126 108 94 255
-1.93584 1.06268 5.58907 0 0 0 107 68 48 255
1.96743 0.832902 5.94888 0 0 0 170 183 185 255
-1.99714 1.20445 5.55983 0 0 0 123 103 85 255
1.39177 0.946143 6.01381 0 0 0 203 160 142 255
-2.33464 1.24733 5.51086 0 0 0 105 110 114 255
1.91882 0.903448 5.94005 0 0 0 192 151 139 255
1.29745 0.973484 5.99773 0 0 0 209 173 166 255
1.96316 0.904196 5.96022 0 0 0 196 179 176 255
1.95771 0.93121 5.9612 0 0 0 215 178 164 255
-2.34408 1.29673 5.52439 0 0 0 129 132 136 255
-1.9189 1.28172 5.60926 0 0 0 124 102 91 255
-2.33401 1.39538 5.52522 0 0 0 155 169 169 255
-2.32442 1.43261 5.5193 0 0 0 172 183 184 255
0.243484 1.00237 4.45014 0 0 0 192 198 201 255
1.13437 0.927276 4.49038 0 0 0 167 176 177 255
-0.612307 1.18806 4.55135 0 0 0 212 220 217 255
-2.3489 1.51194 5.05975 0 0 0 190 185 187 255
-2.33783 1.54337 5.03211 0 0 0 117 121 125 255
-3.27007 -2.22613 6.35201 0 0 0 16 23 27 255
-3.4389 -2.08713 6.3357 0 0 0 123 130 140 255
-3.47145 -1.40164 6.18328 0 0 0 100 103 115 255
-3.54412 -1.27627 6.16067 0 0 0 88 92 100 255
-3.51014 -1.15647 6.18972 0 0 0 99 101 114 255
-3.53137 -1.10674 6.18029 0 0 0 102 103 109 255
-3.54068 -1.00215 6.14511 0 0 0 104 105 113 255
-3.41206 -0.852645 5.72599 0 0 0 152 168 174 255
-2.21188 -0.745414 5.46881 0 0 0 201 191 183 255
-3.56103 -0.74351 5.88543 0 0 0 144 129 119 255
-2.49378 -0.638305 5.44156 0 0 0 142 116 103 255
-3.57027 -0.596976 5.88089 0 0 0 189 174 175 255
1.79662 -0.362993 5.99623 0 0 0 207 162 129 255
1.99773 -0.342699 6.00282 0 0 0 182 140 112 255
1.79833 -0.265915 6.00422 0 0 0 214 200 195 255
-2.44626 -0.145691 5.46461 0 0 0 154 97 66 255
-0.860422 0.00445655 4.63153 0 0 0 199 185 165 255
-2.36866 0.103146 5.4936 0 0 0 155 97 65 255
-2.14335 0.103044 5.53076 0 0 0 46 41 43 255
-1.94691 0.168869 5.55374 0 0 0 133 108 90 255
0.297925 0.28136 4.38929 0 0 0 138 148 123 255
-2.3369 0.453574 5.50167 0 0 0 127 98 80 255
-2.75732 0.592412 5.79963 0 0 0 0 139 190 255
1.1354 0.469813 5.70028 0 0 0 123 119 116 255
0.867014 0.684488 4.46305 0 0 0 203 217 217 255
-2.33362 1.26512 5.51234 0 0 0 124 124 128 255
-2.3607 1.40669 5.52739 0 0 0 159 171 171 255
0.526291 0.954012 4.45872 0 0 0 191 200 201 255
-2.35015 1.51237 5.05917 0 0 0 202 197 199 255
-2.33589 1.54565 5.03158 0 0 0 117 119 121 255
-3.82537 -2.76261 7.01177 0 0 0 14 22 23 255
-3.11225 -2.4057 6.39897 0 0 0 86 94 97 255
-3.4705 -2.125 6.24742 0 0 0 151 143 148 255
-3.76217 -1.47353 6.13966 0 0 0 135 126 141 255
-3.57662 -1.28696 6.14943 0 0 0 108 104 110 255
1.21857 -0.668092 4.52358 0 0 0 178 180 178 255
-3.50079 -1.1527 6.18546 0 0 0 118 123 135 255
1.2225 -0.596358 4.51542 0 0 0 191 196 198 255
-2.19706 -0.746702 5.47605 0 0 0 205 193 179 255
-2.49079 -0.734838 5.43198 0 0 0 141 123 124 255
-3.47488 -0.778086 5.8013 0 0 0 73 68 75 255
-2.48731 -0.652861 5.43788 0 0 0 141 114 97 255
-3.46612 -0.749733 6.11731 0 0 0 120 119 123 255
-3.46799 -0.711167 6.13888 0 0 0 123 127 133 255
1.88563 -0.540839 5.99349 0 0 0 210 159 117 255
-3.44908 -0.663401 6.15897 0 0 0 137 133 139 255
-1.97889 -0.542602 5.52896 0 0 0 153 132 117 255
-1.9186 -0.459946 5.53498 0 0 0 158 116 91 255
-2.47215 -0.391502 5.45948 0 0 0 136 110 96 255
1.68759 -0.375867 5.97281 0 0 0 189 132 83 255
-3.5335 -0.390796 6.03438 0 0 0 121 124 132 255
2.0055 -0.329722 6.00866 0 0 0 189 137 96 255
1.61997 -0.311567 5.96422 0 0 0 219 200 193 255
1.56809 -0.303983 5.97902 0 0 0 187 133 87 255
1.79489 -0.279091 6.00257 0 0 0 201 193 190 255
1.54819 -0.254123 5.96776 0 0 0 203 203 203 255
-2.44524 -0.15488 5.46564 0 0 0 156 96 64 255
-2.17813 0.0348607 5.56099 0 0 0 205 187 168 255
-2.37752 0.105063 5.49193 0 0 0 156 96 64 255
-2.13606 0.12301 5.52039 0 0 0 45 40 41 255
-2.15346 0.18173 5.50333 0 0 0 137 101 75 255
1.07575 0.0823663 5.86959 0 0 0 78 71 73 255
-1.91773 0.186065 5.54621 0 0 0 158 128 106 255
-1.12868 0.1411 4.94307 0 0 0 149 121 98 255
-0.858593 0.276959 4.66344 0 0 0 138 116 93 255
-1.9945 0.363797 5.55737 0 0 0 142 116 93 255
1.30765 0.228615 5.9521 0 0 0 192 143 96 255
1.97422 0.302137 6.02253 0 0 0 78 75 76 255
-3.35376 0.577364 5.93059 0 0 0 90 108 123 255
-3.26515 0.569423 5.94824 0 0 0 121 130 141 255
-0.102309 0.388784 4.36345 0 0 0 43 53 50 255
-2.75617 0.595751 5.80383 0 0 0 0 139 190 255
-3.1407 0.69926 5.98377 0 0 0 29 40 52 255
-2.0421 0.585475 5.57173 0 0 0 100 57 43 255
0.255428 0.402613 4.37219 0 0 0 110 107 108 255
-3.07558 0.744237 6.01839 0 0 0 132 144 154 255
1.12919 0.479046 5.75205 0 0 0 93 86 89 255
1.28565 0.678217 5.98617 0 0 0 155 168 170 255
1.05279 0.716358 6.05682 0 0 0 82 80 81 255
-1.94765 1.13002 5.61041 0 0 0 140 103 88 255
1.21226 0.89471 6.03208 0 0 0 109 83 75 255
1.96223 0.915093 5.95908 0 0 0 196 151 132 255
-0.386582 0.984711 4.40646 0 0 0 88 92 90 255
-0.360594 1.00398 4.43036 0 0 0 164 164 164 255
-2.21406 1.42956 5.5238 0 0 0 148 133 127 255
-0.388001 1.08045 4.41367 0 0 0 70 81 83 255
1.25622 1.19718 5.53854 0 0 0 158 145 143 255
-3.29755 -2.21959 6.31718 0 0 0 20 31 34 255
-3.62594 -2.02624 7.44275 0 0 0 121 126 122 255
-3.52095 -1.70047 6.2494 0 0 0 125 129 134 255
-3.53937 -1.39046 6.20418 0 0 0 74 83 91 255
1.19845 -0.678275 4.77734 0 0 0 74 76 75 255
-3.46901 -0.687649 6.14286 0 0 0 48 55 67 255
-1.93564 -0.605762 5.53113 0 0 0 161 135 115 255
1.71574 -0.540811 5.97612 0 0 0 194 154 133 255
2.00643 -0.485797 6.01161 0 0 0 209 194 188 255
-1.97334 -0.484116 5.53899 0 0 0 181 148 126 255
1.66678 -0.456545 5.98149 0 0 0 198 163 143 255
-0.436944 -0.0503681 4.32921 0 0 0 175 192 149 255
-2.1437 0.0134973 5.54312 0 0 0 206 189 167 255
-2.20211 0.0149135 5.49529 0 0 0 84 50 47 255
-1.68928 0.0491989 5.47682 0 0 0 104 97 86 255
-2.37139 0.114661 5.49338 0 0 0 158 96 58 255
-1.39563 0.150673 5.22149 0 0 0 139 112 90 255
-1.90583 0.197878 5.54906 0 0 0 160 135 112 255
1.26168 0.155238 4.79853 0 0 0 78 76 76 255
-0.919495 0.250129 4.70715 0 0 0 148 123 97 255
1.31363 0.227463 5.95354 0 0 0 192 143 96 255
1.47998 0.213731 5.97872 0 0 0 193 156 111 255
-1.51305 0.371148 5.36315 0 0 0 64 51 45 255
1.33693 0.314083 5.99009 0 0 0 153 101 76 255
-3.11706 0.548496 6.03965 0 0 0 83 89 103 255
-1.5666 0.460427 5.44269 0 0 0 137 114 90 255
-1.89504 0.547505 5.59281 0 0 0 65 52 43 255
-0.134118 0.369064 4.35999 0 0 0 151 161 117 255
1.30879 0.412226 6.00756 0 0 0 95 59 55 255
-3.04472 0.689124 6.003 0 0 0 131 134 144 255
-1.70901 0.882279 5.60765 0 0 0 84 62 42 255
0.934033 0.574674 4.45053 0 0 0 169 177 177 255
1.26961 0.617181 4.91858 0 0 0 113 114 112 255
1.03647 0.722101 4.46302 0 0 0 204 216 216 255
-3.3647 1.49586 6.14258 0 0 0 102 105 109 255
-2.4199 1.40476 5.54562 0 0 0 138 147 149 255
-0.345475 0.998579 4.42748 0 0 0 193 195 194 255
-2.37986 1.45908 5.52542 0 0 0 184 194 191 255
-2.28362 1.46729 5.53502 0 0 0 106 90 89 255
-0.384044 1.07924 4.4153 0 0 0 74 80 82 255
-2.27113 1.53528 5.53219 0 0 0 120 114 116 255
-3.1593 -1.80562 6.79638 0 0 0 121 121 121 255
-3.55075 -1.97482 7.30274 0 0 0 121 124 121 255
0.984079 -0.926526 5.8567 0 0 0 171 131 101 255
1.2078 -0.590536 4.61389 0 0 0 187 196 198 255
0.7362 -0.182966 4.37156 0 0 0 59 70 62 255
1.90527 -0.388174 7.68502 0 0 0 218 198 189 255
-2.44982 -0.189172 5.46078 0 0 0 158 98 65 255
0.636215 -0.118365 4.36435 0 0 0 102 115 93 255
-0.00721833 -0.0750706 4.32814 0 0 0 147 160 121 255
-0.126626 -0.0476421 4.31947 0 0 0 81 92 83 255
-2.10745 0.0131772 5.56397 0 0 0 207 190 166 255
0.240494 0.0271799 4.35546 0 0 0 56 68 62 255
-1.97785 0.0941671 5.52067 0 0 0 44 47 46 255
-1.90535 0.195747 5.54969 0 0 0 160 135 112 255
-1.64533 0.221641 5.44232 0 0 0 153 127 102 255
0.808439 0.0932908 6.78541 0 0 0 75 70 70 255
-1.0728 0.190677 4.85221 0 0 0 153 128 104 255
1.25853 0.157581 4.81955 0 0 0 81 83 82 255
-1.74143 0.457707 5.56227 0 0 0 144 118 93 255
1.34414 0.39151 6.03007 0 0 0 70 60 64 255
-3.08594 0.724738 6.00603 0 0 0 57 56 60 255
-1.68537 0.675204 5.59646 0 0 0 156 120 91 255
1.98267 0.541825 5.97024 0 0 0 157 176 140 255
1.82617 0.597499 6.02494 0 0 0 111 117 110 255
0.393134 0.590986 4.42685 0 0 0 177 187 186 255
0.63239 0.607859 4.44777 0 0 0 205 219 219 255
1.30187 0.70565 5.99965 0 0 0 182 194 194 255
1.26662 0.625369 4.93523 0 0 0 110 113 110 255
-0.497738 0.828249 4.41175 0 0 0 178 206 178 255
1.8849 0.796214 5.98024 0 0 0 194 202 205 255
-0.362509 0.808118 4.39702 0 0 0 137 144 142 255
1.31278 0.967863 6.00477 0 0 0 181 167 164 255
-0.419368 0.982318 4.388 0 0 0 103 111 108 255
0.936292 0.847144 4.4714 0 0 0 179 188 190 255
0.574762 0.933102 4.46856 0 0 0 212 221 220 255
0.241905 0.992789 4.45813 0 0 0 177 185 186 255
-2.27168 1.54151 5.53959 0 0 0 117 112 114 255
-0.614833 1.19437 4.5481 0 0 0 212 220 217 255
1.14286 -0.628513 4.41492 0 0 0 49 55 57 255
-2.96529 -0.979889 6.47068 0 0 0 51 52 52 255
-0.550709 -0.498768 4.32035 0 0 0 42 45 44 255
0.794499 -0.391146 4.21086 0 0 0 171 191 134 255
-0.439908 -0.354635 4.34633 0 0 0 170 191 150 255
0.634616 -0.221712 4.37816 0 0 0 58 63 61 255
0.75178 -0.239636 4.37982 0 0 0 166 185 126 255
-0.403799 -0.0435807 4.33132 0 0 0 176 200 147 255
0.183692 -0.0275227 4.34998 0 0 0 47 56 53 255
-0.0921702 0.0445297 4.33763 0 0 0 52 62 61 255
-1.81066 0.243657 5.6036 0 0 0 155 131 109 255
1.87384 0.0872369 5.99511 0 0 0 190 202 208 255
1.68998 0.238056 5.974 0 0 0 99 89 88 255
1.40109 0.199449 5.95518 0 0 0 171 117 79 255
1.34937 0.387762 6.0377 0 0 0 70 60 64 255
1.08798 0.518526 6.05292 0 0 0 75 72 72 255
1.63993 0.627068 6.00341 0 0 0 173 185 189 255
1.81613 0.651148 6.00859 0 0 0 134 155 164 255
1.14434 0.706349 5.52504 0 0 0 203 205 195 255
-0.587852 0.737466 4.51693 0 0 0 88 98 94 255
0.776676 0.663523 4.45629 0 0 0 120 130 129 255
0.887203 -0.881752 5.65426 0 0 0 125 124 125 255
1.28571 -0.671749 4.47916 0 0 0 179 177 175 255
-0.732176 -0.837546 5.73863 0 0 0 76 71 69 255
-0.686751 -0.856434 5.84853 0 0 0 99 96 95 255
-0.714336 -0.826172 5.80717 0 0 0 230 225 218 255
-0.673984 -0.829409 5.87657 0 0 0 173 171 170 255
-2.66429 -0.963649 6.42956 0 0 0 97 107 106 255
-2.49118 -0.881877 5.96457 0 0 0 62 62 62 255
-1.80517 -0.601247 5.4944 0 0 0 161 142 131 255
-1.76343 -0.574963 5.52954 0 0 0 172 156 138 255
-1.28757 -0.510801 5.08034 0 0 0 149 129 109 255
-1.63673 -0.536713 5.3956 0 0 0 203 188 171 255
-1.1486 -0.476445 4.94835 0 0 0 201 184 170 255
-1.60885 -0.4699 5.37648 0 0 0 206 191 172 255
-1.30358 -0.448364 5.11294 0 0 0 144 111 95 255
-1.80896 -0.459994 5.5071 0 0 0 174 156 138 255
-1.59987 -0.448835 5.36942 0 0 0 156 143 131 255
-1.76894 -0.365335 5.53543 0 0 0 157 141 128 255
-1.75924 -0.3686 5.54938 0 0 0 152 127 113 255
-1.29313 -0.326249 5.09852 0 0 0 163 145 125 255
0.53308 -0.2466 4.33441 0 0 0 166 185 126 255
0.516562 -0.233758 4.34008 0 0 0 169 188 129 255
0.509104 -0.221033 4.34146 0 0 0 110 115 71 255
0.493652 -0.206389 4.34568 0 0 0 140 155 118 255
0.486741 -0.19513 4.34744 0 0 0 110 106 65 255
-1.70057 -0.215227 5.56379 0 0 0 155 127 104 255
0.498436 -0.151791 4.34994 0 0 0 80 91 81 255
1.97873 -0.161465 5.83931 0 0 0 199 143 94 255
-1.55574 -0.0976465 5.36183 0 0 0 166 155 138 255
-1.36517 -0.0960477 5.20297 0 0 0 181 169 154 255
-1.37675 -0.0680937 5.14331 0 0 0 199 187 173 255
-1.00043 0.000584184 4.85473 0 0 0 198 184 162 255
-2.19535 0.0396669 5.51601 0 0 0 91 59 50 255
-1.47917 0.0599474 5.45388 0 0 0 150 141 136 255
-1.44552 0.0649758 5.33083 0 0 0 136 123 118 255
-1.44645 0.128512 5.44756 0 0 0 118 99 85 255
-1.63083 0.474404 5.6206 0 0 0 132 107 84 255
-1.54649 0.50258 5.63504 0 0 0 104 87 77 255
-1.57422 0.520663 5.6398 0 0 0 43 41 40 255
-1.62904 0.583037 5.65303 0 0 0 110 88 80 255
-1.7888 0.596314 5.6479 0 0 0 68 67 65 255
-1.54024 0.602687 5.62722 0 0 0 67 51 41 255
1.06587 0.353661 4.44276 0 0 0 44 47 49 255
-1.51585 0.65642 5.64398 0 0 0 73 57 47 255
-1.61161 0.69449 5.66874 0 0 0 85 67 50 255
-1.54533 0.716126 5.66159 0 0 0 95 82 69 255
-1.65023 0.740627 5.66435 0 0 0 114 88 68 255
-1.67453 0.823751 5.68327 0 0 0 112 89 68 255
-1.48774 0.802067 5.62985 0 0 0 143 124 104 255
-1.70872 0.859502 5.66804 0 0 0 130 107 97 255
-1.63235 0.901893 5.69018 0 0 0 146 115 88 255
-2.16889 1.10491 5.62469 0 0 0 81 55 48 255
-2.04432 1.09773 5.63488 0 0 0 106 76 67 255
1.73974 0.854096 5.66214 0 0 0 186 128 109 255
-2.05912 1.2771 5.6552 0 0 0 190 160 131 255
-2.50404 1.35824 5.6685 0 0 0 47 56 57 255
-2.17576 1.32427 5.64342 0 0 0 169 143 127 255
-0.244207 0.921861 4.41168 0 0 0 210 219 218 255
1.10846 0.900374 4.50725 0 0 0 100 111 113 255
-0.958492 1.28516 5.02859 0 0 0 92 84 80 255
1.40143 0.987347 4.65955 0 0 0 213 217 218 255
1.28315 -0.671661 4.47039 0 0 0 180 178 177 255
-0.69548 -0.855188 5.83284 0 0 0 90 82 79 255
-0.719941 -0.826285 5.8048 0 0 0 230 225 218 255
-2.71478 -0.985435 6.49971 0 0 0 96 107 108 255
-1.76807 -0.571712 5.52747 0 0 0 172 156 138 255
-1.20676 -0.482182 5.01899 0 0 0 199 188 173 255
-1.61608 -0.498573 5.37818 0 0 0 206 191 171 255
-1.27846 -0.320749 5.0839 0 0 0 163 145 125 255
1.75452 -0.332845 5.57624 0 0 0 199 187 183 255
1.69969 -0.297402 5.63698 0 0 0 198 149 108 255
1.70832 -0.264894 5.64876 0 0 0 209 192 185 255
1.7378 -0.259182 5.75057 0 0 0 200 185 178 255
-2.19685 0.0395902 5.51243 0 0 0 91 59 50 255
-1.44634 0.13002 5.44215 0 0 0 118 99 85 255
-1.64206 0.466668 5.59561 0 0 0 136 112 91 255
-1.64108 0.713351 5.66658 0 0 0 149 125 103 255
-1.49453 0.80347 5.62947 0 0 0 143 124 104 255
1.6087 0.80954 5.27085 0 0 0 192 149 136 255
-0.996162 1.29871 5.07267 0 0 0 109 100 95 255
1.40025 0.989151 4.6599 0 0 0 187 191 192 255
1.2753 -0.67334 4.46114 0 0 0 179 179 177 255
-0.726325 -0.854654 5.77283 0 0 0 120 120 119 255
-2.74901 -1.00066 6.54405 0 0 0 77 92 103 255
-1.95562 -0.564009 5.50817 0 0 0 158 126 107 255
-1.77369 -0.554564 5.52332 0 0 0 146 123 105 255
-1.87949 -0.5082 5.53347 0 0 0 206 194 173 255
-1.76391 -0.364773 5.54383 0 0 0 151 132 119 255
0.560965 -0.246991 4.34288 0 0 0 154 161 118 255
1.59287 -0.290003 5.35454 0 0 0 185 152 133 255
-1.69995 -0.215393 5.56427 0 0 0 155 127 104 255
0.0572966 -0.119631 4.32707 0 0 0 130 141 111 255
-1.78047 -0.0700533 5.58008 0 0 0 135 131 126 255
0.966704 0.0615592 4.40111 0 0 0 122 135 111 255
-1.87396 0.26766 5.5888 0 0 0 112 99 84 255
-1.99061 0.428725 5.62065 0 0 0 82 64 47 255
-1.65099 0.469879 5.59047 0 0 0 141 116 93 255
-1.5938 0.570886 5.62081 0 0 0 111 89 77 255
-1.44624 0.648862 5.61407 0 0 0 46 55 55 255
-1.50861 0.780476 5.63258 0 0 0 146 128 111 255
0.266228 0.587714 4.41822 0 0 0 125 125 125 255
0.979293 0.591892 4.46331 0 0 0 138 150 150 255
1.02247 0.793778 4.49045 0 0 0 206 217 216 255
1.04406 0.838654 4.49593 0 0 0 153 161 160 255
-1.70618 1.38198 5.64836 0 0 0 115 97 88 255
-0.0707794 0.989136 4.44578 0 0 0 134 141 141 255
1.40787 0.987869 4.65836 0 0 0 215 215 217 255
1.22623 1.00662 4.52296 0 0 0 130 139 139 255
-0.732461 -0.817604 5.77449 0 0 0 230 225 221 255
0.883622 -0.396974 4.34913 0 0 0 130 142 115 255
1.59705 -0.292871 5.36578 0 0 0 216 189 174 255
-1.88047 0.270787 5.5996 0 0 0 112 99 84 255
-0.40111 0.209839 4.33689 0 0 0 166 185 149 255
-2.38931 0.43774 5.56346 0 0 0 134 105 83 255
-1.65368 0.458046 5.58195 0 0 0 143 115 92 255
0.636725 0.293824 4.41339 0 0 0 143 154 123 255
-1.83037 0.541791 5.64434 0 0 0 147 121 90 255
-2.38695 0.718183 5.60249 0 0 0 142 103 76 255
-1.52924 0.792943 5.62539 0 0 0 158 132 108 255
-1.71997 0.880508 5.66477 0 0 0 63 56 51 255
0.991943 0.541964 4.45971 0 0 0 201 212 213 255
0.444171 0.61058 4.42944 0 0 0 182 180 185 255
-0.444843 0.756656 4.38618 0 0 0 95 107 103 255
0.728768 0.662183 4.45908 0 0 0 132 136 137 255
-0.556975 0.94244 4.49549 0 0 0 178 204 182 255
-1.29359 1.41359 5.50337 0 0 0 96 88 87 255
1.4137 0.999415 4.66024 0 0 0 221 224 223 255
-0.701318 -0.846833 5.82771 0 0 0 77 67 64 255
-0.723511 -0.817125 5.69854 0 0 0 177 169 160 255
-1.93473 -0.473503 5.52876 0 0 0 163 123 98 255
-0.646245 -0.0307604 4.36381 0 0 0 203 186 165 255
-2.16236 0.101547 5.60342 0 0 0 46 46 46 255
-0.266582 0.143486 4.3283 0 0 0 167 187 137 255
-0.132803 0.145335 4.33665 0 0 0 173 193 138 255
0.330681 0.181591 4.37797 0 0 0 175 194 132 255
0.478336 0.216963 4.39645 0 0 0 157 173 124 255
-0.219543 0.26923 4.34519 0 0 0 42 52 49 255
0.677671 0.251779 4.41344 0 0 0 166 181 132 255
-1.54229 0.798923 5.62844 0 0 0 166 140 116 255
-2.38209 0.995309 5.65729 0 0 0 155 126 101 255
-0.509004 0.910335 4.46658 0 0 0 180 211 178 255
-0.915151 -0.811875 5.75639 0 0 0 198 191 180 255
-0.428896 -0.395917 4.28884 0 0 0 45 52 50 255
0.767071 -0.222285 4.36305 0 0 0 163 180 129 255
0.166592 -0.230927 4.32088 0 0 0 76 84 77 255
-1.28879 -0.0765581 5.11194 0 0 0 156 147 135 255
0.315426 -0.0728517 4.35498 0 0 0 168 187 126 255
-2.01778 0.108173 5.48427 0 0 0 48 46 45 255
0.9467 0.0672506 4.39931 0 0 0 106 118 102 255
-1.71661 0.256738 5.61039 0 0 0 156 129 110 255
-1.78891 0.584131 5.64372 0 0 0 64 53 43 255
-0.155412 0.618689 4.41723 0 0 0 206 217 216 255
-1.72997 0.865347 5.6549 0 0 0 66 56 47 255
1.15082 0.641158 4.47816 0 0 0 175 182 181 255
0.895286 -0.933147 5.81732 0 0 0 102 124 130 255
0.81555 -0.861844 5.55229 0 0 0 175 175 174 255
0.720645 -0.742419 4.92474 0 0 0 177 180 176 255
-2.51339 -0.649478 5.49186 0 0 0 134 107 91 255
-1.03718 -0.623969 5.63971 0 0 0 153 132 118 255
-1.00679 -0.599162 5.64015 0 0 0 200 184 173 255
-1.22517 -0.586706 5.62141 0 0 0 198 187 172 255
-1.40987 -0.578292 5.60867 0 0 0 205 185 175 255
-1.76447 -0.562846 5.57174 0 0 0 201 186 173 255
-1.10596 -0.535532 5.62732 0 0 0 196 187 172 255
-1.37609 -0.529452 5.60337 0 0 0 159 114 94 255
-1.18285 -0.535433 5.62545 0 0 0 202 188 178 255
-1.3419 -0.520498 5.61088 0 0 0 159 141 126 255
-1.00308 -0.526068 5.63788 0 0 0 175 151 144 255
-1.64563 -0.502282 5.57901 0 0 0 157 122 104 255
-1.52546 -0.487874 5.59158 0 0 0 146 119 106 255
-1.41307 -0.491078 5.6036 0 0 0 161 148 136 255
0.0886059 -0.254144 4.31656 0 0 0 87 100 85 255
-1.16884 -0.354804 5.65569 0 0 0 164 144 129 255
-2.48626 -0.326835 5.52037 0 0 0 122 104 90 255
-0.129614 -0.21814 4.30627 0 0 0 163 182 134 255
-0.0488088 -0.186569 4.31498 0 0 0 147 157 119 255
-0.0578239 -0.176275 4.31284 0 0 0 132 144 113 255
-0.999516 -0.142955 5.67494 0 0 0 197 182 164 255
-1.19039 -0.137386 5.64546 0 0 0 134 124 110 255
-1.08023 -0.135573 5.68591 0 0 0 126 117 103 255
-1.16538 -0.108705 5.65874 0 0 0 90 84 75 255
-1.17668 -0.0776659 5.63627 0 0 0 135 130 124 255
-1.71053 -0.0479446 5.6358 0 0 0 199 183 168 255
-0.060572 -0.0135753 4.3303 0 0 0 120 133 119 255
-0.100873 0.0575961 4.33137 0 0 0 47 54 52 255
-0.28667 0.118176 4.32612 0 0 0 137 155 112 255
-0.128414 0.242939 4.34612 0 0 0 160 178 131 255
0.352184 0.33563 4.40537 0 0 0 146 162 134 255
0.212934 0.387395 4.39019 0 0 0 105 109 109 255
0.116399 0.410027 4.37434 0 0 0 97 106 107 255
-0.964942 0.547834 5.73505 0 0 0 87 78 79 255
-0.227425 0.427084 4.38255 0 0 0 151 150 153 255
-0.147514 0.414734 4.36023 0 0 0 147 154 156 255
-0.959671 0.69901 5.74217 0 0 0 88 67 56 255
-0.917154 0.746236 5.74538 0 0 0 105 88 72 255
-1.46797 0.765796 5.7008 0 0 0 69 52 47 255
-1.29879 0.768658 5.73319 0 0 0 79 65 54 255
-1.1326 0.843411 5.73486 0 0 0 104 76 65 255
-1.02819 0.845319 5.74397 0 0 0 106 83 71 255
-1.06076 0.886497 5.74369 0 0 0 86 78 71 255
-0.93104 0.92376 5.75802 0 0 0 94 75 66 255
-1.26368 0.955842 5.73153 0 0 0 86 70 63 255
-1.69478 0.959666 5.69155 0 0 0 135 116 106 255
-0.472902 0.767313 4.39065 0 0 0 137 152 143 255
-1.01199 1.03117 5.76413 0 0 0 106 90 78 255
0.630357 0.787983 4.46577 0 0 0 167 177 177 255
-1.19 1.06996 5.75414 0 0 0 111 97 91 255
-1.03062 1.0759 5.75507 0 0 0 91 75 61 255
0.334927 0.82777 4.44891 0 0 0 169 180 182 255
-0.473 0.838732 4.39748 0 0 0 150 177 151 255
0.443543 0.964929 4.46876 0 0 0 165 178 179 255
-2.57962 -0.658541 5.57768 0 0 0 151 124 106 255
-1.96827 -0.611206 5.56155 0 0 0 192 183 168 255
-1.71567 -0.541674 5.56713 0 0 0 167 130 115 255
-1.10778 -0.515389 5.62829 0 0 0 159 119 110 255
-2.53245 -0.374323 5.5685 0 0 0 143 116 106 255
-1.29246 -0.300166 5.63108 0 0 0 174 149 131 255
-1.29855 -0.239638 5.62869 0 0 0 165 147 135 255
-1.35464 -0.0674953 5.57243 0 0 0 144 136 127 255
-1.0287 0.605372 5.72452 0 0 0 70 52 49 255
-1.13233 0.844801 5.73466 0 0 0 104 76 65 255
-1.02149 0.838063 5.74751 0 0 0 94 75 68 255
-1.01965 1.04084 5.76063 0 0 0 109 94 85 255
-1.0321 1.06568 5.76163 0 0 0 96 81 69 255
-0.605528 0.999485 4.71434 0 0 0 67 62 61 255
0.892922 -0.92209 5.77896 0 0 0 88 107 116 255
0.56903 -0.529956 3.80926 0 0 0 178 181 178 255
-1.9412 -0.646999 5.56678 0 0 0 207 194 176 255
-1.96162 -0.620528 5.56271 0 0 0 197 187 172 255
-0.987752 -0.609678 5.64092 0 0 0 186 161 149 255
-1.09898 -0.587977 5.62984 0 0 0 158 143 131 255
-1.66292 -0.516201 5.58045 0 0 0 144 122 111 255
-1.73707 -0.447783 5.56845 0 0 0 205 193 179 255
-1.16822 -0.345833 5.65492 0 0 0 149 119 104 255
-2.49239 -0.301043 5.53236 0 0 0 64 49 46 255
-1.19346 -0.308547 5.64486 0 0 0 203 188 170 255
-1.33628 -0.233121 5.62469 0 0 0 179 159 145 255
0.044613 -0.0903391 4.32541 0 0 0 90 104 90 255
-1.16531 -0.0895067 5.6497 0 0 0 118 112 105 255
-0.429242 -0.045393 4.29747 0 0 0 177 194 156 255
-2.18931 0.103734 5.57865 0 0 0 65 40 29 255
-1.8959 0.223129 5.62325 0 0 0 78 70 63 255
-1.86764 0.284496 5.62967 0 0 0 57 46 45 255
-1.95412 0.506804 5.63706 0 0 0 57 44 37 255
-1.21575 0.522447 5.71252 0 0 0 116 93 77 255
0.198353 0.424598 4.39321 0 0 0 108 117 118 255
-1.51212 0.569494 5.67768 0 0 0 39 39 39 255
-1.40778 0.613945 5.69274 0 0 0 132 105 88 255
-1.13333 0.650352 5.72268 0 0 0 86 66 58 255
0.823513 0.565429 4.4585 0 0 0 144 150 152 255
-1.42664 0.816772 5.70862 0 0 0 67 53 48 255
-1.65126 0.896906 5.70289 0 0 0 149 123 102 255
-0.942134 0.93292 5.75694 0 0 0 80 69 65 255
-0.186726 0.753299 4.40218 0 0 0 133 142 145 255
-0.50918 0.783918 4.41487 0 0 0 155 177 158 255
-1.24698 1.2966 5.77262 0 0 0 150 126 108 255
0.791765 -0.863053 5.52223 0 0 0 182 185 181 255
-2.23667 -0.775051 5.50453 0 0 0 211 203 196 255
-0.632134 -0.541876 4.38346 0 0 0 54 58 61 255
-1.95823 -0.621878 5.56628 0 0 0 169 149 131 255
-1.02774 -0.615116 5.64158 0 0 0 158 115 98 255
-1.63045 -0.586814 5.5847 0 0 0 164 148 136 255
-1.3913 -0.584255 5.59957 0 0 0 161 119 98 255
-1.92285 -0.555072 5.59004 0 0 0 210 193 175 255
0.812881 -0.0578001 4.39359 0 0 0 137 151 112 255
0.48797 -0.0108928 4.37605 0 0 0 60 71 65 255
-0.385704 0.0376231 4.30405 0 0 0 172 198 148 255
-1.86766 0.284491 5.62973 0 0 0 57 46 45 255
0.283186 0.32376 4.38961 0 0 0 117 130 94 255
-1.98261 0.461942 5.62912 0 0 0 69 56 50 255
-1.41051 0.494168 5.69851 0 0 0 128 104 82 255
-1.57799 0.560391 5.66838 0 0 0 116 92 74 255
-1.22344 0.631869 5.71509 0 0 0 140 109 86 255
0.805502 0.592132 4.46937 0 0 0 139 149 150 255
-1.74408 0.905291 5.68588 0 0 0 65 55 50 255
-0.499673 0.797038 4.40533 0 0 0 163 179 161 255
-1.23944 1.28628 5.75891 0 0 0 133 117 104 255
-1.25088 1.31452 5.75632 0 0 0 124 80 64 255
-0.333737 0.99556 4.41393 0 0 0 209 219 219 255
-2.29347 -0.741545 5.5188 0 0 0 86 49 48 255
-0.613916 -0.533803 4.37623 0 0 0 51 54 53 255
-1.60471 -0.579456 5.59393 0 0 0 155 123 103 255
-1.65658 -0.526836 5.57893 0 0 0 157 111 97 255
-1.97158 -0.507032 5.5515 0 0 0 150 134 121 255
-0.0300712 -0.310133 4.30382 0 0 0 175 196 141 255
-1.76184 -0.337165 5.58518 0 0 0 160 117 90 255
0.623446 -0.133593 4.37971 0 0 0 132 144 117 255
-0.411801 -0.059217 4.29454 0 0 0 176 200 151 255
-1.76775 -0.0659482 5.59287 0 0 0 168 161 159 255
-0.289211 0.0426933 4.3162 0 0 0 101 109 100 255
-1.89459 0.0580157 5.61019 0 0 0 46 42 40 255
-2.15968 0.129519 5.60424 0 0 0 40 35 37 255
-1.95522 0.198611 5.60533 0 0 0 169 142 112 255
-1.86726 0.274682 5.63023 0 0 0 65 52 50 255
-2.03897 0.392802 5.62323 0 0 0 143 118 94 255
-1.62799 0.398444 5.6635 0 0 0 51 41 38 255
-0.383862 0.310159 4.33518 0 0 0 154 167 139 255
-0.892724 0.453851 5.71121 0 0 0 129 105 90 255
-1.93976 0.527426 5.63978 0 0 0 56 42 38 255
-2.07904 0.576648 5.62382 0 0 0 93 52 46 255
0.637237 0.524527 4.43641 0 0 0 188 192 193 255
-1.59541 0.83908 5.69851 0 0 0 174 138 109 255
-1.49412 0.857093 5.70802 0 0 0 51 49 49 255
0.252778 0.641746 4.4215 0 0 0 176 185 187 255
-1.73825 0.909507 5.68707 0 0 0 61 58 59 255
0.707065 0.711687 4.46629 0 0 0 204 213 214 255
0.635786 0.723631 4.46184 0 0 0 195 202 202 255
-0.511759 0.813792 4.42757 0 0 0 149 170 153 255
0.744655 -0.363135 4.3597 0 0 0 175 195 133 255
0.917973 -0.410857 4.3726 0 0 0 112 119 106 255
-0.447263 -0.321561 4.26426 0 0 0 172 191 161 255
0.671732 -0.210178 4.37335 0 0 0 72 80 75 255
0.778703 -0.189134 4.38119 0 0 0 152 167 122 255
0.242856 -0.149154 4.35166 0 0 0 61 70 63 255
-0.702906 -0.05106 4.63415 0 0 0 198 180 161 255
0.236603 -0.04031 4.37069 0 0 0 52 64 60 255
-0.125419 0.0193846 4.3278 0 0 0 67 75 66 255
-1.84808 0.20652 5.63853 0 0 0 151 124 99 255
-0.144609 0.151771 4.34319 0 0 0 175 197 146 255
-1.26714 0.232599 5.64009 0 0 0 156 129 110 255
0.623439 0.201168 4.41004 0 0 0 54 63 60 255
-1.66253 0.405704 5.65816 0 0 0 43 43 43 255
-1.7945 0.459093 5.63104 0 0 0 146 119 94 255
-1.21536 0.455021 5.71018 0 0 0 68 49 43 255
-1.57897 0.781528 5.68208 0 0 0 153 129 110 255
0.388663 0.571859 4.42659 0 0 0 179 192 192 255
-1.73807 0.912847 5.68633 0 0 0 61 58 59 255
0.66971 0.687579 4.46826 0 0 0 201 212 213 255
-0.399838 0.822509 4.3886 0 0 0 127 142 127 255
2.43847 -2.53378 8.38065 0 0 0 131 129 130 255
2.43049 -2.40018 8.34419 0 0 0 115 112 114 255
2.45531 -2.14176 8.39644 0 0 0 161 149 151 255
-0.622266 -0.56596 4.38591 0 0 0 156 158 156 255
-2.24483 -0.786524 5.4751 0 0 0 168 166 162 255
-2.49189 -0.75136 5.45932 0 0 0 88 64 61 255
-2.66605 -0.79255 5.74425 0 0 0 119 104 96 255
-1.17982 -0.607157 5.61443 0 0 0 185 152 141 255
-2.57379 -0.607367 5.53537 0 0 0 54 48 45 255
-2.57828 -0.53787 5.5443 0 0 0 72 68 65 255
-0.264085 -0.292616 4.28087 0 0 0 149 165 121 255
-2.5246 -0.447116 5.51722 0 0 0 91 70 59 255
-2.53102 -0.376831 5.4962 0 0 0 58 46 46 255
-1.51284 -0.33484 5.60747 0 0 0 184 169 151 255
-1.15102 -0.335473 5.64033 0 0 0 155 128 112 255
-1.32876 -0.325054 5.62417 0 0 0 208 192 176 255
-1.32993 -0.250618 5.61362 0 0 0 209 192 173 255
-0.619581 -0.130594 4.57628 0 0 0 152 148 143 255
-2.47076 -0.143953 5.51799 0 0 0 151 94 59 255
-1.05254 -0.12133 5.65806 0 0 0 202 185 168 255
-1.10388 -0.111192 5.68895 0 0 0 122 110 110 255
-0.998272 -0.112564 5.67375 0 0 0 186 180 169 255
-1.70548 -0.103112 5.60882 0 0 0 206 185 165 255
-1.22998 -0.0823914 5.62973 0 0 0 139 131 123 255
-1.19415 -0.0798209 5.64496 0 0 0 145 134 124 255
-1.51725 -0.0620362 5.59573 0 0 0 126 119 106 255
-0.65565 -0.0432185 5.73611 0 0 0 126 121 115 255
-0.981628 0.0405711 5.69139 0 0 0 163 160 158 255
-0.652526 0.0411607 5.71865 0 0 0 57 57 57 255
-1.11883 0.047722 5.6715 0 0 0 152 149 147 255
-1.79726 0.0640396 5.60779 0 0 0 122 115 112 255
-2.44191 0.0966999 5.54949 0 0 0 136 87 72 255
-0.583778 0.347038 4.63261 0 0 0 85 83 79 255
0.681043 0.380005 4.44035 0 0 0 53 55 57 255
0.295214 0.379655 4.41337 0 0 0 94 97 96 255
0.0532803 0.404097 4.38781 0 0 0 56 58 58 255
-2.41255 0.498736 5.57509 0 0 0 126 98 83 255
-1.40684 0.584348 5.68778 0 0 0 108 91 83 255
-1.46058 0.59396 5.68431 0 0 0 120 96 76 255
-2.95934 0.60278 6.05646 0 0 0 14 80 133 255
-1.74326 0.634011 5.66791 0 0 0 111 97 83 255
-2.94684 0.649757 6.03033 0 0 0 1 136 223 255
-0.926853 0.718771 5.74401 0 0 0 95 75 62 255
-0.879561 0.725057 5.7427 0 0 0 100 79 66 255
-0.555385 0.742973 4.72736 0 0 0 98 96 97 255
-1.51465 0.81768 5.66738 0 0 0 138 119 98 255
-0.937969 0.849904 5.74503 0 0 0 130 101 81 255
0.112824 0.749851 4.41896 0 0 0 166 170 171 255
-1.9854 0.888523 5.6608 0 0 0 129 82 57 255
-1.74425 0.943113 5.69533 0 0 0 140 116 106 255
-0.521477 0.855891 4.6328 0 0 0 148 172 164 255
-2.8984 1.06453 6.44481 0 0 0 92 101 97 255
-2.91045 1.10465 6.4437 0 0 0 40 47 50 255
0.712943 0.935097 4.4921 0 0 0 211 211 213 255
-1.95353 1.05443 5.66491 0 0 0 135 92 87 255
-1.97258 1.106 5.66678 0 0 0 127 85 74 255
-0.946805 1.20571 5.75912 0 0 0 132 107 94 255
-2.86347 1.40017 6.65156 0 0 0 69 82 75 255
-2.07388 1.24194 5.61744 0 0 0 129 108 92 255
-1.98938 1.25707 5.65302 0 0 0 139 116 99 255
-2.47749 1.2962 5.64446 0 0 0 122 127 132 255
-0.228756 1.12756 4.41968 0 0 0 129 139 133 255
-0.739471 1.45298 5.7727 0 0 0 103 71 68 255
-1.67448 1.43806 5.70698 0 0 0 125 98 89 255
-0.0375161 1.24367 4.44521 0 0 0 111 118 115 255
0.924012 1.45475 4.84566 0 0 0 125 129 134 255
2.13291 -2.47235 8.33598 0 0 0 142 156 154 255
2.41848 -2.4081 8.34462 0 0 0 170 165 167 255
2.47399 -2.27214 8.45709 0 0 0 103 104 104 255
2.45669 -2.14588 8.39868 0 0 0 90 80 82 255
-2.51163 -0.753665 5.453 0 0 0 169 159 153 255
-2.49525 -0.752406 5.46014 0 0 0 88 64 61 255
-1.41314 -0.602669 5.58999 0 0 0 170 136 116 255
-1.51608 -0.333368 5.60797 0 0 0 157 135 125 255
-1.54903 -0.293407 5.60981 0 0 0 161 131 116 255
-1.50284 -0.216965 5.58403 0 0 0 177 161 145 255
-2.48965 -0.151207 5.54651 0 0 0 151 94 62 255
-0.987672 -0.12674 5.65244 0 0 0 145 139 133 255
-1.06952 -0.0982575 5.64096 0 0 0 118 111 102 255
-0.661222 -0.0362692 5.73415 0 0 0 65 61 55 255
-0.650903 0.0403732 5.71663 0 0 0 57 57 57 255
-2.43311 0.0929663 5.55308 0 0 0 139 85 63 255
-1.97916 0.22906 5.6078 0 0 0 130 87 78 255
-1.28915 0.682619 5.71001 0 0 0 122 102 86 255
0.593747 0.748008 4.46018 0 0 0 117 121 122 255
-2.91169 1.13815 6.52439 0 0 0 101 99 98 255
-0.75395 1.18955 5.79965 0 0 0 130 101 89 255
-2.47797 1.29727 5.64011 0 0 0 122 127 132 255
-2.17109 1.31012 5.5632 0 0 0 181 152 136 255
-0.61244 1.44401 5.81361 0 0 0 111 81 78 255
-2.42189 1.32263 5.47408 0 0 0 143 149 150 255
-2.57699 1.39711 5.35769 0 0 0 86 81 83 255
2.43741 -2.51946 8.37558 0 0 0 138 130 133 255
1.96325 -2.46902 8.33322 0 0 0 144 147 144 255
2.43389 -2.43508 8.35524 0 0 0 98 99 100 255
2.47602 -2.27511 8.45463 0 0 0 103 104 104 255
2.46273 -2.17577 8.41343 0 0 0 143 130 128 255
-2.48638 -0.745742 5.46039 0 0 0 86 60 57 255
-2.56279 -0.605434 5.52281 0 0 0 48 41 39 255
-0.456367 -0.350094 4.25728 0 0 0 152 159 148 255
-2.54038 -0.386493 5.50543 0 0 0 60 53 50 255
-1.3262 -0.35023 5.63582 0 0 0 174 151 135 255
-1.54162 -0.345841 5.61618 0 0 0 212 194 174 255
-1.27903 -0.288423 5.61876 0 0 0 160 124 104 255
-0.0381578 -0.128296 4.32247 0 0 0 152 165 113 255
-2.48912 -0.152563 5.54464 0 0 0 151 94 62 255
-0.983895 -0.123943 5.67098 0 0 0 114 108 104 255
-1.509 -0.105114 5.6312 0 0 0 132 111 94 255
-1.10783 -0.115507 5.66051 0 0 0 119 108 106 255
-2.54925 -0.120245 5.60863 0 0 0 55 38 32 255
-0.664503 -0.0344327 5.73271 0 0 0 62 53 43 255
-2.42738 0.104878 5.55024 0 0 0 162 98 56 255
-0.256416 0.172138 4.3377 0 0 0 82 88 51 255
0.0249994 0.242066 4.37468 0 0 0 81 90 87 255
0.634816 0.377454 4.4415 0 0 0 133 138 137 255
