ply
format ascii 1.0
comment VCGLIB generated
element vertex 1007
property float x
property float y
property float z
property float nx
property float ny
property float nz
property uchar red
property uchar green
property uchar blue
property uchar alpha
element face 0
property list uchar int vertex_indices
end_header
-0.108431 0.0412587 4.33056 0 0 0 62 71 68 255
0.235789 0.111966 4.36575 0 0 0 150 167 120 255
0.460269 0.0860067 4.37007 0 0 0 53 60 57 255
-1.87788 0.211346 5.70794 0 0 0 142 111 87 255
-0.40395 0.243694 4.45981 0 0 0 161 181 144 255
0.301957 0.21045 4.37839 0 0 0 159 170 130 255
-0.259257 0.252307 4.34961 0 0 0 47 54 52 255
0.317803 0.291457 4.38864 0 0 0 150 162 117 255
0.674615 0.340393 4.4153 0 0 0 53 63 55 255
0.398204 0.605016 4.4251 0 0 0 165 165 167 255
0.645217 0.606637 4.53673 0 0 0 193 202 202 255
-0.377517 0.621754 4.38203 0 0 0 134 140 143 255
-0.451911 0.70579 4.38725 0 0 0 57 61 62 255
-1.47226 1.0223 5.78906 0 0 0 160 134 113 255
0.26727 0.767508 4.43581 0 0 0 193 202 202 255
-0.178224 0.870617 4.41839 0 0 0 118 126 127 255
-0.560067 0.985041 4.82228 0 0 0 161 194 174 255
-2.58646 -0.785613 5.6111 0 0 0 141 135 135 255
-2.29018 -0.772913 5.53471 0 0 0 90 76 77 255
-2.26348 -0.780601 5.54157 0 0 0 188 184 183 255
-2.6388 -0.782894 5.62338 0 0 0 90 79 85 255
0.954844 -0.442239 4.3507 0 0 0 130 139 124 255
-2.64564 -0.652905 5.65711 0 0 0 125 102 89 255
-0.45327 -0.351024 4.28855 0 0 0 165 184 164 255
-1.22533 -0.647511 5.67897 0 0 0 169 153 145 255
0.922146 -0.378571 4.35582 0 0 0 155 173 140 255
-2.65641 -0.607221 5.6923 0 0 0 95 78 75 255
-1.61275 -0.608898 5.66174 0 0 0 202 189 175 255
-1.29507 -0.616373 5.67439 0 0 0 154 134 126 255
-1.29065 -0.620446 5.69411 0 0 0 155 127 112 255
-1.23922 -0.626866 5.68183 0 0 0 157 138 129 255
-1.17598 -0.611457 5.61478 0 0 0 150 133 123 255
-1.00234 -0.638767 5.71651 0 0 0 153 119 105 255
-1.12521 -0.620222 5.70483 0 0 0 203 188 178 255
-1.20032 -0.600935 5.66303 0 0 0 188 167 158 255
-1.09254 -0.601091 5.70892 0 0 0 144 116 102 255
-1.02873 -0.608787 5.75512 0 0 0 201 186 178 255
-1.13876 -0.574712 5.70001 0 0 0 204 187 174 255
0.0294071 -0.282731 4.30375 0 0 0 92 103 93 255
-1.03844 -0.531959 5.60878 0 0 0 198 189 179 255
-1.3212 -0.531489 5.66603 0 0 0 197 189 183 255
-1.19168 -0.534924 5.66611 0 0 0 202 187 176 255
-1.13088 -0.546866 5.72433 0 0 0 195 185 177 255
-1.08957 -0.542789 5.70939 0 0 0 166 154 142 255
-1.18017 -0.512891 5.64953 0 0 0 135 124 114 255
-1.04953 -0.533527 5.72951 0 0 0 142 114 103 255
-1.03185 -0.547311 5.79066 0 0 0 177 163 151 255
-1.26685 -0.516819 5.68898 0 0 0 158 121 106 255
-1.20012 -0.501725 5.67078 0 0 0 187 158 148 255
-1.11033 -0.52315 5.7124 0 0 0 140 116 105 255
-2.55964 -0.450728 5.58849 0 0 0 87 69 55 255
-2.64217 -0.402084 5.73098 0 0 0 52 37 40 255
-2.55665 -0.356715 5.55108 0 0 0 104 89 88 255
0.555966 -0.200329 4.34574 0 0 0 121 133 113 255
-1.80887 -0.375837 5.61421 0 0 0 147 130 116 255
-1.78414 -0.367483 5.66891 0 0 0 202 173 157 255
0.506683 -0.17125 4.3414 0 0 0 113 126 112 255
0.965149 -0.192478 4.37227 0 0 0 122 139 119 255
-1.4578 -0.342136 5.68395 0 0 0 146 130 116 255
-1.25526 -0.348164 5.69987 0 0 0 149 131 121 255
-1.19784 -0.334382 5.69911 0 0 0 199 188 178 255
0.496277 -0.137611 4.34414 0 0 0 93 107 92 255
0.60256 -0.12012 4.3534 0 0 0 108 124 111 255
-1.73769 -0.276774 5.66994 0 0 0 198 182 168 255
0.027157 -0.0995379 4.32381 0 0 0 123 139 101 255
0.511138 -0.100768 4.34776 0 0 0 129 143 110 255
-1.64154 -0.243398 5.68099 0 0 0 199 185 174 255
-1.35182 -0.260724 5.70816 0 0 0 203 189 173 255
0.498151 -0.0898716 4.34911 0 0 0 158 174 133 255
-1.25207 -0.250048 5.72038 0 0 0 151 121 107 255
-1.23055 -0.250506 5.70789 0 0 0 146 107 86 255
-1.1576 -0.243763 5.65032 0 0 0 152 114 99 255
-1.16075 -0.255882 5.71318 0 0 0 155 112 94 255
0.0169984 -0.0638377 4.32893 0 0 0 151 170 128 255
-1.55765 -0.21711 5.69044 0 0 0 168 142 128 255
-1.54758 -0.219732 5.68756 0 0 0 154 124 111 255
0.972634 -0.0767544 4.38437 0 0 0 124 136 120 255
-2.59384 -0.145953 5.6708 0 0 0 116 70 67 255
-2.52962 -0.149836 5.63511 0 0 0 144 92 64 255
0.974088 -0.0352111 4.38332 0 0 0 126 141 124 255
-1.02915 -0.15602 5.69735 0 0 0 177 169 160 255
-1.27098 -0.140753 5.7275 0 0 0 136 131 121 255
-1.19321 -0.142489 5.72558 0 0 0 119 114 104 255
-1.08192 -0.156649 5.73254 0 0 0 191 180 168 255
-1.03317 -0.162972 5.84154 0 0 0 195 183 172 255
-1.37954 -0.13281 5.70786 0 0 0 148 139 128 255
-1.13332 -0.142765 5.71608 0 0 0 149 140 124 255
0.825884 -0.0206444 4.37917 0 0 0 148 162 124 255
-1.5194 -0.120594 5.70347 0 0 0 182 174 163 255
-1.02315 -0.130666 5.68484 0 0 0 102 96 94 255
-0.360369 0.033924 4.30915 0 0 0 133 147 131 255
0.264764 0.00548574 4.3516 0 0 0 124 142 128 255
-1.75651 -0.111012 5.69128 0 0 0 143 139 133 255
-1.17765 -0.125497 5.71406 0 0 0 141 137 134 255
-1.09776 -0.128844 5.74435 0 0 0 120 116 111 255
-1.07457 -0.12811 5.75058 0 0 0 194 184 172 255
-1.02823 -0.11921 5.70913 0 0 0 95 93 91 255
-1.14981 -0.109865 5.73479 0 0 0 99 96 94 255
-1.08705 -0.106796 5.74067 0 0 0 81 78 71 255
-1.02732 -0.127931 5.84058 0 0 0 171 167 166 255
-1.00369 -0.118888 5.77931 0 0 0 160 155 154 255
-1.41086 -0.0857466 5.70984 0 0 0 111 108 104 255
-1.02481 -0.100799 5.69283 0 0 0 104 102 98 255
-1.74295 -0.0742953 5.69943 0 0 0 173 169 163 255
-1.2798 -0.0909306 5.71934 0 0 0 148 145 137 255
-1.24773 -0.0881657 5.72197 0 0 0 155 148 139 255
-1.21053 -0.0901728 5.73407 0 0 0 112 107 97 255
-1.1924 -0.0862827 5.70004 0 0 0 114 108 101 255
-1.13629 -0.0949931 5.74848 0 0 0 195 184 172 255
-1.0679 -0.10144 5.73742 0 0 0 132 123 112 255
0.82792 0.0163763 4.38496 0 0 0 135 142 119 255
0.975377 0.00876799 4.38759 0 0 0 127 138 128 255
-1.51986 -0.070056 5.69954 0 0 0 194 186 177 255
-1.56458 -0.0658255 5.70889 0 0 0 143 136 129 255
-1.75045 -0.0580985 5.70869 0 0 0 157 148 134 255
-0.203997 0.106036 4.33961 0 0 0 153 165 147 255
-0.122838 0.0957692 4.33637 0 0 0 93 103 99 255
0.810937 0.0654503 4.38213 0 0 0 98 110 91 255
-0.298563 0.10716 4.32855 0 0 0 157 171 155 255
-0.276318 0.104774 4.32642 0 0 0 133 144 133 255
0.822294 0.0687377 4.38726 0 0 0 133 148 124 255
-2.236 0.0605541 5.60772 0 0 0 88 47 43 255
-2.21543 0.0528027 5.61937 0 0 0 200 169 161 255
-0.998816 0.0140231 5.73198 0 0 0 117 117 117 255
-1.17914 0.0264793 5.72904 0 0 0 151 148 146 255
-1.25114 0.0383831 5.71112 0 0 0 151 142 132 255
-1.1964 0.0255108 5.72443 0 0 0 136 131 131 255
-1.13261 0.0299153 5.73053 0 0 0 162 157 150 255
-1.06783 0.0239707 5.75728 0 0 0 143 139 138 255
-1.00205 0.0298902 5.75982 0 0 0 122 120 121 255
-2.21669 0.0758606 5.63398 0 0 0 43 36 35 255
-1.18177 0.0413762 5.75072 0 0 0 146 139 125 255
-1.26016 0.0460337 5.71922 0 0 0 162 158 155 255
-1.109 0.0395302 5.7387 0 0 0 168 160 154 255
-1.05681 0.037456 5.73531 0 0 0 150 145 136 255
-1.00119 0.0361798 5.76456 0 0 0 164 159 147 255
-0.419665 0.160874 4.33082 0 0 0 102 113 105 255
-0.0885118 0.149103 4.33997 0 0 0 172 192 141 255
-1.80776 0.0865524 5.69722 0 0 0 182 168 146 255
-1.81944 0.0902794 5.68319 0 0 0 180 169 159 255
-0.633625 0.144077 4.63917 0 0 0 43 46 45 255
-0.376225 0.171677 4.33401 0 0 0 94 112 99 255
-0.225072 0.173955 4.33684 0 0 0 96 109 97 255
-0.0993158 0.163325 4.34008 0 0 0 127 145 103 255
-0.213784 0.181712 4.33698 0 0 0 119 141 118 255
-0.312687 0.190058 4.34023 0 0 0 128 142 126 255
-0.268878 0.201501 4.34493 0 0 0 88 102 97 255
-2.2314 0.175672 5.64198 0 0 0 121 90 71 255
-1.2773 0.145764 5.7443 0 0 0 99 73 57 255
-0.277871 0.22147 4.34426 0 0 0 47 60 51 255
-0.278888 0.235035 4.34579 0 0 0 47 61 57 255
0.905175 0.193802 4.4048 0 0 0 88 95 89 255
-0.241788 0.243462 4.34512 0 0 0 52 62 57 255
0.918818 0.207531 4.40751 0 0 0 79 80 77 255
-0.361142 0.264656 4.34113 0 0 0 169 194 154 255
-0.29089 0.258072 4.34522 0 0 0 102 120 110 255
0.641832 0.236557 4.3988 0 0 0 86 101 94 255
0.931883 0.222984 4.41226 0 0 0 122 131 112 255
-0.371673 0.269494 4.34912 0 0 0 137 161 125 255
-0.356656 0.302315 4.34448 0 0 0 129 148 128 255
-0.355637 0.308297 4.34499 0 0 0 128 145 126 255
0.623884 0.27789 4.40314 0 0 0 109 122 114 255
0.909504 0.27302 4.4114 0 0 0 161 177 133 255
-0.36817 0.344413 4.34807 0 0 0 100 110 107 255
0.557539 0.320045 4.39915 0 0 0 88 106 102 255
-0.336376 0.364304 4.35616 0 0 0 153 171 158 255
-0.282494 0.370404 4.36468 0 0 0 100 112 106 255
-0.0541756 0.36416 4.37127 0 0 0 67 82 74 255
0.98985 0.327794 4.43148 0 0 0 130 145 151 255
0.94547 0.336454 4.42597 0 0 0 170 176 178 255
1.39719 0.304396 5.27609 0 0 0 46 55 59 255
0.500841 0.3629 4.40348 0 0 0 148 159 166 255
0.846896 0.349917 4.42257 0 0 0 100 106 109 255
1.05946 0.339733 4.45284 0 0 0 126 127 127 255
1.08186 0.33757 4.43953 0 0 0 130 138 143 255
0.564176 0.360663 4.40449 0 0 0 48 61 68 255
0.877411 0.35072 4.42515 0 0 0 125 130 134 255
0.966489 0.344724 4.42906 0 0 0 80 78 79 255
1.01958 0.343093 4.43415 0 0 0 153 155 158 255
0.496403 0.369193 4.40338 0 0 0 135 156 169 255
0.639545 0.365602 4.40681 0 0 0 57 59 59 255
0.826424 0.35474 4.42556 0 0 0 140 159 161 255
0.900065 0.357073 4.42664 0 0 0 134 141 150 255
1.03955 0.350073 4.43519 0 0 0 159 159 159 255
1.26731 0.337978 4.91696 0 0 0 92 106 117 255
0.240335 0.384905 4.38902 0 0 0 136 145 148 255
1.11978 0.359098 4.44157 0 0 0 60 57 61 255
-1.48201 0.419231 5.74848 0 0 0 91 68 51 255
0.710364 0.373553 4.41736 0 0 0 142 152 152 255
0.862989 0.369683 4.42898 0 0 0 57 61 63 255
1.05491 0.362735 4.42878 0 0 0 172 173 176 255
1.10473 0.360417 4.43816 0 0 0 111 128 135 255
-0.238206 0.415761 4.37253 0 0 0 111 116 123 255
-0.177169 0.415473 4.37164 0 0 0 124 134 140 255
-0.0193321 0.406135 4.37732 0 0 0 194 203 204 255
0.166681 0.395467 4.38656 0 0 0 47 61 66 255
1.04651 0.36831 4.43622 0 0 0 50 52 54 255
-0.335685 0.425789 4.36155 0 0 0 53 58 61 255
-0.15929 0.413087 4.37614 0 0 0 125 129 134 255
0.967202 0.373146 4.42869 0 0 0 186 197 198 255
1.01399 0.375236 4.4351 0 0 0 84 104 109 255
-0.0346565 0.417141 4.3797 0 0 0 52 62 68 255
0.520972 0.396812 4.4103 0 0 0 56 59 61 255
0.638679 0.393324 4.40727 0 0 0 129 134 135 255
0.8295 0.387238 4.42562 0 0 0 138 154 159 255
0.878212 0.388624 4.42707 0 0 0 136 156 160 255
0.903158 0.386475 4.42909 0 0 0 106 113 115 255
1.0363 0.379412 4.43755 0 0 0 126 128 130 255
1.08365 0.376278 4.44078 0 0 0 114 128 132 255
1.11008 0.372079 4.4379 0 0 0 144 141 144 255
-0.184011 0.424793 4.37247 0 0 0 70 76 80 255
-0.130868 0.42866 4.37113 0 0 0 134 145 152 255
0.217548 0.412797 4.38718 0 0 0 131 137 138 255
0.338153 0.410331 4.3994 0 0 0 53 54 54 255
0.392103 0.409728 4.39444 0 0 0 75 81 88 255
0.664819 0.398175 4.4142 0 0 0 128 144 148 255
0.897169 0.386395 4.42932 0 0 0 64 64 67 255
-2.47465 0.503673 5.70461 0 0 0 123 96 80 255
-0.0506456 0.429129 4.37523 0 0 0 57 56 59 255
0.0507325 0.426844 4.37179 0 0 0 160 160 160 255
0.532671 0.409393 4.41391 0 0 0 143 151 156 255
0.553551 0.406397 4.40979 0 0 0 67 70 77 255
0.593932 0.40459 4.41247 0 0 0 104 116 123 255
0.617403 0.406014 4.41429 0 0 0 118 133 140 255
0.378922 0.417152 4.39853 0 0 0 106 124 129 255
-0.41079 0.44947 4.34646 0 0 0 92 106 104 255
-0.0256048 0.437993 4.37934 0 0 0 158 167 173 255
0.211441 0.429332 4.37835 0 0 0 68 72 80 255
0.284847 0.427271 4.38833 0 0 0 102 106 109 255
-0.293179 0.453921 4.36867 0 0 0 46 51 49 255
-0.244696 0.458895 4.37435 0 0 0 156 158 162 255
-0.0303619 0.441289 4.38051 0 0 0 143 156 167 255
0.03018 0.441185 4.38102 0 0 0 117 130 135 255
-0.578883 0.463266 4.52583 0 0 0 65 66 66 255
-0.177454 0.453801 4.37568 0 0 0 90 95 100 255
0.846297 0.441267 4.43287 0 0 0 126 130 133 255
0.869445 0.436329 4.43409 0 0 0 85 102 107 255
0.436248 0.457827 4.41144 0 0 0 84 95 100 255
0.899045 0.446997 4.43566 0 0 0 76 84 93 255
0.9309 0.441783 4.43991 0 0 0 83 92 101 255
0.975743 0.443312 4.43986 0 0 0 112 121 126 255
1.03602 0.437824 4.44303 0 0 0 95 101 106 255
0.709641 0.458264 4.42456 0 0 0 101 111 117 255
1.06481 0.44162 4.44439 0 0 0 115 131 145 255
1.0868 0.441288 4.44514 0 0 0 121 130 132 255
1.11227 0.442619 4.44689 0 0 0 100 103 109 255
-1.03513 0.537675 5.81637 0 0 0 128 114 104 255
0.429388 0.469639 4.4101 0 0 0 55 56 59 255
0.773863 0.457183 4.43306 0 0 0 110 117 123 255
0.855042 0.453448 4.43514 0 0 0 123 133 139 255
1.02533 0.445775 4.44166 0 0 0 90 100 108 255
-1.05625 0.541403 5.77673 0 0 0 61 49 53 255
0.414312 0.474896 4.40614 0 0 0 83 95 108 255
0.667556 0.467634 4.42565 0 0 0 116 122 129 255
0.74254 0.461116 4.42878 0 0 0 114 124 126 255
0.9312 0.450944 4.44092 0 0 0 98 100 105 255
0.561198 0.479101 4.4188 0 0 0 93 111 119 255
0.628498 0.469194 4.4221 0 0 0 81 89 91 255
-1.00322 0.552029 5.79774 0 0 0 67 52 46 255
0.357339 0.48611 4.40729 0 0 0 115 137 147 255
-1.78948 0.594563 5.67077 0 0 0 111 97 83 255
-0.975145 0.576195 5.92531 0 0 0 64 56 52 255
-0.954367 0.577944 5.88918 0 0 0 61 53 51 255
-1.57961 0.605897 5.7219 0 0 0 62 49 44 255
-1.45558 0.595994 5.75577 0 0 0 59 47 45 255
-1.08372 0.600207 5.81704 0 0 0 74 55 45 255
1.01087 0.502686 4.44686 0 0 0 192 192 193 255
0.547347 0.527563 4.41887 0 0 0 127 137 146 255
-1.39992 0.65315 5.78055 0 0 0 120 90 78 255
-1.13886 0.651219 5.79342 0 0 0 86 66 59 255
-1.28492 0.660501 5.78961 0 0 0 60 44 45 255
0.781951 0.552335 4.44096 0 0 0 141 141 143 255
0.940977 0.56022 4.44992 0 0 0 175 181 186 255
-1.03578 0.700418 5.83307 0 0 0 92 73 64 255
0.989038 0.566951 4.45015 0 0 0 140 144 146 255
-0.962592 0.696662 5.74498 0 0 0 82 64 56 255
-1.29835 0.726504 5.77846 0 0 0 50 38 37 255
-0.971181 0.733233 5.9821 0 0 0 92 76 69 255
0.695154 0.59958 4.44173 0 0 0 161 163 167 255
-0.923054 0.740524 5.98834 0 0 0 78 62 54 255
0.903904 0.591261 4.45257 0 0 0 154 155 157 255
-1.48995 0.768185 5.76946 0 0 0 63 53 45 255
0.947051 0.605704 4.45542 0 0 0 134 133 136 255
0.959421 0.605406 4.45276 0 0 0 168 179 182 255
-1.06986 0.75687 5.80173 0 0 0 115 103 99 255
-0.961441 0.762367 5.98135 0 0 0 90 75 65 255
-1.3071 0.767557 5.78121 0 0 0 70 53 45 255
0.239019 0.637098 4.41182 0 0 0 169 175 178 255
-0.186267 0.658839 4.39671 0 0 0 188 194 199 255
-1.32278 0.785429 5.77099 0 0 0 85 59 50 255
0.627443 0.63633 4.4447 0 0 0 178 188 191 255
-0.179655 0.672569 4.40093 0 0 0 168 172 175 255
0.841192 0.636875 4.45534 0 0 0 187 198 201 255
0.91559 0.635864 4.46005 0 0 0 92 97 99 255
0.939716 0.636699 4.4599 0 0 0 177 179 183 255
1.02539 0.636996 4.46555 0 0 0 192 194 196 255
1.00521 0.648123 4.46179 0 0 0 170 186 188 255
-1.97518 0.859114 5.71414 0 0 0 118 85 64 255
-0.0397029 0.695074 4.40597 0 0 0 203 213 214 255
0.156775 0.687631 4.41601 0 0 0 141 141 142 255
0.828488 0.667088 4.45713 0 0 0 181 194 199 255
1.01966 0.654568 4.46528 0 0 0 202 209 210 255
0.871881 0.669227 4.46194 0 0 0 203 210 212 255
-1.00412 0.840343 5.8286 0 0 0 95 67 58 255
0.825796 0.673596 4.45767 0 0 0 157 170 175 255
0.904945 0.673704 4.46162 0 0 0 117 120 122 255
-0.983969 0.872905 5.99 0 0 0 118 90 79 255
0.96616 0.682227 4.46527 0 0 0 141 161 168 255
0.830125 0.691981 4.45908 0 0 0 117 121 123 255
1.07753 0.685319 4.4733 0 0 0 167 179 177 255
-1.06537 0.8885 5.76176 0 0 0 70 62 61 255
-0.177898 0.741661 4.40854 0 0 0 198 211 213 255
-0.00682763 0.73638 4.41257 0 0 0 158 160 162 255
0.686063 0.713526 4.45262 0 0 0 130 146 147 255
0.902017 0.707423 4.46498 0 0 0 197 210 212 255
0.934598 0.699605 4.46745 0 0 0 199 202 202 255
-0.104457 0.744552 4.40952 0 0 0 202 210 212 255
0.190574 0.73928 4.42639 0 0 0 126 126 126 255
0.29558 0.726892 4.42725 0 0 0 128 128 130 255
0.639717 0.71831 4.45046 0 0 0 205 213 214 255
0.851026 0.709603 4.46055 0 0 0 199 216 222 255
0.861214 0.708764 4.46238 0 0 0 205 219 221 255
-0.175587 0.757369 4.41048 0 0 0 199 213 214 255
0.921489 0.721013 4.46609 0 0 0 144 147 149 255
0.972737 0.717734 4.4731 0 0 0 162 172 174 255
1.05036 0.717404 4.47197 0 0 0 204 208 209 255
-1.73138 0.93161 5.67167 0 0 0 136 114 108 255
-1.69401 0.938085 5.73647 0 0 0 116 101 95 255
-0.397642 0.769415 4.39526 0 0 0 73 87 85 255
-0.189097 0.764836 4.40781 0 0 0 117 129 137 255
-3.03742 1.08778 6.7252 0 0 0 78 95 93 255
0.113549 0.75721 4.41497 0 0 0 180 194 199 255
0.902045 0.733345 4.46458 0 0 0 188 197 199 255
0.619359 0.746199 4.45114 0 0 0 126 130 133 255
0.837893 0.73805 4.462 0 0 0 188 201 206 255
-0.184224 0.779893 4.40823 0 0 0 181 191 192 255
1.11384 0.73881 4.48215 0 0 0 196 210 210 255
0.867347 0.752799 4.46571 0 0 0 198 213 215 255
1.02178 0.760776 4.47315 0 0 0 201 212 215 255
1.04234 0.751904 4.47563 0 0 0 137 139 141 255
0.730406 0.770051 4.46202 0 0 0 190 193 194 255
-0.155313 0.808053 4.41048 0 0 0 198 211 215 255
-0.0589507 0.801474 4.41769 0 0 0 152 159 161 255
0.655544 0.778488 4.45675 0 0 0 147 150 151 255
0.87005 0.771113 4.46776 0 0 0 101 101 101 255
-1.0217 0.985777 5.84631 0 0 0 94 75 66 255
-0.113107 0.811503 4.41582 0 0 0 170 177 180 255
0.158797 0.799826 4.43087 0 0 0 185 194 195 255
-0.107039 0.820563 4.41694 0 0 0 176 182 184 255
1.00284 0.784075 4.47668 0 0 0 161 167 169 255
0.143217 0.826478 4.43126 0 0 0 186 196 200 255
0.189797 0.817814 4.4336 0 0 0 168 170 172 255
0.859866 0.797967 4.47104 0 0 0 119 140 149 255
0.875472 0.802829 4.47184 0 0 0 97 100 105 255
-1.03003 1.03847 5.85398 0 0 0 101 82 73 255
-1.21108 1.05102 5.84184 0 0 0 68 58 57 255
-0.371939 0.857128 4.40222 0 0 0 133 145 152 255
0.489917 0.825538 4.45122 0 0 0 170 179 181 255
0.943927 0.806 4.47552 0 0 0 86 100 105 255
0.194463 0.839417 4.4393 0 0 0 135 142 151 255
0.982868 0.815751 4.48294 0 0 0 205 207 209 255
-1.23822 1.05964 5.79659 0 0 0 77 60 54 255
-1.90755 1.08864 5.74659 0 0 0 135 98 88 255
0.816578 0.831615 4.47485 0 0 0 148 157 163 255
0.790587 0.836733 4.47181 0 0 0 155 159 160 255
0.0532881 0.864667 4.43212 0 0 0 202 215 218 255
0.477365 0.854308 4.45358 0 0 0 175 186 190 255
-2.08334 1.12101 5.72175 0 0 0 110 79 71 255
-1.05223 1.08751 5.85269 0 0 0 99 84 77 255
0.735198 0.846233 4.46753 0 0 0 144 159 163 255
0.990074 0.834435 4.48392 0 0 0 196 209 212 255
0.769766 0.85437 4.47601 0 0 0 180 184 188 255
0.836054 0.849833 4.47639 0 0 0 104 108 111 255
0.939089 0.859561 4.48109 0 0 0 142 144 145 255
0.347955 0.881308 4.44127 0 0 0 145 161 166 255
0.971847 0.857795 4.48399 0 0 0 187 191 194 255
0.831368 0.869824 4.47945 0 0 0 201 207 207 255
-2.59005 1.2337 6.08158 0 0 0 134 111 99 255
-1.35606 1.13464 5.79313 0 0 0 146 122 103 255
-0.216066 0.906972 4.42279 0 0 0 145 154 158 255
0.930151 0.871478 4.48559 0 0 0 204 218 220 255
0.904598 0.876941 4.48415 0 0 0 167 178 182 255
0.581296 0.894538 4.46242 0 0 0 196 203 205 255
0.883498 0.882765 4.48354 0 0 0 113 118 116 255
0.83379 0.891003 4.47989 0 0 0 144 144 147 255
0.204137 0.918369 4.4424 0 0 0 204 213 217 255
0.604125 0.901758 4.46572 0 0 0 196 208 213 255
0.658031 0.909464 4.47396 0 0 0 141 142 144 255
1.00046 0.894704 4.48917 0 0 0 149 164 168 255
1.11374 0.888423 4.49431 0 0 0 172 185 187 255
0.593632 0.915959 4.46374 0 0 0 162 169 172 255
0.832405 0.908444 4.47987 0 0 0 181 189 189 255
0.255482 0.928958 4.44776 0 0 0 167 174 174 255
0.852871 0.912126 4.47909 0 0 0 115 117 121 255
0.891977 0.914319 4.48605 0 0 0 106 111 111 255
0.909359 0.909208 4.48629 0 0 0 173 180 182 255
1.03508 0.907073 4.49481 0 0 0 150 165 171 255
-1.0984 1.19393 5.83603 0 0 0 112 102 92 255
-1.07197 1.1974 5.83678 0 0 0 71 65 62 255
0.0415066 0.951679 4.44181 0 0 0 195 205 207 255
0.38127 0.943256 4.45581 0 0 0 168 182 188 255
0.459582 0.947905 4.46844 0 0 0 115 120 125 255
-0.957908 1.21485 5.84332 0 0 0 125 105 91 255
1.12843 0.925547 4.498 0 0 0 164 172 176 255
-2.07142 1.2435 5.63677 0 0 0 118 106 97 255
1.10894 0.931651 4.49546 0 0 0 153 165 169 255
-2.20117 1.3408 6.18914 0 0 0 133 118 111 255
0.984629 0.950396 4.48939 0 0 0 144 155 159 255
1.05004 0.947178 4.49617 0 0 0 146 157 158 255
0.273992 1.01609 4.4615 0 0 0 146 151 153 255
-2.71522 1.44477 6.15651 0 0 0 137 132 136 255
-0.36664 1.05251 4.42896 0 0 0 124 140 141 255
-1.03343 1.34193 5.8597 0 0 0 97 92 89 255
-2.67256 1.52338 6.0702 0 0 0 58 58 58 255
-2.65683 1.55087 6.04162 0 0 0 49 55 62 255
-0.227604 1.12852 4.44585 0 0 0 126 141 136 255
0.178317 1.23791 4.49041 0 0 0 102 119 114 255
0.704958 1.3575 4.51134 0 0 0 142 153 161 255
0.737624 1.35474 4.5114 0 0 0 124 132 142 255
0.721099 1.36161 4.50495 0 0 0 93 94 91 255
0.720856 1.36328 4.5053 0 0 0 93 94 91 255
0.598465 1.19342 3.81573 0 0 0 170 183 185 255
-0.619613 -0.516598 4.29191 0 0 0 91 100 99 255
-2.89221 -1.01585 6.39628 0 0 0 132 137 138 255
-2.31778 -0.792131 5.59262 0 0 0 90 76 77 255
0.950506 -0.443544 4.3532 0 0 0 114 122 112 255
-2.64811 -0.70994 5.74948 0 0 0 129 106 91 255
0.914792 -0.379424 4.35716 0 0 0 147 165 138 255
-2.65458 -0.595587 5.69214 0 0 0 98 67 62 255
-1.22686 -0.633107 5.68085 0 0 0 157 137 127 255
-1.1322 -0.626043 5.71026 0 0 0 178 157 150 255
-1.05953 -0.641724 5.75304 0 0 0 148 127 112 255
-1.79596 -0.595562 5.63701 0 0 0 177 168 155 255
-1.29069 -0.61554 5.67669 0 0 0 151 128 119 255
-1.0944 -0.596245 5.67138 0 0 0 150 136 125 255
-1.7698 -0.546143 5.59571 0 0 0 204 190 177 255
-1.32324 -0.532125 5.66318 0 0 0 199 191 184 255
-1.12983 -0.558203 5.72364 0 0 0 201 191 181 255
-1.27922 -0.518626 5.68173 0 0 0 157 117 100 255
-1.09557 -0.536043 5.71425 0 0 0 144 119 107 255
-1.68976 -0.487148 5.66838 0 0 0 151 108 93 255
-1.32895 -0.505602 5.65557 0 0 0 160 119 101 255
0.919961 -0.237972 4.36421 0 0 0 132 147 128 255
0.964316 -0.19516 4.37831 0 0 0 122 139 119 255
0.506413 -0.17234 4.34132 0 0 0 113 126 112 255
-1.53377 -0.339266 5.69292 0 0 0 129 115 102 255
-1.25497 -0.349661 5.70665 0 0 0 146 122 109 255
-1.35519 -0.317931 5.70026 0 0 0 203 190 179 255
-1.2877 -0.308241 5.63842 0 0 0 159 116 97 255
-1.20699 -0.315309 5.70386 0 0 0 202 188 173 255
0.602355 -0.102018 4.35487 0 0 0 53 64 60 255
-1.35014 -0.269847 5.70667 0 0 0 202 189 172 255
-1.24649 -0.26055 5.71409 0 0 0 167 141 128 255
-1.55059 -0.222296 5.68929 0 0 0 150 121 106 255
0.969378 -0.07936 4.38619 0 0 0 123 136 117 255
0.905589 -0.0527456 4.38048 0 0 0 118 134 115 255
0.972726 -0.0307964 4.38316 0 0 0 128 143 124 255
-1.19857 -0.143697 5.73065 0 0 0 120 115 104 255
-1.13742 -0.112668 5.74953 0 0 0 158 147 141 255
0.825279 0.0223923 4.38554 0 0 0 134 143 118 255
0.970667 0.0138883 4.38666 0 0 0 122 136 117 255
-0.334971 0.0712646 4.32228 0 0 0 156 178 139 255
-0.352287 0.0756748 4.31781 0 0 0 162 181 150 255
-2.27289 0.0462276 5.65857 0 0 0 84 44 39 255
-2.217 0.0452327 5.6322 0 0 0 200 187 171 255
-2.59742 0.072286 5.87641 0 0 0 143 87 75 255
-2.19609 0.0682005 5.63372 0 0 0 112 107 99 255
0.978633 0.174413 4.40787 0 0 0 88 99 94 255
0.899823 0.195176 4.40303 0 0 0 118 119 110 255
-0.289559 0.258839 4.34547 0 0 0 102 120 110 255
-2.08524 0.357988 5.71337 0 0 0 142 111 97 255
-2.04846 0.346326 5.70283 0 0 0 107 81 76 255
0.535202 0.312829 4.39941 0 0 0 55 62 62 255
-0.36698 0.370987 4.34894 0 0 0 124 131 129 255
0.943915 0.336132 4.42574 0 0 0 170 176 178 255
1.26975 0.320933 4.87366 0 0 0 45 54 58 255
0.586712 0.365485 4.40925 0 0 0 105 105 105 255
0.724114 0.362223 4.41939 0 0 0 119 125 131 255
0.194446 0.388793 4.38523 0 0 0 82 90 97 255
1.03996 0.355857 4.43561 0 0 0 144 146 147 255
0.96862 0.372494 4.42939 0 0 0 186 197 198 255
-2.54097 0.503158 5.84342 0 0 0 121 95 78 255
-0.424872 0.426078 4.34436 0 0 0 88 102 99 255
-0.337152 0.433534 4.362 0 0 0 54 59 62 255
0.00615472 0.419495 4.38165 0 0 0 158 160 162 255
-0.419878 0.447026 4.3484 0 0 0 92 107 102 255
0.280094 0.425401 4.39169 0 0 0 129 130 134 255
-1.17308 0.515981 5.7821 0 0 0 52 43 44 255
0.932176 0.448114 4.44027 0 0 0 98 102 109 255
0.97738 0.445892 4.43952 0 0 0 112 121 126 255
1.02533 0.450919 4.44244 0 0 0 90 101 108 255
1.11312 0.442936 4.44663 0 0 0 100 103 109 255
-1.54826 0.560235 5.73244 0 0 0 46 36 37 255
-1.03626 0.538636 5.79186 0 0 0 121 104 97 255
-1.65804 0.580322 5.74689 0 0 0 119 95 80 255
0.431556 0.482875 4.41189 0 0 0 66 70 72 255
-1.54532 0.577533 5.75316 0 0 0 44 41 42 255
-1.4313 0.592129 5.76988 0 0 0 108 87 74 255
-0.942296 0.57453 5.81006 0 0 0 63 54 51 255
-1.58652 0.608785 5.73848 0 0 0 62 49 44 255
-1.07829 0.601756 5.79406 0 0 0 74 55 45 255
-1.02706 0.702045 5.80015 0 0 0 76 62 55 255
0.985747 0.570208 4.45054 0 0 0 138 143 143 255
-1.49068 0.755032 5.77176 0 0 0 70 56 48 255
-0.183916 0.642859 4.39652 0 0 0 185 192 200 255
0.83378 0.61026 4.4514 0 0 0 143 150 154 255
0.743 0.627394 4.44798 0 0 0 170 179 179 255
0.668719 0.637213 4.44213 0 0 0 206 219 224 255
0.900507 0.640035 4.45695 0 0 0 163 165 166 255
-1.44457 0.819848 5.77111 0 0 0 55 44 43 255
-1.53805 0.821822 5.75249 0 0 0 140 119 105 255
1.00661 0.649456 4.46272 0 0 0 170 186 188 255
-1.04154 0.845899 5.83539 0 0 0 88 71 66 255
0.827752 0.67511 4.45779 0 0 0 195 211 215 255
0.903059 0.672859 4.46112 0 0 0 144 148 151 255
0.903046 0.706329 4.46592 0 0 0 197 210 212 255
0.925308 0.702667 4.46602 0 0 0 188 191 192 255
-0.175543 0.751752 4.41035 0 0 0 199 213 215 255
0.9526 0.71022 4.46917 0 0 0 125 127 127 255
-3.02788 1.09804 6.71503 0 0 0 77 87 86 255
-0.533732 0.801626 4.43562 0 0 0 112 122 121 255
-0.515289 0.800555 4.40878 0 0 0 135 150 143 255
0.170033 0.774595 4.42823 0 0 0 132 142 143 255
1.10964 0.734346 4.48096 0 0 0 191 202 203 255
1.04331 0.753985 4.47598 0 0 0 137 139 141 255
-1.0281 0.984756 5.87259 0 0 0 94 75 66 255
0.0687052 0.805659 4.42658 0 0 0 199 217 223 255
1.02077 0.769911 4.47396 0 0 0 204 217 220 255
-1.06237 1.00829 5.79102 0 0 0 141 116 102 255
-2.60959 1.13631 6.11594 0 0 0 150 117 97 255
0.109798 0.835289 4.42942 0 0 0 202 219 224 255
0.185871 0.826346 4.43408 0 0 0 150 155 161 255
-2.01865 1.0873 5.71821 0 0 0 115 80 60 255
-1.0455 1.0647 5.83622 0 0 0 89 76 73 255
0.865521 0.818195 4.47544 0 0 0 88 91 95 255
-1.20113 1.08733 5.83789 0 0 0 116 97 87 255
-1.04892 1.08122 5.84763 0 0 0 68 60 62 255
0.816662 0.830545 4.47486 0 0 0 148 157 163 255
0.836846 0.84119 4.47561 0 0 0 101 104 106 255
0.908857 0.832777 4.47564 0 0 0 94 98 102 255
0.987142 0.822634 4.48296 0 0 0 202 214 217 255
-0.986317 1.08895 5.86202 0 0 0 95 77 74 255
0.864572 0.852719 4.4773 0 0 0 183 200 205 255
-0.03428 0.888354 4.42307 0 0 0 204 219 221 255
0.956631 0.856955 4.48059 0 0 0 194 210 213 255
0.816657 0.87092 4.47872 0 0 0 198 205 207 255
0.940158 0.863819 4.48158 0 0 0 144 145 147 255
-0.353884 0.925159 4.41306 0 0 0 163 172 173 255
0.575099 0.896548 4.46145 0 0 0 185 191 195 255
-1.02114 1.18608 5.84988 0 0 0 87 74 68 255
-0.989269 1.21856 5.8449 0 0 0 122 107 99 255
1.11698 0.92943 4.49776 0 0 0 164 172 176 255
0.974183 0.949282 4.488 0 0 0 145 156 160 255
-2.71913 1.42322 6.09854 0 0 0 42 44 49 255
-1.04098 1.35414 5.89368 0 0 0 114 104 98 255
-0.227038 1.12748 4.44206 0 0 0 126 141 136 255
-2.65331 1.58884 6.03883 0 0 0 153 163 163 255
-2.56658 1.68969 6.04889 0 0 0 107 92 97 255
-2.62562 -0.779493 5.62026 0 0 0 148 119 118 255
-2.23342 -0.764757 5.50319 0 0 0 206 198 192 255
0.949609 -0.433314 4.34844 0 0 0 126 134 122 255
-2.6638 -0.689039 5.71753 0 0 0 125 101 89 255
0.872191 -0.397634 4.33465 0 0 0 134 147 124 255
-1.22278 -0.632083 5.67798 0 0 0 154 120 107 255
-1.01533 -0.646703 5.76565 0 0 0 153 119 105 255
-1.48695 -0.608579 5.69041 0 0 0 153 115 94 255
-1.84077 -0.538409 5.63355 0 0 0 185 175 164 255
-1.57846 -0.549219 5.6649 0 0 0 206 192 179 255
-1.31288 -0.556824 5.66151 0 0 0 202 194 182 255
-1.12301 -0.570612 5.71311 0 0 0 204 190 176 255
-1.32557 -0.507505 5.65794 0 0 0 157 123 105 255
-1.20083 -0.517878 5.68308 0 0 0 155 119 100 255
-1.12384 -0.527293 5.72429 0 0 0 149 119 105 255
-2.65094 -0.453884 5.72255 0 0 0 105 84 79 255
-1.90585 -0.456191 5.62069 0 0 0 122 100 90 255
-0.0194696 -0.204666 4.30946 0 0 0 176 196 146 255
-2.54131 -0.376331 5.52766 0 0 0 49 41 42 255
0.943402 -0.23562 4.35713 0 0 0 155 168 136 255
0.585069 -0.192401 4.34743 0 0 0 147 159 128 255
0.596703 -0.207174 4.34208 0 0 0 91 95 88 255
0.963017 -0.206836 4.37958 0 0 0 128 141 118 255
0.578884 -0.165071 4.35173 0 0 0 90 100 89 255
0.772325 -0.164102 4.36546 0 0 0 103 118 99 255
-1.38667 -0.360069 5.70081 0 0 0 202 191 177 255
-1.25148 -0.351581 5.72418 0 0 0 146 117 100 255
-1.16084 -0.342765 5.63239 0 0 0 152 120 109 255
-1.31619 -0.338904 5.6624 0 0 0 147 129 118 255
-1.29467 -0.292572 5.64794 0 0 0 174 149 135 255
-1.2083 -0.307226 5.70443 0 0 0 200 187 171 255
0.960584 -0.133845 4.36733 0 0 0 124 137 115 255
0.775635 -0.122755 4.37457 0 0 0 60 77 70 255
0.602856 -0.0977264 4.35647 0 0 0 52 63 60 255
-1.17312 -0.265942 5.74186 0 0 0 151 113 96 255
-2.66915 -0.182613 5.84208 0 0 0 156 93 57 255
-0.371665 -0.0141736 4.30732 0 0 0 164 185 143 255
0.90765 -0.0541557 4.37992 0 0 0 132 144 124 255
-1.34238 -0.12359 5.69515 0 0 0 151 132 125 255
-1.09745 -0.142342 5.75578 0 0 0 156 149 143 255
-0.294222 0.020942 4.33086 0 0 0 158 182 139 255
-1.58951 -0.0872955 5.69096 0 0 0 126 119 110 255
-1.41674 -0.0959202 5.70281 0 0 0 169 165 160 255
-1.12857 -0.112753 5.75699 0 0 0 120 115 112 255
-1.09259 -0.108238 5.75045 0 0 0 141 138 131 255
-0.190539 0.0423411 4.3207 0 0 0 149 169 134 255
-1.06641 -0.0952356 5.75402 0 0 0 126 121 118 255
-0.420982 0.0678094 4.32325 0 0 0 158 181 148 255
0.825673 0.0332217 4.3893 0 0 0 137 147 119 255
0.972889 0.0192437 4.38654 0 0 0 134 149 127 255
-0.304313 0.115001 4.32922 0 0 0 177 196 149 255
0.81968 0.0652782 4.38435 0 0 0 135 149 123 255
-2.16921 0.0422415 5.45138 0 0 0 82 46 42 255
-2.2144 0.0343724 5.63672 0 0 0 199 188 171 255
-1.25648 0.0410464 5.69461 0 0 0 98 94 92 255
-1.19165 0.0494467 5.71188 0 0 0 140 129 126 255
-1.186 0.0434616 5.72849 0 0 0 67 60 49 255
-0.995909 0.0279179 5.74947 0 0 0 169 164 154 255
-2.48483 0.101579 5.66449 0 0 0 157 96 60 255
-2.18973 0.0816793 5.63443 0 0 0 40 38 38 255
-0.367982 0.162872 4.3279 0 0 0 95 107 103 255
-0.232428 0.175768 4.33506 0 0 0 96 106 100 255
-2.24413 0.171818 5.65292 0 0 0 125 93 72 255
0.983045 0.173441 4.40874 0 0 0 93 104 96 255
-1.91721 0.215178 5.67871 0 0 0 77 65 57 255
0.373528 0.224466 4.37475 0 0 0 159 176 130 255
-1.99179 0.225392 5.67715 0 0 0 151 125 100 255
-0.377125 0.299554 4.35383 0 0 0 147 170 142 255
-0.164822 0.338565 4.37136 0 0 0 171 195 144 255
-0.163502 0.333005 4.36999 0 0 0 173 191 151 255
-2.06486 0.362691 5.67516 0 0 0 144 117 97 255
0.356183 0.322824 4.38206 0 0 0 152 171 134 255
0.876869 0.353695 4.42543 0 0 0 147 156 160 255
1.0397 0.347448 4.43529 0 0 0 159 159 159 255
0.683964 0.369443 4.41376 0 0 0 105 122 128 255
0.708228 0.368199 4.41615 0 0 0 146 156 156 255
0.889032 0.371654 4.42716 0 0 0 131 126 130 255
-0.0268105 0.405486 4.3764 0 0 0 173 181 182 255
0.340261 0.391058 4.39723 0 0 0 122 125 127 255
0.964445 0.370876 4.42918 0 0 0 145 162 166 255
-2.53608 0.481107 5.84588 0 0 0 119 96 79 255
0.638257 0.38794 4.41055 0 0 0 148 155 156 255
0.662547 0.391607 4.41307 0 0 0 132 147 153 255
0.89574 0.378379 4.42814 0 0 0 141 144 146 255
0.219495 0.419309 4.39141 0 0 0 87 94 95 255
0.615821 0.401191 4.41214 0 0 0 86 91 95 255
-1.69126 0.477135 5.73298 0 0 0 128 104 88 255
-0.42323 0.444646 4.34573 0 0 0 93 108 103 255
0.0282605 0.436015 4.38181 0 0 0 57 64 69 255
0.0537603 0.428871 4.38313 0 0 0 160 160 160 255
-0.172932 0.450766 4.37687 0 0 0 120 124 130 255
-0.155584 0.448999 4.37804 0 0 0 95 104 106 255
-0.570339 0.470464 4.51923 0 0 0 43 48 46 255
0.98236 0.447444 4.44004 0 0 0 109 111 115 255
1.03245 0.438258 4.444 0 0 0 100 110 115 255
-1.86983 0.560148 5.70432 0 0 0 132 106 85 255
-1.08707 0.538193 5.81512 0 0 0 58 47 45 255
-1.03133 0.537577 5.79124 0 0 0 128 114 104 255
0.429422 0.464191 4.40964 0 0 0 96 106 110 255
0.776455 0.456243 4.43441 0 0 0 110 117 123 255
0.435325 0.479015 4.41161 0 0 0 64 70 74 255
-1.64677 0.580996 5.73775 0 0 0 122 98 81 255
-1.42358 0.607608 5.76866 0 0 0 125 100 86 255
-1.04236 0.617665 5.82256 0 0 0 73 58 53 255
1.00152 0.511291 4.44504 0 0 0 203 211 215 255
-1.14731 0.650672 5.79391 0 0 0 95 74 68 255
-1.54619 0.686044 5.76297 0 0 0 98 80 74 255
0.73221 0.551244 4.43597 0 0 0 175 184 185 255
0.801036 0.555107 4.44276 0 0 0 143 149 152 255
-1.65887 0.720188 5.7517 0 0 0 148 120 100 255
0.968829 0.567775 4.45045 0 0 0 144 142 142 255
0.95643 0.593301 4.45339 0 0 0 182 189 193 255
1.00713 0.607193 4.45859 0 0 0 129 144 144 255
0.843279 0.609912 4.45275 0 0 0 147 164 167 255
-1.44279 0.821864 5.7722 0 0 0 55 44 43 255
0.190909 0.654694 4.41459 0 0 0 201 215 217 255
0.821867 0.642222 4.45381 0 0 0 100 105 117 255
0.933334 0.643308 4.45989 0 0 0 172 177 182 255
-0.176554 0.691916 4.40369 0 0 0 187 196 200 255
1.0161 0.647786 4.46429 0 0 0 187 193 193 255
-0.0926849 0.698236 4.40268 0 0 0 205 217 221 255
-1.02826 0.844881 5.8411 0 0 0 88 71 67 255
0.907572 0.671879 4.46195 0 0 0 117 120 122 255
0.852346 0.694064 4.45957 0 0 0 204 219 223 255
1.08017 0.68224 4.47362 0 0 0 178 179 183 255
0.836475 0.705119 4.45963 0 0 0 110 122 127 255
-0.486699 0.769922 4.39755 0 0 0 151 169 155 255
0.334714 0.748705 4.42887 0 0 0 204 219 223 255
1.04274 0.723345 4.47181 0 0 0 203 214 217 255
-0.929213 0.922598 5.70065 0 0 0 71 59 55 255
-0.428973 0.781895 4.39613 0 0 0 121 134 134 255
0.864256 0.745592 4.46525 0 0 0 194 205 207 255
1.11225 0.73765 4.48261 0 0 0 196 210 210 255
0.085764 0.778587 4.42639 0 0 0 112 124 132 255
0.730605 0.764136 4.46207 0 0 0 173 175 177 255
-0.537796 0.831402 4.44431 0 0 0 155 183 178 255
0.921353 0.780826 4.46945 0 0 0 111 118 120 255
0.960181 0.758948 4.47545 0 0 0 188 197 201 255
-0.331806 0.811943 4.40161 0 0 0 92 93 93 255
-0.284641 0.833426 4.4074 0 0 0 196 214 217 255
1.0256 0.777937 4.47867 0 0 0 204 217 222 255
-2.61342 1.13083 6.12397 0 0 0 150 117 97 255
0.312075 0.840336 4.4365 0 0 0 112 119 121 255
-2.00208 1.08195 5.66766 0 0 0 116 80 66 255
-1.03864 1.0573 5.84645 0 0 0 83 68 64 255
0.991574 0.822518 4.48461 0 0 0 203 216 219 255
-2.4188 1.17612 6.19548 0 0 0 126 105 94 255
0.809016 0.846968 4.4759 0 0 0 135 142 146 255
0.84286 0.835217 4.47434 0 0 0 94 98 105 255
0.866645 0.846493 4.47704 0 0 0 159 177 186 255
0.989427 0.838726 4.4841 0 0 0 182 195 198 255
0.916243 0.859378 4.48217 0 0 0 203 216 217 255
-0.310372 0.923038 4.42278 0 0 0 203 218 220 255
0.822172 0.883966 4.48052 0 0 0 185 189 191 255
0.886715 0.89236 4.48622 0 0 0 102 105 113 255
0.194631 0.928997 4.44218 0 0 0 205 220 222 255
0.629349 0.902083 4.47166 0 0 0 124 135 138 255
0.998846 0.899044 4.49073 0 0 0 180 190 193 255
-2.30846 1.30528 6.21163 0 0 0 147 131 118 255
-0.979902 1.20207 5.86673 0 0 0 133 112 98 255
0.0240067 0.974323 4.43924 0 0 0 202 217 219 255
-0.62763 1.12993 5.01472 0 0 0 58 56 59 255
0.310617 0.992872 4.4596 0 0 0 173 186 191 255
-2.70189 1.41246 6.1427 0 0 0 141 149 159 255
-1.28076 1.30459 5.81931 0 0 0 155 130 114 255
-2.71785 1.45365 6.10588 0 0 0 37 42 46 255
-1.40269 1.46207 5.86507 0 0 0 152 127 114 255
-2.64967 1.59108 6.02464 0 0 0 153 164 165 255
-0.678313 1.31638 5.18865 0 0 0 88 70 72 255
-0.0345725 1.24123 4.46271 0 0 0 101 115 113 255
0.167997 1.2262 4.47478 0 0 0 100 115 112 255
0.411506 1.362 4.50038 0 0 0 70 83 90 255
0.735083 1.34982 4.5044 0 0 0 125 132 143 255
0.706128 1.36097 4.49813 0 0 0 195 207 214 255
-2.89351 -1.03496 6.42171 0 0 0 135 139 140 255
-2.33999 -0.763357 5.63123 0 0 0 83 51 53 255
-2.67898 -0.731076 5.74528 0 0 0 141 113 93 255
0.879043 -0.403341 4.37023 0 0 0 134 147 124 255
-1.96555 -0.626465 5.60274 0 0 0 152 133 118 255
-0.453448 -0.351165 4.28849 0 0 0 165 184 164 255
-1.04836 -0.639606 5.7545 0 0 0 149 109 93 255
-1.99596 -0.526973 5.6045 0 0 0 145 119 105 255
-1.05191 -0.54965 5.76816 0 0 0 154 114 102 255
0.574433 -0.244861 4.3364 0 0 0 94 108 76 255
-2.61955 -0.421094 5.77296 0 0 0 132 111 98 255
0.952289 -0.219117 4.36708 0 0 0 129 141 117 255
-1.29372 -0.291878 5.64721 0 0 0 174 149 135 255
-1.17223 -0.270678 5.74377 0 0 0 151 113 96 255
0.629639 -0.0945546 4.35684 0 0 0 86 108 100 255
-0.433999 -0.0540246 4.30951 0 0 0 171 185 168 255
0.50604 -0.0585121 4.35371 0 0 0 127 140 115 255
0.570416 -0.052082 4.35942 0 0 0 54 67 64 255
0.471385 -0.00464615 4.36088 0 0 0 54 62 61 255
0.494314 0.00250228 4.36073 0 0 0 46 58 56 255
-1.52109 -0.0900512 5.69742 0 0 0 136 130 126 255
-0.373932 0.0532164 4.31538 0 0 0 175 201 156 255
-2.21123 0.0139992 5.64677 0 0 0 204 190 172 255
-2.59181 0.0754186 5.87492 0 0 0 144 89 76 255
-0.103863 0.135945 4.33632 0 0 0 168 191 141 255
-2.18531 0.0910491 5.636 0 0 0 38 36 37 255
0.666914 0.231212 4.40333 0 0 0 136 147 124 255
-2.06484 0.370994 5.70766 0 0 0 142 118 98 255
-1.95317 0.353064 5.65837 0 0 0 81 46 45 255
-1.86225 0.337959 5.70408 0 0 0 53 38 37 255
0.356053 0.312413 4.38113 0 0 0 162 180 138 255
-0.119616 0.348389 4.35343 0 0 0 173 200 147 255
-2.62355 0.481364 6.01848 0 0 0 119 96 79 255
-0.121035 0.398788 4.36451 0 0 0 50 61 60 255
0.63976 0.390467 4.41377 0 0 0 148 155 156 255
0.876962 0.372198 4.42605 0 0 0 132 153 163 255
-0.00199667 0.418786 4.37954 0 0 0 50 52 53 255
-1.71541 0.466091 5.69184 0 0 0 139 116 94 255
-0.441859 0.457828 4.34289 0 0 0 78 86 84 255
-1.44574 0.492693 5.77089 0 0 0 129 105 91 255
-1.85041 0.551202 5.70702 0 0 0 141 113 90 255
0.814472 0.573802 4.44465 0 0 0 153 156 162 255
0.95465 0.56166 4.44933 0 0 0 175 180 183 255
0.265769 0.61126 4.41598 0 0 0 155 162 166 255
0.92009 0.590399 4.45335 0 0 0 175 181 183 255
0.814703 0.606385 4.44756 0 0 0 131 132 136 255
-1.48315 0.823889 5.76349 0 0 0 53 41 33 255
0.712927 0.645759 4.44657 0 0 0 137 143 150 255
-1.5786 0.829901 5.74582 0 0 0 166 140 121 255
-1.67584 0.862905 5.74666 0 0 0 147 122 102 255
0.858057 0.69711 4.46129 0 0 0 205 218 223 255
1.03605 0.732946 4.47231 0 0 0 204 216 218 255
0.247176 0.774131 4.43558 0 0 0 193 208 217 255
-0.9791 0.987042 5.85515 0 0 0 107 98 95 255
0.71289 0.7484 4.46097 0 0 0 191 197 202 255
0.969618 0.753399 4.47944 0 0 0 200 217 218 255
-1.23249 1.00618 5.77995 0 0 0 146 122 103 255
-0.083258 0.82788 4.42194 0 0 0 204 220 223 255
0.203025 0.817532 4.43628 0 0 0 144 155 160 255
0.998583 0.798985 4.48122 0 0 0 179 196 200 255
0.0923027 0.8396 4.43273 0 0 0 203 221 224 255
0.503803 0.843079 4.4565 0 0 0 116 118 120 255
-0.40551 0.889906 4.39995 0 0 0 179 207 175 255
-0.0878644 0.876223 4.4282 0 0 0 203 220 226 255
0.992178 0.825703 4.48482 0 0 0 202 217 221 255
-0.893713 1.12195 6.01081 0 0 0 90 66 67 255
-0.354628 0.893393 4.40617 0 0 0 137 149 153 255
-0.297593 0.8957 4.41646 0 0 0 205 220 222 255
-0.272598 0.900579 4.41755 0 0 0 203 221 224 255
-0.581836 0.943387 4.55286 0 0 0 75 68 70 255
0.759815 0.894004 4.47728 0 0 0 136 146 145 255
0.169452 0.929697 4.44078 0 0 0 204 218 218 255
0.562726 0.920217 4.46529 0 0 0 200 216 220 255
0.830496 0.923144 4.48147 0 0 0 173 182 183 255
-0.601992 1.01442 4.62742 0 0 0 132 112 101 255
-0.115993 1.00214 4.42009 0 0 0 183 190 193 255
-0.649139 1.14516 5.08531 0 0 0 52 57 57 255
-2.7252 1.44857 6.08214 0 0 0 35 41 46 255
-2.46748 1.5429 5.90665 0 0 0 151 134 126 255
-2.65116 1.59279 6.01644 0 0 0 153 164 164 255
-2.35643 -0.764583 5.61631 0 0 0 81 49 53 255
-0.449223 -0.330473 4.29309 0 0 0 171 199 165 255
-1.21915 -0.629806 5.67495 0 0 0 154 120 107 255
-1.99889 -0.552314 5.59508 0 0 0 162 141 128 255
-1.41177 -0.589635 5.66959 0 0 0 157 121 106 255
-1.15266 -0.592604 5.71292 0 0 0 147 113 101 255
-1.82741 -0.520305 5.63611 0 0 0 158 117 103 255
-1.15707 -0.563155 5.72371 0 0 0 153 119 111 255
-1.97569 -0.493493 5.61182 0 0 0 163 114 90 255
-1.16138 -0.336529 5.63621 0 0 0 152 120 109 255
0.0173369 -0.142267 4.31512 0 0 0 173 194 140 255
-1.758 -0.253585 5.66757 0 0 0 171 137 118 255
-1.46255 -0.293521 5.69316 0 0 0 173 155 143 255
-1.23839 -0.282601 5.71021 0 0 0 147 115 100 255
-1.29597 -0.269561 5.70064 0 0 0 148 112 95 255
-0.426007 -0.0712946 4.31159 0 0 0 169 196 155 255
-0.198146 -0.0422162 4.31126 0 0 0 128 143 114 255
-0.0240546 -0.0557452 4.32419 0 0 0 133 148 114 255
0.314996 -0.0313847 4.35985 0 0 0 173 196 138 255
0.462072 -0.0198157 4.36103 0 0 0 81 93 89 255
-0.277012 0.0172632 4.33599 0 0 0 174 201 149 255
-0.23851 0.00751268 4.30631 0 0 0 175 202 148 255
-0.213564 0.0119938 4.31184 0 0 0 176 198 145 255
-1.41029 -0.124465 5.70973 0 0 0 193 181 169 255
0.789641 0.0349852 4.38357 0 0 0 130 145 118 255
-0.963904 -0.0119745 5.85763 0 0 0 48 48 50 255
-0.752831 0.0648465 4.95342 0 0 0 46 46 46 255
0.361669 0.110921 4.3591 0 0 0 161 181 130 255
-1.90499 0.0622745 5.67124 0 0 0 46 46 46 255
-2.33461 0.0749594 6.03482 0 0 0 33 33 33 255
-1.65194 0.0961033 5.71317 0 0 0 40 40 40 255
-2.24997 0.174723 5.60199 0 0 0 134 98 75 255
-0.389516 0.222017 4.34912 0 0 0 169 195 159 255
0.360966 0.194577 4.36794 0 0 0 168 187 134 255
-0.143447 0.24448 4.35437 0 0 0 152 171 135 255
-0.397083 0.267675 4.35136 0 0 0 161 184 154 255
-0.0934058 0.271209 4.36106 0 0 0 85 97 93 255
0.298028 0.296587 4.38845 0 0 0 140 154 125 255
-0.166682 0.340056 4.37219 0 0 0 171 195 144 255
-0.1302 0.345762 4.35492 0 0 0 172 197 145 255
-2.06583 0.380281 5.68789 0 0 0 144 118 95 255
-2.64057 0.430297 6.08497 0 0 0 132 104 83 255
-1.78752 0.408037 5.7209 0 0 0 75 65 60 255
-0.439933 0.452176 4.34227 0 0 0 103 117 112 255
-1.41168 0.472073 5.77535 0 0 0 124 100 87 255
-0.164482 0.444378 4.37742 0 0 0 94 109 113 255
-0.0302847 0.432745 4.37974 0 0 0 70 84 90 255
-1.92995 0.568607 5.68671 0 0 0 57 45 41 255
-2.1255 0.630848 5.67644 0 0 0 123 62 46 255
0.619924 0.503514 4.42842 0 0 0 57 69 74 255
-1.48538 0.829155 5.77806 0 0 0 45 41 38 255
0.255126 0.658156 4.41585 0 0 0 206 219 224 255
0.331457 0.681613 4.42612 0 0 0 103 113 120 255
-0.571569 0.759758 4.67864 0 0 0 80 86 89 255
-0.419096 0.728771 4.38335 0 0 0 78 92 92 255
-1.48084 0.937934 5.78654 0 0 0 141 116 94 255
-1.36257 0.933487 5.7861 0 0 0 47 44 48 255
0.240427 0.776762 4.43503 0 0 0 191 205 212 255
0.864704 0.739915 4.46494 0 0 0 204 213 215 255
0.223458 0.8322 4.44096 0 0 0 190 207 214 255
-0.363509 0.872532 4.40248 0 0 0 120 125 130 255
-0.290369 0.893712 4.41645 0 0 0 204 221 222 255
-0.713338 1.00123 5.1205 0 0 0 88 72 72 255
0.827298 0.867425 4.47966 0 0 0 173 177 181 255
0.0342141 0.902184 4.43476 0 0 0 118 130 137 255
0.332569 0.907745 4.45342 0 0 0 110 127 135 255
-0.992262 1.16586 5.85601 0 0 0 142 116 101 255
-0.402469 0.997405 4.40715 0 0 0 92 106 106 255
0.12229 0.950978 4.445 0 0 0 194 205 208 255
-2.70489 1.40875 6.14121 0 0 0 141 149 159 255
-1.27674 1.30372 5.81451 0 0 0 155 130 114 255
0.242973 1.03755 4.46177 0 0 0 171 186 188 255
-1.18526 1.54217 6.11669 0 0 0 134 119 113 255
-2.54361 1.59081 6.08487 0 0 0 146 137 135 255
0.166607 1.21998 4.47145 0 0 0 99 113 111 255
-1.02257 -0.582512 5.55607 0 0 0 171 157 151 255
0.143442 -0.242455 4.31056 0 0 0 77 87 83 255
0.209219 -0.220616 4.31739 0 0 0 85 99 92 255
0.5364 -0.208059 4.34307 0 0 0 95 108 99 255
0.13742 -0.201873 4.31632 0 0 0 89 102 93 255
-0.0054708 -0.146636 4.31619 0 0 0 174 197 137 255
0.242959 -0.171405 4.32584 0 0 0 71 82 77 255
-1.24066 -0.316731 5.70497 0 0 0 157 116 103 255
0.590095 -0.140496 4.35456 0 0 0 140 153 119 255
-0.0634187 -0.0710863 4.32076 0 0 0 153 173 132 255
0.244853 -0.0991865 4.33027 0 0 0 60 73 68 255
-0.257173 -0.0222783 4.31165 0 0 0 175 202 148 255
-0.0302525 -0.0534145 4.32447 0 0 0 89 101 85 255
0.53845 0.0106239 4.36228 0 0 0 91 110 104 255
-2.31485 -0.023946 5.96144 0 0 0 206 191 172 255
-0.418007 0.151511 4.32996 0 0 0 85 100 95 255
-2.19834 0.100909 5.8757 0 0 0 33 33 33 255
-2.01552 0.108663 5.66228 0 0 0 36 35 38 255
0.316211 0.154567 4.37808 0 0 0 169 189 134 255
0.500536 0.193795 4.38688 0 0 0 152 165 131 255
-0.403079 0.235631 4.34525 0 0 0 158 181 152 255
0.228012 0.215391 4.36334 0 0 0 73 87 85 255
-2.0511 0.295784 5.67664 0 0 0 56 41 44 255
0.00473658 0.283628 4.36588 0 0 0 170 195 150 255
-0.326834 0.393004 4.36181 0 0 0 41 42 41 255
-2.06404 0.415626 5.69064 0 0 0 141 114 96 255
-1.77141 0.514206 5.71312 0 0 0 133 112 95 255
-1.63876 0.453592 5.72823 0 0 0 46 38 38 255
-1.20631 0.453667 5.76977 0 0 0 54 42 43 255
-2.15713 0.538501 5.67946 0 0 0 91 49 41 255
0.625212 0.497511 4.4277 0 0 0 55 65 69 255
0.196065 0.587157 4.39603 0 0 0 206 219 224 255
0.199814 0.635689 4.40714 0 0 0 206 219 224 255
-1.75234 0.883596 5.72773 0 0 0 58 49 44 255
0.600388 0.718598 4.44681 0 0 0 114 125 128 255
-1.48269 1.00379 5.7797 0 0 0 162 140 124 255
0.272634 0.782529 4.438 0 0 0 206 221 225 255
0.341694 0.849867 4.44375 0 0 0 143 149 153 255
0.288511 0.875089 4.44494 0 0 0 112 122 126 255
-1.03915 1.14228 5.84612 0 0 0 138 120 108 255
-0.299523 1.02424 4.44023 0 0 0 166 175 176 255
-0.17801 1.01501 4.43591 0 0 0 186 199 201 255
2.46172 -2.55155 8.41558 0 0 0 87 87 87 255
-3.04704 -2.39619 8.18307 0 0 0 32 33 37 255
2.46223 -2.42292 8.40048 0 0 0 92 89 90 255
2.46821 -2.27001 8.40279 0 0 0 111 113 112 255
2.49424 -2.16985 8.49481 0 0 0 100 93 96 255
1.24254 -0.655267 4.34179 0 0 0 106 108 108 255
-1.1389 -0.63877 5.69627 0 0 0 187 177 163 255
-1.11927 -0.637085 5.6771 0 0 0 175 168 154 255
-1.34492 -0.611201 5.65004 0 0 0 148 134 121 255
-1.28954 -0.593197 5.65733 0 0 0 183 166 157 255
-1.42001 -0.571741 5.67717 0 0 0 202 189 175 255
-1.30182 -0.546043 5.69261 0 0 0 201 189 175 255
-1.3528 -0.517679 5.67198 0 0 0 159 146 130 255
1.68749 -0.501723 5.53476 0 0 0 205 170 146 255
1.36532 -0.301309 4.63986 0 0 0 165 165 165 255
0.563754 -0.234362 4.33968 0 0 0 116 129 107 255
1.71555 -0.449111 5.49322 0 0 0 211 170 137 255
1.70704 -0.462701 5.58469 0 0 0 211 176 154 255
1.90248 -0.512224 5.98412 0 0 0 173 138 113 255
-0.0692554 -0.16192 4.31353 0 0 0 168 189 144 255
0.450509 -0.183104 4.33905 0 0 0 152 167 125 255
1.70238 -0.420693 5.56841 0 0 0 209 176 157 255
-0.116072 -0.159427 4.31638 0 0 0 105 118 107 255
0.436074 -0.176351 4.33636 0 0 0 149 160 122 255
1.89355 -0.439083 6.0258 0 0 0 188 174 168 255
0.039064 -0.113926 4.3233 0 0 0 164 183 133 255
2.25572 -0.501828 7.03074 0 0 0 205 165 138 255
1.70652 -0.301289 5.62229 0 0 0 170 137 116 255
0.0310962 -0.0712098 4.32999 0 0 0 79 90 59 255
2.27263 -0.404686 7.07174 0 0 0 202 204 203 255
0.952908 -0.0520012 4.37305 0 0 0 81 88 84 255
-1.28848 -0.110684 5.75971 0 0 0 107 96 88 255
-1.27526 -0.0923141 5.63201 0 0 0 143 138 132 255
-1.10426 -0.0954864 5.70979 0 0 0 131 123 111 255
-0.632515 0.0495964 4.50539 0 0 0 190 175 157 255
-0.372035 0.0646914 4.31749 0 0 0 154 175 129 255
0.563932 0.0300663 4.36904 0 0 0 69 81 66 255
0.552665 0.0414095 4.37009 0 0 0 103 115 104 255
0.762358 0.0441747 4.38627 0 0 0 52 59 50 255
0.773882 0.0557215 4.38755 0 0 0 68 80 74 255
-1.19277 0.0456042 5.67615 0 0 0 111 105 99 255
0.785017 0.0646692 4.38698 0 0 0 63 73 65 255
-1.89325 0.0777922 5.68365 0 0 0 135 127 127 255
0.7943 0.0752925 4.38348 0 0 0 65 80 75 255
-0.121526 0.204357 4.3513 0 0 0 161 181 129 255
-0.318593 0.247 4.3419 0 0 0 135 150 113 255
-0.232971 0.254647 4.34625 0 0 0 82 96 91 255
1.96976 0.156448 6.03439 0 0 0 128 155 160 255
0.00137189 0.304818 4.36754 0 0 0 143 157 131 255
-0.00928439 0.319188 4.36902 0 0 0 84 95 82 255
1.88473 0.230119 6.0344 0 0 0 143 160 161 255
-0.287177 0.343066 4.35709 0 0 0 139 152 127 255
-0.0786117 0.361077 4.36509 0 0 0 130 140 118 255
-0.223161 0.374401 4.36375 0 0 0 72 84 80 255
1.88729 0.291993 6.03858 0 0 0 133 150 152 255
1.19899 0.332434 4.44258 0 0 0 90 95 101 255
1.91469 0.31974 6.03957 0 0 0 177 169 137 255
0.268482 0.378891 4.39724 0 0 0 56 67 70 255
1.10903 0.343541 4.43531 0 0 0 145 158 162 255
1.13252 0.354415 4.43979 0 0 0 49 57 61 255
0.118534 0.393465 4.39262 0 0 0 90 96 97 255
0.846933 0.36723 4.42528 0 0 0 128 128 130 255
0.0512981 0.403802 4.38313 0 0 0 42 50 56 255
1.13334 0.354852 4.43722 0 0 0 49 58 62 255
1.1443 0.358716 4.44043 0 0 0 132 146 148 255
0.290722 0.405409 4.39195 0 0 0 52 57 62 255
1.17769 0.366835 4.44125 0 0 0 73 73 75 255
1.19673 0.361696 4.44431 0 0 0 152 155 156 255
1.16576 0.372427 4.43979 0 0 0 94 100 104 255
0.85914 0.385851 4.42555 0 0 0 75 84 90 255
1.0577 0.373516 4.42929 0 0 0 116 130 130 255
1.13852 0.379327 4.43643 0 0 0 92 100 105 255
0.29936 0.418942 4.40223 0 0 0 111 130 138 255
-0.593197 0.468921 4.57248 0 0 0 68 65 61 255
-0.635821 0.484674 4.71058 0 0 0 117 94 78 255
1.89225 0.412939 6.04769 0 0 0 176 185 191 255
-0.939423 0.539566 5.62569 0 0 0 106 98 92 255
0.998375 0.435435 4.44146 0 0 0 66 70 75 255
