ply
format ascii 1.0
comment VCGLIB generated
element vertex 958
property float x
property float y
property float z
property float nx
property float ny
property float nz
property uchar red
property uchar green
property uchar blue
property uchar alpha
element face 0
property list uchar int vertex_indices
end_header
-0.603797 0.834229 3.83291 0 0 0 0 128 128 255
-0.669105 1.17323 3.84254 0 0 0 0 128 128 255
-0.57654 0.794346 3.84615 0 0 0 0 128 128 255
-0.701529 1.37717 3.85337 0 0 0 0 128 128 255
-0.701551 1.38435 3.85458 0 0 0 0 128 128 255
-0.566099 0.798814 3.85458 0 0 0 0 128 128 255
-0.581446 0.872244 3.85578 0 0 0 0 128 128 255
-0.565793 0.808123 3.85638 0 0 0 0 128 128 255
-0.698381 1.40253 3.86 0 0 0 0 128 128 255
-0.580675 0.911426 3.86301 0 0 0 0 128 128 255
-0.567072 0.863253 3.86481 0 0 0 0 128 128 255
-0.552669 0.808079 3.86602 0 0 0 0 128 128 255
-0.714287 1.51381 3.86722 0 0 0 0 128 128 255
-0.712935 1.50797 3.86722 0 0 0 0 128 128 255
-0.560252 0.851487 3.86782 0 0 0 0 128 128 255
-0.706093 1.48902 3.86902 0 0 0 0 128 128 255
-0.583713 0.959991 3.86902 0 0 0 0 128 128 255
-0.708165 1.51215 3.87143 0 0 0 0 128 128 255
-0.71372 1.54679 3.87324 0 0 0 0 128 128 255
-0.554152 0.857004 3.87324 0 0 0 0 128 128 255
-0.620682 1.15877 3.87565 0 0 0 0 128 128 255
-0.734192 1.66009 3.87745 0 0 0 0 128 128 255
-0.531577 0.784219 3.87745 0 0 0 0 128 128 255
-0.571738 0.971999 3.87986 0 0 0 0 128 128 255
-0.528159 0.794247 3.88167 0 0 0 0 128 128 255
-0.697215 1.53213 3.88287 0 0 0 0 128 128 255
-0.61112 1.15996 3.88287 0 0 0 0 128 128 255
-0.546807 0.892574 3.88468 0 0 0 0 128 128 255
-0.689596 1.51337 3.88528 0 0 0 0 128 128 255
-0.602541 1.15476 3.88829 0 0 0 0 128 128 255
-0.533967 0.876043 3.8913 0 0 0 0 128 128 255
-0.552019 0.961164 3.8925 0 0 0 0 128 128 255
-0.552819 0.968164 3.8931 0 0 0 0 128 128 255
-0.68809 1.56709 3.89551 0 0 0 0 128 128 255
-0.591649 1.15728 3.89672 0 0 0 0 128 128 255
-0.513443 0.819206 3.89672 0 0 0 0 128 128 255
-0.663894 1.47312 3.89732 0 0 0 0 128 128 255
-0.658259 1.44877 3.89732 0 0 0 0 128 128 255
-0.523032 0.864203 3.89732 0 0 0 0 128 128 255
-0.534098 0.919122 3.89852 0 0 0 0 128 128 255
-0.522378 0.86846 3.89852 0 0 0 0 128 128 255
-0.509306 0.811952 3.89852 0 0 0 0 128 128 255
-0.517136 0.863514 3.90153 0 0 0 0 128 128 255
-0.65759 1.48484 3.90394 0 0 0 0 128 128 255
-0.555166 1.04563 3.90454 0 0 0 0 128 128 255
-0.53646 0.964764 3.90454 0 0 0 0 128 128 255
-0.527794 0.930844 3.90514 0 0 0 0 128 128 255
-0.641959 1.4279 3.90574 0 0 0 0 128 128 255
-0.556991 1.0606 3.90574 0 0 0 0 128 128 255
-0.533326 0.958304 3.90574 0 0 0 0 128 128 255
-0.643885 1.43977 3.90635 0 0 0 0 128 128 255
-0.641755 1.43411 3.90695 0 0 0 0 128 128 255
-0.538532 0.987892 3.90695 0 0 0 0 128 128 255
-0.520174 0.912079 3.90755 0 0 0 0 128 128 255
-0.556133 1.07106 3.90815 0 0 0 0 128 128 255
-0.546565 1.03325 3.90875 0 0 0 0 128 128 255
-0.636389 1.42509 3.90936 0 0 0 0 128 128 255
-0.50186 0.850625 3.91056 0 0 0 0 128 128 255
-0.668087 1.57274 3.91116 0 0 0 0 128 128 255
-0.666633 1.57 3.91176 0 0 0 0 128 128 255
-0.547183 1.05363 3.91176 0 0 0 0 128 128 255
-0.491761 0.821143 3.91297 0 0 0 0 128 128 255
-0.512394 0.913878 3.91357 0 0 0 0 128 128 255
-0.508563 0.897316 3.91357 0 0 0 0 128 128 255
-0.493237 0.831065 3.91357 0 0 0 0 128 128 255
-0.53057 1.00308 3.91538 0 0 0 0 128 128 255
-0.54061 1.05002 3.91598 0 0 0 0 128 128 255
-0.521903 0.969158 3.91598 0 0 0 0 128 128 255
-0.636745 1.46914 3.91658 0 0 0 0 128 128 255
-0.504716 0.912575 3.91899 0 0 0 0 128 128 255
-0.517912 0.97316 3.91959 0 0 0 0 128 128 255
-0.52998 1.02887 3.92019 0 0 0 0 128 128 255
-0.536865 1.06218 3.92079 0 0 0 0 128 128 255
-0.506214 0.929678 3.92079 0 0 0 0 128 128 255
-0.505661 0.930832 3.9214 0 0 0 0 128 128 255
-0.518304 0.992571 3.9226 0 0 0 0 128 128 255
-0.517853 0.990623 3.9226 0 0 0 0 128 128 255
-0.501401 0.919501 3.9226 0 0 0 0 128 128 255
-0.500274 0.914629 3.9226 0 0 0 0 128 128 255
-0.534655 1.0668 3.9232 0 0 0 0 128 128 255
-0.535004 1.07185 3.9238 0 0 0 0 128 128 255
-0.511688 0.9746 3.92441 0 0 0 0 128 128 255
-0.625402 1.46971 3.92501 0 0 0 0 128 128 255
-0.497838 0.918272 3.92501 0 0 0 0 128 128 255
-0.510357 0.975934 3.92561 0 0 0 0 128 128 255
-0.50585 0.956449 3.92561 0 0 0 0 128 128 255
-0.498187 0.923324 3.92561 0 0 0 0 128 128 255
-0.548795 1.14564 3.92621 0 0 0 0 128 128 255
-0.493352 0.905967 3.92621 0 0 0 0 128 128 255
-0.514886 1.0026 3.92681 0 0 0 0 128 128 255
-0.610243 1.4219 3.92802 0 0 0 0 128 128 255
-0.499153 0.94876 3.92922 0 0 0 0 128 128 255
-0.618277 1.46725 3.92982 0 0 0 0 128 128 255
-0.503785 0.972323 3.92982 0 0 0 0 128 128 255
-0.518332 1.03875 3.93042 0 0 0 0 128 128 255
-0.648725 1.60596 3.93103 0 0 0 0 128 128 255
-0.544047 1.157 3.93163 0 0 0 0 128 128 255
-0.617993 1.48374 3.93283 0 0 0 0 128 128 255
-0.465535 0.828236 3.93343 0 0 0 0 128 128 255
-0.603816 1.42954 3.93404 0 0 0 0 128 128 255
-0.593121 1.38685 3.93464 0 0 0 0 128 128 255
-0.603183 1.44098 3.93644 0 0 0 0 128 128 255
-0.528583 1.11849 3.93644 0 0 0 0 128 128 255
-0.53674 1.16793 3.93885 0 0 0 0 128 128 255
-0.524119 1.11337 3.93885 0 0 0 0 128 128 255
-0.531229 1.14765 3.93945 0 0 0 0 128 128 255
-0.447613 0.786193 3.93945 0 0 0 0 128 128 255
-0.596712 1.43426 3.94006 0 0 0 0 128 128 255
-0.520781 1.11311 3.94126 0 0 0 0 128 128 255
-0.58436 1.39504 3.94246 0 0 0 0 128 128 255
-0.53197 1.17211 3.94307 0 0 0 0 128 128 255
-0.514616 1.09709 3.94307 0 0 0 0 128 128 255
-0.586635 1.41196 3.94367 0 0 0 0 128 128 255
-0.556885 1.28336 3.94367 0 0 0 0 128 128 255
-0.482408 0.964951 3.94427 0 0 0 0 128 128 255
-0.596821 1.47016 3.94608 0 0 0 0 128 128 255
-0.582396 1.40781 3.94608 0 0 0 0 128 128 255
-0.503514 1.06681 3.94608 0 0 0 0 128 128 255
-0.463171 0.89242 3.94608 0 0 0 0 128 128 255
-0.444137 0.813684 3.94668 0 0 0 0 128 128 255
-0.508719 1.0964 3.94728 0 0 0 0 128 128 255
-0.451146 0.851066 3.94788 0 0 0 0 128 128 255
-0.579633 1.41358 3.94909 0 0 0 0 128 128 255
-0.516527 1.14078 3.94909 0 0 0 0 128 128 255
-0.451168 0.858246 3.94909 0 0 0 0 128 128 255
-0.550683 1.29198 3.94969 0 0 0 0 128 128 255
-0.519355 1.15655 3.94969 0 0 0 0 128 128 255
-0.592502 1.47629 3.95029 0 0 0 0 128 128 255
-0.550356 1.29411 3.95029 0 0 0 0 128 128 255
-0.498744 1.071 3.95029 0 0 0 0 128 128 255
-0.444202 0.835224 3.95029 0 0 0 0 128 128 255
-0.590146 1.46965 3.95089 0 0 0 0 128 128 255
-0.544765 1.28411 3.9527 0 0 0 0 128 128 255
-0.43603 0.817612 3.9533 0 0 0 0 128 128 255
-0.582999 1.46002 3.9545 0 0 0 0 128 128 255
-0.436277 0.825767 3.9545 0 0 0 0 128 128 255
-0.451501 0.89512 3.95511 0 0 0 0 128 128 255
-0.489038 1.06093 3.95571 0 0 0 0 128 128 255
-0.384237 0.60789 3.95571 0 0 0 0 128 128 255
-0.513953 1.17217 3.95631 0 0 0 0 128 128 255
-0.451523 0.9023 3.95631 0 0 0 0 128 128 255
-0.543376 1.30291 3.95691 0 0 0 0 128 128 255
-0.436095 0.839152 3.95691 0 0 0 0 128 128 255
-0.441424 0.872817 3.95872 0 0 0 0 128 128 255
-0.426324 0.807541 3.95872 0 0 0 0 128 128 255
-0.41776 0.770519 3.95872 0 0 0 0 128 128 255
-0.504552 1.15279 3.95992 0 0 0 0 128 128 255
-0.489677 1.08849 3.95992 0 0 0 0 128 128 255
-0.41688 0.773801 3.95992 0 0 0 0 128 128 255
-0.584358 1.50486 3.96112 0 0 0 0 128 128 255
-0.5065 1.17184 3.96173 0 0 0 0 128 128 255
-0.504697 1.16405 3.96173 0 0 0 0 128 128 255
-0.470214 1.01499 3.96173 0 0 0 0 128 128 255
-0.581675 1.50035 3.96233 0 0 0 0 128 128 255
-0.375475 0.616075 3.96353 0 0 0 0 128 128 255
-0.607884 1.63491 3.96594 0 0 0 0 128 128 255
-0.494518 1.14485 3.96594 0 0 0 0 128 128 255
-0.490687 1.12829 3.96594 0 0 0 0 128 128 255
-0.449588 0.961253 3.96775 0 0 0 0 128 128 255
-0.449363 0.960278 3.96775 0 0 0 0 128 128 255
-0.447334 0.95151 3.96775 0 0 0 0 128 128 255
-0.484543 1.11944 3.96895 0 0 0 0 128 128 255
-0.448606 0.967638 3.96955 0 0 0 0 128 128 255
-0.400375 0.759144 3.96955 0 0 0 0 128 128 255
-0.399699 0.756221 3.96955 0 0 0 0 128 128 255
-0.451681 0.99156 3.97136 0 0 0 0 128 128 255
-0.412916 0.823986 3.97136 0 0 0 0 128 128 255
-0.586131 1.5763 3.97196 0 0 0 0 128 128 255
-0.413738 0.838165 3.97316 0 0 0 0 128 128 255
-0.444287 0.973769 3.97377 0 0 0 0 128 128 255
-0.388066 0.734278 3.97437 0 0 0 0 128 128 255
-0.380403 0.701153 3.97437 0 0 0 0 128 128 255
-0.44476 0.982898 3.97497 0 0 0 0 128 128 255
-0.486578 1.16721 3.97557 0 0 0 0 128 128 255
-0.482522 1.14968 3.97557 0 0 0 0 128 128 255
-0.480042 1.13896 3.97557 0 0 0 0 128 128 255
-0.385158 0.728793 3.97557 0 0 0 0 128 128 255
-0.57212 1.54054 3.97617 0 0 0 0 128 128 255
-0.374238 0.68513 3.97617 0 0 0 0 128 128 255
-0.405362 0.82676 3.97738 0 0 0 0 128 128 255
-0.376637 0.70613 3.97798 0 0 0 0 128 128 255
-0.420259 0.898242 3.97858 0 0 0 0 128 128 255
-0.369221 0.681159 3.97918 0 0 0 0 128 128 255
-0.451157 1.0389 3.97979 0 0 0 0 128 128 255
-0.573436 1.57103 3.98039 0 0 0 0 128 128 255
-0.440033 1.00144 3.98159 0 0 0 0 128 128 255
-0.416514 0.910398 3.9834 0 0 0 0 128 128 255
-0.350827 0.629988 3.984 0 0 0 0 128 128 255
-0.553013 1.51109 3.9852 0 0 0 0 128 128 255
-0.406888 0.890044 3.98701 0 0 0 0 128 128 255
-0.536829 1.4553 3.98761 0 0 0 0 128 128 255
-0.36464 0.710958 3.98761 0 0 0 0 128 128 255
-0.571436 1.60844 3.98821 0 0 0 0 128 128 255
-0.566601 1.59109 3.98882 0 0 0 0 128 128 255
-0.532467 1.44707 3.98942 0 0 0 0 128 128 255
-0.464853 1.15479 3.98942 0 0 0 0 128 128 255
-0.467907 1.17153 3.99002 0 0 0 0 128 128 255
-0.543307 1.50102 3.99062 0 0 0 0 128 128 255
-0.413387 0.94294 3.99122 0 0 0 0 128 128 255
-0.527123 1.44523 3.99303 0 0 0 0 128 128 255
-0.460411 1.15685 3.99303 0 0 0 0 128 128 255
-0.391794 0.86377 3.99363 0 0 0 0 128 128 255
-0.380074 0.813108 3.99363 0 0 0 0 128 128 255
-0.418287 0.981837 3.99423 0 0 0 0 128 128 255
-0.458302 1.15836 3.99483 0 0 0 0 128 128 255
-0.364218 0.755192 3.99544 0 0 0 0 128 128 255
-0.42001 0.999914 3.99604 0 0 0 0 128 128 255
-0.415502 0.980428 3.99604 0 0 0 0 128 128 255
-0.451235 1.13844 3.99664 0 0 0 0 128 128 255
-0.375959 0.813033 3.99664 0 0 0 0 128 128 255
-0.368521 0.780882 3.99664 0 0 0 0 128 128 255
-0.555607 1.59671 3.99784 0 0 0 0 128 128 255
-0.546716 1.56181 3.99845 0 0 0 0 128 128 255
-0.351661 0.722172 3.99905 0 0 0 0 128 128 255
-0.412637 0.989302 3.99965 0 0 0 0 128 128 255
-0.527049 1.49451 4.00146 0 0 0 0 128 128 255
-0.546352 1.58858 4.00326 0 0 0 0 128 128 255
-0.543545 1.58 4.00386 0 0 0 0 128 128 255
-0.35808 0.785351 4.00507 0 0 0 0 128 128 255
-0.363162 0.810862 4.00567 0 0 0 0 128 128 255
-0.528161 1.53121 4.00687 0 0 0 0 128 128 255
-0.402174 0.98659 4.00687 0 0 0 0 128 128 255
-0.354067 0.782173 4.00748 0 0 0 0 128 128 255
-0.433873 1.13425 4.00868 0 0 0 0 128 128 255
-0.526176 1.5368 4.00928 0 0 0 0 128 128 255
-0.434796 1.14532 4.00988 0 0 0 0 128 128 255
-0.33315 0.705926 4.00988 0 0 0 0 128 128 255
-0.531381 1.56639 4.01049 0 0 0 0 128 128 255
-0.499501 1.43212 4.01109 0 0 0 0 128 128 255
-0.523515 1.53947 4.01169 0 0 0 0 128 128 255
-0.521487 1.5307 4.01169 0 0 0 0 128 128 255
-0.524234 1.55675 4.0141 0 0 0 0 128 128 255
-0.502147 1.46127 4.0141 0 0 0 0 128 128 255
-0.432055 1.15827 4.0141 0 0 0 0 128 128 255
-0.375935 0.91568 4.0141 0 0 0 0 128 128 255
-0.39747 1.01231 4.0147 0 0 0 0 128 128 255
-0.328279 0.713211 4.0147 0 0 0 0 128 128 255
-0.513889 1.51911 4.0153 0 0 0 0 128 128 255
-0.513213 1.51619 4.0153 0 0 0 0 128 128 255
-0.498338 1.45189 4.0153 0 0 0 0 128 128 255
-0.337541 0.760336 4.0159 0 0 0 0 128 128 255
-0.329427 0.725262 4.0159 0 0 0 0 128 128 255
-0.341496 0.780976 4.01651 0 0 0 0 128 128 255
-0.418473 1.11728 4.01711 0 0 0 0 128 128 255
-0.414417 1.09974 4.01711 0 0 0 0 128 128 255
-0.328547 0.728545 4.01711 0 0 0 0 128 128 255
-0.340165 0.78231 4.01771 0 0 0 0 128 128 255
-0.412635 1.09913 4.01831 0 0 0 0 128 128 255
-0.32609 0.725008 4.01831 0 0 0 0 128 128 255
-0.489613 1.43543 4.01891 0 0 0 0 128 128 255
-0.477217 1.38185 4.01891 0 0 0 0 128 128 255
-0.532108 1.62267 4.01952 0 0 0 0 128 128 255
-0.491089 1.44535 4.01952 0 0 0 0 128 128 255
-0.413108 1.10826 4.01952 0 0 0 0 128 128 255
-0.333324 0.763365 4.01952 0 0 0 0 128 128 255
-0.314065 0.683654 4.02012 0 0 0 0 128 128 255
-0.501929 1.4993 4.02072 0 0 0 0 128 128 255
-0.419665 1.14369 4.02072 0 0 0 0 128 128 255
-0.50107 1.50976 4.02313 0 0 0 0 128 128 255
-0.360209 0.900842 4.02313 0 0 0 0 128 128 255
-0.40338 1.09101 4.02373 0 0 0 0 128 128 255
-0.40045 1.07834 4.02373 0 0 0 0 128 128 255
-0.392336 1.04327 4.02373 0 0 0 0 128 128 255
-0.388505 1.0267 4.02373 0 0 0 0 128 128 255
-0.371601 0.953633 4.02373 0 0 0 0 128 128 255
-0.444973 1.27435 4.02433 0 0 0 0 128 128 255
-0.405532 1.10385 4.02433 0 0 0 0 128 128 255
-0.325747 0.758959 4.02433 0 0 0 0 128 128 255
-0.307943 0.681991 4.02433 0 0 0 0 128 128 255
-0.401598 1.09039 4.02493 0 0 0 0 128 128 255
-0.389428 1.03778 4.02493 0 0 0 0 128 128 255
-0.37568 0.97835 4.02493 0 0 0 0 128 128 255
-0.39158 1.05063 4.02553 0 0 0 0 128 128 255
-0.371972 0.965864 4.02553 0 0 0 0 128 128 255
-0.357773 0.904485 4.02553 0 0 0 0 128 128 255
-0.48794 1.47072 4.02614 0 0 0 0 128 128 255
-0.400391 1.0958 4.02674 0 0 0 0 128 128 255
-0.494621 1.51023 4.02794 0 0 0 0 128 128 255
-0.394677 1.08173 4.02854 0 0 0 0 128 128 255
-0.362898 0.944356 4.02854 0 0 0 0 128 128 255
-0.310385 0.717351 4.02854 0 0 0 0 128 128 255
-0.491037 1.50182 4.02915 0 0 0 0 128 128 255
-0.395927 1.09068 4.02915 0 0 0 0 128 128 255
-0.393899 1.08191 4.02915 0 0 0 0 128 128 255
-0.309156 0.715582 4.02915 0 0 0 0 128 128 255
-0.481738 1.47934 4.03216 0 0 0 0 128 128 255
-0.315634 0.761298 4.03216 0 0 0 0 128 128 255
-0.303812 0.713739 4.03276 0 0 0 0 128 128 255
-0.35397 0.934104 4.03336 0 0 0 0 128 128 255
-0.305739 0.72561 4.03336 0 0 0 0 128 128 255
-0.464529 1.41557 4.03396 0 0 0 0 128 128 255
-0.403226 1.15057 4.03396 0 0 0 0 128 128 255
-0.400521 1.13888 4.03396 0 0 0 0 128 128 255
-0.498459 1.56579 4.03456 0 0 0 0 128 128 255
-0.471639 1.44985 4.03456 0 0 0 0 128 128 255
-0.464427 1.41868 4.03456 0 0 0 0 128 128 255
-0.399743 1.13906 4.03456 0 0 0 0 128 128 255
-0.314121 0.776018 4.03577 0 0 0 0 128 128 255
-0.470003 1.4605 4.03757 0 0 0 0 128 128 255
-0.462013 1.4295 4.03818 0 0 0 0 128 128 255
-0.306952 0.759201 4.03818 0 0 0 0 128 128 255
-0.385631 1.1064 4.03938 0 0 0 0 128 128 255
-0.325004 0.844323 4.03938 0 0 0 0 128 128 255
-0.359836 0.998437 4.03998 0 0 0 0 128 128 255
-0.366394 1.03387 4.04119 0 0 0 0 128 128 255
-0.352646 0.974441 4.04119 0 0 0 0 128 128 255
-0.387928 1.1305 4.04179 0 0 0 0 128 128 255
-0.375307 1.07594 4.04179 0 0 0 0 128 128 255
-0.352319 0.976569 4.04179 0 0 0 0 128 128 255
-0.471442 1.49506 4.04239 0 0 0 0 128 128 255
-0.388728 1.1375 4.04239 0 0 0 0 128 128 255
-0.385347 1.12289 4.04239 0 0 0 0 128 128 255
-0.452532 1.4204 4.04359 0 0 0 0 128 128 255
-0.436755 1.3522 4.04359 0 0 0 0 128 128 255
-0.345252 0.956649 4.04359 0 0 0 0 128 128 255
-0.292062 0.726721 4.04359 0 0 0 0 128 128 255
-0.455811 1.43812 4.0442 0 0 0 0 128 128 255
-0.301877 0.772692 4.0442 0 0 0 0 128 128 255
-0.457963 1.45096 4.0448 0 0 0 0 128 128 255
-0.30528 0.794486 4.0454 0 0 0 0 128 128 255
-0.376521 1.10954 4.0466 0 0 0 0 128 128 255
-0.464091 1.49163 4.0472 0 0 0 0 128 128 255
-0.369432 1.08244 4.0472 0 0 0 0 128 128 255
-0.472554 1.53175 4.04781 0 0 0 0 128 128 255
-0.336098 0.945423 4.04841 0 0 0 0 128 128 255
-0.46018 1.48535 4.04901 0 0 0 0 128 128 255
-0.342532 0.97678 4.04901 0 0 0 0 128 128 255
-0.378265 1.13479 4.04961 0 0 0 0 128 128 255
-0.334993 0.947732 4.04961 0 0 0 0 128 128 255
-0.340976 0.97714 4.05021 0 0 0 0 128 128 255
-0.462804 1.50732 4.05082 0 0 0 0 128 128 255
-0.439815 1.40795 4.05082 0 0 0 0 128 128 255
-0.373103 1.11956 4.05082 0 0 0 0 128 128 255
-0.286783 0.746418 4.05082 0 0 0 0 128 128 255
-0.273711 0.68991 4.05082 0 0 0 0 128 128 255
-0.379988 1.15287 4.05142 0 0 0 0 128 128 255
-0.426765 1.35862 4.05202 0 0 0 0 128 128 255
-0.331655 0.947478 4.05202 0 0 0 0 128 128 255
-0.327148 0.927992 4.05202 0 0 0 0 128 128 255
-0.410211 1.2906 4.05262 0 0 0 0 128 128 255
-0.460594 1.51194 4.05322 0 0 0 0 128 128 255
-0.290106 0.778494 4.05383 0 0 0 0 128 128 255
-0.321578 0.925175 4.05563 0 0 0 0 128 128 255
-0.318219 0.917741 4.05684 0 0 0 0 128 128 255
-0.315515 0.906049 4.05684 0 0 0 0 128 128 255
-0.288368 0.79224 4.05744 0 0 0 0 128 128 255
-0.280254 0.757166 4.05744 0 0 0 0 128 128 255
-0.272591 0.724041 4.05744 0 0 0 0 128 128 255
-0.25829 0.665764 4.05804 0 0 0 0 128 128 255
-0.258065 0.66479 4.05804 0 0 0 0 128 128 255
-0.436463 1.43952 4.05864 0 0 0 0 128 128 255
-0.41077 1.32845 4.05864 0 0 0 0 128 128 255
-0.355327 1.08878 4.05864 0 0 0 0 128 128 255
-0.437713 1.44846 4.05924 0 0 0 0 128 128 255
-0.358504 1.1096 4.05985 0 0 0 0 128 128 255
-0.257534 0.673124 4.05985 0 0 0 0 128 128 255
-0.451709 1.51605 4.06045 0 0 0 0 128 128 255
-0.256654 0.676407 4.06105 0 0 0 0 128 128 255
-0.234793 0.581903 4.06105 0 0 0 0 128 128 255
-0.449927 1.51543 4.06165 0 0 0 0 128 128 255
-0.423333 1.40047 4.06165 0 0 0 0 128 128 255
-0.277738 0.771091 4.06165 0 0 0 0 128 128 255
-0.254975 0.67269 4.06165 0 0 0 0 128 128 255
-0.277636 0.774194 4.06225 0 0 0 0 128 128 255
-0.346275 1.07445 4.06286 0 0 0 0 128 128 255
-0.44241 1.49357 4.06346 0 0 0 0 128 128 255
-0.438149 1.48223 4.06466 0 0 0 0 128 128 255
-0.406145 1.34389 4.06466 0 0 0 0 128 128 255
-0.393975 1.29128 4.06466 0 0 0 0 128 128 255
-0.253564 0.684307 4.06466 0 0 0 0 128 128 255
-0.257068 0.702998 4.06526 0 0 0 0 128 128 255
-0.250983 0.676692 4.06526 0 0 0 0 128 128 255
-0.233404 0.600699 4.06526 0 0 0 0 128 128 255
-0.455997 1.57356 4.06707 0 0 0 0 128 128 255
-0.437865 1.49872 4.06767 0 0 0 0 128 128 255
-0.444074 1.52911 4.06827 0 0 0 0 128 128 255
-0.349313 1.12301 4.06888 0 0 0 0 128 128 255
-0.348862 1.12107 4.06888 0 0 0 0 128 128 255
-0.338495 1.07625 4.06888 0 0 0 0 128 128 255
-0.349887 1.12904 4.06948 0 0 0 0 128 128 255
-0.351589 1.13994 4.07008 0 0 0 0 128 128 255
-0.349786 1.13214 4.07008 0 0 0 0 128 128 255
-0.437581 1.51521 4.07068 0 0 0 0 128 128 255
-0.353064 1.14986 4.07068 0 0 0 0 128 128 255
-0.350585 1.13914 4.07068 0 0 0 0 128 128 255
-0.349008 1.13232 4.07068 0 0 0 0 128 128 255
-0.292438 0.88778 4.07068 0 0 0 0 128 128 255
-0.295615 0.9086 4.07189 0 0 0 0 128 128 255
-0.22036 0.590373 4.07309 0 0 0 0 128 128 255
-0.247754 0.712337 4.07369 0 0 0 0 128 128 255
-0.442954 1.56324 4.0749 0 0 0 0 128 128 255
-0.289245 0.898783 4.0749 0 0 0 0 128 128 255
-0.391015 1.34226 4.0755 0 0 0 0 128 128 255
-0.256384 0.770899 4.0773 0 0 0 0 128 128 255
-0.256158 0.769925 4.0773 0 0 0 0 128 128 255
-0.435581 1.55262 4.07851 0 0 0 0 128 128 255
-0.28673 0.912708 4.07911 0 0 0 0 128 128 255
-0.212129 0.590225 4.07911 0 0 0 0 128 128 255
-0.407103 1.44015 4.08031 0 0 0 0 128 128 255
-0.415566 1.48027 4.08091 0 0 0 0 128 128 255
-0.382435 1.33706 4.08091 0 0 0 0 128 128 255
-0.278761 0.888891 4.08091 0 0 0 0 128 128 255
-0.431691 1.55352 4.08152 0 0 0 0 128 128 255
-0.394729 1.39374 4.08152 0 0 0 0 128 128 255
-0.333652 1.12972 4.08152 0 0 0 0 128 128 255
-0.276427 0.889431 4.08272 0 0 0 0 128 128 255
-0.405264 1.457 4.08453 0 0 0 0 128 128 255
-0.240512 0.744805 4.08453 0 0 0 0 128 128 255
-0.238934 0.737985 4.08453 0 0 0 0 128 128 255
-0.403708 1.45736 4.08573 0 0 0 0 128 128 255
-0.329129 1.14205 4.08693 0 0 0 0 128 128 255
-0.423461 1.55338 4.08754 0 0 0 0 128 128 255
-0.320237 1.10716 4.08754 0 0 0 0 128 128 255
-0.321488 1.11611 4.08814 0 0 0 0 128 128 255
-0.402522 1.46995 4.08874 0 0 0 0 128 128 255
-0.320259 1.11434 4.08874 0 0 0 0 128 128 255
-0.405801 1.48767 4.08934 0 0 0 0 128 128 255
-0.413035 1.52602 4.09055 0 0 0 0 128 128 255
-0.40021 1.47767 4.09175 0 0 0 0 128 128 255
-0.321102 1.1357 4.09175 0 0 0 0 128 128 255
-0.401809 1.49167 4.09295 0 0 0 0 128 128 255
-0.399105 1.47998 4.09295 0 0 0 0 128 128 255
-0.290022 1.00843 4.09295 0 0 0 0 128 128 255
-0.239987 0.792141 4.09295 0 0 0 0 128 128 255
-0.398123 1.48636 4.09476 0 0 0 0 128 128 255
-0.315184 1.12783 4.09476 0 0 0 0 128 128 255
-0.224153 0.741404 4.09596 0 0 0 0 128 128 255
-0.288734 1.02412 4.09657 0 0 0 0 128 128 255
-0.215937 0.709433 4.09657 0 0 0 0 128 128 255
-0.30904 1.11899 4.09777 0 0 0 0 128 128 255
-0.307528 1.13371 4.10138 0 0 0 0 128 128 255
-0.276265 1.01982 4.10499 0 0 0 0 128 128 255
-0.278642 1.03364 4.1056 0 0 0 0 128 128 255
-0.190294 0.651728 4.1056 0 0 0 0 128 128 255
-0.354268 1.3641 4.1062 0 0 0 0 128 128 255
-0.237747 0.860402 4.1062 0 0 0 0 128 128 255
-0.220393 0.785383 4.1062 0 0 0 0 128 128 255
-0.37482 1.46712 4.1086 0 0 0 0 128 128 255
-0.196589 0.71083 4.11101 0 0 0 0 128 128 255
-0.352697 1.39628 4.11282 0 0 0 0 128 128 255
-0.358251 1.43092 4.11462 0 0 0 0 128 128 255
-0.36153 1.44864 4.11523 0 0 0 0 128 128 255
-0.366612 1.47415 4.11583 0 0 0 0 128 128 255
-0.365056 1.47451 4.11703 0 0 0 0 128 128 255
-0.342292 1.37611 4.11703 0 0 0 0 128 128 255
-0.358418 1.44936 4.11763 0 0 0 0 128 128 255
-0.158958 0.587129 4.11763 0 0 0 0 128 128 255
-0.182135 0.712121 4.12185 0 0 0 0 128 128 255
-0.27153 1.10919 4.12365 0 0 0 0 128 128 255
-0.326217 1.35622 4.12546 0 0 0 0 128 128 255
-0.270774 1.11655 4.12546 0 0 0 0 128 128 255
-0.270447 1.11868 4.12606 0 0 0 0 128 128 255
-0.209144 0.853676 4.12606 0 0 0 0 128 128 255
-0.334643 1.42099 4.13028 0 0 0 0 128 128 255
-0.34866 1.49575 4.13268 0 0 0 0 128 128 255
-0.160919 0.684184 4.13268 0 0 0 0 128 128 255
-0.347882 1.49593 4.13329 0 0 0 0 128 128 255
-0.336925 1.47691 4.1381 0 0 0 0 128 128 255
-0.250052 1.10492 4.1387 0 0 0 0 128 128 255
-0.255032 1.13353 4.13991 0 0 0 0 128 128 255
-0.33494 1.4825 4.14051 0 0 0 0 128 128 255
-0.251775 1.123 4.14051 0 0 0 0 128 128 255
-0.207601 0.93204 4.14051 0 0 0 0 128 128 255
-0.242658 1.08713 4.14111 0 0 0 0 128 128 255
-0.140787 0.646758 4.14111 0 0 0 0 128 128 255
-0.332976 1.49527 4.14412 0 0 0 0 128 128 255
-0.192566 0.888303 4.14412 0 0 0 0 128 128 255
-0.124974 0.603201 4.14532 0 0 0 0 128 128 255
-0.321198 1.46207 4.14713 0 0 0 0 128 128 255
-0.186342 0.889743 4.14894 0 0 0 0 128 128 255
-0.178904 0.857592 4.14894 0 0 0 0 128 128 255
-0.325197 1.49707 4.15014 0 0 0 0 128 128 255
-0.166021 0.826701 4.15315 0 0 0 0 128 128 255
-0.320979 1.5001 4.15375 0 0 0 0 128 128 255
-0.294981 1.39834 4.15556 0 0 0 0 128 128 255
-0.228167 1.11306 4.15616 0 0 0 0 128 128 255
-0.229766 1.12706 4.15736 0 0 0 0 128 128 255
-0.225978 1.12486 4.15977 0 0 0 0 128 128 255
-0.302505 1.45921 4.16037 0 0 0 0 128 128 255
-0.320208 1.53928 4.16098 0 0 0 0 128 128 255
-0.167852 0.880677 4.16098 0 0 0 0 128 128 255
-0.306954 1.49616 4.16338 0 0 0 0 128 128 255
-0.109748 0.643674 4.16338 0 0 0 0 128 128 255
-0.108621 0.638803 4.16338 0 0 0 0 128 128 255
-0.24725 1.24516 4.16459 0 0 0 0 128 128 255
-0.280279 1.39148 4.16519 0 0 0 0 128 128 255
-0.36492 1.76091 4.16579 0 0 0 0 128 128 255
-0.211808 1.10966 4.1676 0 0 0 0 128 128 255
-0.159869 0.888682 4.1682 0 0 0 0 128 128 255
-0.290261 1.45589 4.1688 0 0 0 0 128 128 255
-0.166077 0.919064 4.1688 0 0 0 0 128 128 255
-0.279712 1.42446 4.17121 0 0 0 0 128 128 255
-0.161409 0.920144 4.17241 0 0 0 0 128 128 255
-0.152067 0.883302 4.17301 0 0 0 0 128 128 255
-0.248122 1.3127 4.17542 0 0 0 0 128 128 255
-0.276665 1.44672 4.17723 0 0 0 0 128 128 255
-0.275661 1.44592 4.17783 0 0 0 0 128 128 255
-0.19475 1.09616 4.17783 0 0 0 0 128 128 255
-0.229357 1.2493 4.17843 0 0 0 0 128 128 255
-0.14689 0.899895 4.17964 0 0 0 0 128 128 255
-0.268943 1.43105 4.18024 0 0 0 0 128 128 255
-0.246572 1.35206 4.18325 0 0 0 0 128 128 255
-0.191151 1.11957 4.18445 0 0 0 0 128 128 255
-0.100323 0.726941 4.18445 0 0 0 0 128 128 255
-0.127267 0.846956 4.18505 0 0 0 0 128 128 255
-0.0819659 0.651127 4.18505 0 0 0 0 128 128 255
-0.0989927 0.728275 4.18566 0 0 0 0 128 128 255
-0.242457 1.35199 4.18626 0 0 0 0 128 128 255
-0.263992 1.44862 4.18686 0 0 0 0 128 128 255
-0.184331 1.10781 4.18746 0 0 0 0 128 128 255
-0.0892213 0.696664 4.18746 0 0 0 0 128 128 255
-0.137576 0.909235 4.18806 0 0 0 0 128 128 255
-0.123377 0.847856 4.18806 0 0 0 0 128 128 255
-0.212547 1.24395 4.18987 0 0 0 0 128 128 255
-0.129055 0.886572 4.19047 0 0 0 0 128 128 255
-0.0970728 0.755406 4.19168 0 0 0 0 128 128 255
-0.131127 0.9097 4.19288 0 0 0 0 128 128 255
-0.255885 1.45255 4.19348 0 0 0 0 128 128 255
-0.121457 0.874987 4.19408 0 0 0 0 128 128 255
-0.20239 1.23193 4.19529 0 0 0 0 128 128 255
-0.114841 0.857015 4.19589 0 0 0 0 128 128 255
-0.172661 1.11051 4.19649 0 0 0 0 128 128 255
-0.128036 0.9176 4.19649 0 0 0 0 128 128 255
-0.200506 1.23442 4.19709 0 0 0 0 128 128 255
-0.206264 1.26285 4.19769 0 0 0 0 128 128 255
-0.0852362 0.739668 4.19769 0 0 0 0 128 128 255
-0.0912195 0.769077 4.1983 0 0 0 0 128 128 255
-0.224091 1.347 4.1989 0 0 0 0 128 128 255
-0.116258 0.884401 4.1995 0 0 0 0 128 128 255
-0.110624 0.860044 4.1995 0 0 0 0 128 128 255
-0.082575 0.742337 4.2001 0 0 0 0 128 128 255
-0.167441 1.11274 4.2007 0 0 0 0 128 128 255
-0.14728 1.02913 4.20131 0 0 0 0 128 128 255
-0.112797 0.880069 4.20131 0 0 0 0 128 128 255
-0.210408 1.30911 4.20251 0 0 0 0 128 128 255
-0.212785 1.32293 4.20311 0 0 0 0 128 128 255
-0.197685 1.25765 4.20311 0 0 0 0 128 128 255
-0.0752026 0.731725 4.20371 0 0 0 0 128 128 255
-0.106203 0.869278 4.20432 0 0 0 0 128 128 255
-0.247639 1.48422 4.20492 0 0 0 0 128 128 255
-0.14126 1.02437 4.20492 0 0 0 0 128 128 255
-0.126385 0.960065 4.20492 0 0 0 0 128 128 255
-0.0871693 0.790542 4.20492 0 0 0 0 128 128 255
-0.186009 1.22135 4.20552 0 0 0 0 128 128 255
-0.0969841 0.836512 4.20552 0 0 0 0 128 128 255
-0.137225 1.01401 4.20612 0 0 0 0 128 128 255
-0.125055 0.961399 4.20612 0 0 0 0 128 128 255
-0.118664 0.944402 4.20793 0 0 0 0 128 128 255
-0.122844 0.966016 4.20853 0 0 0 0 128 128 255
-0.260899 1.56635 4.20913 0 0 0 0 128 128 255
-0.24332 1.49035 4.20913 0 0 0 0 128 128 255
-0.154194 1.10862 4.20973 0 0 0 0 128 128 255
-0.119936 0.96053 4.20973 0 0 0 0 128 128 255
-0.231171 1.44492 4.21034 0 0 0 0 128 128 255
-0.218099 1.38842 4.21034 0 0 0 0 128 128 255
-0.0857001 0.819621 4.21094 0 0 0 0 128 128 255
-0.109488 0.925997 4.21154 0 0 0 0 128 128 255
-0.0885282 0.835389 4.21154 0 0 0 0 128 128 255
-0.126188 1.00527 4.21274 0 0 0 0 128 128 255
-0.0795564 0.810778 4.21395 0 0 0 0 128 128 255
-0.0788803 0.807855 4.21395 0 0 0 0 128 128 255
-0.0635979 0.755965 4.21636 0 0 0 0 128 128 255
-0.224867 1.45665 4.21696 0 0 0 0 128 128 255
-0.187004 1.29297 4.21696 0 0 0 0 128 128 255
-0.123447 1.01822 4.21696 0 0 0 0 128 128 255
-0.10181 0.924693 4.21696 0 0 0 0 128 128 255
-0.141601 1.10024 4.21756 0 0 0 0 128 128 255
-0.108245 0.95605 4.21756 0 0 0 0 128 128 255
-0.07579 0.815755 4.21756 0 0 0 0 128 128 255
-0.110171 0.967921 4.21816 0 0 0 0 128 128 255
-0.0952961 0.90362 4.21816 0 0 0 0 128 128 255
-0.0725329 0.805218 4.21816 0 0 0 0 128 128 255
-0.140721 1.10353 4.21876 0 0 0 0 128 128 255
-0.0729035 0.817449 4.21997 0 0 0 0 128 128 255
-0.188195 1.31938 4.22057 0 0 0 0 128 128 255
-0.0608566 0.768916 4.22057 0 0 0 0 128 128 255
-0.177501 1.27669 4.22117 0 0 0 0 128 128 255
-0.0984146 0.941902 4.22238 0 0 0 0 128 128 255
-0.0952593 0.928262 4.22238 0 0 0 0 128 128 255
-0.160641 1.21798 4.22358 0 0 0 0 128 128 255
-0.0993378 0.952978 4.22358 0 0 0 0 128 128 255
-0.195473 1.3721 4.22418 0 0 0 0 128 128 255
-0.0981308 0.95839 4.22539 0 0 0 0 128 128 255
-0.182771 1.32782 4.22599 0 0 0 0 128 128 255
-0.192586 1.37379 4.22659 0 0 0 0 128 128 255
-0.19191 1.37087 4.22659 0 0 0 0 128 128 255
-0.178409 1.31959 4.22779 0 0 0 0 128 128 255
-0.0903076 0.94583 4.229 0 0 0 0 128 128 255
-0.0612338 0.820149 4.229 0 0 0 0 128 128 255
-0.170215 1.2948 4.2296 0 0 0 0 128 128 255
-0.0911289 0.960009 4.2308 0 0 0 0 128 128 255
-0.172389 1.31482 4.2314 0 0 0 0 128 128 255
-0.0876464 0.948498 4.2314 0 0 0 0 128 128 255
-0.19417 1.41961 4.23321 0 0 0 0 128 128 255
-0.121824 1.10687 4.23321 0 0 0 0 128 128 255
-0.176387 1.34982 4.23441 0 0 0 0 128 128 255
-0.104942 1.04098 4.23441 0 0 0 0 128 128 255
-0.179215 1.36559 4.23502 0 0 0 0 128 128 255
-0.123321 1.12397 4.23502 0 0 0 0 128 128 255
-0.115884 1.09182 4.23502 0 0 0 0 128 128 255
-0.212818 1.51794 4.23622 0 0 0 0 128 128 255
-0.0976498 1.02009 4.23622 0 0 0 0 128 128 255
-0.0961957 1.01734 4.23682 0 0 0 0 128 128 255
-0.094189 1.01575 4.23803 0 0 0 0 128 128 255
-0.223905 1.58004 4.23863 0 0 0 0 128 128 255
-0.155615 1.28483 4.23863 0 0 0 0 128 128 255
-0.0834943 0.973066 4.23863 0 0 0 0 128 128 255
-0.143343 1.23533 4.23923 0 0 0 0 128 128 255
-0.0667145 0.904073 4.23923 0 0 0 0 128 128 255
-0.21481 1.55135 4.24043 0 0 0 0 128 128 255
-0.0951339 1.03401 4.24043 0 0 0 0 128 128 255
-0.108555 1.09557 4.24104 0 0 0 0 128 128 255
-0.150271 1.28299 4.24224 0 0 0 0 128 128 255
-0.0856312 1.01773 4.24465 0 0 0 0 128 128 255
-0.189429 1.46998 4.24525 0 0 0 0 128 128 255
-0.0381998 0.81624 4.24525 0 0 0 0 128 128 255
-0.0386723 0.825368 4.24645 0 0 0 0 128 128 255
-0.101924 1.10942 4.24826 0 0 0 0 128 128 255
-0.0469311 0.871699 4.24826 0 0 0 0 128 128 255
-0.0442266 0.860007 4.24826 0 0 0 0 128 128 255
-0.192547 1.50826 4.24946 0 0 0 0 128 128 255
-0.0998149 1.11093 4.25007 0 0 0 0 128 128 255
-0.0741218 0.999868 4.25007 0 0 0 0 128 128 255
-0.0394135 0.84983 4.25007 0 0 0 0 128 128 255
-0.161918 1.38294 4.25067 0 0 0 0 128 128 255
-0.0359527 0.845499 4.25187 0 0 0 0 128 128 255
-0.0760917 1.0261 4.25308 0 0 0 0 128 128 255
-0.180566 1.48126 4.25368 0 0 0 0 128 128 255
-0.173353 1.45009 4.25368 0 0 0 0 128 128 255
-0.0348692 0.854987 4.25428 0 0 0 0 128 128 255
-0.200442 1.58136 4.25608 0 0 0 0 128 128 255
-0.177454 1.48198 4.25608 0 0 0 0 128 128 255
-0.086975 1.0944 4.25669 0 0 0 0 128 128 255
-0.0664655 1.00574 4.25669 0 0 0 0 128 128 255
-0.0662835 1.01913 4.25909 0 0 0 0 128 128 255
-0.182928 1.52691 4.2597 0 0 0 0 128 128 255
-0.178646 1.50839 4.2597 0 0 0 0 128 128 255
-0.151375 1.39051 4.2597 0 0 0 0 128 128 255
-0.181474 1.52416 4.2603 0 0 0 0 128 128 255
-0.146765 1.37413 4.2603 0 0 0 0 128 128 255
-0.136972 1.33533 4.2609 0 0 0 0 128 128 255
-0.01662 0.815073 4.2609 0 0 0 0 128 128 255
-0.0633969 1.02082 4.2615 0 0 0 0 128 128 255
-0.138346 1.34836 4.2621 0 0 0 0 128 128 255
-0.0168671 0.823227 4.2621 0 0 0 0 128 128 255
-0.0130357 0.806665 4.2621 0 0 0 0 128 128 255
-0.127201 1.30372 4.26271 0 0 0 0 128 128 255
-0.0652217 1.0358 4.26271 0 0 0 0 128 128 255
-0.124743 1.30019 4.26391 0 0 0 0 128 128 255
-0.0792168 1.10338 4.26391 0 0 0 0 128 128 255
-0.00777182 0.794539 4.26391 0 0 0 0 128 128 255
-0.16859 1.49327 4.26451 0 0 0 0 128 128 255
-0.00676844 0.793745 4.26451 0 0 0 0 128 128 255
-0.149004 1.41569 4.26572 0 0 0 0 128 128 255
-0.162876 1.4792 4.26632 0 0 0 0 128 128 255
-0.0752251 1.10739 4.26752 0 0 0 0 128 128 255
-0.00918914 0.821924 4.26752 0 0 0 0 128 128 255
-0.00580847 0.80731 4.26752 0 0 0 0 128 128 255
-0.156608 1.46628 4.26873 0 0 0 0 128 128 255
-0.0860649 1.16133 4.26873 0 0 0 0 128 128 255
-0.132762 1.37736 4.27113 0 0 0 0 128 128 255
-0.115902 1.31865 4.27354 0 0 0 0 128 128 255
-0.132703 1.39483 4.27414 0 0 0 0 128 128 255
-0.0591496 1.0875 4.27595 0 0 0 0 128 128 255
0.0119465 0.783704 4.27655 0 0 0 0 128 128 255
-0.112608 1.33276 4.27836 0 0 0 0 128 128 255
-0.116788 1.35437 4.27896 0 0 0 0 128 128 255
0.0155091 0.782476 4.27896 0 0 0 0 128 128 255
0.0139098 0.796475 4.28016 0 0 0 0 128 128 255
-0.17543 1.62204 4.28137 0 0 0 0 128 128 255
-0.116606 1.36776 4.28137 0 0 0 0 128 128 255
0.0190718 0.781247 4.28137 0 0 0 0 128 128 255
-0.113574 1.3582 4.28197 0 0 0 0 128 128 255
-0.102429 1.31356 4.28257 0 0 0 0 128 128 255
-0.111916 1.36166 4.28378 0 0 0 0 128 128 255
-0.048934 1.09294 4.28438 0 0 0 0 128 128 255
-0.011012 0.946724 4.28739 0 0 0 0 128 128 255
-0.132062 1.47709 4.28859 0 0 0 0 128 128 255
-0.0681996 1.21165 4.2904 0 0 0 0 128 128 255
-0.0384497 1.08305 4.2904 0 0 0 0 128 128 255
0.0380555 0.755873 4.291 0 0 0 0 128 128 255
-0.132905 1.49845 4.2916 0 0 0 0 128 128 255
-0.129299 1.48286 4.2916 0 0 0 0 128 128 255
-0.105409 1.37959 4.2916 0 0 0 0 128 128 255
-0.00488994 0.945061 4.2916 0 0 0 0 128 128 255
0.0330755 0.784486 4.2922 0 0 0 0 128 128 255
0.0351039 0.775718 4.2922 0 0 0 0 128 128 255
0.0266414 0.815843 4.2928 0 0 0 0 128 128 255
-0.0368136 1.09369 4.29341 0 0 0 0 128 128 255
0.0356348 0.784052 4.29401 0 0 0 0 128 128 255
-0.109632 1.41556 4.29461 0 0 0 0 128 128 255
-0.0646803 1.22478 4.29521 0 0 0 0 128 128 255
-0.108527 1.41787 4.29581 0 0 0 0 128 128 255
0.000105172 0.94827 4.29581 0 0 0 0 128 128 255
0.0314328 0.812846 4.29581 0 0 0 0 128 128 255
-0.118385 1.4782 4.29882 0 0 0 0 128 128 255
-0.119861 1.48812 4.29943 0 0 0 0 128 128 255
-0.0430072 1.15589 4.29943 0 0 0 0 128 128 255
-0.0566534 1.21843 4.30003 0 0 0 0 128 128 255
-0.0185644 1.05378 4.30003 0 0 0 0 128 128 255
-0.00258428 0.991783 4.30123 0 0 0 0 128 128 255
-0.104128 1.43428 4.30183 0 0 0 0 128 128 255
-0.0263726 1.09816 4.30183 0 0 0 0 128 128 255
-0.00135554 0.990014 4.30183 0 0 0 0 128 128 255
-0.0583178 1.25397 4.30484 0 0 0 0 128 128 255
-0.0514763 1.23502 4.30665 0 0 0 0 128 128 255
-0.0957957 1.43724 4.30846 0 0 0 0 128 128 255
-0.00496817 1.0446 4.30846 0 0 0 0 128 128 255
0.0216265 0.929641 4.30846 0 0 0 0 128 128 255
-0.0503928 1.24451 4.30906 0 0 0 0 128 128 255
0.0122625 0.973663 4.30906 0 0 0 0 128 128 255
0.00287671 1.02487 4.31086 0 0 0 0 128 128 255
-0.0897973 1.43965 4.31327 0 0 0 0 128 128 255
0.00451285 1.03551 4.31387 0 0 0 0 128 128 255
-0.0439653 1.25216 4.31508 0 0 0 0 128 128 255
0.0350776 0.931726 4.31869 0 0 0 0 128 128 255
0.116541 0.583117 4.31929 0 0 0 0 128 128 255
0.117421 0.5864 4.32049 0 0 0 0 128 128 255
0.0170407 1.04867 4.32531 0 0 0 0 128 128 255
0.102459 0.679421 4.32531 0 0 0 0 128 128 255
0.122743 0.591736 4.32531 0 0 0 0 128 128 255
-0.115852 1.63377 4.32712 0 0 0 0 128 128 255
-0.111592 1.62244 4.32832 0 0 0 0 128 128 255
-0.11442 1.63821 4.32892 0 0 0 0 128 128 255
-0.112842 1.63139 4.32892 0 0 0 0 128 128 255
0.0175282 1.07136 4.32952 0 0 0 0 128 128 255
0.0216652 1.06411 4.33133 0 0 0 0 128 128 255
0.0388741 1.00035 4.33314 0 0 0 0 128 128 255
-0.105841 1.63301 4.33434 0 0 0 0 128 128 255
0.124061 0.671075 4.33976 0 0 0 0 128 128 255
0.126765 0.659383 4.33976 0 0 0 0 128 128 255
-0.174813 1.97014 4.34096 0 0 0 0 128 128 255
0.130183 0.669412 4.34397 0 0 0 0 128 128 255
0.13741 0.670057 4.34939 0 0 0 0 128 128 255
0.142303 0.670163 4.353 0 0 0 0 128 128 255
-0.124792 1.83185 4.3542 0 0 0 0 128 128 255
-0.124138 1.83611 4.35541 0 0 0 0 128 128 255
-0.1208 1.83586 4.35782 0 0 0 0 128 128 255
-0.118408 1.85386 4.36263 0 0 0 0 128 128 255
0.0204035 1.26089 4.36384 0 0 0 0 128 128 255
-0.110338 1.83315 4.36504 0 0 0 0 128 128 255
0.0721973 1.05116 4.36624 0 0 0 0 128 128 255
0.0287793 1.24948 4.36805 0 0 0 0 128 128 255
0.101759 0.948178 4.37046 0 0 0 0 128 128 255
0.0297393 1.26305 4.37106 0 0 0 0 128 128 255
0.0386092 1.23533 4.37287 0 0 0 0 128 128 255
0.0542188 1.18557 4.37587 0 0 0 0 128 128 255
0.0263737 1.30948 4.37648 0 0 0 0 128 128 255
-0.0937747 1.83595 4.37768 0 0 0 0 128 128 255
-0.0090324 1.46962 4.37768 0 0 0 0 128 128 255
0.11425 0.936698 4.37768 0 0 0 0 128 128 255
-0.092364 1.84757 4.38069 0 0 0 0 128 128 255
0.0608717 1.19224 4.38189 0 0 0 0 128 128 255
-0.0847445 1.8288 4.3831 0 0 0 0 128 128 255
0.121186 0.959857 4.38671 0 0 0 0 128 128 255
-0.0823521 1.8468 4.38791 0 0 0 0 128 128 255
-0.0851801 1.86257 4.38852 0 0 0 0 128 128 255
0.00699967 1.4641 4.38852 0 0 0 0 128 128 255
0.00132188 1.50281 4.39092 0 0 0 0 128 128 255
0.00683278 1.48253 4.39153 0 0 0 0 128 128 255
0.00738537 1.48369 4.39213 0 0 0 0 128 128 255
0.045678 1.32524 4.39333 0 0 0 0 128 128 255
0.0770057 1.18982 4.39333 0 0 0 0 128 128 255
0.0123003 1.47661 4.39454 0 0 0 0 128 128 255
0.13298 0.958479 4.39514 0 0 0 0 128 128 255
0.132958 0.965659 4.39634 0 0 0 0 128 128 255
0.243394 0.488266 4.39634 0 0 0 0 128 128 255
0.078373 1.21579 4.39875 0 0 0 0 128 128 255
0.181473 0.773653 4.39935 0 0 0 0 128 128 255
0.0161035 1.50623 4.40236 0 0 0 0 128 128 255
0.0149549 1.51828 4.40356 0 0 0 0 128 128 255
-0.0550576 1.83156 4.40537 0 0 0 0 128 128 255
0.262501 0.458815 4.40537 0 0 0 0 128 128 255
0.130037 1.04915 4.40838 0 0 0 0 128 128 255
0.036381 1.45755 4.40898 0 0 0 0 128 128 255
0.0335529 1.47332 4.40958 0 0 0 0 128 128 255
0.269524 0.453255 4.40958 0 0 0 0 128 128 255
0.125384 1.07989 4.41019 0 0 0 0 128 128 255
0.126961 1.07307 4.41019 0 0 0 0 128 128 255
0.0251922 1.51654 4.41079 0 0 0 0 128 128 255
0.0993201 1.20319 4.41199 0 0 0 0 128 128 255
0.0985204 1.21019 4.41259 0 0 0 0 128 128 255
0.0359671 1.48414 4.4132 0 0 0 0 128 128 255
0.101632 1.21091 4.415 0 0 0 0 128 128 255
-0.0349905 1.81568 4.41741 0 0 0 0 128 128 255
0.10497 1.21065 4.41741 0 0 0 0 128 128 255
0.0854635 1.29852 4.41801 0 0 0 0 128 128 255
0.0410423 1.49763 4.41922 0 0 0 0 128 128 255
0.224377 0.708651 4.41982 0 0 0 0 128 128 255
0.226384 0.707062 4.42102 0 0 0 0 128 128 255
0.245781 0.655097 4.42644 0 0 0 0 128 128 255
0.234367 0.715067 4.42825 0 0 0 0 128 128 255
0.23287 0.73217 4.43005 0 0 0 0 128 128 255
0.215472 0.821548 4.43246 0 0 0 0 128 128 255
0.0677256 1.46377 4.43306 0 0 0 0 128 128 255
0.247716 0.71405 4.43788 0 0 0 0 128 128 255
0.249069 0.708204 4.43788 0 0 0 0 128 128 255
0.256274 0.716029 4.4445 0 0 0 0 128 128 255
0.366484 0.239611 4.4445 0 0 0 0 128 128 255
0.319664 0.459722 4.44751 0 0 0 0 128 128 255
0.247703 0.792054 4.45112 0 0 0 0 128 128 255
0.326011 0.457084 4.45172 0 0 0 0 128 128 255
0.25147 0.797031 4.45473 0 0 0 0 128 128 255
0.33113 0.456216 4.45533 0 0 0 0 128 128 255
0.339673 0.426373 4.45654 0 0 0 0 128 128 255
0.339098 0.432399 4.45714 0 0 0 0 128 128 255
0.390463 0.217445 4.45834 0 0 0 0 128 128 255
0.158731 1.23336 4.46075 0 0 0 0 128 128 255
0.394804 0.216396 4.46135 0 0 0 0 128 128 255
0.342945 0.447658 4.46256 0 0 0 0 128 128 255
0.273834 0.757042 4.46436 0 0 0 0 128 128 255
0.275739 0.752351 4.46496 0 0 0 0 128 128 255
0.277193 0.749608 4.46557 0 0 0 0 128 128 255
0.356236 0.429178 4.46918 0 0 0 0 128 128 255
0.165726 1.27398 4.47279 0 0 0 0 128 128 255
0.40856 0.22779 4.47339 0 0 0 0 128 128 255
0.362009 0.432567 4.47399 0 0 0 0 128 128 255
0.127492 1.44989 4.4746 0 0 0 0 128 128 255
0.397575 0.292991 4.4764 0 0 0 0 128 128 255
0.40907 0.243303 4.4764 0 0 0 0 128 128 255
0.41794 0.215589 4.47821 0 0 0 0 128 128 255
0.35764 0.479797 4.47881 0 0 0 0 128 128 255
0.358193 0.480951 4.47941 0 0 0 0 128 128 255
0.447748 0.104448 4.48122 0 0 0 0 128 128 255
0.448526 0.104628 4.48182 0 0 0 0 128 128 255
0.41943 0.237489 4.48302 0 0 0 0 128 128 255
0.42529 0.212158 4.48302 0 0 0 0 128 128 255
0.410968 0.277614 4.48363 0 0 0 0 128 128 255
0.419758 0.239617 4.48363 0 0 0 0 128 128 255
0.255108 0.954913 4.48423 0 0 0 0 128 128 255
0.200297 1.20602 4.48664 0 0 0 0 128 128 255
0.260248 0.946864 4.48664 0 0 0 0 128 128 255
0.261826 0.940044 4.48664 0 0 0 0 128 128 255
0.41914 0.260003 4.48664 0 0 0 0 128 128 255
0.456327 0.0992479 4.48664 0 0 0 0 128 128 255
0.266886 0.921713 4.48724 0 0 0 0 128 128 255
0.259201 0.962018 4.48844 0 0 0 0 128 128 255
0.410859 0.313513 4.48965 0 0 0 0 128 128 255
0.454808 0.12353 4.48965 0 0 0 0 128 128 255
0.455812 0.122736 4.49025 0 0 0 0 128 128 255
0.469575 0.0951277 4.49567 0 0 0 0 128 128 255
0.210491 1.21864 4.49627 0 0 0 0 128 128 255
0.235261 1.11865 4.49747 0 0 0 0 128 128 255
0.162995 1.44168 4.49928 0 0 0 0 128 128 255
0.363211 0.586806 4.50108 0 0 0 0 128 128 255
0.363662 0.584857 4.50108 0 0 0 0 128 128 255
0.48051 0.0832875 4.50168 0 0 0 0 128 128 255
0.221077 1.21185 4.50289 0 0 0 0 128 128 255
0.476962 0.116338 4.50469 0 0 0 0 128 128 255
0.487061 0.0868559 4.5071 0 0 0 0 128 128 255
0.367894 0.619708 4.51011 0 0 0 0 128 128 255
0.377338 0.585968 4.51132 0 0 0 0 128 128 255
0.377564 0.584994 4.51132 0 0 0 0 128 128 255
0.1746 1.46592 4.51192 0 0 0 0 128 128 255
0.403461 0.480133 4.51252 0 0 0 0 128 128 255
0.380123 0.58456 4.51312 0 0 0 0 128 128 255
0.239545 1.20997 4.51613 0 0 0 0 128 128 255
0.176316 1.48684 4.51673 0 0 0 0 128 128 255
0.338814 0.784391 4.51673 0 0 0 0 128 128 255
0.1958 1.40616 4.51734 0 0 0 0 128 128 255
0.343176 0.776162 4.51854 0 0 0 0 128 128 255
0.199814 1.40298 4.51974 0 0 0 0 128 128 255
0.185142 1.47349 4.52095 0 0 0 0 128 128 255
0.294509 1.01843 4.52396 0 0 0 0 128 128 255
0.296247 1.03217 4.52757 0 0 0 0 128 128 255
0.365541 0.736174 4.52817 0 0 0 0 128 128 255
0.299483 1.02882 4.52937 0 0 0 0 128 128 255
0.352672 0.798887 4.52937 0 0 0 0 128 128 255
0.366624 0.745662 4.53058 0 0 0 0 128 128 255
0.263502 1.19498 4.53118 0 0 0 0 128 128 255
0.257476 1.23875 4.53419 0 0 0 0 128 128 255
0.306157 1.02831 4.53419 0 0 0 0 128 128 255
0.278763 1.15027 4.53479 0 0 0 0 128 128 255
0.30634 1.04169 4.5366 0 0 0 0 128 128 255
0.279825 1.16694 4.5384 0 0 0 0 128 128 255
0.220652 1.42627 4.53901 0 0 0 0 128 128 255
0.289655 1.15279 4.54322 0 0 0 0 128 128 255
0.204869 1.53348 4.54563 0 0 0 0 128 128 255
0.267706 1.27601 4.54804 0 0 0 0 128 128 255
0.274671 1.25299 4.54924 0 0 0 0 128 128 255
0.28301 1.21694 4.54924 0 0 0 0 128 128 255
0.323128 1.04352 4.54924 0 0 0 0 128 128 255
0.267787 1.2863 4.54984 0 0 0 0 128 128 255
0.27846 1.25079 4.55165 0 0 0 0 128 128 255
0.254773 1.36027 4.55285 0 0 0 0 128 128 255
0.275835 1.27276 4.55345 0 0 0 0 128 128 255
0.277965 1.2671 4.55405 0 0 0 0 128 128 255
0.286181 1.23513 4.55466 0 0 0 0 128 128 255
0.273538 1.29686 4.55586 0 0 0 0 128 128 255
0.259441 1.36135 4.55646 0 0 0 0 128 128 255
0.285789 1.25454 4.55767 0 0 0 0 128 128 255
0.319595 1.1084 4.55767 0 0 0 0 128 128 255
0.222414 1.54267 4.56007 0 0 0 0 128 128 255
0.281914 1.28546 4.56007 0 0 0 0 128 128 255
0.307709 1.17749 4.56068 0 0 0 0 128 128 255
0.284822 1.27997 4.56128 0 0 0 0 128 128 255
0.310741 1.16793 4.56128 0 0 0 0 128 128 255
0.312871 1.16227 4.56188 0 0 0 0 128 128 255
0.310428 1.19763 4.56609 0 0 0 0 128 128 255
0.321901 1.15512 4.5673 0 0 0 0 128 128 255
0.308437 1.23104 4.57031 0 0 0 0 128 128 255
0.26166 1.43679 4.57091 0 0 0 0 128 128 255
0.309048 1.24965 4.57392 0 0 0 0 128 128 255
0.284358 1.35993 4.57452 0 0 0 0 128 128 255
0.309601 1.25081 4.57452 0 0 0 0 128 128 255
0.311055 1.24806 4.57512 0 0 0 0 128 128 255
0.317918 1.22194 4.57573 0 0 0 0 128 128 255
0.273845 1.416 4.57633 0 0 0 0 128 128 255
0.302919 1.29032 4.57633 0 0 0 0 128 128 255
0.284642 1.37641 4.57753 0 0 0 0 128 128 255
0.295438 1.33683 4.57874 0 0 0 0 128 128 255
0.343219 1.13028 4.57874 0 0 0 0 128 128 255
0.337235 1.15969 4.57934 0 0 0 0 128 128 255
0.340841 1.1441 4.57934 0 0 0 0 128 128 255
0.306686 1.29529 4.57994 0 0 0 0 128 128 255
0.328322 1.20176 4.57994 0 0 0 0 128 128 255
0.341351 1.15962 4.58235 0 0 0 0 128 128 255
0.30156 1.33517 4.58295 0 0 0 0 128 128 255
0.305617 1.31763 4.58295 0 0 0 0 128 128 255
0.356262 1.11996 4.58656 0 0 0 0 128 128 255
0.301597 1.35981 4.58716 0 0 0 0 128 128 255
0.305879 1.3413 4.58716 0 0 0 0 128 128 255
0.313542 1.30817 4.58716 0 0 0 0 128 128 255
0.315222 1.30445 4.58776 0 0 0 0 128 128 255
0.309566 1.33599 4.58897 0 0 0 0 128 128 255
0.318232 1.30207 4.58957 0 0 0 0 128 128 255
0.316305 1.31394 4.59017 0 0 0 0 128 128 255
0.319788 1.30243 4.59077 0 0 0 0 128 128 255
0.354271 1.15337 4.59077 0 0 0 0 128 128 255
0.310729 1.35576 4.59318 0 0 0 0 128 128 255
0.325234 1.30369 4.59499 0 0 0 0 128 128 255
0.339433 1.24231 4.59499 0 0 0 0 128 128 255
0.374403 1.11594 4.5992 0 0 0 0 128 128 255
0.364137 1.16386 4.5998 0 0 0 0 128 128 255
0.318524 1.38938 4.60462 0 0 0 0 128 128 255
0.365832 1.19197 4.60582 0 0 0 0 128 128 255
0.376054 1.15841 4.60763 0 0 0 0 128 128 255
0.302865 1.49251 4.61064 0 0 0 0 128 128 255
0.354578 1.2725 4.61124 0 0 0 0 128 128 255
0.347381 1.3355 4.61666 0 0 0 0 128 128 255
0.360941 1.30169 4.62087 0 0 0 0 128 128 255
0.310434 1.5271 4.62208 0 0 0 0 128 128 255
0.364176 1.29833 4.62268 0 0 0 0 128 128 255
0.368517 1.29728 4.62569 0 0 0 0 128 128 255
0.370502 1.30287 4.6281 0 0 0 0 128 128 255
0.383552 1.25354 4.6293 0 0 0 0 128 128 255
0.364861 1.36623 4.63472 0 0 0 0 128 128 255
0.259362 1.82937 4.63592 0 0 0 0 128 128 255
0.285638 1.7831 4.64736 0 0 0 0 128 128 255
0.372751 1.44196 4.65338 0 0 0 0 128 128 255
0.290626 1.82531 4.65819 0 0 0 0 128 128 255
0.372454 1.50347 4.66361 0 0 0 0 128 128 255
0.304652 1.82137 4.66783 0 0 0 0 128 128 255
0.397544 1.44461 4.67204 0 0 0 0 128 128 255
0.331402 1.8758 4.69672 0 0 0 0 128 128 255
0.344023 1.82124 4.69672 0 0 0 0 128 128 255
0.333532 1.87014 4.69732 0 0 0 0 128 128 255
0.338018 1.85783 4.69853 0 0 0 0 128 128 255
