ply
format ascii 1.0
comment VCGLIB generated
element vertex 731
property float x
property float y
property float z
property float nx
property float ny
property float nz
property uchar red
property uchar green
property uchar blue
property uchar alpha
element face 0
property list uchar int vertex_indices
end_header
-0.190316 -0.152452 5.54989 0 0 0 128 128 128 255
-0.191927 -0.0954027 5.55268 0 0 0 128 128 128 255
-0.199978 -0.0730445 5.55322 0 0 0 128 128 128 255
-0.191232 -0.0452558 5.55529 0 0 0 128 128 128 255
-0.202007 -0.0259719 5.55547 0 0 0 128 128 128 255
-0.178654 -0.0548262 5.55574 0 0 0 128 128 128 255
-0.199458 0.0302878 5.55853 0 0 0 128 128 128 255
-0.189128 0.0434104 5.55996 0 0 0 128 128 128 255
-0.203279 0.0870381 5.56113 0 0 0 128 128 128 255
-0.187215 0.0653137 5.56122 0 0 0 128 128 128 255
-0.128189 -0.00335279 5.56212 0 0 0 128 128 128 255
-0.119771 -0.0121335 5.5623 0 0 0 128 128 128 255
-0.141013 0.0242212 5.56257 0 0 0 128 128 128 255
-0.142735 0.0690807 5.56473 0 0 0 128 128 128 255
-0.11856 0.0407887 5.56509 0 0 0 128 128 128 255
-0.192559 0.152521 5.56527 0 0 0 128 128 128 255
-0.11531 0.0660295 5.56662 0 0 0 128 128 128 255
-0.0977007 0.052631 5.56725 0 0 0 128 128 128 255
-0.16041 0.147854 5.56743 0 0 0 128 128 128 255
-0.0754768 0.0254276 5.56752 0 0 0 128 128 128 255
-0.139008 0.120089 5.56761 0 0 0 128 128 128 255
-0.108267 0.0769033 5.5677 0 0 0 128 128 128 255
-0.0931738 0.0654188 5.56824 0 0 0 128 128 128 255
0.0023371 -0.061889 5.56887 0 0 0 128 128 128 255
-0.161419 0.181086 5.56905 0 0 0 128 128 128 255
-0.101631 0.0971915 5.56923 0 0 0 128 128 128 255
-0.188405 0.232897 5.56968 0 0 0 128 128 128 255
-0.000989795 -0.0411459 5.56968 0 0 0 128 128 128 255
-0.0544096 0.0422584 5.56995 0 0 0 128 128 128 255
-0.182443 0.241821 5.57058 0 0 0 128 128 128 255
-0.114702 0.142769 5.57058 0 0 0 128 128 128 255
-0.0760581 0.0880276 5.57067 0 0 0 128 128 128 255
0.140098 -0.224511 5.57085 0 0 0 128 128 128 255
-0.0397215 0.0401884 5.57094 0 0 0 128 128 128 255
-0.132914 0.179985 5.57112 0 0 0 128 128 128 255
0.126194 -0.198887 5.57112 0 0 0 128 128 128 255
0.155192 -0.235996 5.57139 0 0 0 128 128 128 255
0.160837 -0.24425 5.57139 0 0 0 128 128 128 255
-0.142401 0.206207 5.57175 0 0 0 128 128 128 255
0.113884 -0.168538 5.57175 0 0 0 128 128 128 255
0.120461 -0.16404 5.57247 0 0 0 128 128 128 255
0.103427 -0.132076 5.57283 0 0 0 128 128 128 255
0.0209598 -0.00796244 5.57301 0 0 0 128 128 128 255
0.109023 -0.136729 5.57301 0 0 0 128 128 128 255
0.157827 -0.206329 5.5731 0 0 0 128 128 128 255
-0.10133 0.176144 5.57328 0 0 0 128 128 128 255
-0.150184 0.249344 5.57337 0 0 0 128 128 128 255
0.131455 -0.158944 5.57355 0 0 0 128 128 128 255
-0.17004 0.285436 5.57373 0 0 0 128 128 128 255
-0.133912 0.232608 5.57373 0 0 0 128 128 128 255
-0.0780261 0.150891 5.57373 0 0 0 128 128 128 255
0.21008 -0.26509 5.574 0 0 0 128 128 128 255
0.0928215 -0.0848116 5.57445 0 0 0 128 128 128 255
0.0764016 -0.0572735 5.57463 0 0 0 128 128 128 255
-0.0535333 0.139777 5.57499 0 0 0 128 128 128 255
0.043156 0.00721738 5.57544 0 0 0 128 128 128 255
0.032688 0.0242883 5.57553 0 0 0 128 128 128 255
0.270295 -0.319617 5.57571 0 0 0 128 128 128 255
-0.105972 0.232332 5.5758 0 0 0 128 128 128 255
0.250231 -0.288514 5.5758 0 0 0 128 128 128 255
0.113571 -0.0851591 5.57598 0 0 0 128 128 128 255
-0.168424 0.328943 5.57607 0 0 0 128 128 128 255
-0.000508368 0.0851784 5.57616 0 0 0 128 128 128 255
0.0847319 -0.0394615 5.57616 0 0 0 128 128 128 255
0.115215 -0.0840347 5.57616 0 0 0 128 128 128 255
-0.0482337 0.156728 5.57625 0 0 0 128 128 128 255
0.195632 -0.199858 5.57625 0 0 0 128 128 128 255
0.162842 -0.148382 5.57643 0 0 0 128 128 128 255
0.0885354 -0.0344374 5.5767 0 0 0 128 128 128 255
0.162486 -0.142569 5.5767 0 0 0 128 128 128 255
-0.188686 0.374449 5.57688 0 0 0 128 128 128 255
-0.107446 0.259188 5.57706 0 0 0 128 128 128 255
-0.284186 0.521148 5.57724 0 0 0 128 128 128 255
-0.189349 0.382476 5.57724 0 0 0 128 128 128 255
-0.0411912 0.167601 5.57733 0 0 0 128 128 128 255
0.301622 -0.324845 5.57778 0 0 0 128 128 128 255
0.0545773 0.0416811 5.57805 0 0 0 128 128 128 255
0.082238 0.00123513 5.57805 0 0 0 128 128 128 255
0.289411 -0.301698 5.57805 0 0 0 128 128 128 255
-0.0518567 0.199075 5.57814 0 0 0 128 128 128 255
0.173797 -0.120295 5.57868 0 0 0 128 128 128 255
-0.0808931 0.259176 5.57904 0 0 0 128 128 128 255
-0.020798 0.173068 5.57913 0 0 0 128 128 128 255
0.138908 -0.0569283 5.57931 0 0 0 128 128 128 255
0.00255495 0.144213 5.5794 0 0 0 128 128 128 255
0.00481296 0.140912 5.5794 0 0 0 128 128 128 255
-0.260554 0.532464 5.57958 0 0 0 128 128 128 255
-0.0482999 0.222103 5.57958 0 0 0 128 128 128 255
0.00502121 0.1459 5.57967 0 0 0 128 128 128 255
0.330176 -0.329547 5.57967 0 0 0 128 128 128 255
-0.0904295 0.288998 5.57985 0 0 0 128 128 128 255
-0.100898 0.306069 5.57994 0 0 0 128 128 128 255
-0.0817044 0.278005 5.57994 0 0 0 128 128 128 255
0.221692 -0.163864 5.58003 0 0 0 128 128 128 255
0.0954515 0.0260211 5.5803 0 0 0 128 128 128 255
0.0861125 0.041441 5.58039 0 0 0 128 128 128 255
0.241044 -0.183339 5.58048 0 0 0 128 128 128 255
-0.0353054 0.222509 5.58057 0 0 0 128 128 128 255
0.20348 -0.126648 5.58057 0 0 0 128 128 128 255
0.056402 0.0901772 5.58066 0 0 0 128 128 128 255
0.341428 -0.323064 5.58084 0 0 0 128 128 128 255
-0.0246785 0.214027 5.58092 0 0 0 128 128 128 255
0.0300291 0.137561 5.58111 0 0 0 128 128 128 255
-0.109453 0.345043 5.58128 0 0 0 128 128 128 255
0.286523 -0.232195 5.58138 0 0 0 128 128 128 255
0.0953636 0.0526138 5.58165 0 0 0 128 128 128 255
-0.0269751 0.240321 5.58209 0 0 0 128 128 128 255
0.348678 -0.307202 5.58218 0 0 0 128 128 128 255
0.302082 -0.237304 5.58227 0 0 0 128 128 128 255
-0.135152 0.403792 5.58236 0 0 0 128 128 128 255
-0.222184 0.53811 5.58272 0 0 0 128 128 128 255
-0.00659269 0.226396 5.5829 0 0 0 128 128 128 255
0.136643 0.0275392 5.58344 0 0 0 128 128 128 255
0.270382 -0.164487 5.58362 0 0 0 128 128 128 255
0.0117892 0.217161 5.5838 0 0 0 128 128 128 255
-0.208823 0.552093 5.58443 0 0 0 128 128 128 255
0.194184 -0.0336626 5.58461 0 0 0 128 128 128 255
-0.0420855 0.31358 5.5847 0 0 0 128 128 128 255
0.194442 -0.032275 5.5847 0 0 0 128 128 128 255
-0.0206836 0.285814 5.58488 0 0 0 128 128 128 255
0.0278638 0.214827 5.58488 0 0 0 128 128 128 255
0.254488 -0.114782 5.58497 0 0 0 128 128 128 255
0.0275075 0.220641 5.58515 0 0 0 128 128 128 255
0.22139 -0.0610935 5.58524 0 0 0 128 128 128 255
-0.197215 0.552763 5.58533 0 0 0 128 128 128 255
-0.129474 0.453711 5.58533 0 0 0 128 128 128 255
0.309404 -0.18626 5.58542 0 0 0 128 128 128 255
0.323516 -0.206896 5.58542 0 0 0 128 128 128 255
-0.130444 0.463951 5.58578 0 0 0 128 128 128 255
0.0899702 0.143421 5.58587 0 0 0 128 128 128 255
-0.0808174 0.394914 5.58596 0 0 0 128 128 128 255
0.273385 -0.121242 5.58605 0 0 0 128 128 128 255
-0.15143 0.501694 5.58614 0 0 0 128 128 128 255
0.290835 -0.14323 5.58623 0 0 0 128 128 128 255
-0.077529 0.397163 5.58632 0 0 0 128 128 128 255
-0.00341988 0.297621 5.58677 0 0 0 128 128 128 255
0.277704 -0.113443 5.58677 0 0 0 128 128 128 255
0.107481 0.137224 5.58686 0 0 0 128 128 128 255
0.111125 0.133659 5.58695 0 0 0 128 128 128 255
0.0365612 0.246217 5.58713 0 0 0 128 128 128 255
0.0541704 0.232818 5.58776 0 0 0 128 128 128 255
0.176103 0.0545256 5.58776 0 0 0 128 128 128 255
-0.00294334 0.323388 5.58812 0 0 0 128 128 128 255
-0.0597008 0.408144 5.58821 0 0 0 128 128 128 255
0.440451 -0.323186 5.58821 0 0 0 128 128 128 255
-0.0953139 0.463747 5.58839 0 0 0 128 128 128 255
-0.0434781 0.395009 5.58875 0 0 0 128 128 128 255
0.311596 -0.124186 5.58875 0 0 0 128 128 128 255
0.1755 0.078343 5.58893 0 0 0 128 128 128 255
0.246886 -0.0242735 5.58902 0 0 0 128 128 128 255
0.0315023 0.292428 5.58911 0 0 0 128 128 128 255
0.0661947 0.243465 5.5892 0 0 0 128 128 128 255
0.282044 -0.0668611 5.58947 0 0 0 128 128 128 255
-0.117933 0.519756 5.58956 0 0 0 128 128 128 255
0.341783 -0.147155 5.58983 0 0 0 128 128 128 255
-0.0694839 0.455971 5.58992 0 0 0 128 128 128 255
-0.0446457 0.419652 5.58992 0 0 0 128 128 128 255
-0.0458241 0.424903 5.5901 0 0 0 128 128 128 255
0.146365 0.145645 5.59019 0 0 0 128 128 128 255
0.248491 -0.000157088 5.59037 0 0 0 128 128 128 255
-0.0917463 0.506166 5.59082 0 0 0 128 128 128 255
0.279956 -0.035579 5.59091 0 0 0 128 128 128 255
0.0798138 0.258836 5.591 0 0 0 128 128 128 255
0.27847 -0.0281144 5.59118 0 0 0 128 128 128 255
0.308082 -0.0696491 5.59127 0 0 0 128 128 128 255
0.385112 -0.18052 5.59136 0 0 0 128 128 128 255
-0.0995893 0.533513 5.59163 0 0 0 128 128 128 255
0.304596 -0.057495 5.59163 0 0 0 128 128 128 255
-0.125863 0.573695 5.59172 0 0 0 128 128 128 255
-0.11796 0.562139 5.59172 0 0 0 128 128 128 255
0.361869 -0.139476 5.59172 0 0 0 128 128 128 255
-7.74264e-05 0.396826 5.59208 0 0 0 128 128 128 255
0.493508 -0.319611 5.59235 0 0 0 128 128 128 255
0.300656 -0.0323258 5.59262 0 0 0 128 128 128 255
0.152607 0.194739 5.59316 0 0 0 128 128 128 255
0.0991876 0.278143 5.59343 0 0 0 128 128 128 255
0.0870261 0.29769 5.59352 0 0 0 128 128 128 255
0.357117 -0.0954775 5.59361 0 0 0 128 128 128 255
0.167345 0.189068 5.59397 0 0 0 128 128 128 255
-0.0709258 0.541 5.59415 0 0 0 128 128 128 255
-0.0636366 0.533871 5.59433 0 0 0 128 128 128 255
0.364209 -0.0882044 5.59451 0 0 0 128 128 128 255
0.309967 -0.00536251 5.59469 0 0 0 128 128 128 255
0.311354 -0.00562569 5.59478 0 0 0 128 128 128 255
-0.0708657 0.556791 5.59496 0 0 0 128 128 128 255
0.411172 -0.144525 5.59514 0 0 0 128 128 128 255
0.134258 0.262148 5.59523 0 0 0 128 128 128 255
0.334093 -0.0300538 5.59523 0 0 0 128 128 128 255
0.412252 -0.142575 5.59532 0 0 0 128 128 128 255
0.524282 -0.304623 5.59541 0 0 0 128 128 128 255
0.221657 0.141408 5.59559 0 0 0 128 128 128 255
-0.0651605 0.564327 5.59577 0 0 0 128 128 128 255
0.197899 0.179677 5.59577 0 0 0 128 128 128 255
-0.0302104 0.516751 5.59595 0 0 0 128 128 128 255
0.212735 0.166805 5.59622 0 0 0 128 128 128 255
-0.03123 0.530592 5.59658 0 0 0 128 128 128 255
0.0880395 0.365015 5.59703 0 0 0 128 128 128 255
-0.0378945 0.552687 5.59721 0 0 0 128 128 128 255
0.139618 0.29489 5.5973 0 0 0 128 128 128 255
0.366549 -0.0369331 5.5973 0 0 0 128 128 128 255
0.234712 0.157605 5.59739 0 0 0 128 128 128 255
0.0943586 0.368125 5.59766 0 0 0 128 128 128 255
0.195871 0.22675 5.59802 0 0 0 128 128 128 255
0.188998 0.243856 5.59838 0 0 0 128 128 128 255
0.0436133 0.458205 5.59847 0 0 0 128 128 128 255
0.120951 0.345121 5.59847 0 0 0 128 128 128 255
0.226206 0.192978 5.59856 0 0 0 128 128 128 255
0.116385 0.355325 5.59865 0 0 0 128 128 128 255
0.346703 0.0185496 5.59865 0 0 0 128 128 128 255
0.523958 -0.240635 5.59865 0 0 0 128 128 128 255
0.169142 0.279948 5.59874 0 0 0 128 128 128 255
-0.0281776 0.570236 5.59883 0 0 0 128 128 128 255
0.0109815 0.518269 5.5991 0 0 0 128 128 128 255
0.0140616 0.51553 5.59919 0 0 0 128 128 128 255
0.233654 0.194438 5.59919 0 0 0 128 128 128 255
0.0933114 0.424349 5.60045 0 0 0 128 128 128 255
0.0709888 0.458754 5.60054 0 0 0 128 128 128 255
0.172035 0.311002 5.60054 0 0 0 128 128 128 255
0.0161331 0.546022 5.6009 0 0 0 128 128 128 255
0.00792307 0.559791 5.60099 0 0 0 128 128 128 255
0.0978876 0.433536 5.60126 0 0 0 128 128 128 255
0.285818 0.162269 5.60144 0 0 0 128 128 128 255
0.210076 0.280078 5.6018 0 0 0 128 128 128 255
0.0928673 0.456756 5.60207 0 0 0 128 128 128 255
0.0316539 0.563906 5.60297 0 0 0 128 128 128 255
0.0640883 0.518244 5.60306 0 0 0 128 128 128 255
0.310421 0.163345 5.60332 0 0 0 128 128 128 255
0.314274 0.164768 5.60368 0 0 0 128 128 128 255
0.141913 0.450319 5.60539 0 0 0 128 128 128 255
0.15146 0.439887 5.60557 0 0 0 128 128 128 255
0.185341 0.409753 5.60656 0 0 0 128 128 128 255
0.586704 -0.177128 5.60656 0 0 0 128 128 128 255
0.116938 0.516831 5.60692 0 0 0 128 128 128 255
0.172725 0.442315 5.60728 0 0 0 128 128 128 255
0.114482 0.534536 5.60764 0 0 0 128 128 128 255
0.203219 0.417133 5.60827 0 0 0 128 128 128 255
0.14359 0.509617 5.60854 0 0 0 128 128 128 255
0.116751 0.550625 5.60863 0 0 0 128 128 128 255
0.644832 -0.200373 5.60971 0 0 0 128 128 128 255
0.655557 -0.216056 5.60971 0 0 0 128 128 128 255
0.642475 -0.18987 5.61007 0 0 0 128 128 128 255
0.17558 0.496361 5.61025 0 0 0 128 128 128 255
0.213045 0.446871 5.61052 0 0 0 128 128 128 255
0.640644 -0.1572 5.6116 0 0 0 128 128 128 255
0.151377 0.567037 5.61205 0 0 0 128 128 128 255
0.179871 0.546544 5.61313 0 0 0 128 128 128 255
0.285077 0.398003 5.6134 0 0 0 128 128 128 255
0.215594 0.503131 5.61358 0 0 0 128 128 128 255
0.206156 0.525753 5.61403 0 0 0 128 128 128 255
0.336458 0.34228 5.61439 0 0 0 128 128 128 255
0.348263 0.328546 5.61457 0 0 0 128 128 128 255
0.326307 0.376529 5.61538 0 0 0 128 128 128 255
0.222389 0.532009 5.61556 0 0 0 128 128 128 255
0.585059 0.0034703 5.61565 0 0 0 128 128 128 255
0.334934 0.372736 5.61583 0 0 0 128 128 128 255
0.482478 0.162288 5.6161 0 0 0 128 128 128 255
0.483508 0.167838 5.61646 0 0 0 128 128 128 255
0.493571 0.160182 5.61682 0 0 0 128 128 128 255
0.511635 0.133768 5.61682 0 0 0 128 128 128 255
0.224817 0.556687 5.617 0 0 0 128 128 128 255
0.251299 0.521493 5.61718 0 0 0 128 128 128 255
0.271265 0.497591 5.61745 0 0 0 128 128 128 255
0.23278 0.560922 5.61781 0 0 0 128 128 128 255
0.662369 -0.0672303 5.61781 0 0 0 128 128 128 255
0.355387 0.393993 5.61844 0 0 0 128 128 128 255
0.676026 -0.0748508 5.61844 0 0 0 128 128 128 255
0.517093 0.159308 5.61853 0 0 0 128 128 128 255
0.672897 -0.0685106 5.61853 0 0 0 128 128 128 255
0.257065 0.544819 5.6188 0 0 0 128 128 128 255
0.275644 0.521181 5.61898 0 0 0 128 128 128 255
0.652585 -0.0194039 5.61952 0 0 0 128 128 128 255
0.654279 -0.0218802 5.61952 0 0 0 128 128 128 255
0.280379 0.538957 5.62024 0 0 0 128 128 128 255
0.487454 0.243226 5.6206 0 0 0 128 128 128 255
0.700837 -0.0687865 5.6206 0 0 0 128 128 128 255
0.276844 0.554712 5.62078 0 0 0 128 128 128 255
0.48684 0.247652 5.62078 0 0 0 128 128 128 255
0.284698 0.546757 5.62096 0 0 0 128 128 128 255
0.312775 0.516287 5.6215 0 0 0 128 128 128 255
0.62459 0.0656385 5.62177 0 0 0 128 128 128 255
0.565525 0.157297 5.62204 0 0 0 128 128 128 255
0.646249 0.0392605 5.62204 0 0 0 128 128 128 255
0.565635 0.169487 5.62267 0 0 0 128 128 128 255
0.340507 0.511023 5.6233 0 0 0 128 128 128 255
0.596485 0.138491 5.62339 0 0 0 128 128 128 255
0.688658 0.0125351 5.62384 0 0 0 128 128 128 255
0.316907 0.557881 5.62393 0 0 0 128 128 128 255
0.670287 0.0411619 5.62393 0 0 0 128 128 128 255
0.569498 0.190301 5.62402 0 0 0 128 128 128 255
0.356433 0.519492 5.62492 0 0 0 128 128 128 255
0.624524 0.131014 5.6251 0 0 0 128 128 128 255
0.631298 0.121109 5.6251 0 0 0 128 128 128 255
0.604361 0.169318 5.62555 0 0 0 128 128 128 255
0.613245 0.166914 5.62608 0 0 0 128 128 128 255
0.680837 0.0786642 5.62662 0 0 0 128 128 128 255
0.384888 0.521991 5.62716 0 0 0 128 128 128 255
0.687463 0.0795611 5.62716 0 0 0 128 128 128 255
0.629577 0.165968 5.62725 0 0 0 128 128 128 255
0.392742 0.514036 5.62734 0 0 0 128 128 128 255
0.870017 -0.162673 5.62842 0 0 0 128 128 128 255
0.619487 0.216008 5.62905 0 0 0 128 128 128 255
0.620616 0.214357 5.62905 0 0 0 128 128 128 255
0.628519 0.202801 5.62905 0 0 0 128 128 128 255
0.877981 -0.158438 5.62923 0 0 0 128 128 128 255
0.418731 0.514849 5.62932 0 0 0 128 128 128 255
0.621706 0.235698 5.63022 0 0 0 128 128 128 255
0.418128 0.538666 5.63049 0 0 0 128 128 128 255
0.903504 -0.164002 5.63085 0 0 0 128 128 128 255
0.636602 0.238616 5.63148 0 0 0 128 128 128 255
0.659747 0.204774 5.63148 0 0 0 128 128 128 255
0.632514 0.274588 5.63301 0 0 0 128 128 128 255
0.798072 0.0413259 5.63346 0 0 0 128 128 128 255
0.907488 -0.111606 5.63382 0 0 0 128 128 128 255
0.951985 -0.169614 5.63418 0 0 0 128 128 128 255
0.658552 0.2718 5.63481 0 0 0 128 128 128 255
0.474474 0.54449 5.63499 0 0 0 128 128 128 255
0.768274 0.116655 5.63508 0 0 0 128 128 128 255
0.667178 0.268007 5.63526 0 0 0 128 128 128 255
0.665742 0.271871 5.63535 0 0 0 128 128 128 255
0.761144 0.132374 5.63535 0 0 0 128 128 128 255
0.90535 -0.0767232 5.63544 0 0 0 128 128 128 255
0.761867 0.140137 5.6358 0 0 0 128 128 128 255
1.03946 -0.255172 5.63634 0 0 0 128 128 128 255
1.04166 -0.254873 5.63652 0 0 0 128 128 128 255
0.813812 0.0835891 5.63679 0 0 0 128 128 128 255
0.925535 -0.0762453 5.63697 0 0 0 128 128 128 255
1.05922 -0.264671 5.63733 0 0 0 128 128 128 255
0.59941 0.409442 5.63742 0 0 0 128 128 128 255
0.717649 0.238315 5.63751 0 0 0 128 128 128 255
0.960644 -0.115232 5.6376 0 0 0 128 128 128 255
0.844515 0.0633955 5.63805 0 0 0 128 128 128 255
0.963625 -0.11077 5.63805 0 0 0 128 128 128 255
0.696258 0.285472 5.63832 0 0 0 128 128 128 255
0.847545 0.0642568 5.63832 0 0 0 128 128 128 255
0.981185 -0.120568 5.63886 0 0 0 128 128 128 255
0.556886 0.505144 5.63913 0 0 0 128 128 128 255
0.635352 0.390409 5.63913 0 0 0 128 128 128 255
0.681077 0.323549 5.63913 0 0 0 128 128 128 255
1.06325 -0.235267 5.63913 0 0 0 128 128 128 255
0.679641 0.327413 5.63922 0 0 0 128 128 128 255
0.624785 0.414681 5.63958 0 0 0 128 128 128 255
0.696992 0.312627 5.63976 0 0 0 128 128 128 255
0.657992 0.373182 5.63994 0 0 0 128 128 128 255
0.892262 0.0306288 5.63994 0 0 0 128 128 128 255
0.745748 0.246628 5.64003 0 0 0 128 128 128 255
1.01076 -0.139111 5.64012 0 0 0 128 128 128 255
1.09226 -0.252984 5.64039 0 0 0 128 128 128 255
1.05469 -0.196293 5.64048 0 0 0 128 128 128 255
1.05521 -0.193517 5.64066 0 0 0 128 128 128 255
0.643068 0.412647 5.64084 0 0 0 128 128 128 255
0.858402 0.0995459 5.64093 0 0 0 128 128 128 255
1.02519 -0.142568 5.64102 0 0 0 128 128 128 255
1.06722 -0.202262 5.64111 0 0 0 128 128 128 255
0.664788 0.402059 5.64192 0 0 0 128 128 128 255
1.01478 -0.109707 5.64192 0 0 0 128 128 128 255
0.955102 -0.0136222 5.64237 0 0 0 128 128 128 255
0.59993 0.512774 5.64273 0 0 0 128 128 128 255
0.764004 0.286977 5.64345 0 0 0 128 128 128 255
1.04272 -0.109983 5.64399 0 0 0 128 128 128 255
0.95554 0.035137 5.64489 0 0 0 128 128 128 255
1.02662 -0.0652664 5.64507 0 0 0 128 128 128 255
0.641319 0.49989 5.64516 0 0 0 128 128 128 255
0.769413 0.316118 5.64534 0 0 0 128 128 128 255
0.698751 0.426498 5.6457 0 0 0 128 128 128 255
0.776504 0.323391 5.64624 0 0 0 128 128 128 255
1.05198 -0.0794188 5.64624 0 0 0 128 128 128 255
1.14456 -0.214789 5.64624 0 0 0 128 128 128 255
0.718054 0.410623 5.64633 0 0 0 128 128 128 255
1.09309 -0.132474 5.6466 0 0 0 128 128 128 255
0.718678 0.425588 5.64714 0 0 0 128 128 128 255
1.03675 -0.0377409 5.64723 0 0 0 128 128 128 255
0.667209 0.507904 5.6475 0 0 0 128 128 128 255
1.07951 -0.0896714 5.64777 0 0 0 128 128 128 255
1.15063 -0.193676 5.64777 0 0 0 128 128 128 255
0.660446 0.5372 5.64849 0 0 0 128 128 128 255
0.678204 0.513 5.64857 0 0 0 128 128 128 255
0.771911 0.375978 5.64857 0 0 0 128 128 128 255
0.76591 0.390046 5.64884 0 0 0 128 128 128 255
0.664151 0.549426 5.64938 0 0 0 128 128 128 255
1.02092 0.0277543 5.64938 0 0 0 128 128 128 255
0.74852 0.427824 5.64947 0 0 0 128 128 128 255
0.679245 0.537941 5.64992 0 0 0 128 128 128 255
0.757404 0.42542 5.65001 0 0 0 128 128 128 255
0.889092 0.241684 5.65046 0 0 0 128 128 128 255
0.709481 0.511372 5.65082 0 0 0 128 128 128 255
0.711997 0.509458 5.65091 0 0 0 128 128 128 255
1.10597 -0.0630914 5.65109 0 0 0 128 128 128 255
1.02818 0.0630077 5.65172 0 0 0 128 128 128 255
1.05245 0.0275142 5.65172 0 0 0 128 128 128 255
1.21247 -0.204695 5.65181 0 0 0 128 128 128 255
0.774311 0.44304 5.65217 0 0 0 128 128 128 255
0.742343 0.495078 5.65244 0 0 0 128 128 128 255
0.882905 0.289546 5.65244 0 0 0 128 128 128 255
1.21986 -0.199635 5.65262 0 0 0 128 128 128 255
0.891531 0.285754 5.65289 0 0 0 128 128 128 255
0.708325 0.555406 5.65298 0 0 0 128 128 128 255
0.731064 0.530978 5.65343 0 0 0 128 128 128 255
0.87938 0.324692 5.65397 0 0 0 128 128 128 255
0.727222 0.548946 5.65406 0 0 0 128 128 128 255
1.24431 -0.207148 5.65406 0 0 0 128 128 128 255
0.746376 0.543873 5.65523 0 0 0 128 128 128 255
0.939398 0.284568 5.6564 0 0 0 128 128 128 255
0.787497 0.510209 5.65658 0 0 0 128 128 128 255
0.884751 0.376825 5.65703 0 0 0 128 128 128 255
0.88383 0.383464 5.6573 0 0 0 128 128 128 255
0.727671 0.617096 5.65757 0 0 0 128 128 128 255
0.729622 0.616007 5.65766 0 0 0 128 128 128 255
0.812872 0.515448 5.65874 0 0 0 128 128 128 255
0.886258 0.408142 5.65874 0 0 0 128 128 128 255
0.983561 0.271157 5.65901 0 0 0 128 128 128 255
0.91382 0.374898 5.6591 0 0 0 128 128 128 255
0.988028 0.268154 5.65919 0 0 0 128 128 128 255
0.830788 0.499837 5.65928 0 0 0 128 128 128 255
0.805238 0.547783 5.65982 0 0 0 128 128 128 255
1.27851 -0.119547 5.66108 0 0 0 128 128 128 255
1.00329 0.28465 5.66117 0 0 0 128 128 128 255
0.833019 0.538918 5.66144 0 0 0 128 128 128 255
0.967064 0.344679 5.66153 0 0 0 128 128 128 255
0.966669 0.373485 5.66297 0 0 0 128 128 128 255
0.807172 0.608469 5.66306 0 0 0 128 128 128 255
1.1036 0.190909 5.66387 0 0 0 128 128 128 255
0.864148 0.548093 5.66423 0 0 0 128 128 128 255
0.818939 0.617728 5.66441 0 0 0 128 128 128 255
0.76331 0.700833 5.6645 0 0 0 128 128 128 255
0.905774 0.497813 5.66477 0 0 0 128 128 128 255
1.11285 0.202082 5.66513 0 0 0 128 128 128 255
1.46511 -0.293595 5.66612 0 0 0 128 128 128 255
0.943973 0.475478 5.66648 0 0 0 128 128 128 255
0.836361 0.638123 5.66675 0 0 0 128 128 128 255
0.916521 0.520912 5.66675 0 0 0 128 128 128 255
1.07556 0.298943 5.66729 0 0 0 128 128 128 255
0.959434 0.477571 5.66774 0 0 0 128 128 128 255
0.938805 0.509499 5.66783 0 0 0 128 128 128 255
0.925465 0.534298 5.6681 0 0 0 128 128 128 255
0.793628 0.728836 5.66819 0 0 0 128 128 128 255
0.995157 0.434158 5.66819 0 0 0 128 128 128 255
1.05864 0.343097 5.66828 0 0 0 128 128 128 255
0.79245 0.734088 5.66837 0 0 0 128 128 128 255
1.28526 0.0134878 5.66837 0 0 0 128 128 128 255
0.925624 0.542887 5.66855 0 0 0 128 128 128 255
1.01451 0.414682 5.66864 0 0 0 128 128 128 255
1.02714 0.401511 5.66891 0 0 0 128 128 128 255
1.24447 0.0837209 5.66891 0 0 0 128 128 128 255
1.05444 0.366879 5.66918 0 0 0 128 128 128 255
1.24694 0.0854075 5.66918 0 0 0 128 128 128 255
1.47095 -0.235087 5.66954 0 0 0 128 128 128 255
0.887764 0.621183 5.66972 0 0 0 128 128 128 255
1.01786 0.432722 5.66981 0 0 0 128 128 128 255
1.06528 0.363386 5.66981 0 0 0 128 128 128 255
1.32382 -0.0146612 5.66981 0 0 0 128 128 128 255
0.789441 0.772009 5.67008 0 0 0 128 128 128 255
1.30566 0.0189541 5.67017 0 0 0 128 128 128 255
0.947146 0.546703 5.67035 0 0 0 128 128 128 255
1.02643 0.43253 5.67044 0 0 0 128 128 128 255
1.26183 0.0883259 5.67044 0 0 0 128 128 128 255
1.30607 0.0289308 5.6707 0 0 0 128 128 128 255
1.48615 -0.234381 5.6707 0 0 0 128 128 128 255
1.49252 -0.234872 5.67115 0 0 0 128 128 128 255
1.49816 -0.243126 5.67115 0 0 0 128 128 128 255
1.33076 0.00341403 5.67124 0 0 0 128 128 128 255
1.00069 0.494879 5.67169 0 0 0 128 128 128 255
1.08588 0.37384 5.67187 0 0 0 128 128 128 255
0.989604 0.516376 5.67196 0 0 0 128 128 128 255
1.0748 0.395337 5.67214 0 0 0 128 128 128 255
1.116 0.335081 5.67214 0 0 0 128 128 128 255
1.33899 0.0284275 5.67313 0 0 0 128 128 128 255
1.50712 -0.210349 5.67349 0 0 0 128 128 128 255
0.944564 0.613992 5.67358 0 0 0 128 128 128 255
1.02868 0.491003 5.67358 0 0 0 128 128 128 255
0.947595 0.614853 5.67385 0 0 0 128 128 128 255
1.01672 0.515538 5.67394 0 0 0 128 128 128 255
1.30734 0.0976435 5.6743 0 0 0 128 128 128 255
1.08288 0.431153 5.67457 0 0 0 128 128 128 255
1.08314 0.432541 5.67466 0 0 0 128 128 128 255
1.30442 0.108972 5.67466 0 0 0 128 128 128 255
1.02284 0.533051 5.67529 0 0 0 128 128 128 255
1.33692 0.0791008 5.67556 0 0 0 128 128 128 255
1.31767 0.110766 5.67574 0 0 0 128 128 128 255
1.03989 0.520478 5.67592 0 0 0 128 128 128 255
1.51802 -0.178661 5.67592 0 0 0 128 128 128 255
1.10753 0.428628 5.67628 0 0 0 128 128 128 255
1.12524 0.408028 5.67655 0 0 0 128 128 128 255
1.08024 0.482652 5.677 0 0 0 128 128 128 255
1.0748 0.495894 5.67727 0 0 0 128 128 128 255
1.00019 0.612052 5.67763 0 0 0 128 128 128 255
1.07383 0.506134 5.67772 0 0 0 128 128 128 255
1.32919 0.138028 5.67799 0 0 0 128 128 128 255
1.00286 0.618727 5.67817 0 0 0 128 128 128 255
1.14399 0.41237 5.67817 0 0 0 128 128 128 255
1.3331 0.135851 5.67817 0 0 0 128 128 128 255
1.44401 -0.00515416 5.67925 0 0 0 128 128 128 255
1.01719 0.622471 5.67943 0 0 0 128 128 128 255
1.09001 0.515991 5.67943 0 0 0 128 128 128 255
1.50405 -0.0876613 5.67952 0 0 0 128 128 128 255
1.10998 0.492089 5.6797 0 0 0 128 128 128 255
1.45033 -0.00204417 5.67988 0 0 0 128 128 128 255
1.13894 0.477973 5.68114 0 0 0 128 128 128 255
1.17533 0.426533 5.68123 0 0 0 128 128 128 255
1.51372 -0.0665119 5.68132 0 0 0 128 128 128 255
1.06213 0.613223 5.68231 0 0 0 128 128 128 255
1.15209 0.486968 5.68258 0 0 0 128 128 128 255
1.50024 -0.0115198 5.68312 0 0 0 128 128 128 255
1.52108 -0.0384599 5.6833 0 0 0 128 128 128 255
1.20039 0.433985 5.68348 0 0 0 128 128 128 255
1.16473 0.493188 5.68384 0 0 0 128 128 128 255
1.0351 0.688025 5.68411 0 0 0 128 128 128 255
1.03567 0.6872 5.68411 0 0 0 128 128 128 255
1.05004 0.667952 5.6842 0 0 0 128 128 128 255
1.21878 0.424749 5.68438 0 0 0 128 128 128 255
1.04527 0.692559 5.6851 0 0 0 128 128 128 255
1.15643 0.53355 5.68528 0 0 0 128 128 128 255
1.24871 0.400393 5.68537 0 0 0 128 128 128 255
1.15187 0.543754 5.68546 0 0 0 128 128 128 255
1.04287 0.706663 5.68564 0 0 0 128 128 128 255
1.04959 0.700359 5.68582 0 0 0 128 128 128 255
1.46584 0.0970052 5.68609 0 0 0 128 128 128 255
1.12119 0.60273 5.68618 0 0 0 128 128 128 255
1.17594 0.522664 5.68618 0 0 0 128 128 128 255
1.19709 0.49351 5.68627 0 0 0 128 128 128 255
1.52307 0.0186252 5.68636 0 0 0 128 128 128 255
1.16373 0.545812 5.68645 0 0 0 128 128 128 255
1.25005 0.423121 5.68663 0 0 0 128 128 128 255
1.32514 0.332731 5.68762 0 0 0 128 128 128 255
1.48854 0.095569 5.68771 0 0 0 128 128 128 255
1.21933 0.50509 5.68852 0 0 0 128 128 128 255
1.51776 0.0828402 5.68924 0 0 0 128 128 128 255
1.5251 0.0721096 5.68924 0 0 0 128 128 128 255
1.07827 0.727237 5.68933 0 0 0 128 128 128 255
1.24254 0.487037 5.68933 0 0 0 128 128 128 255
1.51797 0.0878285 5.68951 0 0 0 128 128 128 255
1.50524 0.108201 5.6896 0 0 0 128 128 128 255
1.21365 0.536336 5.68969 0 0 0 128 128 128 255
1.36212 0.319248 5.68969 0 0 0 128 128 128 255
1.0677 0.75151 5.68978 0 0 0 128 128 128 255
1.16331 0.617 5.69005 0 0 0 128 128 128 255
1.5052 0.131193 5.69077 0 0 0 128 128 128 255
1.25334 0.506536 5.69113 0 0 0 128 128 128 255
1.04377 0.842964 5.69266 0 0 0 128 128 128 255
1.28476 0.494106 5.69284 0 0 0 128 128 128 255
1.21302 0.602536 5.69302 0 0 0 128 128 128 255
1.42497 0.294388 5.69311 0 0 0 128 128 128 255
1.389 0.355805 5.69355 0 0 0 128 128 128 255
1.28288 0.530377 5.69454 0 0 0 128 128 128 255
1.29838 0.509478 5.69463 0 0 0 128 128 128 255
1.24907 0.595693 5.69535 0 0 0 128 128 128 255
1.31681 0.496641 5.69535 0 0 0 128 128 128 255
1.40565 0.372037 5.69562 0 0 0 128 128 128 255
1.06038 0.882189 5.69589 0 0 0 128 128 128 255
1.32118 0.50084 5.69589 0 0 0 128 128 128 255
0.849462 1.19589 5.69616 0 0 0 128 128 128 255
1.5104 0.236511 5.69652 0 0 0 128 128 128 255
1.05028 0.912837 5.6967 0 0 0 128 128 128 255
1.02226 0.959097 5.69697 0 0 0 128 128 128 255
1.04766 0.921952 5.69697 0 0 0 128 128 128 255
1.0705 0.890323 5.69706 0 0 0 128 128 128 255
1.25622 0.618756 5.69706 0 0 0 128 128 128 255
1.45493 0.328205 5.69706 0 0 0 128 128 128 255
1.04926 0.926677 5.69733 0 0 0 128 128 128 255
1.51807 0.26235 5.69841 0 0 0 128 128 128 255
1.33399 0.535041 5.69859 0 0 0 128 128 128 255
1.43021 0.396105 5.69868 0 0 0 128 128 128 255
1.52028 0.28204 5.69958 0 0 0 128 128 128 255
1.08418 0.921485 5.69967 0 0 0 128 128 128 255
1.37341 0.503853 5.69994 0 0 0 128 128 128 255
1.18087 0.788925 5.70012 0 0 0 128 128 128 255
1.38631 0.511461 5.70129 0 0 0 128 128 128 255
1.06536 0.982518 5.70138 0 0 0 128 128 128 255
1.39165 0.50542 5.70138 0 0 0 128 128 128 255
1.08641 0.960566 5.70183 0 0 0 128 128 128 255
1.12367 0.906088 5.70183 0 0 0 128 128 128 255
1.20552 0.786401 5.70183 0 0 0 128 128 128 255
1.15102 0.867855 5.70192 0 0 0 128 128 128 255
1.40869 0.492847 5.70201 0 0 0 128 128 128 255
1.06625 0.998871 5.70228 0 0 0 128 128 128 255
1.11054 0.935875 5.70237 0 0 0 128 128 128 255
1.2606 0.723512 5.70273 0 0 0 128 128 128 255
1.14908 0.888335 5.70282 0 0 0 128 128 128 255
1.20214 0.810745 5.70282 0 0 0 128 128 128 255
1.34974 0.596695 5.70291 0 0 0 128 128 128 255
0.995487 1.11645 5.703 0 0 0 128 128 128 255
0.941809 1.19847 5.70318 0 0 0 128 128 128 255
1.16161 0.882365 5.70345 0 0 0 128 128 128 255
0.955675 1.19584 5.70408 0 0 0 128 128 128 255
1.35422 0.613083 5.70408 0 0 0 128 128 128 255
1.41544 0.525325 5.70417 0 0 0 128 128 128 255
0.988783 1.16154 5.7048 0 0 0 128 128 128 255
0.978474 1.1872 5.70534 0 0 0 128 128 128 255
1.47262 0.469937 5.70561 0 0 0 128 128 128 255
1.14716 0.947597 5.7057 0 0 0 128 128 128 255
1.13274 0.970446 5.70579 0 0 0 128 128 128 255
1.29127 0.745702 5.70615 0 0 0 128 128 128 255
1.13624 0.977683 5.70642 0 0 0 128 128 128 255
1.20953 0.877579 5.70678 0 0 0 128 128 128 255
1.02987 1.15087 5.70732 0 0 0 128 128 128 255
1.27712 0.78933 5.70732 0 0 0 128 128 128 255
1.1537 0.975087 5.70759 0 0 0 128 128 128 255
1.49687 0.476826 5.70777 0 0 0 128 128 128 255
1.04994 1.13916 5.70822 0 0 0 128 128 128 255
1.25994 0.832096 5.70822 0 0 0 128 128 128 255
1.02762 1.17356 5.70831 0 0 0 128 128 128 255
1.51936 0.470402 5.70912 0 0 0 128 128 128 255
1.17358 0.977778 5.70921 0 0 0 128 128 128 255
1.05273 1.15802 5.70939 0 0 0 128 128 128 255
1.49499 0.513097 5.70948 0 0 0 128 128 128 255
1.07243 1.13273 5.70957 0 0 0 128 128 128 255
1.20135 0.949522 5.70984 0 0 0 128 128 128 255
1.1818 0.9834 5.71011 0 0 0 128 128 128 255
1.49792 0.52116 5.71011 0 0 0 128 128 128 255
1.21085 0.942691 5.7102 0 0 0 128 128 128 255
1.44758 0.601824 5.71047 0 0 0 128 128 128 255
1.54823 0.482878 5.71191 0 0 0 128 128 128 255
1.0836 1.16581 5.71209 0 0 0 128 128 128 255
1.34512 0.792223 5.71254 0 0 0 128 128 128 255
1.57463 0.474276 5.71344 0 0 0 128 128 128 255
1.33579 0.827034 5.71362 0 0 0 128 128 128 255
1.33662 0.827596 5.71371 0 0 0 128 128 128 255
1.3105 0.876368 5.71425 0 0 0 128 128 128 255
1.55458 0.524771 5.71452 0 0 0 128 128 128 255
1.56638 0.511037 5.7147 0 0 0 128 128 128 255
1.31995 0.873138 5.71479 0 0 0 128 128 128 255
1.50311 0.607086 5.71488 0 0 0 128 128 128 255
1.31113 0.891333 5.71506 0 0 0 128 128 128 255
1.40294 0.771191 5.71578 0 0 0 128 128 128 255
1.31309 0.909636 5.71614 0 0 0 128 128 128 255
1.43374 0.743796 5.71667 0 0 0 128 128 128 255
1.46664 0.70451 5.71712 0 0 0 128 128 128 255
1.44027 0.751894 5.71757 0 0 0 128 128 128 255
1.62851 0.478414 5.71766 0 0 0 128 128 128 255
1.59485 0.532928 5.71793 0 0 0 128 128 128 255
1.34704 0.914683 5.71892 0 0 0 128 128 128 255
1.40375 0.833528 5.71901 0 0 0 128 128 128 255
1.56207 0.603795 5.7191 0 0 0 128 128 128 255
1.51511 0.679507 5.71946 0 0 0 128 128 128 255
1.21696 1.12254 5.71982 0 0 0 128 128 128 255
1.32811 0.963526 5.72 0 0 0 128 128 128 255
1.47319 0.751391 5.72 0 0 0 128 128 128 255
1.66806 0.478808 5.72063 0 0 0 128 128 128 255
1.40356 0.867322 5.72072 0 0 0 128 128 128 255
1.5334 0.677473 5.72072 0 0 0 128 128 128 255
1.39951 0.880301 5.72108 0 0 0 128 128 128 255
1.4517 0.805749 5.72117 0 0 0 128 128 128 255
1.34964 0.967342 5.7218 0 0 0 128 128 128 255
1.67639 0.49662 5.72216 0 0 0 128 128 128 255
1.44207 0.842774 5.72234 0 0 0 128 128 128 255
1.28781 1.07892 5.72288 0 0 0 128 128 128 255
1.35499 0.980692 5.72288 0 0 0 128 128 128 255
1.35724 0.97739 5.72288 0 0 0 128 128 128 255
1.40174 0.919383 5.72324 0 0 0 128 128 128 255
1.51295 0.756773 5.72324 0 0 0 128 128 128 255
1.51408 0.755122 5.72324 0 0 0 128 128 128 255
1.4194 0.902383 5.72369 0 0 0 128 128 128 255
1.26016 1.13876 5.72387 0 0 0 128 128 128 255
1.27761 1.11677 5.72405 0 0 0 128 128 128 255
1.35325 1.00616 5.72405 0 0 0 128 128 128 255
1.31457 1.08389 5.72513 0 0 0 128 128 128 255
1.59282 0.680558 5.72531 0 0 0 128 128 128 255
1.73472 0.478363 5.72558 0 0 0 128 128 128 255
1.29523 1.12276 5.72567 0 0 0 128 128 128 255
1.4341 0.919705 5.72567 0 0 0 128 128 128 255
1.46766 0.872392 5.72576 0 0 0 128 128 128 255
1.70245 0.532614 5.72594 0 0 0 128 128 128 255
1.48851 0.864843 5.72693 0 0 0 128 128 128 255
1.47533 0.898231 5.72765 0 0 0 128 128 128 255
1.76856 0.471221 5.72774 0 0 0 128 128 128 255
1.49786 0.868814 5.72783 0 0 0 128 128 128 255
1.34678 1.09502 5.7281 0 0 0 128 128 128 255
1.34196 1.10383 5.72819 0 0 0 128 128 128 255
1.54226 0.818008 5.72855 0 0 0 128 128 128 255
1.75508 0.506822 5.72855 0 0 0 128 128 128 255
1.46205 0.93882 5.72873 0 0 0 128 128 128 255
1.74117 0.532446 5.72882 0 0 0 128 128 128 255
1.76401 0.500816 5.72891 0 0 0 128 128 128 255
1.52851 0.852222 5.72927 0 0 0 128 128 128 255
1.76248 0.511881 5.72936 0 0 0 128 128 128 255
1.47977 0.937611 5.72999 0 0 0 128 128 128 255
1.41557 1.0403 5.73044 0 0 0 128 128 128 255
1.7746 0.515326 5.73044 0 0 0 128 128 128 255
1.47172 0.95997 5.73053 0 0 0 128 128 128 255
1.72113 0.602331 5.73089 0 0 0 128 128 128 255
1.42892 1.03489 5.73116 0 0 0 128 128 128 255
1.43083 1.0374 5.73143 0 0 0 128 128 128 255
1.42626 1.04761 5.73161 0 0 0 128 128 128 255
1.49616 0.952457 5.73197 0 0 0 128 128 128 255
1.36797 1.14343 5.73215 0 0 0 128 128 128 255
1.39271 1.11431 5.73251 0 0 0 128 128 128 255
1.39943 1.10801 5.73269 0 0 0 128 128 128 255
1.65988 0.732473 5.73296 0 0 0 128 128 128 255
1.40288 1.11885 5.7335 0 0 0 128 128 128 255
1.775 0.587077 5.73413 0 0 0 128 128 128 255
1.71183 0.695316 5.73494 0 0 0 128 128 128 255
1.7279 0.673592 5.73503 0 0 0 128 128 128 255
1.72898 0.675542 5.73521 0 0 0 128 128 128 255
1.44976 1.08912 5.73548 0 0 0 128 128 128 255
1.55127 0.947742 5.73584 0 0 0 128 128 128 255
1.52223 1.00784 5.73674 0 0 0 128 128 128 255
1.56626 0.943459 5.73674 0 0 0 128 128 128 255
1.51731 1.02386 5.73719 0 0 0 128 128 128 255
1.54128 0.99058 5.73728 0 0 0 128 128 128 255
1.49412 1.0613 5.73737 0 0 0 128 128 128 255
1.76338 0.667574 5.73737 0 0 0 128 128 128 255
1.53184 1.0132 5.73773 0 0 0 128 128 128 255
1.46518 1.1142 5.73791 0 0 0 128 128 128 255
1.49895 1.07188 5.73827 0 0 0 128 128 128 255
1.61154 0.909005 5.73835 0 0 0 128 128 128 255
1.50172 1.07135 5.73844 0 0 0 128 128 128 255
1.50311 1.07109 5.73853 0 0 0 128 128 128 255
1.57183 0.981188 5.73907 0 0 0 128 128 128 255
1.67481 0.894122 5.74231 0 0 0 128 128 128 255
1.65369 0.962058 5.7442 0 0 0 128 128 128 255
1.61382 1.02565 5.74447 0 0 0 128 128 128 255
1.50282 1.19325 5.74474 0 0 0 128 128 128 255
1.48994 1.22442 5.74537 0 0 0 128 128 128 255
1.67305 0.961974 5.74564 0 0 0 128 128 128 255
1.92545 0.608797 5.74645 0 0 0 128 128 128 255
1.92596 0.611573 5.74663 0 0 0 128 128 128 255
1.73014 0.913787 5.74744 0 0 0 128 128 128 255
1.92884 0.623236 5.74744 0 0 0 128 128 128 255
1.72825 0.930666 5.74816 0 0 0 128 128 128 255
1.71224 0.968181 5.74888 0 0 0 128 128 128 255
1.73313 0.93764 5.74888 0 0 0 128 128 128 255
1.61057 1.18213 5.75221 0 0 0 128 128 128 255
1.64799 1.15564 5.75365 0 0 0 128 128 128 255
1.60859 1.22561 5.75428 0 0 0 128 128 128 255
1.94464 0.762455 5.75572 0 0 0 128 128 128 255
1.69246 1.14001 5.75617 0 0 0 128 128 128 255
1.93644 0.795616 5.7568 0 0 0 128 128 128 255
1.94142 0.795388 5.75716 0 0 0 128 128 128 255
1.67384 1.26781 5.76129 0 0 0 128 128 128 255
1.7548 1.2941 5.76867 0 0 0 128 128 128 255
1.76363 1.2953 5.76939 0 0 0 128 128 128 255
1.78028 1.31153 5.77146 0 0 0 128 128 128 255
