ply
format ascii 1.0
comment VCGLIB generated
element vertex 178
property float x
property float y
property float z
property float nx
property float ny
property float nz
property uchar red
property uchar green
property uchar blue
property uchar alpha
element face 0
property list uchar int vertex_indices
end_header
-1.52805 0.618616 5.10752 0 0 0 255 255 0 255
-1.44411 0.535632 5.13057 0 0 0 255 255 0 255
-1.49705 0.626577 5.12253 0 0 0 255 255 0 255
-1.47366 0.626637 5.1327 0 0 0 255 255 0 255
-1.47828 0.633182 5.13175 0 0 0 255 255 0 255
-1.41104 0.613345 5.15735 0 0 0 255 255 0 255
-1.55773 0.813745 5.12573 0 0 0 255 255 0 255
-1.56629 0.827506 5.12418 0 0 0 255 255 0 255
-1.55782 0.838947 5.12931 0 0 0 255 255 0 255
-1.39622 0.665015 5.17104 0 0 0 255 255 0 255
-1.40676 0.692193 5.17053 0 0 0 255 255 0 255
-1.4567 0.752295 5.15851 0 0 0 255 255 0 255
-1.53488 0.845425 5.13956 0 0 0 255 255 0 255
-1.38051 0.685194 5.1802 0 0 0 255 255 0 255
-1.51715 0.845188 5.14668 0 0 0 255 255 0 255
-1.44883 0.771499 5.16428 0 0 0 255 255 0 255
-1.2813 0.60077 5.20874 0 0 0 255 255 0 255
-1.27735 0.601966 5.21047 0 0 0 255 255 0 255
-1.47639 0.831837 5.16118 0 0 0 255 255 0 255
-1.27993 0.625948 5.21251 0 0 0 255 255 0 255
-1.51443 0.902555 5.15514 0 0 0 255 255 0 255
-1.3948 0.784131 5.1872 0 0 0 255 255 0 255
-1.3948 0.785535 5.18738 0 0 0 255 255 0 255
-1.32247 0.718667 5.20731 0 0 0 255 255 0 255
-1.47815 0.897194 5.16856 0 0 0 255 255 0 255
-1.44379 0.891249 5.18099 0 0 0 255 255 0 255
-1.48581 0.942536 5.17087 0 0 0 255 255 0 255
-1.2611 0.695207 5.22802 0 0 0 255 255 0 255
-1.26899 0.704033 5.22603 0 0 0 255 255 0 255
-1.48447 0.945279 5.17169 0 0 0 255 255 0 255
-1.27027 0.709719 5.22618 0 0 0 255 255 0 255
-1.24131 0.684382 5.23427 0 0 0 255 255 0 255
-1.18261 0.647031 5.25215 0 0 0 255 255 0 255
-1.55311 1.06326 5.15886 0 0 0 255 255 0 255
-1.36587 0.855049 5.20623 0 0 0 255 255 0 255
-1.59842 1.11682 5.14774 0 0 0 255 255 0 255
-1.37307 0.865952 5.20472 0 0 0 255 255 0 255
-1.61676 1.14304 5.14371 0 0 0 255 255 0 255
-1.31117 0.81228 5.22196 0 0 0 255 255 0 255
-1.50298 1.02845 5.17373 0 0 0 255 255 0 255
-1.59413 1.14616 5.15233 0 0 0 255 255 0 255
-1.39436 0.928192 5.20328 0 0 0 255 255 0 255
-1.57495 1.13608 5.1583 0 0 0 255 255 0 255
-1.56245 1.12351 5.1616 0 0 0 255 255 0 255
-1.38703 0.928541 5.20597 0 0 0 255 255 0 255
-1.57558 1.13963 5.15843 0 0 0 255 255 0 255
-1.2661 0.797428 5.23689 0 0 0 255 255 0 255
-1.47422 1.04184 5.18551 0 0 0 255 255 0 255
-1.31668 0.90546 5.22895 0 0 0 255 255 0 255
-1.26673 0.850969 5.24168 0 0 0 255 255 0 255
-1.31923 0.914033 5.22882 0 0 0 255 255 0 255
-1.5524 1.17795 5.17028 0 0 0 255 255 0 255
-1.52676 1.15068 5.17687 0 0 0 255 255 0 255
-1.26591 0.861497 5.2429 0 0 0 255 255 0 255
-1.2533 0.85597 5.24683 0 0 0 255 255 0 255
-1.54744 1.19674 5.17364 0 0 0 255 255 0 255
-1.54859 1.20807 5.1742 0 0 0 255 255 0 255
-1.02519 0.650782 5.30853 0 0 0 255 255 0 255
-1.02579 0.654335 5.30861 0 0 0 255 255 0 255
-1.21316 0.892872 5.26357 0 0 0 255 255 0 255
-1.2104 0.896977 5.2648 0 0 0 255 255 0 255
-1.10558 0.798356 5.29258 0 0 0 255 255 0 255
-1.09615 0.799336 5.29577 0 0 0 255 255 0 255
-1.04412 0.778629 5.31139 0 0 0 255 255 0 255
-1.03533 0.78035 5.31434 0 0 0 255 255 0 255
-1.1075 0.865487 5.29641 0 0 0 255 255 0 255
-1.01943 0.76834 5.31871 0 0 0 255 255 0 255
-0.971379 0.718879 5.33109 0 0 0 255 255 0 255
-1.02449 0.782687 5.31796 0 0 0 255 255 0 255
-1.02778 0.786364 5.31713 0 0 0 255 255 0 255
-1.01855 0.777478 5.31955 0 0 0 255 255 0 255
-1.09169 0.878194 5.30221 0 0 0 255 255 0 255
-1.19383 1.00704 5.27727 0 0 0 255 255 0 255
-1.15437 0.964323 5.2873 0 0 0 255 255 0 255
-0.934882 0.721485 5.34281 0 0 0 255 255 0 255
-1.19569 1.01348 5.27704 0 0 0 255 255 0 255
-1.19091 1.01539 5.27863 0 0 0 255 255 0 255
-0.934633 0.731363 5.34342 0 0 0 255 255 0 255
-1.00613 0.815767 5.32562 0 0 0 255 255 0 255
-1.01667 0.852262 5.32422 0 0 0 255 255 0 255
-1.08036 0.925018 5.30823 0 0 0 255 255 0 255
-0.909944 0.744402 5.35169 0 0 0 255 255 0 255
-0.903067 0.748339 5.35397 0 0 0 255 255 0 255
-0.952955 0.805649 5.34145 0 0 0 255 255 0 255
-1.14277 1.01962 5.29365 0 0 0 255 255 0 255
-1.125 1.00118 5.2982 0 0 0 255 255 0 255
-0.959407 0.817239 5.34003 0 0 0 255 255 0 255
-1.09335 0.970106 5.30638 0 0 0 255 255 0 255
-1.06042 0.936154 5.31481 0 0 0 255 255 0 255
-0.951287 0.816883 5.34246 0 0 0 255 255 0 255
-1.02036 0.914612 5.32591 0 0 0 255 255 0 255
-0.870203 0.759624 5.3643 0 0 0 255 255 0 255
-1.04199 0.963623 5.32142 0 0 0 255 255 0 255
-0.855117 0.764624 5.36892 0 0 0 255 255 0 255
-1.08961 1.02861 5.30984 0 0 0 255 255 0 255
-1.12114 1.06392 5.30189 0 0 0 255 255 0 255
-0.971839 0.902605 5.33975 0 0 0 255 255 0 255
-1.12018 1.07307 5.30249 0 0 0 255 255 0 255
-0.951957 0.886189 5.34497 0 0 0 255 255 0 255
-0.949286 0.884659 5.34569 0 0 0 255 255 0 255
-0.829413 0.760683 5.37626 0 0 0 255 255 0 255
-0.879553 0.83144 5.36408 0 0 0 255 255 0 255
-0.987815 0.957036 5.33691 0 0 0 255 255 0 255
-0.988472 0.957771 5.33674 0 0 0 255 255 0 255
-0.874501 0.840416 5.36578 0 0 0 255 255 0 255
-0.862307 0.838477 5.36918 0 0 0 255 255 0 255
-0.794831 0.77758 5.38658 0 0 0 255 255 0 255
-1.05949 1.07682 5.31991 0 0 0 255 255 0 255
-1.11598 1.14007 5.30566 0 0 0 255 255 0 255
-1.05813 1.07676 5.32029 0 0 0 255 255 0 255
-1.11387 1.1421 5.3063 0 0 0 255 255 0 255
-1.10415 1.14734 5.30912 0 0 0 255 255 0 255
-0.762703 0.779741 5.39553 0 0 0 255 255 0 255
-0.909718 0.986938 5.35917 0 0 0 255 255 0 255
-1.10426 1.22093 5.31032 0 0 0 255 255 0 255
-1.09065 1.21893 5.31389 0 0 0 255 255 0 255
-0.937267 1.05604 5.35265 0 0 0 255 255 0 255
-1.09012 1.23306 5.31415 0 0 0 255 255 0 255
-0.82478 0.952195 5.38118 0 0 0 255 255 0 255
-0.961153 1.11225 5.34682 0 0 0 255 255 0 255
-0.951847 1.10477 5.34918 0 0 0 255 255 0 255
-1.07157 1.25209 5.31904 0 0 0 255 255 0 255
-1.01747 1.21512 5.3327 0 0 0 255 255 0 255
-0.993418 1.19853 5.33875 0 0 0 255 255 0 255
-0.996046 1.20148 5.33809 0 0 0 255 255 0 255
-0.770426 0.956263 5.39497 0 0 0 255 255 0 255
-1.07639 1.30325 5.31779 0 0 0 255 255 0 255
-0.766912 0.958237 5.39583 0 0 0 255 255 0 255
-0.979107 1.19581 5.34232 0 0 0 255 255 0 255
-1.06496 1.34664 5.32026 0 0 0 255 255 0 255
-1.06024 1.34432 5.32141 0 0 0 255 255 0 255
-0.890983 1.16519 5.36397 0 0 0 255 255 0 255
-0.838779 1.11415 5.37703 0 0 0 255 255 0 255
-1.03252 1.33253 5.32815 0 0 0 255 255 0 255
-1.01829 1.32698 5.33159 0 0 0 255 255 0 255
-0.82706 1.11436 5.37979 0 0 0 255 255 0 255
-1.02631 1.36412 5.32907 0 0 0 255 255 0 255
-1.02212 1.36536 5.33002 0 0 0 255 255 0 255
-0.798691 1.1167 5.38633 0 0 0 255 255 0 255
-0.981247 1.38344 5.33877 0 0 0 255 255 0 255
-0.973757 1.381 5.34048 0 0 0 255 255 0 255
-0.955887 1.36396 5.3449 0 0 0 255 255 0 255
-0.745266 1.13708 5.39775 0 0 0 255 255 0 255
-0.876697 1.31248 5.36368 0 0 0 255 255 0 255
-0.88261 1.3191 5.36219 0 0 0 255 255 0 255
-0.86519 1.30704 5.36632 0 0 0 255 255 0 255
-0.818973 1.27465 5.37726 0 0 0 255 255 0 255
-0.79377 1.26579 5.38285 0 0 0 255 255 0 255
-0.747056 1.21498 5.39457 0 0 0 255 255 0 255
-0.75511 1.23442 5.39211 0 0 0 255 255 0 255
-0.734465 1.21727 5.39706 0 0 0 255 255 0 255
-0.744976 1.22904 5.39441 0 0 0 255 255 0 255
-0.828291 1.33871 5.37267 0 0 0 255 255 0 255
-0.833335 1.34883 5.3712 0 0 0 255 255 0 255
-0.85283 1.37513 5.36608 0 0 0 255 255 0 255
-0.852117 1.38924 5.36555 0 0 0 255 255 0 255
-0.755844 1.28892 5.38946 0 0 0 255 255 0 255
-0.9079 1.50691 5.34862 0 0 0 255 255 0 255
-0.780135 1.39673 5.37894 0 0 0 255 255 0 255
-0.770713 1.39067 5.38105 0 0 0 255 255 0 255
-0.881737 1.51497 5.35305 0 0 0 255 255 0 255
-0.889752 1.5344 5.35039 0 0 0 255 255 0 255
-0.798006 1.46607 5.37133 0 0 0 255 255 0 255
-0.82158 1.49396 5.36528 0 0 0 255 255 0 255
-0.81722 1.51002 5.36497 0 0 0 255 255 0 255
-0.802728 1.50726 5.36768 0 0 0 255 255 0 255
-0.786662 1.53267 5.36853 0 0 0 255 255 0 255
-0.784873 1.53966 5.36829 0 0 0 255 255 0 255
-0.790129 1.54554 5.36697 0 0 0 255 255 0 255
-0.757914 1.54692 5.3721 0 0 0 255 255 0 255
-0.711293 1.5187 5.38184 0 0 0 255 255 0 255
-0.709085 1.53271 5.38097 0 0 0 255 255 0 255
-0.837108 1.67754 5.34856 0 0 0 255 255 0 255
-0.836945 1.68035 5.34833 0 0 0 255 255 0 255
-0.709088 1.5447 5.37991 0 0 0 255 255 0 255
-0.793832 1.66357 5.35636 0 0 0 255 255 0 255
-0.741086 1.6435 5.36597 0 0 0 255 255 0 255
-0.744776 1.65214 5.3646 0 0 0 255 255 0 255
