ply
format ascii 1.0
comment VCGLIB generated
element vertex 327
property float x
property float y
property float z
property float nx
property float ny
property float nz
property uchar red
property uchar green
property uchar blue
property uchar alpha
element face 0
property list uchar int vertex_indices
end_header
0.574592 0.161432 4.28831 0 0 0 255 255 255 255
0.727252 0.148725 4.2751 0 0 0 255 255 255 255
0.531673 0.205598 4.30936 0 0 0 255 255 255 255
0.574951 0.144164 4.29952 0 0 0 255 255 255 255
0.689231 0.171135 4.30419 0 0 0 255 255 255 255
0.71558 0.158354 4.27219 0 0 0 255 255 255 255
0.580347 0.140834 4.29861 0 0 0 255 255 255 255
0.731277 0.138666 4.22032 0 0 0 255 255 255 255
0.537184 0.458232 4.15517 0 0 0 255 255 255 255
0.53376 0.446578 4.15815 0 0 0 255 255 255 255
0.489412 0.569651 4.31267 0 0 0 255 255 255 255
0.427325 0.212329 4.47961 0 0 0 255 255 255 255
0.400963 0.219058 4.57698 0 0 0 255 255 255 255
0.497372 0.0891666 4.4926 0 0 0 255 255 255 255
0.340051 0.23315 4.57745 0 0 0 255 255 255 255
0.286189 0.224597 4.67728 0 0 0 255 255 255 255
0.529275 0.202284 4.3202 0 0 0 255 255 255 255
0.330875 0.179452 4.83222 0 0 0 255 255 255 255
0.435613 0.249538 4.43991 0 0 0 255 255 255 255
0.544077 0.102504 4.34996 0 0 0 255 255 255 255
0.435593 0.21985 4.45474 0 0 0 255 255 255 255
0.451738 0.224064 4.43701 0 0 0 255 255 255 255
0.33123 0.182567 4.82166 0 0 0 255 255 255 255
0.494208 0.120331 4.48042 0 0 0 255 255 255 255
0.327482 0.181865 4.82467 0 0 0 255 255 255 255
0.48639 0.568565 4.31529 0 0 0 255 255 255 255
0.47709 0.537581 4.37437 0 0 0 255 255 255 255
0.431801 0.30098 4.42972 0 0 0 255 255 255 255
0.355116 0.431132 4.48328 0 0 0 255 255 255 255
0.339248 0.446646 4.46819 0 0 0 255 255 255 255
0.524743 0.423037 4.31778 0 0 0 255 255 255 255
0.660777 0.724589 4.4536 0 0 0 255 255 255 255
0.788952 0.844564 4.68178 0 0 0 255 255 255 255
1.34322 0.905942 4.04161 0 0 0 255 255 255 255
1.12287 0.595123 4.21595 0 0 0 255 255 255 255
1.13087 0.734657 4.27816 0 0 0 255 255 255 255
1.20021 0.373935 4.16057 0 0 0 255 255 255 255
1.14007 0.712722 4.2916 0 0 0 255 255 255 255
1.12552 0.544383 4.22519 0 0 0 255 255 255 255
1.02046 1.0477 4.1976 0 0 0 255 255 255 255
1.26874 0.359789 4.25304 0 0 0 255 255 255 255
1.0886 0.723875 4.15333 0 0 0 255 255 255 255
1.08882 0.688945 4.25487 0 0 0 255 255 255 255
1.35755 0.940109 4.0556 0 0 0 255 255 255 255
1.25959 0.330775 4.23899 0 0 0 255 255 255 255
1.72474 0.847054 4.30443 0 0 0 255 255 255 255
1.76528 0.968156 4.29408 0 0 0 255 255 255 255
1.05559 0.275494 4.38983 0 0 0 255 255 255 255
0.975109 0.240726 4.42721 0 0 0 255 255 255 255
1.05796 0.279932 4.39365 0 0 0 255 255 255 255
1.05945 0.280107 4.39277 0 0 0 255 255 255 255
1.02556 0.268889 4.40419 0 0 0 255 255 255 255
1.11121 0.304619 4.41025 0 0 0 255 255 255 255
1.09511 0.330896 4.39767 0 0 0 255 255 255 255
1.29671 0.342773 4.33769 0 0 0 255 255 255 255
1.73548 0.122047 4.59567 0 0 0 255 255 255 255
1.77566 0.119836 4.64001 0 0 0 255 255 255 255
1.93757 0.14897 4.60372 0 0 0 255 255 255 255
1.94169 0.131986 4.61391 0 0 0 255 255 255 255
2.00921 0.153304 4.74778 0 0 0 255 255 255 255
1.75503 0.118273 4.63516 0 0 0 255 255 255 255
2.08642 0.195315 4.57019 0 0 0 255 255 255 255
2.10523 0.193898 4.59932 0 0 0 255 255 255 255
1.94548 0.137504 4.60696 0 0 0 255 255 255 255
1.73625 0.895803 4.59434 0 0 0 255 255 255 255
1.94148 0.818819 4.48797 0 0 0 255 255 255 255
1.94118 0.919005 4.64499 0 0 0 255 255 255 255
1.89748 0.869422 4.39263 0 0 0 255 255 255 255
1.94912 0.831372 4.48417 0 0 0 255 255 255 255
1.90603 0.886582 4.6392 0 0 0 255 255 255 255
1.93398 0.847453 4.49078 0 0 0 255 255 255 255
1.94046 0.90529 4.62994 0 0 0 255 255 255 255
2.02091 1.02836 4.50015 0 0 0 255 255 255 255
1.91315 0.85275 4.62368 0 0 0 255 255 255 255
1.90893 0.807202 4.5592 0 0 0 255 255 255 255
1.73243 0.892103 4.59751 0 0 0 255 255 255 255
1.92989 0.792648 4.50074 0 0 0 255 255 255 255
-0.30447 1.4408 4.25918 0 0 0 255 255 255 255
-0.361261 1.49111 4.20829 0 0 0 255 255 255 255
-0.366356 1.48779 4.20603 0 0 0 255 255 255 255
0.567336 1.57476 3.77959 0 0 0 255 255 255 255
0.512706 1.57016 3.88855 0 0 0 255 255 255 255
0.450036 1.51529 3.84161 0 0 0 255 255 255 255
0.503954 1.56317 3.87356 0 0 0 255 255 255 255
0.441118 1.61056 4.2681 0 0 0 255 255 255 255
0.716645 1.71361 3.70919 0 0 0 255 255 255 255
0.557029 1.5658 3.76105 0 0 0 255 255 255 255
0.735393 1.72199 3.7086 0 0 0 255 255 255 255
0.528137 1.56385 3.82509 0 0 0 255 255 255 255
0.772236 1.7415 3.70851 0 0 0 255 255 255 255
0.427079 1.49243 3.77543 0 0 0 255 255 255 255
0.447528 1.51564 3.85937 0 0 0 255 255 255 255
0.722904 1.71305 3.71993 0 0 0 255 255 255 255
0.454403 1.60882 4.24037 0 0 0 255 255 255 255
0.707341 1.70532 3.71649 0 0 0 255 255 255 255
0.431634 1.50159 3.80812 0 0 0 255 255 255 255
0.295494 1.56526 4.21945 0 0 0 255 255 255 255
-0.207674 1.24879 4.34581 0 0 0 255 255 255 255
-0.216895 1.25967 4.34109 0 0 0 255 255 255 255
-0.00899826 1.50822 4.45751 0 0 0 255 255 255 255
0.303165 1.358 4.45233 0 0 0 255 255 255 255
0.393848 1.1251 4.5103 0 0 0 255 255 255 255
0.359375 1.12858 4.50872 0 0 0 255 255 255 255
0.303243 1.34587 4.46352 0 0 0 255 255 255 255
0.243105 1.35739 4.57861 0 0 0 255 255 255 255
0.335666 1.31443 4.52483 0 0 0 255 255 255 255
0.435397 1.61904 4.35206 0 0 0 255 255 255 255
0.426983 1.6293 4.44534 0 0 0 255 255 255 255
0.484255 1.60391 4.48105 0 0 0 255 255 255 255
0.375528 1.61042 4.47936 0 0 0 255 255 255 255
0.39965 1.57646 4.52879 0 0 0 255 255 255 255
0.646198 1.81978 4.49801 0 0 0 255 255 255 255
0.774865 1.5234 4.54151 0 0 0 255 255 255 255
0.672368 1.6922 4.57233 0 0 0 255 255 255 255
0.756638 1.57675 4.54469 0 0 0 255 255 255 255
0.698206 1.74097 4.53769 0 0 0 255 255 255 255
0.767187 1.58052 4.53791 0 0 0 255 255 255 255
1.17457 1.40606 4.2012 0 0 0 255 255 255 255
1.61995 1.78618 3.84591 0 0 0 255 255 255 255
1.14858 1.80899 4.27585 0 0 0 255 255 255 255
1.12827 1.83679 4.25964 0 0 0 255 255 255 255
1.1576 1.45847 4.17218 0 0 0 255 255 255 255
1.22088 1.25566 4.22616 0 0 0 255 255 255 255
1.22724 1.22458 4.26916 0 0 0 255 255 255 255
1.18873 1.41393 4.20806 0 0 0 255 255 255 255
1.1653 1.4409 4.17374 0 0 0 255 255 255 255
1.18975 1.4071 4.23116 0 0 0 255 255 255 255
1.45992 1.27357 3.59248 0 0 0 255 255 255 255
1.60862 1.80225 3.83911 0 0 0 255 255 255 255
1.40437 2.01251 3.94588 0 0 0 255 255 255 255
1.65458 1.9844 3.93441 0 0 0 255 255 255 255
1.43907 2.11374 3.78194 0 0 0 255 255 255 255
1.51571 2.15285 3.75133 0 0 0 255 255 255 255
1.10075 1.8954 4.23554 0 0 0 255 255 255 255
1.08097 1.90706 4.25251 0 0 0 255 255 255 255
1.63506 1.95285 3.91991 0 0 0 255 255 255 255
1.43798 2.14651 3.70665 0 0 0 255 255 255 255
1.52888 2.15646 3.78252 0 0 0 255 255 255 255
1.12247 1.85136 4.29813 0 0 0 255 255 255 255
1.76166 1.78344 4.00966 0 0 0 255 255 255 255
1.72812 1.8331 3.99751 0 0 0 255 255 255 255
1.78062 1.80658 4.04521 0 0 0 255 255 255 255
1.68425 1.94658 3.9248 0 0 0 255 255 255 255
1.97998 2.01298 4.29307 0 0 0 255 255 255 255
1.72699 1.8478 3.97306 0 0 0 255 255 255 255
1.84296 1.90086 4.17842 0 0 0 255 255 255 255
1.72583 1.83841 3.98421 0 0 0 255 255 255 255
1.70564 2.10196 4.00331 0 0 0 255 255 255 255
1.19545 1.34356 4.34882 0 0 0 255 255 255 255
1.23962 1.18066 4.33632 0 0 0 255 255 255 255
1.24933 1.17244 4.31277 0 0 0 255 255 255 255
1.15914 1.41561 4.39827 0 0 0 255 255 255 255
1.24359 1.17427 4.33145 0 0 0 255 255 255 255
1.16812 1.27179 4.38136 0 0 0 255 255 255 255
1.19173 1.31115 4.38784 0 0 0 255 255 255 255
1.19913 1.17974 4.34734 0 0 0 255 255 255 255
0.999268 1.43 4.38827 0 0 0 255 255 255 255
1.23267 1.12294 4.34424 0 0 0 255 255 255 255
1.04672 1.38739 4.39213 0 0 0 255 255 255 255
0.959913 1.85693 4.44332 0 0 0 255 255 255 255
0.905933 1.89369 4.62535 0 0 0 255 255 255 255
1.11761 1.8669 4.34381 0 0 0 255 255 255 255
1.86681 1.26831 4.3483 0 0 0 255 255 255 255
1.96397 1.35366 4.56577 0 0 0 255 255 255 255
1.89187 1.57372 4.32538 0 0 0 255 255 255 255
1.81693 1.67545 4.32754 0 0 0 255 255 255 255
2.11666 2.01945 4.33334 0 0 0 255 255 255 255
1.88357 1.94571 4.51564 0 0 0 255 255 255 255
2.11935 2.01241 4.33972 0 0 0 255 255 255 255
1.8764 1.88088 4.33977 0 0 0 255 255 255 255
2.11189 2.01918 4.32973 0 0 0 255 255 255 255
1.84528 1.89919 4.49459 0 0 0 255 255 255 255
1.83809 1.9028 4.47169 0 0 0 255 255 255 255
1.86184 1.91601 4.52697 0 0 0 255 255 255 255
3.1873 0.548711 3.92069 0 0 0 255 255 255 255
3.1798 0.657974 3.93677 0 0 0 255 255 255 255
3.15828 0.673012 3.95968 0 0 0 255 255 255 255
3.15294 0.625356 3.93545 0 0 0 255 255 255 255
3.15373 0.627802 3.93399 0 0 0 255 255 255 255
3.1647 0.653481 3.94258 0 0 0 255 255 255 255
3.18144 0.431208 3.96967 0 0 0 255 255 255 255
3.16459 0.610703 3.92973 0 0 0 255 255 255 255
2.98949 0.804511 4.1195 0 0 0 255 255 255 255
2.89685 0.78872 4.02155 0 0 0 255 255 255 255
2.89989 0.773616 4.16661 0 0 0 255 255 255 255
3.15979 0.709141 3.96213 0 0 0 255 255 255 255
3.01875 0.812485 4.11569 0 0 0 255 255 255 255
3.14432 0.717802 3.955 0 0 0 255 255 255 255
3.1783 0.864238 4.10318 0 0 0 255 255 255 255
3.15389 0.683963 3.96132 0 0 0 255 255 255 255
3.04961 0.799429 4.13753 0 0 0 255 255 255 255
3.01393 0.819422 4.12158 0 0 0 255 255 255 255
3.06322 0.797631 4.14804 0 0 0 255 255 255 255
3.15405 0.95349 4.07825 0 0 0 255 255 255 255
3.15849 0.880708 4.06243 0 0 0 255 255 255 255
3.15167 0.931617 4.07009 0 0 0 255 255 255 255
3.19302 0.881104 4.13581 0 0 0 255 255 255 255
3.19696 0.918844 4.14343 0 0 0 255 255 255 255
3.25184 0.428846 4.13737 0 0 0 255 255 255 255
3.29681 0.406915 4.04998 0 0 0 255 255 255 255
3.56626 0.350269 4.0954 0 0 0 255 255 255 255
3.26358 0.34726 4.26294 0 0 0 255 255 255 255
3.2667 0.406827 4.19557 0 0 0 255 255 255 255
3.22759 0.426707 4.17923 0 0 0 255 255 255 255
3.4835 0.357157 4.07434 0 0 0 255 255 255 255
3.24842 0.485697 4.07746 0 0 0 255 255 255 255
3.27234 0.454612 4.11485 0 0 0 255 255 255 255
3.27187 0.459163 4.10728 0 0 0 255 255 255 255
3.25948 0.429465 4.13447 0 0 0 255 255 255 255
3.26913 0.849397 4.1183 0 0 0 255 255 255 255
3.34039 0.841182 4.14349 0 0 0 255 255 255 255
3.74717 0.457821 3.91435 0 0 0 255 255 255 255
3.75667 0.46367 3.82484 0 0 0 255 255 255 255
3.7674 0.423319 3.90229 0 0 0 255 255 255 255
3.70072 0.434314 4.03139 0 0 0 255 255 255 255
3.64423 0.351629 4.15728 0 0 0 255 255 255 255
3.75796 0.401123 3.98618 0 0 0 255 255 255 255
3.75711 0.407289 3.97957 0 0 0 255 255 255 255
3.64904 0.380057 4.31086 0 0 0 255 255 255 255
3.73782 0.454494 3.93431 0 0 0 255 255 255 255
3.77433 0.388835 4.06545 0 0 0 255 255 255 255
3.75835 0.386646 4.08936 0 0 0 255 255 255 255
3.78235 0.405613 3.97442 0 0 0 255 255 255 255
3.66356 0.381754 4.25156 0 0 0 255 255 255 255
3.66846 0.37468 4.2618 0 0 0 255 255 255 255
3.60665 0.992862 3.99622 0 0 0 255 255 255 255
3.43279 0.297987 4.37714 0 0 0 255 255 255 255
3.28119 0.361366 4.3701 0 0 0 255 255 255 255
3.55695 0.338084 4.48732 0 0 0 255 255 255 255
3.33064 0.353674 4.38584 0 0 0 255 255 255 255
3.46824 0.290273 4.40818 0 0 0 255 255 255 255
3.4317 0.303356 4.37008 0 0 0 255 255 255 255
3.56021 0.331935 4.37185 0 0 0 255 255 255 255
3.34264 0.354567 4.39101 0 0 0 255 255 255 255
3.47396 0.28735 4.42083 0 0 0 255 255 255 255
3.70583 0.341862 4.31638 0 0 0 255 255 255 255
4.2604 0.770687 3.49666 0 0 0 255 255 255 255
4.34415 0.955383 3.62733 0 0 0 255 255 255 255
4.17038 0.585162 3.54484 0 0 0 255 255 255 255
4.1745 0.545701 3.6689 0 0 0 255 255 255 255
4.1668 1.0309 3.53388 0 0 0 255 255 255 255
4.37687 1.02311 3.69391 0 0 0 255 255 255 255
4.17095 0.856709 3.48937 0 0 0 255 255 255 255
4.45476 0.837907 3.72773 0 0 0 255 255 255 255
4.4409 0.831035 3.71327 0 0 0 255 255 255 255
4.28469 0.769195 3.52054 0 0 0 255 255 255 255
3.98121 0.435291 3.97548 0 0 0 255 255 255 255
4.26498 0.779761 3.50573 0 0 0 255 255 255 255
4.35267 0.959015 3.63244 0 0 0 255 255 255 255
3.98057 0.468795 3.96725 0 0 0 255 255 255 255
4.06734 0.811815 3.37781 0 0 0 255 255 255 255
4.32683 -0.330002 8.93701 0 0 0 255 255 255 255
3.31945 -0.358199 8.15515 0 0 0 255 255 255 255
3.63018 -0.0470053 8.0269 0 0 0 255 255 255 255
3.20386 -0.108187 8.05463 0 0 0 255 255 255 255
4.14406 -0.443319 8.52595 0 0 0 255 255 255 255
3.98661 -0.272975 8.81876 0 0 0 255 255 255 255
4.41751 -0.0435705 8.72489 0 0 0 255 255 255 255
3.3612 -0.362671 8.18292 0 0 0 255 255 255 255
4.33397 -0.358716 8.89899 0 0 0 255 255 255 255
3.58461 -0.0684242 8.00317 0 0 0 255 255 255 255
3.31436 -0.311455 8.11445 0 0 0 255 255 255 255
4.15498 -0.0485663 8.60069 0 0 0 255 255 255 255
3.6805 -0.0421891 8.11801 0 0 0 255 255 255 255
4.32873 -0.330216 8.93348 0 0 0 255 255 255 255
3.81744 -0.136947 8.5174 0 0 0 255 255 255 255
3.1658 -0.122945 7.97159 0 0 0 255 255 255 255
3.70584 -0.0695413 8.16203 0 0 0 255 255 255 255
3.11675 1.26362 4.13317 0 0 0 255 255 255 255
3.11439 1.30232 4.13227 0 0 0 255 255 255 255
3.13966 2.35315 3.22613 0 0 0 255 255 255 255
3.14814 2.34348 3.25982 0 0 0 255 255 255 255
3.07616 2.13316 4.27398 0 0 0 255 255 255 255
3.04455 2.08634 4.24424 0 0 0 255 255 255 255
3.0822 2.12032 4.27559 0 0 0 255 255 255 255
3.04046 2.07334 4.23108 0 0 0 255 255 255 255
3.074 2.10576 4.26262 0 0 0 255 255 255 255
3.53797 1.31677 4.2878 0 0 0 255 255 255 255
3.53537 1.32341 4.2721 0 0 0 255 255 255 255
3.34838 1.63705 4.21358 0 0 0 255 255 255 255
3.34019 1.64022 4.21525 0 0 0 255 255 255 255
3.95549 1.44187 3.54254 0 0 0 255 255 255 255
3.94783 1.39537 3.56174 0 0 0 255 255 255 255
3.59907 1.45825 4.09226 0 0 0 255 255 255 255
3.22871 2.33504 3.36113 0 0 0 255 255 255 255
3.35967 2.22285 4.22167 0 0 0 255 255 255 255
3.35615 2.10853 4.17081 0 0 0 255 255 255 255
3.46108 2.23851 4.14225 0 0 0 255 255 255 255
3.46677 2.26816 4.11598 0 0 0 255 255 255 255
3.48017 2.23566 4.13838 0 0 0 255 255 255 255
3.45833 2.26125 4.12836 0 0 0 255 255 255 255
3.47191 2.27011 4.10407 0 0 0 255 255 255 255
3.48156 2.23542 4.13837 0 0 0 255 255 255 255
3.8748 1.96113 3.66536 0 0 0 255 255 255 255
3.83881 2.09309 3.67438 0 0 0 255 255 255 255
3.87525 1.96045 3.66343 0 0 0 255 255 255 255
3.88339 1.96425 3.66204 0 0 0 255 255 255 255
3.84222 2.09852 3.66359 0 0 0 255 255 255 255
3.85531 2.11976 3.66463 0 0 0 255 255 255 255
3.83812 2.09498 3.67369 0 0 0 255 255 255 255
3.94192 2.35784 3.69227 0 0 0 255 255 255 255
3.94291 2.35616 3.70037 0 0 0 255 255 255 255
3.85516 2.42832 3.64851 0 0 0 255 255 255 255
3.88332 2.35002 3.64854 0 0 0 255 255 255 255
3.78672 2.34098 3.73864 0 0 0 255 255 255 255
3.77772 2.3273 3.74405 0 0 0 255 255 255 255
3.76355 2.32777 3.74675 0 0 0 255 255 255 255
3.84389 2.41388 3.65092 0 0 0 255 255 255 255
3.60715 2.22966 3.92939 0 0 0 255 255 255 255
3.92472 1.18626 4.42755 0 0 0 255 255 255 255
3.13225 2.17238 4.33428 0 0 0 255 255 255 255
4.14687 1.16527 3.55752 0 0 0 255 255 255 255
4.11347 1.21902 3.55896 0 0 0 255 255 255 255
4.15493 1.21531 3.58611 0 0 0 255 255 255 255
4.00538 2.35668 3.74861 0 0 0 255 255 255 255
4.04429 2.29818 3.79513 0 0 0 255 255 255 255
4.04024 2.28667 3.78723 0 0 0 255 255 255 255
4.05185 2.26833 3.77384 0 0 0 255 255 255 255
4.12313 2.35425 3.83987 0 0 0 255 255 255 255
4.03639 2.3478 3.78193 0 0 0 255 255 255 255
4.12773 2.35389 3.83772 0 0 0 255 255 255 255
5.23418 2.20301 4.76106 0 0 0 255 255 255 255
5.13937 2.08812 4.91806 0 0 0 255 255 255 255
4.66247 1.92435 4.31831 0 0 0 255 255 255 255
5.00552 2.0322 4.75568 0 0 0 255 255 255 255
4.97686 2.10942 4.7472 0 0 0 255 255 255 255
5.08925 2.07136 4.86204 0 0 0 255 255 255 255
