ply
format ascii 1.0
comment VCGLIB generated
element vertex 157
property float x
property float y
property float z
property float nx
property float ny
property float nz
property uchar red
property uchar green
property uchar blue
property uchar alpha
element face 0
property list uchar int vertex_indices
end_header
1.28963 1.07658 3.22291 0 0 0 0 128 0 255
1.26427 1.07611 3.23102 0 0 0 0 128 0 255
1.34496 1.01739 3.23913 0 0 0 0 128 0 255
1.26445 1.03282 3.25535 0 0 0 0 128 0 255
1.2525 1.01731 3.26779 0 0 0 0 128 0 255
1.22875 0.994844 3.28779 0 0 0 0 128 0 255
1.26393 0.946726 3.30401 0 0 0 0 128 0 255
1.35622 0.875877 3.31537 0 0 0 0 128 0 255
1.29507 0.903709 3.31861 0 0 0 0 128 0 255
1.12679 0.996145 3.31861 0 0 0 0 128 0 255
1.16366 0.973969 3.31969 0 0 0 0 128 0 255
1.22704 0.931481 3.32402 0 0 0 0 128 0 255
1.16278 0.961976 3.32672 0 0 0 0 128 0 255
1.29473 0.888542 3.32726 0 0 0 0 128 0 255
1.1909 0.944614 3.3278 0 0 0 0 128 0 255
1.2215 0.917246 3.33375 0 0 0 0 128 0 255
1.24536 0.885905 3.34402 0 0 0 0 128 0 255
1.16533 0.925067 3.34673 0 0 0 0 128 0 255
1.35869 0.815976 3.34835 0 0 0 0 128 0 255
1.09979 0.955306 3.34997 0 0 0 0 128 0 255
1.38093 0.794159 3.35376 0 0 0 0 128 0 255
1.35787 0.802027 3.35646 0 0 0 0 128 0 255
1.10902 0.936799 3.35754 0 0 0 0 128 0 255
1.35544 0.797603 3.3597 0 0 0 0 128 0 255
1.34324 0.802387 3.36078 0 0 0 0 128 0 255
1.09095 0.937129 3.36295 0 0 0 0 128 0 255
1.23037 0.858624 3.36403 0 0 0 0 128 0 255
1.05737 0.950774 3.36565 0 0 0 0 128 0 255
1.35416 0.784873 3.36727 0 0 0 0 128 0 255
1.36353 0.774928 3.36998 0 0 0 0 128 0 255
1.31444 0.801888 3.36998 0 0 0 0 128 0 255
1.38078 0.76065 3.37268 0 0 0 0 128 0 255
1.33932 0.778628 3.37538 0 0 0 0 128 0 255
1.2609 0.808264 3.38295 0 0 0 0 128 0 255
1.24512 0.81693 3.38295 0 0 0 0 128 0 255
1.35037 0.757202 3.38403 0 0 0 0 128 0 255
1.29259 0.787021 3.38511 0 0 0 0 128 0 255
1.20757 0.83372 3.38511 0 0 0 0 128 0 255
1.32643 0.765551 3.38674 0 0 0 0 128 0 255
1.25328 0.804773 3.38728 0 0 0 0 128 0 255
1.04778 0.916692 3.38782 0 0 0 0 128 0 255
1.29629 0.779226 3.38836 0 0 0 0 128 0 255
1.16407 0.848011 3.39052 0 0 0 0 128 0 255
1.34975 0.737385 3.39539 0 0 0 0 128 0 255
1.289 0.765955 3.39809 0 0 0 0 128 0 255
1.06995 0.884358 3.39917 0 0 0 0 128 0 255
1.18847 0.813496 3.40242 0 0 0 0 128 0 255
1.16359 0.824282 3.40404 0 0 0 0 128 0 255
1.2567 0.767382 3.40728 0 0 0 0 128 0 255
1.17431 0.812637 3.40728 0 0 0 0 128 0 255
1.15415 0.82371 3.40728 0 0 0 0 128 0 255
1.35405 0.711986 3.40836 0 0 0 0 128 0 255
1.13507 0.828433 3.41053 0 0 0 0 128 0 255
1.18469 0.798298 3.41215 0 0 0 0 128 0 255
1.07229 0.840842 3.42296 0 0 0 0 128 0 255
1.16971 0.783491 3.42512 0 0 0 0 128 0 255
0.932182 0.91396 3.42512 0 0 0 0 128 0 255
0.929685 0.911492 3.42729 0 0 0 0 128 0 255
1.1577 0.782406 3.42945 0 0 0 0 128 0 255
0.921525 0.911176 3.42999 0 0 0 0 128 0 255
1.32024 0.66913 3.44297 0 0 0 0 128 0 255
0.945311 0.869317 3.44621 0 0 0 0 128 0 255
0.940928 0.871724 3.44621 0 0 0 0 128 0 255
0.939647 0.871468 3.44675 0 0 0 0 128 0 255
1.3193 0.659094 3.44891 0 0 0 0 128 0 255
0.925484 0.87061 3.45162 0 0 0 0 128 0 255
1.1442 0.749513 3.45216 0 0 0 0 128 0 255
0.978544 0.840505 3.45216 0 0 0 0 128 0 255
0.893121 0.886467 3.4527 0 0 0 0 128 0 255
1.06147 0.792075 3.45378 0 0 0 0 128 0 255
1.03834 0.801898 3.4554 0 0 0 0 128 0 255
1.33345 0.635005 3.4581 0 0 0 0 128 0 255
0.899316 0.868667 3.46081 0 0 0 0 128 0 255
1.31618 0.636809 3.46243 0 0 0 0 128 0 255
1.0705 0.766962 3.46513 0 0 0 0 128 0 255
1.30553 0.634025 3.4673 0 0 0 0 128 0 255
1.33229 0.618363 3.46784 0 0 0 0 128 0 255
1.30735 0.631106 3.46838 0 0 0 0 128 0 255
1.30303 0.631557 3.46946 0 0 0 0 128 0 255
1.32804 0.616858 3.47 0 0 0 0 128 0 255
1.10636 0.736705 3.47108 0 0 0 0 128 0 255
1.10609 0.732056 3.47378 0 0 0 0 128 0 255
1.12759 0.719282 3.47432 0 0 0 0 128 0 255
1.04096 0.763033 3.47649 0 0 0 0 128 0 255
0.881768 0.840874 3.48189 0 0 0 0 128 0 255
1.11235 0.7123 3.48298 0 0 0 0 128 0 255
1.12475 0.701647 3.48514 0 0 0 0 128 0 255
0.942711 0.793962 3.48946 0 0 0 0 128 0 255
1.14916 0.679605 3.49 0 0 0 0 128 0 255
1.17949 0.660062 3.49163 0 0 0 0 128 0 255
0.931987 0.793133 3.49325 0 0 0 0 128 0 255
1.17416 0.652432 3.49757 0 0 0 0 128 0 255
0.940613 0.779757 3.49811 0 0 0 0 128 0 255
1.07957 0.702472 3.49865 0 0 0 0 128 0 255
0.92888 0.783323 3.49974 0 0 0 0 128 0 255
1.16034 0.654267 3.50082 0 0 0 0 128 0 255
0.928542 0.780629 3.50136 0 0 0 0 128 0 255
1.07188 0.700936 3.5019 0 0 0 0 128 0 255
1.15474 0.654462 3.50244 0 0 0 0 128 0 255
0.924697 0.779862 3.50298 0 0 0 0 128 0 255
0.920315 0.782269 3.50298 0 0 0 0 128 0 255
1.07659 0.688749 3.50731 0 0 0 0 128 0 255
1.1219 0.659064 3.51001 0 0 0 0 128 0 255
1.06931 0.687951 3.51001 0 0 0 0 128 0 255
1.18642 0.620745 3.51163 0 0 0 0 128 0 255
1.21501 0.602164 3.51325 0 0 0 0 128 0 255
0.896438 0.776188 3.51379 0 0 0 0 128 0 255
1.1844 0.617058 3.51433 0 0 0 0 128 0 255
1.06081 0.684941 3.51433 0 0 0 0 128 0 255
0.890774 0.778339 3.51433 0 0 0 0 128 0 255
1.20819 0.600147 3.5165 0 0 0 0 128 0 255
1.08218 0.663606 3.51974 0 0 0 0 128 0 255
0.888477 0.770003 3.51974 0 0 0 0 128 0 255
1.19572 0.600281 3.52028 0 0 0 0 128 0 255
0.888544 0.768047 3.52082 0 0 0 0 128 0 255
0.931558 0.742501 3.5219 0 0 0 0 128 0 255
0.881598 0.769943 3.5219 0 0 0 0 128 0 255
0.881731 0.76603 3.52407 0 0 0 0 128 0 255
1.04044 0.676934 3.52515 0 0 0 0 128 0 255
1.15047 0.615536 3.52569 0 0 0 0 128 0 255
0.954207 0.721422 3.52677 0 0 0 0 128 0 255
1.04374 0.668403 3.52893 0 0 0 0 128 0 255
0.938563 0.726175 3.52893 0 0 0 0 128 0 255
0.950429 0.718698 3.52947 0 0 0 0 128 0 255
0.936 0.725663 3.53001 0 0 0 0 128 0 255
1.04131 0.663979 3.53218 0 0 0 0 128 0 255
1.0848 0.637214 3.5338 0 0 0 0 128 0 255
0.92703 0.723872 3.5338 0 0 0 0 128 0 255
1.07697 0.63959 3.53488 0 0 0 0 128 0 255
1.13051 0.608267 3.53596 0 0 0 0 128 0 255
1.07488 0.63786 3.5365 0 0 0 0 128 0 255
1.13496 0.603903 3.53704 0 0 0 0 128 0 255
1.09747 0.618737 3.54029 0 0 0 0 128 0 255
1.12295 0.602819 3.54137 0 0 0 0 128 0 255
1.05283 0.641334 3.54137 0 0 0 0 128 0 255
1.08796 0.620121 3.54245 0 0 0 0 128 0 255
1.11216 0.603947 3.54407 0 0 0 0 128 0 255
1.10953 0.605391 3.54407 0 0 0 0 128 0 255
1.11142 0.600516 3.54623 0 0 0 0 128 0 255
0.911175 0.709546 3.54677 0 0 0 0 128 0 255
1.10272 0.603374 3.54732 0 0 0 0 128 0 255
1.02935 0.623517 3.55867 0 0 0 0 128 0 255
1.00879 0.633853 3.55921 0 0 0 0 128 0 255
1.02167 0.621982 3.56191 0 0 0 0 128 0 255
1.00022 0.632799 3.56245 0 0 0 0 128 0 255
0.920532 0.674653 3.56353 0 0 0 0 128 0 255
0.896867 0.687652 3.56353 0 0 0 0 128 0 255
1.01876 0.618776 3.56462 0 0 0 0 128 0 255
1.06987 0.583029 3.56894 0 0 0 0 128 0 255
1.05901 0.586112 3.57056 0 0 0 0 128 0 255
1.0555 0.588038 3.57056 0 0 0 0 128 0 255
1.05254 0.586789 3.57219 0 0 0 0 128 0 255
1.02603 0.582153 3.583 0 0 0 0 128 0 255
1.01645 0.585492 3.58408 0 0 0 0 128 0 255
1.01227 0.582031 3.58732 0 0 0 0 128 0 255
1.00101 0.584378 3.58949 0 0 0 0 128 0 255
0.995008 0.583836 3.59165 0 0 0 0 128 0 255
