ply
format ascii 1.0
comment VCGLIB generated
element vertex 173
property float x
property float y
property float z
property float nx
property float ny
property float nz
property uchar red
property uchar green
property uchar blue
property uchar alpha
element face 0
property list uchar int vertex_indices
end_header
-0.0472028 0.824888 4.34922 0 0 0 128 128 0 255
-0.0453908 0.844868 4.33833 0 0 0 128 128 0 255
-0.06529 0.586643 4.33592 0 0 0 128 128 0 255
-0.062469 0.606571 4.32008 0 0 0 128 128 0 255
-0.0756774 0.426088 4.31314 0 0 0 128 128 0 255
-0.0738743 0.444018 4.31027 0 0 0 128 128 0 255
-0.0794849 0.359232 4.30388 0 0 0 128 128 0 255
-0.0413473 0.850753 4.30558 0 0 0 128 128 0 255
-0.0688772 0.489817 4.30164 0 0 0 128 128 0 255
-0.0682902 0.471772 4.29174 0 0 0 128 128 0 255
-0.0542376 0.62319 4.28285 0 0 0 128 128 0 255
-0.0536154 0.621152 4.27994 0 0 0 128 128 0 255
-0.0353661 0.850435 4.27927 0 0 0 128 128 0 255
-0.0224804 0.676263 4.21689 0 0 0 128 128 0 255
0.0197285 0.841722 4.17741 0 0 0 128 128 0 255
0.0141513 0.59951 4.16233 0 0 0 128 128 0 255
0.0167501 0.58629 4.1588 0 0 0 128 128 0 255
0.0164629 0.496079 4.15226 0 0 0 128 128 0 255
0.057815 0.962296 4.15027 0 0 0 128 128 0 255
0.0344277 0.599045 4.1445 0 0 0 128 128 0 255
0.0342737 0.597051 4.14449 0 0 0 128 128 0 255
0.0251089 0.478406 4.14384 0 0 0 128 128 0 255
0.040085 0.558526 4.13763 0 0 0 128 128 0 255
0.0387097 0.498467 4.13498 0 0 0 128 128 0 255
0.0454568 0.575177 4.13482 0 0 0 128 128 0 255
0.0450717 0.570192 4.1348 0 0 0 128 128 0 255
0.0411439 0.519344 4.13452 0 0 0 128 128 0 255
0.0482012 0.600042 4.13439 0 0 0 128 128 0 255
0.0425296 0.505205 4.13274 0 0 0 128 128 0 255
0.0546005 0.596563 4.12992 0 0 0 128 128 0 255
0.0564619 0.499164 4.12361 0 0 0 128 128 0 255
0.0673756 0.561526 4.12048 0 0 0 128 128 0 255
0.0692632 0.540329 4.11846 0 0 0 128 128 0 255
0.0703749 0.543254 4.11801 0 0 0 128 128 0 255
0.0697543 0.512215 4.11691 0 0 0 128 128 0 255
0.0801795 0.57762 4.11457 0 0 0 128 128 0 255
0.077661 0.521654 4.11339 0 0 0 128 128 0 255
0.0757357 0.496728 4.11325 0 0 0 128 128 0 255
0.0900768 0.599945 4.11087 0 0 0 128 128 0 255
0.0887064 0.498767 4.10755 0 0 0 128 128 0 255
0.0882443 0.492785 4.10751 0 0 0 128 128 0 255
0.122513 0.924423 4.1095 0 0 0 128 128 0 255
0.103091 0.539804 4.10342 0 0 0 128 128 0 255
0.11201 0.606321 4.10245 0 0 0 128 128 0 255
0.0989367 0.424793 4.10113 0 0 0 128 128 0 255
0.100673 0.422656 4.10048 0 0 0 128 128 0 255
0.113788 0.580113 4.10103 0 0 0 128 128 0 255
0.111785 0.554191 4.10089 0 0 0 128 128 0 255
0.114735 0.580042 4.10072 0 0 0 128 128 0 255
0.105861 0.403211 4.09826 0 0 0 128 128 0 255
0.105398 0.397229 4.09823 0 0 0 128 128 0 255
0.150098 0.963461 4.10104 0 0 0 128 128 0 255
0.111107 0.408831 4.09689 0 0 0 128 128 0 255
0.136941 0.705723 4.09771 0 0 0 128 128 0 255
0.131824 0.601815 4.09638 0 0 0 128 128 0 255
0.130899 0.58985 4.09631 0 0 0 128 128 0 255
0.11974 0.420211 4.09489 0 0 0 128 128 0 255
0.144935 0.721163 4.09606 0 0 0 128 128 0 255
0.160538 0.910522 4.09687 0 0 0 128 128 0 255
0.14726 0.726 4.09563 0 0 0 128 128 0 255
0.149512 0.729841 4.0952 0 0 0 128 128 0 255
0.149358 0.727847 4.09519 0 0 0 128 128 0 255
0.149946 0.722788 4.09495 0 0 0 128 128 0 255
0.126429 0.405663 4.093 0 0 0 128 128 0 255
0.144744 0.553697 4.09242 0 0 0 128 128 0 255
0.165789 0.736624 4.09221 0 0 0 128 128 0 255
0.139604 0.397639 4.09035 0 0 0 128 128 0 255
0.165603 0.708557 4.09174 0 0 0 128 128 0 255
0.157871 0.582782 4.09076 0 0 0 128 128 0 255
0.157178 0.573809 4.09071 0 0 0 128 128 0 255
0.156688 0.541754 4.09025 0 0 0 128 128 0 255
0.161874 0.557403 4.08982 0 0 0 128 128 0 255
0.156329 0.485618 4.08943 0 0 0 128 128 0 255
0.192802 0.919092 4.09146 0 0 0 128 128 0 255
0.160456 0.500346 4.08917 0 0 0 128 128 0 255
0.166863 0.492834 4.08845 0 0 0 128 128 0 255
0.172701 0.542532 4.08856 0 0 0 128 128 0 255
0.204964 0.947244 4.0907 0 0 0 128 128 0 255
0.201261 0.886349 4.0903 0 0 0 128 128 0 255
0.20834 0.965037 4.09066 0 0 0 128 128 0 255
0.179595 0.554037 4.08824 0 0 0 128 128 0 255
0.197129 0.716167 4.08891 0 0 0 128 128 0 255
0.172176 0.393134 4.08714 0 0 0 128 128 0 255
0.200282 0.744007 4.08903 0 0 0 128 128 0 255
0.18434 0.537625 4.0879 0 0 0 128 128 0 255
0.188721 0.568378 4.08802 0 0 0 128 128 0 255
0.191874 0.596218 4.08815 0 0 0 128 128 0 255
0.205412 0.71954 4.08878 0 0 0 128 128 0 255
0.193385 0.524891 4.08773 0 0 0 128 128 0 255
0.199619 0.592611 4.08811 0 0 0 128 128 0 255
0.185679 0.412151 4.08712 0 0 0 128 128 0 255
0.195678 0.502648 4.08767 0 0 0 128 128 0 255
0.217378 0.731653 4.08905 0 0 0 128 128 0 255
0.234459 0.913875 4.09019 0 0 0 128 128 0 255
0.22129 0.743386 4.08925 0 0 0 128 128 0 255
0.222043 0.714241 4.08926 0 0 0 128 128 0 255
0.240828 0.944474 4.09059 0 0 0 128 128 0 255
0.214021 0.584474 4.08868 0 0 0 128 128 0 255
0.246654 0.968094 4.09101 0 0 0 128 128 0 255
0.218081 0.598201 4.08899 0 0 0 128 128 0 255
0.229241 0.72973 4.08979 0 0 0 128 128 0 255
0.212452 0.512381 4.0886 0 0 0 128 128 0 255
0.203518 0.396727 4.08797 0 0 0 128 128 0 255
0.214446 0.525265 4.08876 0 0 0 128 128 0 255
0.236834 0.686009 4.09072 0 0 0 128 128 0 255
0.243213 0.755723 4.09123 0 0 0 128 128 0 255
0.222727 0.490517 4.08978 0 0 0 128 128 0 255
0.231403 0.577104 4.09052 0 0 0 128 128 0 255
0.217772 0.400632 4.08956 0 0 0 128 128 0 255
0.220299 0.420495 4.08981 0 0 0 128 128 0 255
0.265368 0.952593 4.09332 0 0 0 128 128 0 255
0.237359 0.551563 4.09161 0 0 0 128 128 0 255
0.269225 0.951289 4.09397 0 0 0 128 128 0 255
0.236628 0.516514 4.09177 0 0 0 128 128 0 255
0.236531 0.502479 4.09187 0 0 0 128 128 0 255
0.269703 0.919154 4.09433 0 0 0 128 128 0 255
0.236356 0.487447 4.09197 0 0 0 128 128 0 255
0.231251 0.408606 4.09172 0 0 0 128 128 0 255
0.235442 0.437366 4.09226 0 0 0 128 128 0 255
0.24787 0.572807 4.0934 0 0 0 128 128 0 255
0.238269 0.423102 4.093 0 0 0 128 128 0 255
0.251026 0.575569 4.09404 0 0 0 128 128 0 255
0.254667 0.59735 4.0946 0 0 0 128 128 0 255
0.255146 0.578254 4.09494 0 0 0 128 128 0 255
0.253375 0.555323 4.09482 0 0 0 128 128 0 255
0.250911 0.523419 4.09464 0 0 0 128 128 0 255
0.257565 0.533929 4.09614 0 0 0 128 128 0 255
0.257028 0.501873 4.09648 0 0 0 128 128 0 255
0.249596 0.393123 4.09614 0 0 0 128 128 0 255
0.258219 0.479712 4.09715 0 0 0 128 128 0 255
0.292988 0.917326 4.09981 0 0 0 128 128 0 255
0.271785 0.592994 4.09916 0 0 0 128 128 0 255
0.264114 0.481253 4.09884 0 0 0 128 128 0 255
0.304809 0.958523 4.10265 0 0 0 128 128 0 255
0.304911 0.947481 4.1029 0 0 0 128 128 0 255
0.269407 0.487857 4.10038 0 0 0 128 128 0 255
0.279445 0.556277 4.10235 0 0 0 128 128 0 255
0.279154 0.54025 4.1026 0 0 0 128 128 0 255
0.302916 0.594538 4.11066 0 0 0 128 128 0 255
0.301375 0.574598 4.11055 0 0 0 128 128 0 255
0.290409 0.408949 4.11046 0 0 0 128 128 0 255
0.306469 0.593252 4.1123 0 0 0 128 128 0 255
0.302773 0.545395 4.11204 0 0 0 128 128 0 255
0.302758 0.498248 4.11349 0 0 0 128 128 0 255
0.30971 0.564904 4.11474 0 0 0 128 128 0 255
0.305412 0.485997 4.11519 0 0 0 128 128 0 255
0.301604 0.425108 4.11531 0 0 0 128 128 0 255
0.343504 0.944411 4.11906 0 0 0 128 128 0 255
0.311196 0.514627 4.11717 0 0 0 128 128 0 255
0.31878 0.544114 4.12017 0 0 0 128 128 0 255
0.317239 0.524174 4.12006 0 0 0 128 128 0 255
0.321039 0.56199 4.12075 0 0 0 128 128 0 255
0.31808 0.501033 4.12139 0 0 0 128 128 0 255
0.324569 0.573745 4.12228 0 0 0 128 128 0 255
0.319996 0.480815 4.12328 0 0 0 128 128 0 255
0.330492 0.594336 4.12492 0 0 0 128 128 0 255
0.331668 0.565148 4.12683 0 0 0 128 128 0 255
0.332024 0.503922 4.12971 0 0 0 128 128 0 255
0.338311 0.520469 4.13312 0 0 0 128 128 0 255
0.34733 0.583946 4.13633 0 0 0 128 128 0 255
0.341018 0.481122 4.13693 0 0 0 128 128 0 255
0.351826 0.5896 4.1393 0 0 0 128 128 0 255
0.339149 0.415058 4.13894 0 0 0 128 128 0 255
0.427721 0.504951 4.24036 0 0 0 128 128 0 255
0.424899 0.436938 4.24548 0 0 0 128 128 0 255
0.425061 0.428891 4.24728 0 0 0 128 128 0 255
0.431409 0.486547 4.25222 0 0 0 128 128 0 255
0.438776 0.487871 4.273 0 0 0 128 128 0 255
0.436312 0.444918 4.27564 0 0 0 128 128 0 255
0.440283 0.44754 4.29018 0 0 0 128 128 0 255
0.441797 0.461454 4.29221 0 0 0 128 128 0 255
0.438648 0.412536 4.29487 0 0 0 128 128 0 255
0.454301 0.553564 4.32929 0 0 0 128 128 0 255
