ply
format ascii 1.0
comment VCGLIB generated
element vertex 265
property float x
property float y
property float z
property float nx
property float ny
property float nz
property uchar red
property uchar green
property uchar blue
property uchar alpha
element face 0
property list uchar int vertex_indices
end_header
0.0711477 1.57164 3.75322 0 0 0 0 128 0 255
0.0738802 1.54446 3.68339 0 0 0 0 128 0 255
0.110075 1.50927 3.60734 0 0 0 0 128 0 255
0.12039 1.50307 3.5932 0 0 0 0 128 0 255
0.217088 1.46782 3.71147 0 0 0 0 128 0 255
0.22762 1.46149 3.69836 0 0 0 0 128 0 255
0.126706 1.51393 3.51449 0 0 0 0 128 0 255
0.228555 1.45366 3.64378 0 0 0 0 128 0 255
0.142952 1.51155 3.49199 0 0 0 0 128 0 255
0.167642 1.50428 3.4758 0 0 0 0 128 0 255
0.413557 1.51525 3.84704 0 0 0 0 128 0 255
0.429523 1.48112 3.78041 0 0 0 0 128 0 255
0.432798 1.49701 3.81045 0 0 0 0 128 0 255
0.447365 1.48623 3.78111 0 0 0 0 128 0 255
0.444144 1.52648 3.85121 0 0 0 0 128 0 255
0.448938 1.51952 3.83919 0 0 0 0 128 0 255
0.424289 1.55646 3.89396 0 0 0 0 128 0 255
0.482013 1.52174 3.82341 0 0 0 0 128 0 255
0.449652 1.45732 3.68644 0 0 0 0 128 0 255
0.421828 1.59213 3.92744 0 0 0 0 128 0 255
0.487861 1.47826 3.72145 0 0 0 0 128 0 255
0.479535 1.46873 3.69565 0 0 0 0 128 0 255
0.478484 1.46702 3.68893 0 0 0 0 128 0 255
0.50623 1.49268 3.74175 0 0 0 0 128 0 255
0.501641 1.56707 3.86982 0 0 0 0 128 0 255
0.506025 1.57292 3.87333 0 0 0 0 128 0 255
0.52677 1.50011 3.73337 0 0 0 0 128 0 255
0.506798 1.57953 3.87967 0 0 0 0 128 0 255
0.484279 1.60224 3.91271 0 0 0 0 128 0 255
0.533454 1.55533 3.8316 0 0 0 0 128 0 255
0.50973 1.60144 3.89832 0 0 0 0 128 0 255
0.491842 1.62608 3.92716 0 0 0 0 128 0 255
0.397537 1.4473 3.54407 0 0 0 0 128 0 255
0.572284 1.54554 3.77143 0 0 0 0 128 0 255
0.52871 1.48303 3.64304 0 0 0 0 128 0 255
0.579595 1.56082 3.78825 0 0 0 0 128 0 255
0.506742 1.47295 3.58605 0 0 0 0 128 0 255
0.503249 1.47211 3.57866 0 0 0 0 128 0 255
0.229138 1.51879 3.39992 0 0 0 0 128 0 255
0.597358 1.64608 3.86528 0 0 0 0 128 0 255
0.429481 1.4631 3.50314 0 0 0 0 128 0 255
0.590861 1.65857 3.88105 0 0 0 0 128 0 255
0.636592 1.61256 3.77687 0 0 0 0 128 0 255
0.566471 1.71014 3.9297 0 0 0 0 128 0 255
0.421205 1.47899 3.45533 0 0 0 0 128 0 255
0.678742 1.62415 3.68059 0 0 0 0 128 0 255
0.268971 1.52342 3.37726 0 0 0 0 128 0 255
0.28193 1.51782 3.38124 0 0 0 0 128 0 255
0.592956 1.73779 3.91997 0 0 0 0 128 0 255
0.461773 1.48809 3.46011 0 0 0 0 128 0 255
0.61648 1.55156 3.54775 0 0 0 0 128 0 255
0.27338 1.53095 3.3663 0 0 0 0 128 0 255
0.498791 1.50336 3.45892 0 0 0 0 128 0 255
0.488845 1.50372 3.44893 0 0 0 0 128 0 255
0.71076 1.70383 3.71771 0 0 0 0 128 0 255
0.583306 1.7752 3.93809 0 0 0 0 128 0 255
0.354164 1.50392 3.39389 0 0 0 0 128 0 255
0.630307 1.77517 3.89653 0 0 0 0 128 0 255
0.631096 1.77499 3.89566 0 0 0 0 128 0 255
0.715113 1.71613 3.71801 0 0 0 0 128 0 255
0.716626 1.71386 3.70906 0 0 0 0 128 0 255
0.664859 1.77441 3.85543 0 0 0 0 128 0 255
0.667405 1.61125 3.54253 0 0 0 0 128 0 255
0.504317 1.51567 3.43971 0 0 0 0 128 0 255
0.721618 1.72668 3.70571 0 0 0 0 128 0 255
0.657842 1.60451 3.52491 0 0 0 0 128 0 255
0.336361 1.51563 3.37678 0 0 0 0 128 0 255
0.498028 1.51934 3.42775 0 0 0 0 128 0 255
0.379616 1.51256 3.384 0 0 0 0 128 0 255
0.712053 1.78125 3.7749 0 0 0 0 128 0 255
0.676413 1.63182 3.5236 0 0 0 0 128 0 255
0.345519 1.51978 3.3712 0 0 0 0 128 0 255
0.729902 1.75187 3.69926 0 0 0 0 128 0 255
0.559897 1.55076 3.4379 0 0 0 0 128 0 255
0.728585 1.77289 3.72301 0 0 0 0 128 0 255
0.43099 1.51494 3.39485 0 0 0 0 128 0 255
0.672937 1.63351 3.5087 0 0 0 0 128 0 255
0.493485 1.53001 3.40724 0 0 0 0 128 0 255
0.734841 1.78276 3.7044 0 0 0 0 128 0 255
0.491683 1.53418 3.3999 0 0 0 0 128 0 255
0.677094 1.65192 3.48918 0 0 0 0 128 0 255
0.40403 1.52545 3.37163 0 0 0 0 128 0 255
0.670691 1.64836 3.47843 0 0 0 0 128 0 255
0.584978 1.58727 3.41565 0 0 0 0 128 0 255
0.40032 1.53145 3.36318 0 0 0 0 128 0 255
0.375137 1.53481 3.35468 0 0 0 0 128 0 255
0.37116 1.5354 3.35352 0 0 0 0 128 0 255
0.524259 1.55857 3.3916 0 0 0 0 128 0 255
0.656469 1.64877 3.44826 0 0 0 0 128 0 255
0.413255 1.53553 3.36151 0 0 0 0 128 0 255
0.702454 1.70554 3.48897 0 0 0 0 128 0 255
0.611012 1.62072 3.40906 0 0 0 0 128 0 255
0.687655 1.69756 3.46035 0 0 0 0 128 0 255
0.731468 1.76386 3.53098 0 0 0 0 128 0 255
0.731325 1.76503 3.52928 0 0 0 0 128 0 255
0.677707 1.68881 3.44768 0 0 0 0 128 0 255
0.726162 1.75733 3.51502 0 0 0 0 128 0 255
0.725138 1.75548 3.51279 0 0 0 0 128 0 255
0.571272 1.60115 3.38481 0 0 0 0 128 0 255
0.671684 1.68561 3.43904 0 0 0 0 128 0 255
0.607625 1.62804 3.39735 0 0 0 0 128 0 255
0.723933 1.75944 3.50539 0 0 0 0 128 0 255
0.720017 1.75429 3.49646 0 0 0 0 128 0 255
0.447837 1.55619 3.34973 0 0 0 0 128 0 255
0.722296 1.76541 3.4959 0 0 0 0 128 0 255
0.413899 1.55343 3.34155 0 0 0 0 128 0 255
0.705533 1.74159 3.466 0 0 0 0 128 0 255
0.628231 1.66047 3.39383 0 0 0 0 128 0 255
0.71808 1.76842 3.48172 0 0 0 0 128 0 255
0.710413 1.75967 3.46667 0 0 0 0 128 0 255
0.716552 1.77028 3.47657 0 0 0 0 128 0 255
0.64344 1.68107 3.39792 0 0 0 0 128 0 255
0.597108 1.64071 3.37409 0 0 0 0 128 0 255
0.600528 1.6454 3.37384 0 0 0 0 128 0 255
0.714896 1.77479 3.47006 0 0 0 0 128 0 255
0.448448 1.56922 3.33662 0 0 0 0 128 0 255
0.713544 1.77816 3.46519 0 0 0 0 128 0 255
0.430031 1.56707 3.33237 0 0 0 0 128 0 255
0.353161 1.57019 3.3164 0 0 0 0 128 0 255
0.640441 1.69193 3.38636 0 0 0 0 128 0 255
0.715233 1.7867 3.46588 0 0 0 0 128 0 255
0.7442 1.85843 3.55764 0 0 0 0 128 0 255
0.643596 1.69831 3.38635 0 0 0 0 128 0 255
0.674292 1.73394 3.40998 0 0 0 0 128 0 255
0.668405 1.72783 3.40404 0 0 0 0 128 0 255
0.745819 1.89332 3.61036 0 0 0 0 128 0 255
0.665414 1.72875 3.39905 0 0 0 0 128 0 255
0.663582 1.72664 3.39747 0 0 0 0 128 0 255
0.661113 1.72471 3.39493 0 0 0 0 128 0 255
0.660495 1.72489 3.39395 0 0 0 0 128 0 255
0.702338 1.78097 3.43929 0 0 0 0 128 0 255
0.42843 1.57604 3.32346 0 0 0 0 128 0 255
0.36874 1.57358 3.31434 0 0 0 0 128 0 255
0.744696 1.89987 3.60128 0 0 0 0 128 0 255
0.66232 1.73143 3.39317 0 0 0 0 128 0 255
0.644283 1.71157 3.37939 0 0 0 0 128 0 255
0.634787 1.70953 3.36889 0 0 0 0 128 0 255
0.599936 1.6765 3.35095 0 0 0 0 128 0 255
0.74275 1.90247 3.57846 0 0 0 0 128 0 255
0.598652 1.6786 3.34842 0 0 0 0 128 0 255
0.689755 1.77983 3.4162 0 0 0 0 128 0 255
0.574801 1.65944 3.33931 0 0 0 0 128 0 255
0.694176 1.79254 3.42029 0 0 0 0 128 0 255
0.62486 1.71277 3.356 0 0 0 0 128 0 255
0.661393 1.7611 3.37939 0 0 0 0 128 0 255
0.661846 1.76268 3.37945 0 0 0 0 128 0 255
0.661275 1.76198 3.37892 0 0 0 0 128 0 255
0.460627 1.61111 3.30543 0 0 0 0 128 0 255
0.659524 1.7767 3.37209 0 0 0 0 128 0 255
0.639683 1.75604 3.35437 0 0 0 0 128 0 255
0.447751 1.60796 3.30316 0 0 0 0 128 0 255
0.638143 1.75637 3.35253 0 0 0 0 128 0 255
0.566531 1.68544 3.31737 0 0 0 0 128 0 255
0.666801 1.79392 3.37758 0 0 0 0 128 0 255
0.650013 1.77471 3.36078 0 0 0 0 128 0 255
0.47695 1.62541 3.30176 0 0 0 0 128 0 255
0.564007 1.68773 3.31431 0 0 0 0 128 0 255
0.629659 1.75308 3.34442 0 0 0 0 128 0 255
0.452047 1.61496 3.29949 0 0 0 0 128 0 255
0.564707 1.69287 3.31223 0 0 0 0 128 0 255
0.726593 1.97435 3.59262 0 0 0 0 128 0 255
0.668642 1.81528 3.37659 0 0 0 0 128 0 255
0.561046 1.69709 3.30756 0 0 0 0 128 0 255
0.645118 1.7913 3.35121 0 0 0 0 128 0 255
0.680408 1.84153 3.39163 0 0 0 0 128 0 255
0.679261 1.84104 3.38992 0 0 0 0 128 0 255
0.714126 1.91049 3.46709 0 0 0 0 128 0 255
0.680904 1.84758 3.39239 0 0 0 0 128 0 255
0.69434 1.87193 3.41598 0 0 0 0 128 0 255
0.679252 1.85028 3.38999 0 0 0 0 128 0 255
0.70661 1.90328 3.447 0 0 0 0 128 0 255
0.692034 1.87631 3.41265 0 0 0 0 128 0 255
0.687066 1.87024 3.40355 0 0 0 0 128 0 255
0.713109 1.93552 3.47816 0 0 0 0 128 0 255
0.718769 1.98242 3.55119 0 0 0 0 128 0 255
0.711133 1.9479 3.48164 0 0 0 0 128 0 255
0.712569 1.95873 3.49492 0 0 0 0 128 0 255
0.712617 1.96457 3.50082 0 0 0 0 128 0 255
0.711148 1.9601 3.49197 0 0 0 0 128 0 255
0.712495 1.9737 3.51064 0 0 0 0 128 0 255
0.710052 1.96306 3.49153 0 0 0 0 128 0 255
0.70874 1.96788 3.49236 0 0 0 0 128 0 255
0.585042 1.77276 3.299 0 0 0 0 128 0 255
0.640773 1.84219 3.34131 0 0 0 0 128 0 255
0.577019 1.77379 3.29281 0 0 0 0 128 0 255
0.558833 1.76815 3.28161 0 0 0 0 128 0 255
0.700879 2.01789 3.53709 0 0 0 0 128 0 255
0.389727 1.64084 3.268 0 0 0 0 128 0 255
0.698431 2.02314 3.53772 0 0 0 0 128 0 255
0.689471 1.96769 3.44584 0 0 0 0 128 0 255
0.501792 1.72701 3.26197 0 0 0 0 128 0 255
0.495294 1.72246 3.26063 0 0 0 0 128 0 255
0.598929 1.85092 3.30208 0 0 0 0 128 0 255
0.601218 1.85803 3.30421 0 0 0 0 128 0 255
0.683054 2.04548 3.52487 0 0 0 0 128 0 255
0.458831 1.72391 3.2466 0 0 0 0 128 0 255
0.563831 1.82597 3.27687 0 0 0 0 128 0 255
0.597407 1.87329 3.30215 0 0 0 0 128 0 255
0.674894 2.06019 3.52843 0 0 0 0 128 0 255
0.464841 1.74461 3.24246 0 0 0 0 128 0 255
0.563878 1.84382 3.27643 0 0 0 0 128 0 255
0.555919 1.8348 3.2715 0 0 0 0 128 0 255
0.427612 1.71754 3.24024 0 0 0 0 128 0 255
0.413155 1.70984 3.23988 0 0 0 0 128 0 255
0.664011 2.01976 3.44171 0 0 0 0 128 0 255
0.381233 1.69653 3.24016 0 0 0 0 128 0 255
0.45287 1.75641 3.23585 0 0 0 0 128 0 255
0.43126 1.73835 3.23474 0 0 0 0 128 0 255
0.572147 1.87937 3.28385 0 0 0 0 128 0 255
0.56757 1.87521 3.28032 0 0 0 0 128 0 255
0.564941 1.8793 3.27898 0 0 0 0 128 0 255
0.56128 1.87924 3.27659 0 0 0 0 128 0 255
0.445464 1.7735 3.23028 0 0 0 0 128 0 255
0.417206 1.75083 3.22853 0 0 0 0 128 0 255
0.424411 1.7592 3.22808 0 0 0 0 128 0 255
0.325223 1.65139 3.25926 0 0 0 0 128 0 255
0.398258 1.74822 3.22596 0 0 0 0 128 0 255
0.470092 1.81239 3.23255 0 0 0 0 128 0 255
0.402323 1.75505 3.22496 0 0 0 0 128 0 255
0.587325 1.95841 3.3138 0 0 0 0 128 0 255
0.318155 1.66834 3.25105 0 0 0 0 128 0 255
0.458493 1.81691 3.22854 0 0 0 0 128 0 255
0.343415 1.71625 3.23103 0 0 0 0 128 0 255
0.358958 1.73389 3.22603 0 0 0 0 128 0 255
0.617912 2.04895 3.3999 0 0 0 0 128 0 255
0.392066 1.76828 3.22077 0 0 0 0 128 0 255
0.513903 1.89207 3.25187 0 0 0 0 128 0 255
0.581711 1.98469 3.32044 0 0 0 0 128 0 255
0.310354 1.66038 3.25556 0 0 0 0 128 0 255
0.57493 1.98807 3.31669 0 0 0 0 128 0 255
0.359688 1.77329 3.21709 0 0 0 0 128 0 255
0.34585 1.76257 3.21874 0 0 0 0 128 0 255
0.341938 1.76166 3.21891 0 0 0 0 128 0 255
0.309903 1.77279 3.21805 0 0 0 0 128 0 255
0.310571 1.77598 3.21744 0 0 0 0 128 0 255
0.412168 1.91586 3.22319 0 0 0 0 128 0 255
0.286893 1.77818 3.21963 0 0 0 0 128 0 255
0.40672 1.95379 3.23109 0 0 0 0 128 0 255
0.35437 1.91937 3.21781 0 0 0 0 128 0 255
0.368683 1.94869 3.2252 0 0 0 0 128 0 255
0.359655 1.9865 3.23679 0 0 0 0 128 0 255
0.32369 1.93962 3.22239 0 0 0 0 128 0 255
0.37119 2.03673 3.26037 0 0 0 0 128 0 255
0.304741 1.94472 3.225 0 0 0 0 128 0 255
0.353186 2.02617 3.25385 0 0 0 0 128 0 255
0.233191 1.82768 3.22563 0 0 0 0 128 0 255
0.265695 1.91636 3.22436 0 0 0 0 128 0 255
0.207766 1.78406 3.23791 0 0 0 0 128 0 255
0.263524 1.91677 3.22486 0 0 0 0 128 0 255
0.199873 1.9119 3.24222 0 0 0 0 128 0 255
0.272133 2.09119 3.30194 0 0 0 0 128 0 255
0.150981 1.80234 3.26044 0 0 0 0 128 0 255
0.128073 1.68192 3.31131 0 0 0 0 128 0 255
0.0912227 1.97768 3.32609 0 0 0 0 128 0 255
0.134933 1.6172 3.3501 0 0 0 0 128 0 255
0.083664 2.01665 3.35458 0 0 0 0 128 0 255
0.0648905 1.77222 3.32796 0 0 0 0 128 0 255
0.117482 1.61839 3.36349 0 0 0 0 128 0 255
0.0837265 1.66549 3.35818 0 0 0 0 128 0 255
0.0227087 1.98536 3.40824 0 0 0 0 128 0 255
0.0281606 1.7793 3.36628 0 0 0 0 128 0 255
0.0176818 1.81717 3.37279 0 0 0 0 128 0 255
0.0161068 1.80957 3.37585 0 0 0 0 128 0 255
0.0158888 1.80376 3.37704 0 0 0 0 128 0 255
0.0981019 1.6074 3.39304 0 0 0 0 128 0 255
