ply
format ascii 1.0
comment VCGLIB generated
element vertex 565
property float x
property float y
property float z
property float nx
property float ny
property float nz
property uchar red
property uchar green
property uchar blue
property uchar alpha
element face 0
property list uchar int vertex_indices
end_header
-0.0300931 0.260242 4.46416 0 0 0 128 128 0 255
0.0155439 0.83965 4.4324 0 0 0 128 128 0 255
0.00219584 0.844491 4.40005 0 0 0 128 128 0 255
-0.000894189 0.808654 4.40153 0 0 0 128 128 0 255
-0.035657 0.405491 4.41814 0 0 0 128 128 0 255
-0.0189259 0.610522 4.40685 0 0 0 128 128 0 255
-0.00215623 0.835369 4.38897 0 0 0 128 128 0 255
-0.00235489 0.848225 4.38362 0 0 0 128 128 0 255
-0.0412377 0.397279 4.40219 0 0 0 128 128 0 255
-0.0226903 0.615267 4.39224 0 0 0 128 128 0 255
-0.0507203 0.31149 4.39697 0 0 0 128 128 0 255
-0.0531148 0.28855 4.39596 0 0 0 128 128 0 255
-0.0588668 0.253296 4.38164 0 0 0 128 128 0 255
-0.0410628 0.461319 4.37208 0 0 0 128 128 0 255
-0.0527363 0.325936 4.37766 0 0 0 128 128 0 255
-0.0308078 0.581741 4.36613 0 0 0 128 128 0 255
-0.0414921 0.459269 4.37018 0 0 0 128 128 0 255
-0.00877225 0.841467 4.35245 0 0 0 128 128 0 255
-0.0408742 0.469163 4.36778 0 0 0 128 128 0 255
-0.0422132 0.456159 4.36633 0 0 0 128 128 0 255
-0.0113577 0.817416 4.34846 0 0 0 128 128 0 255
-0.0390822 0.495881 4.36171 0 0 0 128 128 0 255
-0.0516222 0.352467 4.36562 0 0 0 128 128 0 255
-0.0497315 0.375329 4.36368 0 0 0 128 128 0 255
-0.0442204 0.440961 4.35898 0 0 0 128 128 0 255
-0.0473963 0.404129 4.3605 0 0 0 128 128 0 255
-0.0390353 0.502609 4.35445 0 0 0 128 128 0 255
-0.044357 0.440891 4.35699 0 0 0 128 128 0 255
-0.0355168 0.545306 4.34969 0 0 0 128 128 0 255
-0.0433277 0.454719 4.35342 0 0 0 128 128 0 255
-0.049422 0.384041 4.35633 0 0 0 128 128 0 255
-0.0290866 0.620887 4.34458 0 0 0 128 128 0 255
-0.0389119 0.507366 4.34825 0 0 0 128 128 0 255
-0.0401994 0.492435 4.34887 0 0 0 128 128 0 255
-0.0518506 0.358808 4.34837 0 0 0 128 128 0 255
-0.0504075 0.375609 4.34468 0 0 0 128 128 0 255
-0.0519525 0.357691 4.34541 0 0 0 128 128 0 255
-0.010827 0.834435 4.32377 0 0 0 128 128 0 255
-0.0462481 0.423223 4.33871 0 0 0 128 128 0 255
-0.0546845 0.323458 4.33782 0 0 0 128 128 0 255
-0.00896637 0.851915 4.31305 0 0 0 128 128 0 255
-0.0538022 0.331241 4.3335 0 0 0 128 128 0 255
-0.0380347 0.513365 4.325 0 0 0 128 128 0 255
-0.0394081 0.497437 4.32565 0 0 0 128 128 0 255
-0.0091304 0.847794 4.31022 0 0 0 128 128 0 255
-0.0351381 0.546168 4.32265 0 0 0 128 128 0 255
-0.0415757 0.471509 4.32572 0 0 0 128 128 0 255
-0.0345547 0.552094 4.32141 0 0 0 128 128 0 255
-0.0386878 0.503269 4.32242 0 0 0 128 128 0 255
-0.0537946 0.328067 4.32964 0 0 0 128 128 0 255
-0.0447092 0.4315 4.32338 0 0 0 128 128 0 255
-0.0539752 0.321902 4.3259 0 0 0 128 128 0 255
-0.0307913 0.589633 4.31388 0 0 0 128 128 0 255
-0.0318943 0.575647 4.31346 0 0 0 128 128 0 255
-0.030847 0.586547 4.31201 0 0 0 128 128 0 255
-0.0384388 0.495859 4.31376 0 0 0 128 128 0 255
-0.0298804 0.589227 4.30594 0 0 0 128 128 0 255
-0.0341283 0.53327 4.30428 0 0 0 128 128 0 255
-0.0264413 0.618772 4.29878 0 0 0 128 128 0 255
-0.0276679 0.598699 4.29664 0 0 0 128 128 0 255
-0.0444055 0.404583 4.30464 0 0 0 128 128 0 255
-0.0251652 0.621428 4.29275 0 0 0 128 128 0 255
-0.0319541 0.533599 4.29244 0 0 0 128 128 0 255
-0.0467175 0.362379 4.2995 0 0 0 128 128 0 255
-0.0251087 0.608144 4.28741 0 0 0 128 128 0 255
-0.0260142 0.595144 4.28697 0 0 0 128 128 0 255
-0.0158304 0.705464 4.2795 0 0 0 128 128 0 255
-0.0389073 0.381811 4.27546 0 0 0 128 128 0 255
-0.0467449 0.264879 4.27363 0 0 0 128 128 0 255
-0.0279591 0.478836 4.26387 0 0 0 128 128 0 255
0.04546 1.30161 4.22341 0 0 0 128 128 0 255
-0.0378849 0.33501 4.26323 0 0 0 128 128 0 255
-0.0056237 0.668849 4.24115 0 0 0 128 128 0 255
-0.00213884 0.675307 4.23451 0 0 0 128 128 0 255
0.0145309 0.84822 4.22378 0 0 0 128 128 0 255
-0.0160004 0.434263 4.23108 0 0 0 128 128 0 255
-0.0168131 0.383941 4.22709 0 0 0 128 128 0 255
0.0238693 0.849739 4.20704 0 0 0 128 128 0 255
0.0309087 0.842632 4.19555 0 0 0 128 128 0 255
0.0132269 0.637566 4.204 0 0 0 128 128 0 255
-0.00377685 0.364884 4.20632 0 0 0 128 128 0 255
0.00493138 0.437213 4.20018 0 0 0 128 128 0 255
0.0238225 0.627003 4.18924 0 0 0 128 128 0 255
0.0100541 0.351939 4.18927 0 0 0 128 128 0 255
0.063352 0.96207 4.16341 0 0 0 128 128 0 255
0.00798897 0.319995 4.18986 0 0 0 128 128 0 255
0.0325357 0.596646 4.17773 0 0 0 128 128 0 255
0.0349765 0.584254 4.17465 0 0 0 128 128 0 255
0.0657219 0.932577 4.1596 0 0 0 128 128 0 255
0.0144789 0.338284 4.18408 0 0 0 128 128 0 255
0.0350132 0.568147 4.1739 0 0 0 128 128 0 255
0.0144988 0.330231 4.1837 0 0 0 128 128 0 255
0.0132971 0.316294 4.18428 0 0 0 128 128 0 255
0.0316287 0.512221 4.17481 0 0 0 128 128 0 255
0.0141475 0.301092 4.18281 0 0 0 128 128 0 255
0.0467965 0.671315 4.16686 0 0 0 128 128 0 255
0.0299221 0.467154 4.17458 0 0 0 128 128 0 255
0.0330502 0.494936 4.17275 0 0 0 128 128 0 255
0.0324095 0.461813 4.17207 0 0 0 128 128 0 255
0.0320662 0.457831 4.17224 0 0 0 128 128 0 255
0.0450769 0.600092 4.1657 0 0 0 128 128 0 255
0.0449052 0.598101 4.16579 0 0 0 128 128 0 255
0.0113667 0.191768 4.18119 0 0 0 128 128 0 255
0.0117685 0.187695 4.18069 0 0 0 128 128 0 255
0.0145932 0.176286 4.17789 0 0 0 128 128 0 255
0.0468566 0.54153 4.1622 0 0 0 128 128 0 255
0.0490808 0.55836 4.16086 0 0 0 128 128 0 255
0.0421283 0.477728 4.16418 0 0 0 128 128 0 255
0.0537112 0.603064 4.15838 0 0 0 128 128 0 255
0.0537995 0.576904 4.15757 0 0 0 128 128 0 255
0.0533703 0.571927 4.15777 0 0 0 128 128 0 255
0.0513371 0.52088 4.15801 0 0 0 128 128 0 255
0.0510081 0.507846 4.15794 0 0 0 128 128 0 255
0.0504073 0.500877 4.15822 0 0 0 128 128 0 255
0.0665695 0.641767 4.1494 0 0 0 128 128 0 255
0.0635954 0.597873 4.15062 0 0 0 128 128 0 255
0.0543253 0.490363 4.15505 0 0 0 128 128 0 255
0.0587355 0.532079 4.15274 0 0 0 128 128 0 255
0.0311827 0.212535 4.1659 0 0 0 128 128 0 255
0.0554231 0.484203 4.15412 0 0 0 128 128 0 255
0.0224147 0.0918962 4.1697 0 0 0 128 128 0 255
0.0357231 0.20799 4.16263 0 0 0 128 128 0 255
0.0652676 0.502177 4.14772 0 0 0 128 128 0 255
0.0738565 0.562523 4.14307 0 0 0 128 128 0 255
0.0788945 0.601157 4.14042 0 0 0 128 128 0 255
0.131832 1.18521 4.1148 0 0 0 128 128 0 255
0.0771526 0.54105 4.14082 0 0 0 128 128 0 255
0.0723459 0.485304 4.14312 0 0 0 128 128 0 255
0.110541 0.918237 4.12477 0 0 0 128 128 0 255
0.0782678 0.543942 4.14019 0 0 0 128 128 0 255
0.116727 0.969811 4.12164 0 0 0 128 128 0 255
0.0775863 0.515879 4.14034 0 0 0 128 128 0 255
0.115635 0.926722 4.12193 0 0 0 128 128 0 255
0.081571 0.521472 4.13814 0 0 0 128 128 0 255
0.0492115 0.146182 4.1536 0 0 0 128 128 0 255
0.0873362 0.578119 4.13532 0 0 0 128 128 0 255
0.0853318 0.524079 4.13613 0 0 0 128 128 0 255
0.083186 0.499192 4.13715 0 0 0 128 128 0 255
0.0537616 0.116553 4.15107 0 0 0 128 128 0 255
0.0972568 0.600159 4.13024 0 0 0 128 128 0 255
0.0566573 0.129304 4.14964 0 0 0 128 128 0 255
0.0559557 0.100245 4.14995 0 0 0 128 128 0 255
0.153284 1.18691 4.10347 0 0 0 128 128 0 255
0.0967766 0.499756 4.13053 0 0 0 128 128 0 255
0.0963474 0.494779 4.13073 0 0 0 128 128 0 255
0.139852 0.96734 4.11005 0 0 0 128 128 0 255
0.138793 0.944349 4.1106 0 0 0 128 128 0 255
0.137993 0.924345 4.11103 0 0 0 128 128 0 255
0.101978 0.485155 4.12835 0 0 0 128 128 0 255
0.109125 0.535639 4.12514 0 0 0 128 128 0 255
0.101623 0.426943 4.12889 0 0 0 128 128 0 255
0.117917 0.605036 4.12119 0 0 0 128 128 0 255
0.116605 0.568015 4.12201 0 0 0 128 128 0 255
0.151272 0.959138 4.10555 0 0 0 128 128 0 255
0.118569 0.579866 4.12117 0 0 0 128 128 0 255
0.11711 0.562943 4.12187 0 0 0 128 128 0 255
0.120442 0.579676 4.12049 0 0 0 128 128 0 255
0.118124 0.552799 4.1216 0 0 0 128 128 0 255
0.107052 0.424384 4.12689 0 0 0 128 128 0 255
0.126788 0.642296 4.11758 0 0 0 128 128 0 255
0.108673 0.421208 4.12635 0 0 0 128 128 0 255
0.158024 0.960467 4.10317 0 0 0 128 128 0 255
0.10927 0.395043 4.12646 0 0 0 128 128 0 255
0.157856 0.936387 4.10354 0 0 0 128 128 0 255
0.141895 0.740186 4.11131 0 0 0 128 128 0 255
0.123613 0.528152 4.12005 0 0 0 128 128 0 255
0.114772 0.425619 4.12427 0 0 0 128 128 0 255
0.140098 0.708237 4.11233 0 0 0 128 128 0 255
0.113661 0.401634 4.12496 0 0 0 128 128 0 255
0.113146 0.395661 4.1252 0 0 0 128 128 0 255
0.112202 0.384711 4.12565 0 0 0 128 128 0 255
0.158817 0.914204 4.10354 0 0 0 128 128 0 255
0.134726 0.601346 4.11556 0 0 0 128 128 0 255
0.117988 0.40723 4.12356 0 0 0 128 128 0 255
0.134737 0.590302 4.11573 0 0 0 128 128 0 255
0.16515 0.920609 4.10157 0 0 0 128 128 0 255
0.148069 0.722511 4.10974 0 0 0 128 128 0 255
0.150333 0.726306 4.10905 0 0 0 128 128 0 255
0.124429 0.414632 4.12162 0 0 0 128 128 0 255
0.152687 0.731096 4.10833 0 0 0 128 128 0 255
0.152429 0.72811 4.10845 0 0 0 128 128 0 255
0.173822 0.964937 4.09845 0 0 0 128 128 0 255
0.172706 0.951996 4.09898 0 0 0 128 128 0 255
0.152964 0.723039 4.10841 0 0 0 128 128 0 255
0.127643 0.429377 4.12051 0 0 0 128 128 0 255
0.126699 0.418427 4.12096 0 0 0 128 128 0 255
0.15485 0.665647 4.10913 0 0 0 128 128 0 255
0.133248 0.403747 4.1197 0 0 0 128 128 0 255
0.132905 0.399765 4.11986 0 0 0 128 128 0 255
0.147354 0.55596 4.11321 0 0 0 128 128 0 255
0.173641 0.792328 4.10228 0 0 0 128 128 0 255
0.168834 0.736581 4.10458 0 0 0 128 128 0 255
0.166688 0.711695 4.1056 0 0 0 128 128 0 255
0.170586 0.745449 4.10403 0 0 0 128 128 0 255
0.144442 0.43079 4.11681 0 0 0 128 128 0 255
0.144565 0.420744 4.11705 0 0 0 128 128 0 255
0.159623 0.583908 4.11016 0 0 0 128 128 0 255
0.158851 0.574949 4.11053 0 0 0 128 128 0 255
0.189703 0.92128 4.09609 0 0 0 128 128 0 255
0.158155 0.543907 4.11147 0 0 0 128 128 0 255
0.145366 0.395583 4.11759 0 0 0 128 128 0 255
0.163602 0.59558 4.10919 0 0 0 128 128 0 255
0.214971 1.17983 4.08497 0 0 0 128 128 0 255
0.166218 0.614403 4.10826 0 0 0 128 128 0 255
0.150551 0.421192 4.11607 0 0 0 128 128 0 255
0.183553 0.792409 4.10063 0 0 0 128 128 0 255
0.163382 0.558475 4.11027 0 0 0 128 128 0 255
0.157287 0.487797 4.11318 0 0 0 128 128 0 255
0.160763 0.516575 4.11185 0 0 0 128 128 0 255
0.198744 0.94553 4.09404 0 0 0 128 128 0 255
0.151278 0.395037 4.11672 0 0 0 128 128 0 255
0.161622 0.503453 4.11212 0 0 0 128 128 0 255
0.165185 0.533226 4.11077 0 0 0 128 128 0 255
0.197548 0.885441 4.09602 0 0 0 128 128 0 255
0.156348 0.407617 4.1157 0 0 0 128 128 0 255
0.203773 0.946074 4.0934 0 0 0 128 128 0 255
0.165194 0.487075 4.1122 0 0 0 128 128 0 255
0.227775 1.18969 4.08305 0 0 0 128 128 0 255
0.226831 1.17874 4.0835 0 0 0 128 128 0 255
0.208462 0.965714 4.09227 0 0 0 128 128 0 255
0.167863 0.494859 4.11167 0 0 0 128 128 0 255
0.22808 1.18164 4.08328 0 0 0 128 128 0 255
0.16173 0.412146 4.11498 0 0 0 128 128 0 255
0.174309 0.546445 4.10936 0 0 0 128 128 0 255
0.221566 1.08291 4.08717 0 0 0 128 128 0 255
0.175179 0.533326 4.10972 0 0 0 128 128 0 255
0.221235 1.05586 4.08812 0 0 0 128 128 0 255
0.181127 0.555867 4.1085 0 0 0 128 128 0 255
0.186156 0.602566 4.10651 0 0 0 128 128 0 255
0.198652 0.73587 4.10096 0 0 0 128 128 0 255
0.197021 0.716957 4.10174 0 0 0 128 128 0 255
0.168524 0.386462 4.11536 0 0 0 128 128 0 255
0.237929 1.17976 4.08262 0 0 0 128 128 0 255
0.200419 0.744742 4.10054 0 0 0 128 128 0 255
0.173999 0.415068 4.11403 0 0 0 128 128 0 255
0.207182 0.78828 4.09861 0 0 0 128 128 0 255
0.175423 0.419957 4.11378 0 0 0 128 128 0 255
0.173106 0.39308 4.11489 0 0 0 128 128 0 255
0.189294 0.56919 4.1076 0 0 0 128 128 0 255
0.186977 0.542313 4.10871 0 0 0 128 128 0 255
0.165089 0.288469 4.11916 0 0 0 128 128 0 255
0.243335 1.1843 4.08223 0 0 0 128 128 0 255
0.203423 0.721409 4.1013 0 0 0 128 128 0 255
0.192779 0.597971 4.10638 0 0 0 128 128 0 255
0.178187 0.428742 4.11335 0 0 0 128 128 0 255
0.181347 0.430473 4.11321 0 0 0 128 128 0 255
0.178171 0.393641 4.11473 0 0 0 128 128 0 255
0.215132 0.810655 4.09753 0 0 0 128 128 0 255
0.196576 0.560535 4.10782 0 0 0 128 128 0 255
0.193744 0.527684 4.10917 0 0 0 128 128 0 255
0.167736 0.226058 4.1216 0 0 0 128 128 0 255
0.200491 0.594295 4.10643 0 0 0 128 128 0 255
0.196852 0.540454 4.10866 0 0 0 128 128 0 255
0.191445 0.47774 4.11124 0 0 0 128 128 0 255
0.185865 0.413035 4.1139 0 0 0 128 128 0 255
0.185007 0.40308 4.11432 0 0 0 128 128 0 255
0.16784 0.203987 4.12252 0 0 0 128 128 0 255
0.229693 0.909687 4.09346 0 0 0 128 128 0 255
0.195755 0.504447 4.11017 0 0 0 128 128 0 255
0.255461 1.18526 4.08214 0 0 0 128 128 0 255
0.217403 0.732239 4.10083 0 0 0 128 128 0 255
0.23445 0.918306 4.09319 0 0 0 128 128 0 255
0.237505 0.942113 4.09224 0 0 0 128 128 0 255
0.208408 0.604651 4.10614 0 0 0 128 128 0 255
0.22142 0.743932 4.10044 0 0 0 128 128 0 255
0.214983 0.669272 4.10352 0 0 0 128 128 0 255
0.241728 0.967827 4.09126 0 0 0 128 128 0 255
0.252938 1.0862 4.08643 0 0 0 128 128 0 255
0.221917 0.714812 4.10178 0 0 0 128 128 0 255
0.179686 0.225043 4.12196 0 0 0 128 128 0 255
0.263425 1.18459 4.08248 0 0 0 128 128 0 255
0.242911 0.946672 4.09228 0 0 0 128 128 0 255
0.199357 0.429942 4.11363 0 0 0 128 128 0 255
0.246702 0.96741 4.09155 0 0 0 128 128 0 255
0.213742 0.585152 4.1073 0 0 0 128 128 0 255
0.228176 0.729329 4.1015 0 0 0 128 128 0 255
0.218832 0.597763 4.10708 0 0 0 128 128 0 255
0.211622 0.514144 4.11052 0 0 0 128 128 0 255
0.201493 0.396679 4.11536 0 0 0 128 128 0 255
0.21373 0.527003 4.11008 0 0 0 128 128 0 255
0.202486 0.396597 4.11545 0 0 0 128 128 0 255
0.219796 0.562595 4.10889 0 0 0 128 128 0 255
0.273232 1.17074 4.08394 0 0 0 128 128 0 255
0.274909 1.17863 4.08373 0 0 0 128 128 0 255
0.278565 1.18635 4.08376 0 0 0 128 128 0 255
0.235562 0.68762 4.1043 0 0 0 128 128 0 255
0.278609 1.17532 4.08433 0 0 0 128 128 0 255
0.245048 0.786092 4.10037 0 0 0 128 128 0 255
0.242473 0.756228 4.1016 0 0 0 128 128 0 255
0.220715 0.49235 4.1126 0 0 0 128 128 0 255
0.216381 0.430551 4.11528 0 0 0 128 128 0 255
0.229985 0.576805 4.10939 0 0 0 128 128 0 255
0.216509 0.420517 4.11583 0 0 0 128 128 0 255
0.263159 0.950026 4.09416 0 0 0 128 128 0 255
0.215779 0.400529 4.11679 0 0 0 128 128 0 255
0.242858 0.703071 4.10448 0 0 0 128 128 0 255
0.233543 0.583537 4.10955 0 0 0 128 128 0 255
0.265513 0.942822 4.0949 0 0 0 128 128 0 255
0.230751 0.539658 4.11151 0 0 0 128 128 0 255
0.221223 0.429162 4.11606 0 0 0 128 128 0 255
0.267098 0.949712 4.09478 0 0 0 128 128 0 255
0.269283 0.96357 4.09437 0 0 0 128 128 0 255
0.233747 0.551448 4.11135 0 0 0 128 128 0 255
0.235244 0.557343 4.11127 0 0 0 128 128 0 255
0.233945 0.519361 4.11319 0 0 0 128 128 0 255
0.292176 1.18326 4.08602 0 0 0 128 128 0 255
0.233723 0.505347 4.11394 0 0 0 128 128 0 255
0.233415 0.490338 4.11475 0 0 0 128 128 0 255
0.273791 0.947181 4.09612 0 0 0 128 128 0 255
0.271474 0.920303 4.09722 0 0 0 128 128 0 255
0.227355 0.408634 4.1183 0 0 0 128 128 0 255
0.229792 0.425481 4.1178 0 0 0 128 128 0 255
0.23506 0.475178 4.11595 0 0 0 128 128 0 255
0.231798 0.43735 4.11751 0 0 0 128 128 0 255
0.247023 0.602522 4.11091 0 0 0 128 128 0 255
0.244362 0.571662 4.11218 0 0 0 128 128 0 255
0.232633 0.424258 4.11846 0 0 0 128 128 0 255
0.247542 0.574423 4.1127 0 0 0 128 128 0 255
0.245451 0.527487 4.11507 0 0 0 128 128 0 255
0.215666 0.182061 4.1293 0 0 0 128 128 0 255
0.249082 0.558272 4.11403 0 0 0 128 128 0 255
0.237237 0.420898 4.11969 0 0 0 128 128 0 255
0.253399 0.597022 4.11267 0 0 0 128 128 0 255
0.249622 0.553221 4.11447 0 0 0 128 128 0 255
0.246875 0.521366 4.11578 0 0 0 128 128 0 255
0.245674 0.50743 4.11636 0 0 0 128 128 0 255
0.25265 0.577039 4.11372 0 0 0 128 128 0 255
0.306942 1.18413 4.0892 0 0 0 128 128 0 255
0.306599 1.18014 4.08936 0 0 0 128 128 0 255
0.246858 0.4873 4.11791 0 0 0 128 128 0 255
0.250504 0.507064 4.11759 0 0 0 128 128 0 255
0.253956 0.53586 4.11666 0 0 0 128 128 0 255
0.261801 0.604404 4.11437 0 0 0 128 128 0 255
0.256565 0.54368 4.11687 0 0 0 128 128 0 255
0.24369 0.394361 4.12302 0 0 0 128 128 0 255
0.253834 0.500804 4.11891 0 0 0 128 128 0 255
0.262959 0.584281 4.11602 0 0 0 128 128 0 255
0.25429 0.483739 4.12016 0 0 0 128 128 0 255
0.29267 0.917691 4.10257 0 0 0 128 128 0 255
0.260178 0.48531 4.12185 0 0 0 128 128 0 255
0.270396 0.592751 4.11773 0 0 0 128 128 0 255
0.269455 0.570782 4.11895 0 0 0 128 128 0 255
0.302846 0.947 4.10377 0 0 0 128 128 0 255
0.302245 0.940031 4.10405 0 0 0 128 128 0 255
0.268941 0.542773 4.12074 0 0 0 128 128 0 255
0.26542 0.490941 4.1232 0 0 0 128 128 0 255
0.30636 0.95476 4.10442 0 0 0 128 128 0 255
0.263353 0.445014 4.12575 0 0 0 128 128 0 255
0.274842 0.556373 4.12184 0 0 0 128 128 0 255
0.273202 0.526443 4.12342 0 0 0 128 128 0 255
0.278771 0.580132 4.12155 0 0 0 128 128 0 255
0.275681 0.544295 4.12303 0 0 0 128 128 0 255
0.280648 0.591016 4.12146 0 0 0 128 128 0 255
0.304685 0.815667 4.11403 0 0 0 128 128 0 255
0.287989 0.600519 4.12365 0 0 0 128 128 0 255
0.254435 0.179248 4.14217 0 0 0 128 128 0 255
0.29998 0.601711 4.12892 0 0 0 128 128 0 255
0.299453 0.574715 4.13091 0 0 0 128 128 0 255
0.29293 0.49906 4.13402 0 0 0 128 128 0 255
0.297942 0.546784 4.1325 0 0 0 128 128 0 255
0.285153 0.39846 4.13861 0 0 0 128 128 0 255
0.302953 0.594508 4.13098 0 0 0 128 128 0 255
0.334999 0.955804 4.11655 0 0 0 128 128 0 255
0.28822 0.413276 4.1389 0 0 0 128 128 0 255
0.289021 0.412222 4.1394 0 0 0 128 128 0 255
0.305527 0.59334 4.1324 0 0 0 128 128 0 255
0.297311 0.487764 4.13721 0 0 0 128 128 0 255
0.288642 0.387222 4.14136 0 0 0 128 128 0 255
0.301454 0.525535 4.13613 0 0 0 128 128 0 255
0.303191 0.535433 4.13619 0 0 0 128 128 0 255
0.300273 0.501587 4.13759 0 0 0 128 128 0 255
0.289457 0.376159 4.14275 0 0 0 128 128 0 255
0.306728 0.566237 4.1354 0 0 0 128 128 0 255
0.290849 0.382076 4.14298 0 0 0 128 128 0 255
0.296544 0.427756 4.14207 0 0 0 128 128 0 255
0.271567 0.138076 4.154 0 0 0 128 128 0 255
0.312092 0.597926 4.13554 0 0 0 128 128 0 255
0.342659 0.942302 4.12185 0 0 0 128 128 0 255
0.306094 0.518234 4.13932 0 0 0 128 128 0 255
0.298111 0.425656 4.14313 0 0 0 128 128 0 255
0.299063 0.426597 4.14359 0 0 0 128 128 0 255
0.297175 0.404697 4.14449 0 0 0 128 128 0 255
0.296746 0.39972 4.14469 0 0 0 128 128 0 255
0.304905 0.48428 4.14171 0 0 0 128 128 0 255
0.312291 0.539867 4.14094 0 0 0 128 128 0 255
0.31203 0.526873 4.14198 0 0 0 128 128 0 255
0.316909 0.563602 4.14151 0 0 0 128 128 0 255
0.304378 0.418264 4.1475 0 0 0 128 128 0 255
0.319389 0.582464 4.14126 0 0 0 128 128 0 255
0.316556 0.549614 4.14261 0 0 0 128 128 0 255
0.312522 0.502827 4.14454 0 0 0 128 128 0 255
0.317231 0.547572 4.14322 0 0 0 128 128 0 255
0.373437 1.1896 4.11731 0 0 0 128 128 0 255
0.304152 0.37625 4.15135 0 0 0 128 128 0 255
0.279175 0.0865701 4.16328 0 0 0 128 128 0 255
0.322072 0.574298 4.14373 0 0 0 128 128 0 255
0.314262 0.483711 4.14746 0 0 0 128 128 0 255
0.310313 0.437919 4.14935 0 0 0 128 128 0 255
0.331235 0.670808 4.1403 0 0 0 128 128 0 255
0.308723 0.399993 4.152 0 0 0 128 128 0 255
0.35642 0.943467 4.13016 0 0 0 128 128 0 255
0.286895 0.137141 4.16338 0 0 0 128 128 0 255
0.312219 0.382781 4.15607 0 0 0 128 128 0 255
0.32883 0.5659 4.1491 0 0 0 128 128 0 255
0.334663 0.614585 4.14825 0 0 0 128 128 0 255
0.295781 0.163639 4.16682 0 0 0 128 128 0 255
0.319937 0.43436 4.15625 0 0 0 128 128 0 255
0.335937 0.610512 4.14958 0 0 0 128 128 0 255
0.334736 0.596576 4.15016 0 0 0 128 128 0 255
0.364896 0.93698 4.13672 0 0 0 128 128 0 255
0.339433 0.632323 4.14987 0 0 0 128 128 0 255
0.298662 0.159477 4.16935 0 0 0 128 128 0 255
0.34152 0.64721 4.14985 0 0 0 128 128 0 255
0.334396 0.564587 4.15326 0 0 0 128 128 0 255
0.324439 0.449113 4.15801 0 0 0 128 128 0 255
0.321778 0.418253 4.15928 0 0 0 128 128 0 255
0.331759 0.524724 4.1555 0 0 0 128 128 0 255
0.339678 0.607304 4.1527 0 0 0 128 128 0 255
0.298821 0.133463 4.17222 0 0 0 128 128 0 255
0.330599 0.492783 4.15803 0 0 0 128 128 0 255
0.325208 0.421066 4.16159 0 0 0 128 128 0 255
0.32435 0.411112 4.162 0 0 0 128 128 0 255
0.371486 0.94862 4.14047 0 0 0 128 128 0 255
0.333376 0.506634 4.15868 0 0 0 128 128 0 255
0.329353 0.450846 4.1616 0 0 0 128 128 0 255
0.34155 0.583201 4.15677 0 0 0 128 128 0 255
0.307051 0.174024 4.17425 0 0 0 128 128 0 255
0.334435 0.482577 4.16216 0 0 0 128 128 0 255
0.345077 0.588015 4.15909 0 0 0 128 128 0 255
0.341373 0.527213 4.16287 0 0 0 128 128 0 255
0.338444 0.484369 4.16528 0 0 0 128 128 0 255
0.30341 0.069221 4.18303 0 0 0 128 128 0 255
0.349487 0.594788 4.16203 0 0 0 128 128 0 255
0.340694 0.449265 4.17133 0 0 0 128 128 0 255
0.316145 0.164562 4.18306 0 0 0 128 128 0 255
0.319255 0.166411 4.18569 0 0 0 128 128 0 255
0.345633 0.44703 4.17619 0 0 0 128 128 0 255
0.344578 0.418095 4.17877 0 0 0 128 128 0 255
0.343873 0.385148 4.18224 0 0 0 128 128 0 255
0.334517 0.276643 4.18671 0 0 0 128 128 0 255
0.348953 0.435886 4.18086 0 0 0 128 128 0 255
0.350876 0.425809 4.18414 0 0 0 128 128 0 255
0.33268 0.206778 4.19389 0 0 0 128 128 0 255
0.373106 0.667649 4.17563 0 0 0 128 128 0 255
0.390954 0.866714 4.16816 0 0 0 128 128 0 255
0.352758 0.423732 4.18641 0 0 0 128 128 0 255
0.352749 0.41574 4.18747 0 0 0 128 128 0 255
0.391072 0.836739 4.17235 0 0 0 128 128 0 255
0.356223 0.43258 4.189 0 0 0 128 128 0 255
0.355708 0.426607 4.18924 0 0 0 128 128 0 255
0.361319 0.453356 4.19189 0 0 0 128 128 0 255
0.332479 0.11888 4.20567 0 0 0 128 128 0 255
0.383215 0.655272 4.18895 0 0 0 128 128 0 255
0.341157 0.167494 4.20905 0 0 0 128 128 0 255
0.349561 0.236096 4.20935 0 0 0 128 128 0 255
0.338757 0.103679 4.2156 0 0 0 128 128 0 255
0.404852 0.835251 4.18945 0 0 0 128 128 0 255
0.391281 0.670981 4.19702 0 0 0 128 128 0 255
0.350888 0.182157 4.21959 0 0 0 128 128 0 255
0.380419 0.504641 4.20876 0 0 0 128 128 0 255
0.351636 0.151207 4.2258 0 0 0 128 128 0 255
0.410129 0.823133 4.19895 0 0 0 128 128 0 255
0.3754 0.352155 4.22765 0 0 0 128 128 0 255
0.380786 0.396926 4.22839 0 0 0 128 128 0 255
0.391853 0.43767 4.24081 0 0 0 128 128 0 255
0.37563 0.249527 4.24856 0 0 0 128 128 0 255
0.362069 0.0922435 4.25504 0 0 0 128 128 0 255
0.425861 0.816941 4.22789 0 0 0 128 128 0 255
0.394157 0.429709 4.24747 0 0 0 128 128 0 255
0.385488 0.329167 4.25161 0 0 0 128 128 0 255
0.401414 0.504373 4.24622 0 0 0 128 128 0 255
0.399586 0.478494 4.2482 0 0 0 128 128 0 255
0.363621 0.0613943 4.26538 0 0 0 128 128 0 255
0.430714 0.834874 4.23443 0 0 0 128 128 0 255
0.365566 0.079316 4.26556 0 0 0 128 128 0 255
0.388371 0.330186 4.25798 0 0 0 128 128 0 255
0.43253 0.837878 4.23799 0 0 0 128 128 0 255
0.396222 0.416796 4.25534 0 0 0 128 128 0 255
0.37545 0.175894 4.26526 0 0 0 128 128 0 255
0.392342 0.363052 4.25941 0 0 0 128 128 0 255
0.36788 0.0793445 4.27109 0 0 0 128 128 0 255
0.377288 0.179899 4.26881 0 0 0 128 128 0 255
0.374713 0.150036 4.27004 0 0 0 128 128 0 255
0.367932 0.0713938 4.27328 0 0 0 128 128 0 255
0.474129 1.29881 4.22365 0 0 0 128 128 0 255
0.370355 0.0952919 4.27323 0 0 0 128 128 0 255
0.424982 0.716486 4.25044 0 0 0 128 128 0 255
0.427519 0.722517 4.25584 0 0 0 128 128 0 255
0.444494 0.915648 4.24884 0 0 0 128 128 0 255
0.372712 0.0794691 4.28423 0 0 0 128 128 0 255
0.39325 0.310441 4.27662 0 0 0 128 128 0 255
0.455401 1.02422 4.24912 0 0 0 128 128 0 255
0.381498 0.16712 4.28443 0 0 0 128 128 0 255
0.396044 0.332381 4.27857 0 0 0 128 128 0 255
0.437024 0.804246 4.26009 0 0 0 128 128 0 255
0.409728 0.487688 4.27313 0 0 0 128 128 0 255
0.374211 0.0626846 4.29448 0 0 0 128 128 0 255
0.450209 0.928824 4.26362 0 0 0 128 128 0 255
0.40549 0.410186 4.28499 0 0 0 128 128 0 255
0.41381 0.503778 4.2821 0 0 0 128 128 0 255
0.405827 0.4112 4.28591 0 0 0 128 128 0 255
0.390806 0.236994 4.29309 0 0 0 128 128 0 255
0.411826 0.477915 4.28413 0 0 0 128 128 0 255
0.43061 0.692954 4.27625 0 0 0 128 128 0 255
0.385506 0.164401 4.29996 0 0 0 128 128 0 255
0.413891 0.490934 4.28749 0 0 0 128 128 0 255
0.413805 0.489939 4.28753 0 0 0 128 128 0 255
0.413002 0.478014 4.28899 0 0 0 128 128 0 255
0.411937 0.463103 4.29058 0 0 0 128 128 0 255
0.378633 0.0768621 4.30649 0 0 0 128 128 0 255
0.432899 0.694161 4.28596 0 0 0 128 128 0 255
0.411637 0.445318 4.29719 0 0 0 128 128 0 255
0.399277 0.301971 4.30309 0 0 0 128 128 0 255
0.453545 0.929138 4.27824 0 0 0 128 128 0 255
0.451657 0.907238 4.27914 0 0 0 128 128 0 255
0.451429 0.900319 4.28139 0 0 0 128 128 0 255
0.412718 0.451364 4.29989 0 0 0 128 128 0 255
0.387826 0.162679 4.31178 0 0 0 128 128 0 255
0.452358 0.899479 4.28735 0 0 0 128 128 0 255
0.39029 0.172902 4.32124 0 0 0 128 128 0 255
0.43845 0.725503 4.30244 0 0 0 128 128 0 255
0.419824 0.509487 4.31134 0 0 0 128 128 0 255
0.488323 1.29998 4.28176 0 0 0 128 128 0 255
0.464719 1.02623 4.29303 0 0 0 128 128 0 255
0.466497 1.04132 4.29739 0 0 0 128 128 0 255
0.415425 0.448057 4.32283 0 0 0 128 128 0 255
0.408558 0.36842 4.32611 0 0 0 128 128 0 255
0.424423 0.550659 4.3206 0 0 0 128 128 0 255
0.392498 0.177501 4.33997 0 0 0 128 128 0 255
0.439419 0.721061 4.31857 0 0 0 128 128 0 255
0.458009 0.936118 4.31071 0 0 0 128 128 0 255
0.434663 0.665352 4.32187 0 0 0 128 128 0 255
0.416552 0.455309 4.33052 0 0 0 128 128 0 255
0.421946 0.516183 4.33201 0 0 0 128 128 0 255
0.412676 0.408673 4.33644 0 0 0 128 128 0 255
0.465665 1.02291 4.31214 0 0 0 128 128 0 255
0.40772 0.350178 4.34485 0 0 0 128 128 0 255
0.408323 0.357187 4.34557 0 0 0 128 128 0 255
0.463593 0.99835 4.32116 0 0 0 128 128 0 255
0.468733 1.05812 4.31969 0 0 0 128 128 0 255
0.406231 0.333463 4.35055 0 0 0 128 128 0 255
0.403432 0.303907 4.35877 0 0 0 128 128 0 255
0.413371 0.420467 4.35596 0 0 0 128 128 0 255
0.421897 0.52006 4.35286 0 0 0 128 128 0 255
0.406403 0.341965 4.36219 0 0 0 128 128 0 255
0.466416 1.03884 4.33449 0 0 0 128 128 0 255
0.424958 0.558028 4.35429 0 0 0 128 128 0 255
0.464011 1.01723 4.34136 0 0 0 128 128 0 255
0.46055 0.986724 4.34957 0 0 0 128 128 0 255
0.421324 0.531796 4.36831 0 0 0 128 128 0 255
0.43399 0.685308 4.36596 0 0 0 128 128 0 255
0.437017 0.722194 4.36543 0 0 0 128 128 0 255
0.475178 1.17441 4.35173 0 0 0 128 128 0 255
0.47492 1.17142 4.35186 0 0 0 128 128 0 255
0.470744 1.14102 4.36097 0 0 0 128 128 0 255
0.471308 1.15003 4.36158 0 0 0 128 128 0 255
0.458255 1.03535 4.37893 0 0 0 128 128 0 255
0.476999 1.29394 4.37977 0 0 0 128 128 0 255
0.45185 1.00227 4.39178 0 0 0 128 128 0 255
0.471094 1.27791 4.39265 0 0 0 128 128 0 255
0.441335 1.01335 4.41911 0 0 0 128 128 0 255
0.439573 1.06916 4.42921 0 0 0 128 128 0 255
0.431785 0.984627 4.43356 0 0 0 128 128 0 255
0.43133 1.00891 4.43688 0 0 0 128 128 0 255
0.409209 1.06545 4.47067 0 0 0 128 128 0 255
