ply
format ascii 1.0
comment VCGLIB generated
element vertex 604
property float x
property float y
property float z
property float nx
property float ny
property float nz
property uchar red
property uchar green
property uchar blue
property uchar alpha
element face 0
property list uchar int vertex_indices
end_header
1.62184 0.758727 3.76523 0 0 0 128 0 0 255
1.60548 0.742417 3.6989 0 0 0 128 0 0 255
1.60559 0.759165 3.66296 0 0 0 128 0 0 255
1.59726 0.747961 3.65642 0 0 0 128 0 0 255
1.59592 0.788835 3.60137 0 0 0 128 0 0 255
1.47387 0.624147 3.63386 0 0 0 128 0 0 255
1.44677 0.606616 3.63441 0 0 0 128 0 0 255
1.56636 0.805771 3.53963 0 0 0 128 0 0 255
1.56491 0.811732 3.53406 0 0 0 128 0 0 255
1.56434 0.80879 3.53503 0 0 0 128 0 0 255
1.41004 0.591121 3.62571 0 0 0 128 0 0 255
1.52243 0.727369 3.54561 0 0 0 128 0 0 255
1.40275 0.588451 3.62432 0 0 0 128 0 0 255
1.52897 0.964332 3.45982 0 0 0 128 0 0 255
1.52743 0.960955 3.45831 0 0 0 128 0 0 255
1.50151 0.732008 3.51828 0 0 0 128 0 0 255
1.45837 0.653826 3.56161 0 0 0 128 0 0 255
1.47555 1.13224 3.46797 0 0 0 128 0 0 255
1.42334 0.627023 3.56882 0 0 0 128 0 0 255
1.48849 0.858603 3.44001 0 0 0 128 0 0 255
1.48431 0.746378 3.4911 0 0 0 128 0 0 255
1.41091 0.616538 3.57541 0 0 0 128 0 0 255
1.48218 0.746385 3.48931 0 0 0 128 0 0 255
1.47799 0.916104 3.42194 0 0 0 128 0 0 255
1.48156 0.747643 3.48788 0 0 0 128 0 0 255
1.47583 0.91748 3.42038 0 0 0 128 0 0 255
1.48351 0.856389 3.43706 0 0 0 128 0 0 255
1.41576 0.624523 3.56638 0 0 0 128 0 0 255
1.4232 0.633344 3.55901 0 0 0 128 0 0 255
1.4305 1.26549 3.55874 0 0 0 128 0 0 255
1.42289 0.636552 3.55407 0 0 0 128 0 0 255
1.42208 1.29671 3.60444 0 0 0 128 0 0 255
1.45855 0.847005 3.4234 0 0 0 128 0 0 255
1.4207 0.93272 3.389 0 0 0 128 0 0 255
1.39183 1.02878 3.38425 0 0 0 128 0 0 255
1.36239 1.16008 3.42458 0 0 0 128 0 0 255
1.34874 1.23116 3.47342 0 0 0 128 0 0 255
1.35878 1.1172 3.40119 0 0 0 128 0 0 255
1.43664 0.781297 3.43682 0 0 0 128 0 0 255
1.35532 1.13148 3.40682 0 0 0 128 0 0 255
1.43352 0.778731 3.43637 0 0 0 128 0 0 255
1.43381 0.774389 3.4388 0 0 0 128 0 0 255
1.35378 1.09586 3.39096 0 0 0 128 0 0 255
1.39717 0.640764 3.5301 0 0 0 128 0 0 255
1.42734 0.803009 3.42173 0 0 0 128 0 0 255
1.36588 1.0314 3.37598 0 0 0 128 0 0 255
1.3334 1.19252 3.43721 0 0 0 128 0 0 255
1.32995 1.16885 3.42061 0 0 0 128 0 0 255
1.37977 0.951503 3.37243 0 0 0 128 0 0 255
1.42124 0.772216 3.43317 0 0 0 128 0 0 255
1.31822 1.20093 3.43973 0 0 0 128 0 0 255
1.39683 0.879959 3.3851 0 0 0 128 0 0 255
1.32702 1.12606 3.39696 0 0 0 128 0 0 255
1.42039 0.762294 3.43815 0 0 0 128 0 0 255
1.31579 1.19394 3.43411 0 0 0 128 0 0 255
1.31605 1.19064 3.43183 0 0 0 128 0 0 255
1.3895 0.89676 3.37962 0 0 0 128 0 0 255
1.32211 1.1267 3.39623 0 0 0 128 0 0 255
1.31993 1.13331 3.39893 0 0 0 128 0 0 255
1.38752 0.878281 3.38191 0 0 0 128 0 0 255
1.41011 0.78223 3.42264 0 0 0 128 0 0 255
1.40898 0.785476 3.42057 0 0 0 128 0 0 255
1.39914 0.817183 3.40308 0 0 0 128 0 0 255
1.40041 0.811947 3.40555 0 0 0 128 0 0 255
1.39578 0.814474 3.40269 0 0 0 128 0 0 255
1.30396 1.10295 3.38294 0 0 0 128 0 0 255
1.37247 0.881557 3.37619 0 0 0 128 0 0 255
1.31839 1.02808 3.36398 0 0 0 128 0 0 255
1.39241 0.8039 3.40542 0 0 0 128 0 0 255
1.2924 1.09836 3.37965 0 0 0 128 0 0 255
1.39372 0.682785 3.48256 0 0 0 128 0 0 255
1.39464 0.69039 3.47618 0 0 0 128 0 0 255
1.35631 0.890688 3.36991 0 0 0 128 0 0 255
1.38731 0.789777 3.40938 0 0 0 128 0 0 255
1.3422 0.922015 3.36283 0 0 0 128 0 0 255
1.29188 1.06991 3.37013 0 0 0 128 0 0 255
1.29324 1.06498 3.36887 0 0 0 128 0 0 255
1.38611 0.789323 3.40912 0 0 0 128 0 0 255
1.37322 0.643726 3.51319 0 0 0 128 0 0 255
1.37218 0.642768 3.51381 0 0 0 128 0 0 255
1.37815 0.813264 3.39648 0 0 0 128 0 0 255
1.29193 1.05929 3.36717 0 0 0 128 0 0 255
1.34155 0.909868 3.36374 0 0 0 128 0 0 255
1.37637 0.651903 3.50532 0 0 0 128 0 0 255
1.37806 0.796938 3.40284 0 0 0 128 0 0 255
1.35592 0.860735 3.37547 0 0 0 128 0 0 255
1.27071 1.10714 3.38104 0 0 0 128 0 0 255
1.28384 1.05699 3.36573 0 0 0 128 0 0 255
1.38022 0.781356 3.41053 0 0 0 128 0 0 255
1.34204 0.884136 3.3673 0 0 0 128 0 0 255
1.36601 0.819546 3.3902 0 0 0 128 0 0 255
1.37279 0.798411 3.40039 0 0 0 128 0 0 255
1.36433 0.639758 3.5137 0 0 0 128 0 0 255
1.27661 1.06516 3.36731 0 0 0 128 0 0 255
1.2716 1.07979 3.37133 0 0 0 128 0 0 255
1.28481 1.03154 3.36007 0 0 0 128 0 0 255
1.38268 0.689398 3.47133 0 0 0 128 0 0 255
1.35604 0.830586 3.38361 0 0 0 128 0 0 255
1.36207 0.81372 3.39104 0 0 0 128 0 0 255
1.36852 0.791772 3.40175 0 0 0 128 0 0 255
1.36692 0.794666 3.4 0 0 0 128 0 0 255
1.37892 0.681597 3.47657 0 0 0 128 0 0 255
1.36567 0.794164 3.3998 0 0 0 128 0 0 255
1.27747 1.02413 3.35808 0 0 0 128 0 0 255
1.32703 0.893594 3.36258 0 0 0 128 0 0 255
1.27321 1.0342 3.35966 0 0 0 128 0 0 255
1.25487 1.09072 3.37425 0 0 0 128 0 0 255
1.36111 0.799343 3.39624 0 0 0 128 0 0 255
1.2522 1.09735 3.37657 0 0 0 128 0 0 255
1.24375 1.13061 3.39036 0 0 0 128 0 0 255
1.25311 1.0898 3.37389 0 0 0 128 0 0 255
1.32634 0.884604 3.36381 0 0 0 128 0 0 255
1.33892 0.621644 3.52601 0 0 0 128 0 0 255
1.23843 1.11779 3.38469 0 0 0 128 0 0 255
1.23945 1.11319 3.38274 0 0 0 128 0 0 255
1.24954 1.06983 3.36748 0 0 0 128 0 0 255
1.26691 1.01478 3.35588 0 0 0 128 0 0 255
1.3623 0.766694 3.41151 0 0 0 128 0 0 255
1.35041 0.79839 3.39351 0 0 0 128 0 0 255
1.35088 0.637738 3.51036 0 0 0 128 0 0 255
1.34607 0.797937 3.39252 0 0 0 128 0 0 255
1.35701 0.761841 3.41235 0 0 0 128 0 0 255
1.36474 0.6764 3.47532 0 0 0 128 0 0 255
1.33786 0.810878 3.38551 0 0 0 128 0 0 255
1.30403 0.882469 3.36039 0 0 0 128 0 0 255
1.35098 0.770044 3.40637 0 0 0 128 0 0 255
1.35317 0.649545 3.49777 0 0 0 128 0 0 255
1.34504 0.636733 3.50929 0 0 0 128 0 0 255
1.35257 0.760845 3.41153 0 0 0 128 0 0 255
1.35758 0.665549 3.48285 0 0 0 128 0 0 255
1.34014 0.787812 3.39523 0 0 0 128 0 0 255
1.35318 0.749805 3.41776 0 0 0 128 0 0 255
1.33977 0.784897 3.39642 0 0 0 128 0 0 255
1.28664 0.902567 3.35546 0 0 0 128 0 0 255
1.29038 0.892199 3.35719 0 0 0 128 0 0 255
1.26867 0.936872 3.35148 0 0 0 128 0 0 255
1.34902 0.651065 3.49454 0 0 0 128 0 0 255
1.26291 0.948127 3.35096 0 0 0 128 0 0 255
1.35788 0.697631 3.45454 0 0 0 128 0 0 255
1.34523 0.755914 3.41207 0 0 0 128 0 0 255
1.34366 0.644119 3.50023 0 0 0 128 0 0 255
1.35074 0.726964 3.43097 0 0 0 128 0 0 255
1.34172 0.642912 3.5009 0 0 0 128 0 0 255
1.26112 0.936186 3.35116 0 0 0 128 0 0 255
1.34348 0.647429 3.49649 0 0 0 128 0 0 255
1.23437 0.99723 3.35322 0 0 0 128 0 0 255
1.32921 0.784467 3.39413 0 0 0 128 0 0 255
1.25701 0.934306 3.3511 0 0 0 128 0 0 255
1.33278 0.770264 3.40152 0 0 0 128 0 0 255
1.32272 0.623368 3.51826 0 0 0 128 0 0 255
1.32163 0.623126 3.51824 0 0 0 128 0 0 255
1.27988 0.870411 3.35988 0 0 0 128 0 0 255
1.31135 0.805977 3.38194 0 0 0 128 0 0 255
1.31977 0.623272 3.51751 0 0 0 128 0 0 255
1.3217 0.781821 3.39372 0 0 0 128 0 0 255
1.2764 0.873663 3.35898 0 0 0 128 0 0 255
1.32429 0.774147 3.39778 0 0 0 128 0 0 255
1.32478 0.773004 3.39843 0 0 0 128 0 0 255
1.32438 0.772149 3.39875 0 0 0 128 0 0 255
1.33424 0.745425 3.41506 0 0 0 128 0 0 255
1.27393 0.870892 3.35934 0 0 0 128 0 0 255
1.32977 0.637077 3.50364 0 0 0 128 0 0 255
1.27043 0.874087 3.3585 0 0 0 128 0 0 255
1.20694 1.01974 3.35792 0 0 0 128 0 0 255
1.30804 0.796985 3.38486 0 0 0 128 0 0 255
1.31339 0.7841 3.39114 0 0 0 128 0 0 255
1.27102 0.86323 3.36071 0 0 0 128 0 0 255
1.34121 0.676596 3.46679 0 0 0 128 0 0 255
1.33748 0.666149 3.47531 0 0 0 128 0 0 255
1.22958 0.935165 3.35122 0 0 0 128 0 0 255
1.22194 0.947849 3.35128 0 0 0 128 0 0 255
1.22452 0.941966 3.35124 0 0 0 128 0 0 255
1.22037 0.946767 3.35138 0 0 0 128 0 0 255
1.29593 0.79363 3.38445 0 0 0 128 0 0 255
1.28189 0.818588 3.3737 0 0 0 128 0 0 255
1.32094 0.636109 3.50217 0 0 0 128 0 0 255
1.29303 0.794131 3.38388 0 0 0 128 0 0 255
1.29122 0.792533 3.38432 0 0 0 128 0 0 255
1.30934 0.75352 3.40533 0 0 0 128 0 0 255
1.23946 0.880729 3.35662 0 0 0 128 0 0 255
1.29023 0.786082 3.3869 0 0 0 128 0 0 255
1.29355 0.779859 3.39003 0 0 0 128 0 0 255
1.22119 0.915803 3.35283 0 0 0 128 0 0 255
1.32638 0.657371 3.48068 0 0 0 128 0 0 255
1.1938 0.970724 3.35422 0 0 0 128 0 0 255
1.25505 0.843525 3.36475 0 0 0 128 0 0 255
1.19401 0.967733 3.35407 0 0 0 128 0 0 255
1.25512 0.84159 3.36527 0 0 0 128 0 0 255
1.27144 0.811983 3.37515 0 0 0 128 0 0 255
1.24155 0.865035 3.35957 0 0 0 128 0 0 255
1.28214 0.791031 3.38398 0 0 0 128 0 0 255
1.30491 0.746292 3.40857 0 0 0 128 0 0 255
1.31718 0.641075 3.4955 0 0 0 128 0 0 255
1.27906 0.786741 3.3855 0 0 0 128 0 0 255
1.19472 0.946699 3.3537 0 0 0 128 0 0 255
1.27327 0.792042 3.38283 0 0 0 128 0 0 255
1.28857 0.764913 3.39648 0 0 0 128 0 0 255
1.29966 0.744 3.40905 0 0 0 128 0 0 255
1.17292 0.99222 3.35888 0 0 0 128 0 0 255
1.17353 0.985281 3.35816 0 0 0 128 0 0 255
1.26435 0.799305 3.37942 0 0 0 128 0 0 255
1.17264 0.977102 3.35773 0 0 0 128 0 0 255
1.17065 0.971764 3.35779 0 0 0 128 0 0 255
1.19261 0.917289 3.35534 0 0 0 128 0 0 255
1.26625 0.781532 3.38685 0 0 0 128 0 0 255
1.2778 0.762028 3.39684 0 0 0 128 0 0 255
1.28781 0.620643 3.51366 0 0 0 128 0 0 255
1.16891 0.963413 3.35779 0 0 0 128 0 0 255
1.23074 0.838503 3.36628 0 0 0 128 0 0 255
1.25281 0.800747 3.37849 0 0 0 128 0 0 255
1.26253 0.784554 3.38536 0 0 0 128 0 0 255
1.22338 0.849748 3.36365 0 0 0 128 0 0 255
1.30708 0.641988 3.49209 0 0 0 128 0 0 255
1.18808 0.913697 3.35625 0 0 0 128 0 0 255
1.31109 0.654838 3.47943 0 0 0 128 0 0 255
1.22728 0.837373 3.36673 0 0 0 128 0 0 255
1.24162 0.811135 3.37463 0 0 0 128 0 0 255
1.29557 0.717606 3.4248 0 0 0 128 0 0 255
1.14136 1.01386 3.36842 0 0 0 128 0 0 255
1.24652 0.798033 3.37947 0 0 0 128 0 0 255
1.27205 0.756426 3.39927 0 0 0 128 0 0 255
1.224 0.832362 3.36834 0 0 0 128 0 0 255
1.22616 0.828651 3.36934 0 0 0 128 0 0 255
1.27105 0.752065 3.4015 0 0 0 128 0 0 255
1.23063 0.810797 3.37501 0 0 0 128 0 0 255
1.23356 0.804335 3.37725 0 0 0 128 0 0 255
1.30314 0.64868 3.48408 0 0 0 128 0 0 255
1.16768 0.923679 3.35879 0 0 0 128 0 0 255
1.25213 0.773126 3.39016 0 0 0 128 0 0 255
1.23 0.805111 3.37709 0 0 0 128 0 0 255
1.2572 0.762122 3.3956 0 0 0 128 0 0 255
1.30048 0.647356 3.48496 0 0 0 128 0 0 255
1.23025 0.794831 3.38103 0 0 0 128 0 0 255
1.21407 0.8124 3.37542 0 0 0 128 0 0 255
1.11878 0.999686 3.37295 0 0 0 128 0 0 255
1.22017 0.78945 3.38376 0 0 0 128 0 0 255
1.18553 0.844388 3.36886 0 0 0 128 0 0 255
1.20907 0.805185 3.37845 0 0 0 128 0 0 255
1.12519 0.96661 3.3684 0 0 0 128 0 0 255
1.19879 0.820097 3.37431 0 0 0 128 0 0 255
1.20988 0.800545 3.38012 0 0 0 128 0 0 255
1.12369 0.965201 3.36879 0 0 0 128 0 0 255
1.1352 0.933122 3.36569 0 0 0 128 0 0 255
1.2649 0.714622 3.42377 0 0 0 128 0 0 255
1.27092 0.705329 3.43065 0 0 0 128 0 0 255
1.18648 0.831746 3.37228 0 0 0 128 0 0 255
1.213 0.7859 3.38579 0 0 0 128 0 0 255
1.27452 0.695354 3.43833 0 0 0 128 0 0 255
1.20737 0.787976 3.38542 0 0 0 128 0 0 255
1.25798 0.715308 3.423 0 0 0 128 0 0 255
1.10828 0.978471 3.37444 0 0 0 128 0 0 255
1.12519 0.93464 3.36847 0 0 0 128 0 0 255
1.26421 0.702231 3.43246 0 0 0 128 0 0 255
1.10801 0.966013 3.37389 0 0 0 128 0 0 255
1.19775 0.791196 3.38515 0 0 0 128 0 0 255
1.19999 0.787789 3.3863 0 0 0 128 0 0 255
1.2573 0.702991 3.4316 0 0 0 128 0 0 255
1.28161 0.655493 3.47374 0 0 0 128 0 0 255
1.1144 0.935708 3.3718 0 0 0 128 0 0 255
1.1809 0.809116 3.38063 0 0 0 128 0 0 255
1.10572 0.953908 3.37443 0 0 0 128 0 0 255
1.20397 0.770679 3.39354 0 0 0 128 0 0 255
1.20243 0.771344 3.39339 0 0 0 128 0 0 255
1.10936 0.933116 3.37359 0 0 0 128 0 0 255
1.18075 0.797397 3.3851 0 0 0 128 0 0 255
1.1572 0.834215 3.37696 0 0 0 128 0 0 255
1.17927 0.798027 3.3851 0 0 0 128 0 0 255
1.20104 0.76553 3.39637 0 0 0 128 0 0 255
1.17644 0.797355 3.38586 0 0 0 128 0 0 255
1.18593 0.781226 3.39108 0 0 0 128 0 0 255
1.24584 0.700253 3.43341 0 0 0 128 0 0 255
1.19567 0.760744 3.39945 0 0 0 128 0 0 255
1.27036 0.657846 3.4703 0 0 0 128 0 0 255
1.09635 0.937234 3.37809 0 0 0 128 0 0 255
1.1011 0.926208 3.37688 0 0 0 128 0 0 255
1.16762 0.800984 3.38611 0 0 0 128 0 0 255
1.15423 0.819221 3.3824 0 0 0 128 0 0 255
1.17474 0.783269 3.39208 0 0 0 128 0 0 255
1.17272 0.78467 3.39185 0 0 0 128 0 0 255
1.21991 0.719665 3.42082 0 0 0 128 0 0 255
1.15578 0.809576 3.38543 0 0 0 128 0 0 255
1.233 0.702089 3.4323 0 0 0 128 0 0 255
1.26651 0.654408 3.47338 0 0 0 128 0 0 255
1.1876 0.755084 3.40356 0 0 0 128 0 0 255
1.24974 0.676687 3.45219 0 0 0 128 0 0 255
1.09142 0.922756 3.38079 0 0 0 128 0 0 255
1.08855 0.927012 3.38163 0 0 0 128 0 0 255
1.15297 0.803644 3.38832 0 0 0 128 0 0 255
1.14753 0.80898 3.38766 0 0 0 128 0 0 255
1.17498 0.761989 3.40216 0 0 0 128 0 0 255
1.15287 0.793485 3.3924 0 0 0 128 0 0 255
1.17407 0.761709 3.40248 0 0 0 128 0 0 255
1.21581 0.706986 3.42983 0 0 0 128 0 0 255
1.23545 0.683953 3.44625 0 0 0 128 0 0 255
1.16648 0.763131 3.40329 0 0 0 128 0 0 255
1.23205 0.680411 3.4493 0 0 0 128 0 0 255
1.20861 0.706162 3.43112 0 0 0 128 0 0 255
1.16087 0.768109 3.40204 0 0 0 128 0 0 255
1.17746 0.741584 3.41283 0 0 0 128 0 0 255
1.12877 0.813538 3.39124 0 0 0 128 0 0 255
1.15109 0.774553 3.40127 0 0 0 128 0 0 255
1.14919 0.767652 3.40513 0 0 0 128 0 0 255
1.23461 0.660835 3.46664 0 0 0 128 0 0 255
1.17184 0.732684 3.41929 0 0 0 128 0 0 255
1.16182 0.731282 3.4224 0 0 0 128 0 0 255
1.05201 0.922084 3.3987 0 0 0 128 0 0 255
1.16133 0.728997 3.42396 0 0 0 128 0 0 255
1.21408 0.66622 3.46303 0 0 0 128 0 0 255
1.07074 0.87802 3.39556 0 0 0 128 0 0 255
1.19677 0.683862 3.44983 0 0 0 128 0 0 255
1.22181 0.654654 3.47336 0 0 0 128 0 0 255
1.07672 0.859767 3.39684 0 0 0 128 0 0 255
1.21018 0.664154 3.46536 0 0 0 128 0 0 255
1.16581 0.71166 3.43454 0 0 0 128 0 0 255
1.22085 0.64538 3.48291 0 0 0 128 0 0 255
1.22594 0.639843 3.48846 0 0 0 128 0 0 255
1.20957 0.653017 3.47622 0 0 0 128 0 0 255
1.13671 0.734674 3.42722 0 0 0 128 0 0 255
1.20745 0.650771 3.47876 0 0 0 128 0 0 255
1.0818 0.818222 3.40716 0 0 0 128 0 0 255
1.20086 0.652984 3.47744 0 0 0 128 0 0 255
1.08671 0.8026 3.41104 0 0 0 128 0 0 255
1.09174 0.794038 3.41249 0 0 0 128 0 0 255
0.975631 1.20684 3.57161 0 0 0 128 0 0 255
1.07088 0.829158 3.40839 0 0 0 128 0 0 255
1.17831 0.669731 3.46553 0 0 0 128 0 0 255
0.972505 1.20446 3.57282 0 0 0 128 0 0 255
1.07418 0.815948 3.41151 0 0 0 128 0 0 255
1.08629 0.788193 3.41749 0 0 0 128 0 0 255
1.06484 0.81704 3.41567 0 0 0 128 0 0 255
1.19912 0.640241 3.49115 0 0 0 128 0 0 255
0.963396 1.19148 3.56951 0 0 0 128 0 0 255
1.07725 0.780561 3.42532 0 0 0 128 0 0 255
1.07829 0.77885 3.42567 0 0 0 128 0 0 255
1.20116 0.632909 3.49912 0 0 0 128 0 0 255
1.18901 0.639997 3.49328 0 0 0 128 0 0 255
1.20507 0.629575 3.50243 0 0 0 128 0 0 255
1.07477 0.779915 3.42686 0 0 0 128 0 0 255
0.958957 1.08714 3.49374 0 0 0 128 0 0 255
1.074 0.778046 3.42817 0 0 0 128 0 0 255
1.07864 0.76899 3.43057 0 0 0 128 0 0 255
1.08558 0.756636 3.43409 0 0 0 128 0 0 255
1.1189 0.709374 3.45086 0 0 0 128 0 0 255
1.18303 0.640321 3.49419 0 0 0 128 0 0 255
1.06521 0.786366 3.42857 0 0 0 128 0 0 255
1.1142 0.713013 3.45003 0 0 0 128 0 0 255
1.12089 0.704314 3.45394 0 0 0 128 0 0 255
0.952454 1.10181 3.50836 0 0 0 128 0 0 255
1.08758 0.747823 3.43835 0 0 0 128 0 0 255
1.10077 0.724731 3.44735 0 0 0 128 0 0 255
0.947505 1.09853 3.51207 0 0 0 128 0 0 255
1.10095 0.720607 3.45018 0 0 0 128 0 0 255
1.14501 0.666482 3.47785 0 0 0 128 0 0 255
1.17806 0.637321 3.49875 0 0 0 128 0 0 255
1.13888 0.671976 3.47477 0 0 0 128 0 0 255
1.19431 0.626775 3.50764 0 0 0 128 0 0 255
1.11943 0.693188 3.46346 0 0 0 128 0 0 255
1.20846 0.620004 3.51372 0 0 0 128 0 0 255
1.15661 0.651774 3.48888 0 0 0 128 0 0 255
1.05454 0.782543 3.43626 0 0 0 128 0 0 255
0.942639 1.0952 3.51584 0 0 0 128 0 0 255
1.05343 0.782885 3.43672 0 0 0 128 0 0 255
1.10927 0.70118 3.46121 0 0 0 128 0 0 255
1.12312 0.684456 3.46944 0 0 0 128 0 0 255
1.21569 0.617006 3.51665 0 0 0 128 0 0 255
1.10691 0.703006 3.46079 0 0 0 128 0 0 255
0.938946 1.16428 3.5747 0 0 0 128 0 0 255
1.18112 0.630615 3.50586 0 0 0 128 0 0 255
1.15076 0.653062 3.48942 0 0 0 128 0 0 255
0.940031 1.18868 3.60261 0 0 0 128 0 0 255
1.14892 0.653939 3.48912 0 0 0 128 0 0 255
0.938156 1.10338 3.52604 0 0 0 128 0 0 255
1.06626 0.752126 3.4466 0 0 0 128 0 0 255
1.21566 0.614518 3.51992 0 0 0 128 0 0 255
1.06184 0.756178 3.44661 0 0 0 128 0 0 255
1.11088 0.689296 3.47041 0 0 0 128 0 0 255
1.05251 0.769549 3.44427 0 0 0 128 0 0 255
1.18712 0.623438 3.51329 0 0 0 128 0 0 255
1.21517 0.614003 3.52067 0 0 0 128 0 0 255
1.11016 0.688061 3.4718 0 0 0 128 0 0 255
1.03403 0.79481 3.44264 0 0 0 128 0 0 255
1.18477 0.622365 3.51519 0 0 0 128 0 0 255
1.13361 0.658532 3.48997 0 0 0 128 0 0 255
1.15549 0.639895 3.50232 0 0 0 128 0 0 255
1.20793 0.613685 3.52207 0 0 0 128 0 0 255
1.19152 0.618588 3.51855 0 0 0 128 0 0 255
1.06525 0.734025 3.45894 0 0 0 128 0 0 255
1.19522 0.614655 3.523 0 0 0 128 0 0 255
0.922546 1.15545 3.59222 0 0 0 128 0 0 255
1.1855 0.617139 3.52182 0 0 0 128 0 0 255
1.06424 0.725796 3.46538 0 0 0 128 0 0 255
0.917964 1.13286 3.57706 0 0 0 128 0 0 255
1.10086 0.677405 3.48595 0 0 0 128 0 0 255
1.07496 0.707038 3.47369 0 0 0 128 0 0 255
1.12014 0.656435 3.4979 0 0 0 128 0 0 255
1.09637 0.679623 3.48614 0 0 0 128 0 0 255
1.09713 0.67879 3.48654 0 0 0 128 0 0 255
1.12169 0.652173 3.50183 0 0 0 128 0 0 255
1.13956 0.637173 3.51138 0 0 0 128 0 0 255
0.987534 0.84015 3.45761 0 0 0 128 0 0 255
0.941795 0.948194 3.4794 0 0 0 128 0 0 255
1.04447 0.737408 3.46939 0 0 0 128 0 0 255
1.076 0.695615 3.48277 0 0 0 128 0 0 255
1.10288 0.666093 3.49614 0 0 0 128 0 0 255
1.18601 0.61016 3.53125 0 0 0 128 0 0 255
1.11495 0.65257 3.50457 0 0 0 128 0 0 255
0.940076 0.944191 3.48127 0 0 0 128 0 0 255
1.20415 0.604956 3.53488 0 0 0 128 0 0 255
0.941019 0.939035 3.48046 0 0 0 128 0 0 255
1.09394 0.671168 3.49571 0 0 0 128 0 0 255
0.947196 0.919033 3.47568 0 0 0 128 0 0 255
0.961666 0.876319 3.46933 0 0 0 128 0 0 255
1.19802 0.604744 3.53634 0 0 0 128 0 0 255
0.962333 0.87295 3.46956 0 0 0 128 0 0 255
0.963138 0.871079 3.4693 0 0 0 128 0 0 255
1.09318 0.667226 3.50016 0 0 0 128 0 0 255
1.18112 0.608791 3.53446 0 0 0 128 0 0 255
0.957719 0.880245 3.47211 0 0 0 128 0 0 255
1.24093 0.602467 3.53495 0 0 0 128 0 0 255
0.940672 0.922601 3.48199 0 0 0 128 0 0 255
1.22735 0.600916 3.5379 0 0 0 128 0 0 255
1.13936 0.627782 3.52316 0 0 0 128 0 0 255
1.07406 0.684227 3.4944 0 0 0 128 0 0 255
0.954073 0.881731 3.47528 0 0 0 128 0 0 255
1.2288 0.600037 3.5391 0 0 0 128 0 0 255
1.11439 0.643462 3.51534 0 0 0 128 0 0 255
1.08983 0.663825 3.50567 0 0 0 128 0 0 255
0.956287 0.867633 3.47677 0 0 0 128 0 0 255
1.12672 0.632629 3.52262 0 0 0 128 0 0 255
1.25823 0.605097 3.53142 0 0 0 128 0 0 255
1.07683 0.674678 3.50213 0 0 0 128 0 0 255
0.898988 1.14694 3.63039 0 0 0 128 0 0 255
1.15227 0.61573 3.53414 0 0 0 128 0 0 255
0.900207 1.16423 3.65406 0 0 0 128 0 0 255
1.2136 0.597599 3.54442 0 0 0 128 0 0 255
1.07967 0.667275 3.5081 0 0 0 128 0 0 255
1.25047 0.600784 3.53743 0 0 0 128 0 0 255
0.948092 0.867846 3.48493 0 0 0 128 0 0 255
0.952579 0.855969 3.48403 0 0 0 128 0 0 255
1.08215 0.66205 3.51224 0 0 0 128 0 0 255
0.944741 0.872323 3.48714 0 0 0 128 0 0 255
1.10041 0.645292 3.5207 0 0 0 128 0 0 255
1.07401 0.667166 3.51184 0 0 0 128 0 0 255
1.05962 0.681372 3.50667 0 0 0 128 0 0 255
1.09898 0.64301 3.52433 0 0 0 128 0 0 255
0.991466 0.768242 3.4896 0 0 0 128 0 0 255
1.2252 0.59395 3.5488 0 0 0 128 0 0 255
1.13364 0.617435 3.53981 0 0 0 128 0 0 255
1.2516 0.597525 3.54238 0 0 0 128 0 0 255
0.951659 0.836324 3.49223 0 0 0 128 0 0 255
1.05962 0.67389 3.51447 0 0 0 128 0 0 255
1.20432 0.593072 3.55311 0 0 0 128 0 0 255
0.926953 0.886782 3.50321 0 0 0 128 0 0 255
0.9236 0.893701 3.50562 0 0 0 128 0 0 255
1.21503 0.591895 3.55328 0 0 0 128 0 0 255
1.15434 0.604482 3.54991 0 0 0 128 0 0 255
1.10553 0.629484 3.53806 0 0 0 128 0 0 255
1.06027 0.665063 3.52379 0 0 0 128 0 0 255
0.924883 0.875163 3.50875 0 0 0 128 0 0 255
1.06688 0.657588 3.52769 0 0 0 128 0 0 255
1.08617 0.641209 3.53465 0 0 0 128 0 0 255
1.12656 0.614594 3.54752 0 0 0 128 0 0 255
1.12641 0.613537 3.54919 0 0 0 128 0 0 255
0.976278 0.766888 3.5049 0 0 0 128 0 0 255
1.06814 0.654072 3.53103 0 0 0 128 0 0 255
1.07933 0.644557 3.53499 0 0 0 128 0 0 255
0.961486 0.790861 3.50472 0 0 0 128 0 0 255
0.953864 0.803528 3.50561 0 0 0 128 0 0 255
1.10154 0.626716 3.54436 0 0 0 128 0 0 255
0.903354 0.917518 3.52754 0 0 0 128 0 0 255
0.957359 0.794672 3.50687 0 0 0 128 0 0 255
1.13813 0.605713 3.55528 0 0 0 128 0 0 255
1.11718 0.615522 3.55131 0 0 0 128 0 0 255
1.04516 0.670265 3.52962 0 0 0 128 0 0 255
1.04702 0.667147 3.53172 0 0 0 128 0 0 255
1.0847 0.634853 3.54418 0 0 0 128 0 0 255
0.962086 0.777249 3.51269 0 0 0 128 0 0 255
0.954648 0.788988 3.5133 0 0 0 128 0 0 255
1.11688 0.613429 3.55469 0 0 0 128 0 0 255
0.952465 0.790578 3.51477 0 0 0 128 0 0 255
1.08038 0.635213 3.54677 0 0 0 128 0 0 255
1.08268 0.633522 3.54747 0 0 0 128 0 0 255
1.11756 0.610181 3.55938 0 0 0 128 0 0 255
1.12047 0.608693 3.56004 0 0 0 128 0 0 255
1.18439 0.586573 3.569 0 0 0 128 0 0 255
0.910646 0.864992 3.5304 0 0 0 128 0 0 255
1.04803 0.6579 3.54218 0 0 0 128 0 0 255
0.950074 0.782602 3.5227 0 0 0 128 0 0 255
0.950628 0.781646 3.52269 0 0 0 128 0 0 255
0.86352 1.09277 3.66011 0 0 0 128 0 0 255
0.863625 1.10197 3.67225 0 0 0 128 0 0 255
1.0556 0.64906 3.54729 0 0 0 128 0 0 255
0.938327 0.796953 3.52761 0 0 0 128 0 0 255
1.10135 0.615143 3.56186 0 0 0 128 0 0 255
0.861181 1.09126 3.66633 0 0 0 128 0 0 255
1.05772 0.644271 3.55202 0 0 0 128 0 0 255
0.938679 0.790867 3.5311 0 0 0 128 0 0 255
1.11596 0.604929 3.569 0 0 0 128 0 0 255
0.955556 0.754964 3.53685 0 0 0 128 0 0 255
1.16788 0.584725 3.57812 0 0 0 128 0 0 255
1.05267 0.642647 3.55873 0 0 0 128 0 0 255
0.916314 0.821247 3.54248 0 0 0 128 0 0 255
0.964709 0.733063 3.54517 0 0 0 128 0 0 255
0.853794 1.09697 3.70933 0 0 0 128 0 0 255
0.960607 0.732576 3.55079 0 0 0 128 0 0 255
0.923378 0.790706 3.55197 0 0 0 128 0 0 255
0.943428 0.756276 3.55139 0 0 0 128 0 0 255
0.913682 0.806755 3.55524 0 0 0 128 0 0 255
0.912487 0.808031 3.55622 0 0 0 128 0 0 255
0.962431 0.727054 3.55398 0 0 0 128 0 0 255
0.900506 0.831387 3.56079 0 0 0 128 0 0 255
0.952768 0.739846 3.55395 0 0 0 128 0 0 255
0.950695 0.742075 3.55459 0 0 0 128 0 0 255
0.958126 0.731492 3.55509 0 0 0 128 0 0 255
0.853646 1.10575 3.73649 0 0 0 128 0 0 255
0.962953 0.723449 3.55705 0 0 0 128 0 0 255
0.96731 0.7177 3.55754 0 0 0 128 0 0 255
0.914786 0.793803 3.56267 0 0 0 128 0 0 255
0.853235 0.954341 3.61596 0 0 0 128 0 0 255
0.850054 0.96603 3.62481 0 0 0 128 0 0 255
0.914959 0.787941 3.56691 0 0 0 128 0 0 255
0.91659 0.785041 3.56662 0 0 0 128 0 0 255
0.927918 0.765031 3.56599 0 0 0 128 0 0 255
0.937819 0.749547 3.56557 0 0 0 128 0 0 255
0.946377 0.736983 3.56566 0 0 0 128 0 0 255
0.880916 1.15306 3.84539 0 0 0 128 0 0 255
0.907385 0.79722 3.5721 0 0 0 128 0 0 255
1.03668 0.637633 3.58225 0 0 0 128 0 0 255
0.924367 0.765916 3.57072 0 0 0 128 0 0 255
1.05716 0.62126 3.58867 0 0 0 128 0 0 255
1.01793 0.65025 3.58337 0 0 0 128 0 0 255
0.864484 1.12918 3.81782 0 0 0 128 0 0 255
1.08045 0.604854 3.59661 0 0 0 128 0 0 255
1.26465 0.576423 3.57934 0 0 0 128 0 0 255
0.903448 0.791224 3.58378 0 0 0 128 0 0 255
0.93105 0.745031 3.58069 0 0 0 128 0 0 255
0.865427 0.867558 3.60863 0 0 0 128 0 0 255
0.943424 0.723632 3.58507 0 0 0 128 0 0 255
0.937799 0.730045 3.58653 0 0 0 128 0 0 255
0.933669 0.735194 3.58734 0 0 0 128 0 0 255
1.0762 0.603182 3.60407 0 0 0 128 0 0 255
1.03642 0.627832 3.59969 0 0 0 128 0 0 255
1.08033 0.59961 3.60741 0 0 0 128 0 0 255
0.935985 0.726992 3.59329 0 0 0 128 0 0 255
1.07376 0.602041 3.60895 0 0 0 128 0 0 255
0.930512 0.732756 3.5957 0 0 0 128 0 0 255
1.03461 0.625465 3.60643 0 0 0 128 0 0 255
1.03664 0.623384 3.60796 0 0 0 128 0 0 255
1.01735 0.637147 3.60672 0 0 0 128 0 0 255
0.951514 0.697108 3.60757 0 0 0 128 0 0 255
0.88614 0.789808 3.62056 0 0 0 128 0 0 255
1.02176 0.627868 3.61896 0 0 0 128 0 0 255
0.918414 0.73429 3.61695 0 0 0 128 0 0 255
0.92849 0.716442 3.62209 0 0 0 128 0 0 255
1.05023 0.604339 3.63197 0 0 0 128 0 0 255
1.04006 0.608319 3.63674 0 0 0 128 0 0 255
0.968614 0.662789 3.63693 0 0 0 128 0 0 255
1.01936 0.619553 3.64179 0 0 0 128 0 0 255
1.03784 0.607102 3.64332 0 0 0 128 0 0 255
0.977197 0.652198 3.64273 0 0 0 128 0 0 255
1.02425 0.612632 3.65146 0 0 0 128 0 0 255
0.959354 0.663963 3.65472 0 0 0 128 0 0 255
1.02157 0.61179 3.65894 0 0 0 128 0 0 255
0.83103 0.88096 3.72991 0 0 0 128 0 0 255
0.908539 0.712589 3.68386 0 0 0 128 0 0 255
0.955662 0.657929 3.68147 0 0 0 128 0 0 255
1.01991 0.606723 3.67911 0 0 0 128 0 0 255
1.04779 0.59009 3.67881 0 0 0 128 0 0 255
0.994563 0.623913 3.68195 0 0 0 128 0 0 255
0.825995 0.946965 3.82503 0 0 0 128 0 0 255
0.982677 0.631703 3.68797 0 0 0 128 0 0 255
0.908346 0.705889 3.70528 0 0 0 128 0 0 255
0.927696 0.682074 3.70234 0 0 0 128 0 0 255
1.27757 0.550954 3.64207 0 0 0 128 0 0 255
0.846707 0.975664 3.91149 0 0 0 128 0 0 255
0.831733 0.926213 3.85603 0 0 0 128 0 0 255
0.935057 0.669122 3.72312 0 0 0 128 0 0 255
0.831175 0.890242 3.83035 0 0 0 128 0 0 255
0.962227 0.642201 3.72112 0 0 0 128 0 0 255
0.836088 0.894531 3.86173 0 0 0 128 0 0 255
0.839787 0.866332 3.85589 0 0 0 128 0 0 255
0.841081 0.869959 3.86537 0 0 0 128 0 0 255
0.848848 0.900729 3.91038 0 0 0 128 0 0 255
0.844972 0.853297 3.86611 0 0 0 128 0 0 255
0.850337 0.898899 3.91395 0 0 0 128 0 0 255
0.846145 0.873049 3.88754 0 0 0 128 0 0 255
0.851936 0.853046 3.89205 0 0 0 128 0 0 255
0.855306 0.847519 3.8983 0 0 0 128 0 0 255
0.873024 0.8915 3.96404 0 0 0 128 0 0 255
1.30626 0.544604 3.67611 0 0 0 128 0 0 255
1.22289 0.531769 3.72853 0 0 0 128 0 0 255
1.23304 0.531723 3.7251 0 0 0 128 0 0 255
0.897633 0.876589 4.00158 0 0 0 128 0 0 255
0.904706 0.876477 4.01199 0 0 0 128 0 0 255
1.0682 0.568691 3.7996 0 0 0 128 0 0 255
1.06912 0.568533 3.80328 0 0 0 128 0 0 255
1.05917 0.574333 3.81452 0 0 0 128 0 0 255
0.926195 0.876186 4.04 0 0 0 128 0 0 255
1.33442 0.544348 3.70232 0 0 0 128 0 0 255
1.12885 0.548602 3.82582 0 0 0 128 0 0 255
1.36241 0.545232 3.7783 0 0 0 128 0 0 255
1.1844 0.562654 3.92758 0 0 0 128 0 0 255
1.17771 0.566442 3.93415 0 0 0 128 0 0 255
1.19207 0.568082 3.94324 0 0 0 128 0 0 255
